ply
format ascii 1.0
element vertex 1507
property float32 x
property float32 y
property float32 z
property float32 I
end_header
1.7255 -13.5214 2.4035 0.9461
3.5177 8.0201 1.5442 0.9651
-3.5067 8.4357 1.6109 0.9636
1.7227 -13.4994 2.0848 0.9464
13.9904 9.9720 2.6320 0.9328
1.4699 10.1202 1.5666 0.9595
-3.5064 8.4350 1.3994 0.9637
1.6700 -13.5302 2.0885 0.9463
1.5058 10.0750 1.5606 0.9596
1.7199 -13.4776 1.7693 0.9467
13.9686 9.9565 2.2338 0.9331
4.9831 9.0559 1.3460 0.9592
-3.5061 8.4343 1.1894 0.9638
-6.3156 9.7804 1.5161 0.9541
5.0916 9.1634 1.3651 0.9586
4.0626 9.1597 1.3048 0.9604
13.9470 9.9411 1.8392 0.9334
2.6350 11.0574 1.2206 0.9553
-2.0897 16.6484 1.8018 0.9347
-3.5058 8.4335 0.9807 0.9639
-6.3073 9.7677 1.2485 0.9543
1.6646 -13.4866 1.4592 0.9468
13.9828 9.8800 1.8385 0.9334
5.1128 9.2015 1.1304 0.9585
7.9411 17.9044 2.1032 0.9242
2.6869 11.0724 1.2235 0.9552
-2.0116 16.5791 1.7933 0.9350
1.7144 -13.4346 1.1465 0.9471
13.9255 9.9258 1.4476 0.9337
5.0240 9.1302 0.8822 0.9590
3.1508 9.3932 0.8387 0.9610
13.9614 9.8648 1.4471 0.9337
5.1143 9.2044 0.8914 0.9586
2.4749 10.1988 0.8884 0.9587
1.7476 11.6929 1.0008 0.9536
5.0238 9.1300 0.6462 0.9591
4.1053 9.3597 0.6338 0.9599
2.4331 10.2101 0.6509 0.9588
-3.5052 8.4321 0.5663 0.9641
-6.2911 9.7425 0.7191 0.9546
13.9400 9.8497 1.0584 0.9339
5.1159 9.2072 0.6532 0.9587
4.1787 9.4213 0.6391 0.9595
3.1789 9.3489 0.6123 0.9612
13.8831 9.8956 0.6723 0.9340
2.4378 10.2300 0.4147 0.9588
1.7126 11.7911 0.4698 0.9534
-3.5049 8.4314 0.3600 0.9641
13.9188 9.8348 0.6720 0.9341
4.1921 9.4517 0.4077 0.9595
3.1784 9.3475 0.3893 0.9612
1.7463 11.6842 0.4658 0.9538
1.7063 -13.3711 0.2277 0.9475
13.8620 9.8806 0.2876 0.9342
1.6237 11.1792 0.1908 0.9558
-3.5046 8.4307 0.1542 0.9641
1.6541 -13.4014 0.2281 0.9474
13.8977 9.8199 0.2875 0.9342
4.1932 9.4541 0.1747 0.9595
1.6670 11.1539 0.1905 0.9559
1.7037 -13.3502 -0.0758 0.9476
1.6234 11.1772 -0.0636 0.9558
-3.5043 8.4299 -0.0514 0.9641
1.6515 -13.3804 -0.0759 0.9475
13.8767 9.8050 -0.0956 0.9343
1.6673 11.1557 -0.0635 0.9559
-10.8284 -6.3680 -0.3537 0.9510
-9.0908 -6.5080 -0.3148 0.9562
13.8202 9.8507 -0.4779 0.9343
4.1215 9.3969 -0.2889 0.9598
3.3829 10.0851 -0.2995 0.9583
-10.9309 -6.3678 -0.3562 0.9506
-9.1085 -6.4641 -0.3145 0.9563
1.6489 -13.3594 -0.3790 0.9476
4.1953 9.4588 -0.2914 0.9594
1.6676 11.1576 -0.3177 0.9559
-8.9657 -6.4185 -0.5592 0.9568
1.6983 -13.3084 -0.6804 0.9477
8.3604 5.9591 -0.5207 0.9597
6.9859 5.9919 -0.4668 0.9638
4.1226 9.3992 -0.5205 0.9597
1.6229 11.1733 -0.5726 0.9558
-3.5038 8.4287 -0.4629 0.9641
-6.2510 9.6805 -0.5844 0.9549
-10.6685 -6.2149 -0.6262 0.9518
-8.9464 -7.6415 -0.5967 0.9540
1.6679 11.1594 -0.5722 0.9558
-8.8341 -6.3243 -0.7966 0.9574
-8.7852 -7.5666 -0.8501 0.9546
-2.7348 -11.5820 -0.8726 0.9534
6.8947 5.9136 -0.6660 0.9642
6.7367 6.9177 -0.7080 0.9620
2.4324 10.2072 -0.7694 0.9588
1.6226 11.1713 -0.8277 0.9557
-8.8396 -6.2733 -0.7948 0.9575
-2.7619 -11.4849 -0.8661 0.9537
1.6437 -13.3175 -0.9839 0.9476
6.9269 5.8918 -0.6668 0.9642
7.7609 13.9674 -1.1716 0.9379
4.2140 9.5010 -0.7621 0.9592
3.2924 9.6828 -0.7499 0.9598
2.4669 10.1661 -0.7670 0.9589
1.6612 11.1146 -0.8240 0.9559
-18.9408 3.5641 -1.8503 0.9255
-19.1661 1.8513 -1.8486 0.9255
-19.2484 0.1269 -1.8480 0.9256
-19.1871 -1.5983 -1.8484 0.9255
-18.1484 -6.6702 -1.8563 0.9252
-10.1567 -5.9730 -1.1312 0.9538
-8.7158 -6.2396 -1.0291 0.9578
-8.6836 -7.4791 -1.1003 0.9550
-12.6590 -13.0528 -1.7457 0.9295
-10.2333 -15.2612 -1.7640 0.9288
-8.8764 -16.2104 -1.7743 0.9284
-2.6880 -18.7786 -1.8212 0.9266
0.7160 -19.2253 -1.8470 0.9256
1.6930 -13.2667 -1.2840 0.9477
5.9256 -18.7352 -1.8865 0.9241
6.3362 -12.0024 -1.3030 0.9469
9.6298 5.6364 -1.0712 0.9562
8.0151 5.7130 -0.9450 0.9612
6.5472 6.7231 -0.9009 0.9630
7.4059 13.4590 -1.4748 0.9401
2.4300 10.1971 -1.0064 0.9588
1.6210 11.1602 -1.0827 0.9557
-5.6613 18.0285 -1.8142 0.9269
-3.5038 8.4286 -0.8763 0.9640
-11.2733 14.4338 -1.7583 0.9290
-12.4434 13.2830 -1.7474 0.9295
-15.3324 9.3776 -1.7255 0.9303
-18.5530 5.3314 -1.8533 0.9254
-18.9270 3.6424 -1.8504 0.9255
-19.1589 1.9304 -1.8487 0.9255
-19.1931 -1.5191 -1.8484 0.9256
-18.9952 -3.2350 -1.8499 0.9255
-18.1739 -6.5946 -1.8561 0.9253
-17.5543 -8.2168 -1.8608 0.9251
-10.2531 -5.9729 -1.1392 0.9534
-8.7260 -6.1926 -1.0273 0.9579
-8.6846 -7.4178 -1.0965 0.9551
-12.7099 -12.9976 -1.7453 0.9296
-10.2934 -15.2149 -1.7636 0.9288
-8.9407 -16.1692 -1.7738 0.9284
-7.5021 -17.0090 -1.7847 0.9280
-5.9866 -17.7260 -1.7962 0.9276
0.6365 -19.2218 -1.8464 0.9256
2.8892 -13.3906 -1.3151 0.9464
5.8465 -18.7534 -1.8859 0.9241
7.5544 -18.2789 -1.8988 0.9236
8.0803 5.7094 -0.9499 0.9610
6.8018 5.7854 -0.8573 0.9648
6.5510 6.6717 -0.8977 0.9631
2.4645 10.1560 -1.0033 0.9589
1.6609 11.1127 -1.0787 0.9559
-0.6005 19.3373 -1.8574 0.9252
-2.3127 19.0609 -1.8434 0.9257
-5.5889 18.0582 -1.8148 0.9269
-15.7099 1.5175 -1.8748 0.9384
-14.8646 -5.4632 -1.8812 0.9382
-10.1620 -5.9761 -1.4004 0.9536
-8.6429 -6.1874 -1.2626 0.9581
-8.5942 -7.4022 -1.3473 0.9553
-10.8689 -11.2071 -1.8545 0.9390
-9.3768 -11.5864 -1.7705 0.9417
-7.2247 -13.1940 -1.7868 0.9412
-2.1771 -15.2095 -1.8251 0.9400
-0.8104 -15.4305 -1.8354 0.9397
1.5976 -12.5191 -1.4992 0.9504
2.7549 -12.5175 -1.5225 0.9497
4.7669 -15.0717 -1.8777 0.9383
6.3033 -11.9399 -1.6038 0.9471
12.6264 -11.2149 -2.0060 0.9342
14.2274 -10.5171 -2.1016 0.9312
15.1633 -9.2314 -2.1087 0.9310
15.9759 -7.8588 -2.1149 0.9308
17.1968 -4.9033 -2.1241 0.9305
17.5917 -3.3478 -2.1271 0.9304
17.8364 -1.7600 -2.1290 0.9303
17.9283 -0.1552 -2.1297 0.9303
17.2847 4.6064 -2.1248 0.9305
16.0786 7.5665 -2.1108 0.9309
9.5250 5.5751 -1.3110 0.9565
7.8353 5.5849 -1.1430 0.9620
6.6301 5.6866 -1.0376 0.9654
8.9813 13.3346 -1.9097 0.9373
7.7138 14.0184 -1.9006 0.9376
4.1165 9.3853 -1.2174 0.9596
2.4296 10.1954 -1.2450 0.9587
2.2567 15.5368 -1.8649 0.9387
0.7440 13.6281 -1.6212 0.9465
-0.5456 15.5106 -1.8436 0.9394
-4.5638 14.5336 -1.8095 0.9405
-3.5037 8.4285 -1.0843 0.9639
-5.2324 9.9610 -1.3365 0.9557
-10.1566 10.8420 -1.7647 0.9419
-11.8419 8.7915 -1.7519 0.9423
-12.6320 7.7260 -1.7589 0.9421
-14.2325 7.0376 -1.8860 0.9380
-15.2004 4.3680 -1.8787 0.9383
-15.7039 1.5823 -1.8748 0.9384
-15.5678 -2.6512 -1.8759 0.9384
-15.2851 -4.0398 -1.8780 0.9383
-14.8857 -5.4014 -1.8810 0.9382
-14.3717 -6.7271 -1.8849 0.9381
-10.2595 -5.9767 -1.4104 0.9533
-8.6704 -6.1532 -1.2629 0.9581
-8.5927 -7.3394 -1.3423 0.9555
-10.9575 -11.2056 -1.8617 0.9388
-8.3875 -12.3977 -1.7780 0.9415
-7.2774 -13.1612 -1.7864 0.9412
-6.0995 -13.8289 -1.7954 0.9409
-0.8738 -15.4230 -1.8350 0.9397
1.5452 -12.5192 -1.4984 0.9505
4.7035 -15.0874 -1.8772 0.9383
9.9058 -12.7369 -1.9167 0.9371
11.0571 -11.8521 -1.9254 0.9368
15.9414 -7.9236 -2.1146 0.9308
16.6279 -6.4796 -2.1198 0.9306
17.1751 -4.9738 -2.1240 0.9305
17.5768 -3.4201 -2.1270 0.9304
17.8285 -1.8335 -2.1289 0.9304
17.6641 2.9708 -2.1277 0.9304
17.3048 4.5354 -2.1250 0.9305
7.7729 13.9890 -1.9010 0.9376
3.1679 9.3166 -1.1689 0.9611
2.4641 10.1544 -1.2412 0.9588
-0.4818 15.5170 -1.8441 0.9394
-1.8586 15.3181 -1.8329 0.9397
-13.1387 2.4723 -1.8943 0.9474
-13.2988 1.2846 -1.8931 0.9475
-13.3573 0.0881 -1.8926 0.9475
-13.3137 -1.1090 -1.8929 0.9475
-13.1685 -2.2986 -1.8940 0.9474
-12.5767 -4.6224 -1.8985 0.9473
-12.1334 -5.7405 -1.9019 0.9472
-9.4450 -9.7388 -1.9222 0.9467
-6.1451 -11.2224 -1.8129 0.9496
-5.0874 -11.6642 -1.8030 0.9499
-0.6798 -12.9433 -1.8364 0.9490
1.5864 -12.4310 -1.7756 0.9506
2.7355 -12.4293 -1.8032 0.9499
3.9838 -12.5956 -1.8718 0.9480
5.1195 -12.2441 -1.8804 0.9478
10.0082 -10.6395 -2.0697 0.9427
11.8243 -8.7407 -2.0834 0.9423
13.2633 -6.5244 -2.0943 0.9420
13.8224 -5.3208 -2.0986 0.9419
14.6389 2.5241 -2.1048 0.9418
13.9174 5.0826 -2.0993 0.9419
13.3802 6.2966 -2.0953 0.9420
9.5034 5.5625 -1.5602 0.9565
6.5885 5.6510 -1.2299 0.9655
7.4848 11.1127 -1.8984 0.9473
-2.7364 12.5569 -1.8209 0.9494
-3.8327 12.2054 -1.8126 0.9496
-3.4708 8.3494 -1.2812 0.9641
-5.2343 9.9648 -1.5948 0.9555
-5.7722 8.9390 -1.5077 0.9579
-6.9784 8.9349 -1.6063 0.9552
-8.5727 9.1512 -1.7767 0.9506
-10.3917 7.7148 -1.8338 0.9491
-12.4988 4.8409 -1.8991 0.9473
-12.8635 3.6964 -1.8964 0.9474
-13.2937 1.3394 -1.8931 0.9475
-13.3568 0.1431 -1.8926 0.9475
-13.3180 -1.0541 -1.8929 0.9475
-13.1774 -2.2442 -1.8940 0.9474
-12.5947 -4.5702 -1.8984 0.9473
-10.2649 -5.9798 -1.6832 0.9531
-8.6059 -7.3506 -1.6036 0.9553
-9.4836 -9.6983 -1.9219 0.9467
-8.6064 -10.5452 -1.9286 0.9465
-5.1344 -11.6408 -1.8027 0.9499
-2.7617 -11.4841 -1.6736 0.9534
-1.8801 -12.7591 -1.8274 0.9492
-0.7330 -12.9375 -1.8360 0.9490
1.5343 -12.4310 -1.7747 0.9507
2.6818 -12.4294 -1.8016 0.9499
5.0679 -12.2625 -1.8800 0.9478
9.9626 -10.6789 -2.0693 0.9427
11.7865 -8.7881 -2.0831 0.9423
12.5617 -7.7187 -2.0890 0.9422
13.7992 -5.3773 -2.0984 0.9419
14.2485 -4.1263 -2.1018 0.9418
14.7847 -1.5204 -2.1059 0.9417
14.8658 -0.1900 -2.1065 0.9417
14.3550 3.7623 -2.1026 0.9418
9.6453 5.5923 -1.5797 0.9560
6.6163 5.6276 -1.2307 0.9655
8.5283 10.4058 -1.9063 0.9471
6.4815 11.6649 -1.8908 0.9475
1.9366 12.9577 -1.8564 0.9484
-0.4027 12.9702 -1.8386 0.9489
-2.6852 12.5708 -1.8213 0.9494
-11.3799 2.1414 -1.9076 0.9541
-11.5326 -0.9607 -1.9064 0.9542
-11.4059 -1.9909 -1.9074 0.9541
-11.1912 -3.0072 -1.9090 0.9541
-10.8898 -4.0024 -1.9113 0.9541
-10.5035 -4.9694 -1.9142 0.9540
-8.8615 -7.6323 -1.9267 0.9537
-8.1645 -8.4185 -1.9319 0.9536
-7.3996 -9.1434 -1.9377 0.9534
-6.5720 -9.8011 -1.9440 0.9533
-5.6872 -10.3861 -1.9507 0.9531
-4.7458 -10.8811 -1.9556 0.9530
-3.7318 -11.2019 -1.9451 0.9533
-1.6060 -11.2197 -1.8672 0.9551
0.4181 -11.2273 -1.8509 0.9555
1.4325 -11.2252 -1.8642 0.9552
3.5471 -11.2150 -1.9378 0.9534
5.7659 -10.9220 -2.0346 0.9512
6.7554 -10.4145 -2.0450 0.9509
7.6877 -9.8012 -2.0521 0.9508
9.3712 -8.3236 -2.0648 0.9505
10.7606 -6.5510 -2.0754 0.9502
11.3276 -5.5723 -2.0797 0.9501
11.8016 -4.5430 -2.0833 0.9500
12.1778 -3.4722 -2.0861 0.9500
12.6224 -1.2455 -2.0895 0.9499
12.6861 -0.1098 -2.0900 0.9499
11.4267 5.3774 -2.0805 0.9501
7.8336 5.5836 -1.5848 0.9618
6.5605 5.6270 -1.4239 0.9656
5.5117 10.0166 -1.8834 0.9547
4.5749 10.4306 -1.8763 0.9549
3.1133 9.2813 -1.6127 0.9611
0.6109 11.1908 -1.8463 0.9556
-1.3844 11.0291 -1.8312 0.9559
-2.3572 10.8170 -1.8238 0.9561
-3.3037 10.5208 -1.8166 0.9563
-3.4623 8.3287 -1.4859 0.9641
-5.0898 9.6897 -1.8031 0.9566
-5.7171 8.8536 -1.7362 0.9582
-6.6918 8.5679 -1.7910 0.9569
-7.4098 7.9098 -1.7855 0.9570
-8.6371 7.7034 -1.9066 0.9542
-10.4196 5.1522 -1.9149 0.9540
-11.1398 3.2011 -1.9094 0.9541
-11.3713 2.1883 -1.9077 0.9541
-11.5363 -0.9131 -1.9064 0.9542
-11.4136 -1.9438 -1.9073 0.9541
-11.2030 -2.9609 -1.9089 0.9541
-10.5231 -4.9257 -1.9141 0.9540
-10.0580 -5.8593 -1.9176 0.9539
-9.5131 -6.7512 -1.9217 0.9538
-8.1980 -8.3837 -1.9317 0.9536
-6.6114 -9.7724 -1.9437 0.9533
-1.6532 -11.2195 -1.8682 0.9551
-0.6359 -11.2241 -1.8520 0.9554
0.3718 -11.2272 -1.8506 0.9555
1.3855 -11.2253 -1.8633 0.9552
3.4964 -11.2154 -1.9353 0.9535
4.6311 -11.2057 -1.9975 0.9520
6.7113 -10.4405 -2.0447 0.9509
9.3355 -8.3610 -2.0646 0.9505
10.7324 -6.5947 -2.0752 0.9502
11.7820 -4.5912 -2.0831 0.9500
12.6169 -1.2975 -2.0895 0.9499
12.6856 -0.1621 -2.0900 0.9499
12.5026 2.1027 -2.0886 0.9499
11.4497 5.3307 -2.0806 0.9501
7.9015 5.5830 -1.5938 0.9615
6.5961 5.6104 -1.4265 0.9655
7.2992 8.9061 -1.8970 0.9544
4.6187 10.4135 -1.8767 0.9549
3.1224 9.1827 -1.5978 0.9614
1.6638 11.1322 -1.8543 0.9554
0.6572 11.1903 -1.8467 0.9556
-3.2609 10.5362 -1.8170 0.9563
-10.0275 1.8869 -1.9179 0.9593
-10.1513 0.9805 -1.9169 0.9593
-10.1964 0.0672 -1.9166 0.9593
-10.1628 -0.8466 -1.9168 0.9593
-9.5935 -3.5259 -1.9211 0.9593
-7.7992 -6.7174 -1.9347 0.9590
-7.1834 -7.4068 -1.9394 0.9589
-4.9979 -9.1273 -1.9559 0.9585
-4.1734 -9.5688 -1.9622 0.9584
-2.4153 -10.2289 -1.9755 0.9581
-1.4945 -10.4409 -1.9825 0.9580
-0.5552 -10.5706 -1.9896 0.9578
0.3954 -10.6162 -1.9968 0.9577
2.2999 -10.4502 -2.0112 0.9574
5.0472 -9.5606 -2.0321 0.9570
7.4745 -7.9460 -2.0505 0.9566
8.1774 -7.2633 -2.0558 0.9565
8.8159 -6.5169 -2.0606 0.9564
9.3838 -5.7128 -2.0649 0.9563
10.2866 -3.9598 -2.0718 0.9561
10.6126 -3.0260 -2.0743 0.9561
10.8505 -2.0649 -2.0761 0.9560
11.0530 -0.0957 -2.0776 0.9560
11.0156 0.8947 -2.0773 0.9560
10.6656 2.8424 -2.0747 0.9561
10.3564 3.7821 -2.0723 0.9561
9.4850 5.5517 -2.0657 0.9563
6.6149 5.6736 -1.6380 0.9652
6.3208 6.4906 -1.7029 0.9638
4.8172 8.7545 -1.8782 0.9601
3.1565 9.4101 -1.8656 0.9604
0.5353 9.8051 -1.8457 0.9608
-1.2142 9.6733 -1.8325 0.9611
-4.4726 8.5146 -1.8078 0.9616
-5.2014 8.0550 -1.8022 0.9617
-6.0286 7.7187 -1.8409 0.9609
-7.0417 7.5169 -1.9360 0.9589
-7.6853 6.8546 -1.9356 0.9590
-8.2502 6.1250 -1.9313 0.9590
-9.8149 2.8204 -1.9195 0.9593
-10.0199 1.9283 -1.9179 0.9593
-10.1473 1.0224 -1.9169 0.9593
-10.1661 -0.8046 -1.9168 0.9593
-8.3753 -5.9437 -1.9304 0.9591
-5.0348 -9.1053 -1.9557 0.9585
-3.3509 -9.9219 -1.9684 0.9583
-2.4571 -10.2172 -1.9752 0.9581
1.3058 -10.5800 -2.0037 0.9575
2.2564 -10.4579 -2.0109 0.9574
3.1954 -10.2499 -2.0180 0.9572
4.1150 -9.9567 -2.0250 0.9571
8.1465 -7.2961 -2.0556 0.9565
10.8415 -2.1096 -2.0760 0.9560
10.6777 2.7985 -2.0748 0.9561
9.5086 5.5130 -2.0659 0.9563
6.6155 5.6269 -1.6324 0.9653
5.6348 8.2920 -1.8844 0.9600
4.8540 8.7359 -1.8785 0.9601
3.1958 9.3985 -1.8659 0.9604
1.5647 6.4481 -1.2472 0.9734
0.5758 9.8045 -1.8460 0.9608
-0.3037 9.7812 -1.8394 0.9610
-1.1745 9.6798 -1.8328 0.9611
-9.0653 0.8756 -1.9251 0.9634
-9.1059 0.0601 -1.9248 0.9635
-9.0757 -0.7560 -1.9251 0.9635
-8.9750 -1.5666 -1.9258 0.9634
-7.8870 -4.6382 -1.9341 0.9633
-7.4524 -5.3351 -1.9374 0.9632
-6.4069 -6.6062 -1.9453 0.9631
-5.8030 -7.1704 -1.9498 0.9630
-5.1503 -7.6808 -1.9548 0.9629
-4.4536 -8.1332 -1.9601 0.9628
-2.9478 -8.8486 -1.9715 0.9626
-1.3298 -9.2900 -1.9837 0.9624
-0.4938 -9.4017 -1.9901 0.9622
0.3515 -9.4384 -1.9965 0.9621
1.1995 -9.3992 -2.0029 0.9620
2.0431 -9.2835 -2.0093 0.9619
2.8755 -9.0916 -2.0156 0.9618
4.4785 -8.4834 -2.0278 0.9615
5.2352 -8.0708 -2.0335 0.9614
6.6255 -7.0435 -2.0440 0.9612
7.2465 -6.4364 -2.0487 0.9611
8.3113 -5.0599 -2.0568 0.9610
8.7452 -4.3019 -2.0601 0.9609
9.1075 -3.5058 -2.0629 0.9609
9.3949 -2.6788 -2.0650 0.9608
9.6044 -1.8278 -2.0666 0.9608
9.7500 0.7919 -2.0677 0.9608
9.6358 1.6614 -2.0669 0.9608
9.1690 3.3485 -2.0633 0.9609
8.8209 4.1511 -2.0607 0.9609
6.6603 5.7126 -1.8548 0.9648
5.1924 7.7091 -1.9647 0.9627
3.5507 8.0954 -1.8686 0.9645
2.8027 8.3555 -1.8629 0.9646
2.0366 8.5463 -1.8571 0.9647
0.8881 6.1143 -1.3060 0.9751
0.4759 8.7167 -1.8453 0.9649
-0.3059 8.6962 -1.8393 0.9650
-1.0803 8.6063 -1.8335 0.9652
-1.8410 8.4483 -1.8277 0.9653
-2.5825 8.2241 -1.8221 0.9654
-3.2990 7.9359 -1.8167 0.9655
-4.0555 7.7206 -1.8434 0.9650
-4.9734 7.7020 -1.9380 0.9632
-5.6797 7.2721 -1.9505 0.9630
-6.2945 6.7192 -1.9462 0.9631
-6.8560 6.1149 -1.9419 0.9631
-7.3617 5.4653 -1.9381 0.9632
-7.8080 4.7756 -1.9347 0.9633
-8.1921 4.0508 -1.9318 0.9633
-8.5113 3.2965 -1.9294 0.9634
-8.9476 1.7219 -1.9260 0.9634
-9.0618 0.9130 -1.9252 0.9634
-9.0786 -0.7186 -1.9250 0.9635
-8.9812 -1.5295 -1.9258 0.9634
-8.5777 -3.1125 -1.9288 0.9634
-6.9819 -5.9635 -1.9409 0.9632
-6.4334 -6.5791 -1.9451 0.9631
-5.8318 -7.1456 -1.9496 0.9630
-2.9839 -8.8351 -1.9712 0.9626
-0.5325 -9.3982 -1.9898 0.9622
0.3126 -9.4384 -1.9962 0.9621
1.1605 -9.4026 -2.0026 0.9620
3.6527 -8.8383 -2.0215 0.9617
4.4429 -8.5006 -2.0275 0.9615
5.2012 -8.0913 -2.0332 0.9614
8.2897 -5.0937 -2.0566 0.9610
8.7268 -4.3376 -2.0600 0.9609
9.3833 -2.7173 -2.0649 0.9608
9.5965 -1.8673 -2.0666 0.9608
9.7824 -0.1250 -2.0680 0.9608
9.7533 0.7517 -2.0678 0.9608
9.6428 1.6218 -2.0669 0.9608
9.4522 2.4773 -2.0655 0.9608
8.4214 4.8827 -2.0577 0.9610
7.9360 5.6074 -2.0540 0.9611
6.6563 5.6617 -1.8471 0.9649
6.7790 6.9039 -2.0452 0.9612
6.1076 7.4522 -2.0367 0.9614
5.2381 7.7082 -1.9700 0.9626
2.8376 8.3451 -1.8632 0.9646
1.5874 6.5415 -1.4229 0.9729
0.9163 6.1306 -1.3103 0.9750
-0.2701 8.6987 -1.8396 0.9650
-1.0449 8.6120 -1.8337 0.9652
-8.0812 1.5206 -1.9326 0.9668
-8.1817 0.7903 -1.9318 0.9668
-8.2184 0.0542 -1.9316 0.9668
-8.1911 -0.6823 -1.9318 0.9668
-8.0999 -1.4138 -1.9325 0.9668
-7.1150 -4.1842 -1.9399 0.9667
-5.7765 -5.9562 -1.9500 0.9665
-5.2308 -6.4634 -1.9542 0.9664
-4.6413 -6.9218 -1.9586 0.9663
-4.0124 -7.3275 -1.9634 0.9663
-3.3484 -7.6771 -1.9684 0.9662
-2.6543 -7.9674 -1.9737 0.9661
0.3161 -8.4878 -1.9962 0.9657
1.8362 -8.3430 -2.0077 0.9655
4.6992 -7.2444 -2.0294 0.9651
5.3420 -6.8107 -2.0343 0.9651
5.9440 -6.3189 -2.0389 0.9650
6.4995 -5.7729 -2.0431 0.9649
7.0036 -5.1772 -2.0469 0.9648
8.1629 -3.1423 -2.0557 0.9647
8.4195 -2.4007 -2.0576 0.9647
8.6066 -1.6379 -2.0591 0.9646
8.7225 -0.8607 -2.0599 0.9646
8.7659 -0.0759 -2.0603 0.9646
8.6346 1.4888 -2.0593 0.9646
8.4612 2.2549 -2.0580 0.9647
8.2178 3.0011 -2.0561 0.9647
4.8263 7.1655 -2.0304 0.9651
3.3793 7.7046 -1.9773 0.9660
2.5881 7.7157 -1.9127 0.9671
1.5488 6.4992 -1.5702 0.9729
-2.4217 7.7121 -1.8998 0.9673
-3.2009 7.7000 -1.9598 0.9663
-4.5230 7.0044 -1.9596 0.9663
-5.6749 6.0578 -1.9509 0.9665
-6.6398 4.9294 -1.9435 0.9666
-7.0436 4.3080 -1.9405 0.9666
-7.6801 2.9746 -1.9357 0.9667
-8.1785 0.8240 -1.9319 0.9668
-8.1938 -0.6485 -1.9317 0.9668
-8.1055 -1.3804 -1.9324 0.9668
-7.9540 -2.1022 -1.9336 0.9668
-7.7402 -2.8086 -1.9352 0.9667
-7.4655 -3.4945 -1.9373 0.9667
-7.1317 -4.1546 -1.9398 0.9667
-6.7411 -4.7840 -1.9427 0.9666
-6.2964 -5.3780 -1.9461 0.9665
-4.0421 -7.3101 -1.9632 0.9663
-3.3796 -7.6623 -1.9682 0.9662
-2.6868 -7.9554 -1.9735 0.9661
-1.9687 -8.1866 -1.9789 0.9660
-1.2309 -8.3536 -1.9845 0.9659
-0.4790 -8.4545 -1.9902 0.9658
3.2807 -7.9381 -2.0187 0.9653
5.9173 -6.3427 -2.0387 0.9650
6.4751 -5.7992 -2.0429 0.9649
6.9816 -5.2056 -2.0467 0.9648
7.4322 -4.5668 -2.0502 0.9648
7.8228 -3.8883 -2.0531 0.9647
8.4092 -2.4353 -2.0576 0.9647
8.5996 -1.6733 -2.0590 0.9646
8.7188 -0.8966 -2.0599 0.9646
8.7655 -0.1120 -2.0603 0.9646
8.6409 1.4533 -2.0593 0.9646
8.2305 2.9673 -2.0562 0.9647
7.5499 4.3773 -2.0511 0.9648
6.6249 5.6350 -2.0441 0.9649
4.1766 7.5166 -2.0210 0.9653
3.4170 7.7040 -1.9807 0.9660
2.6234 7.7152 -1.9152 0.9671
0.9150 6.1218 -1.4547 0.9749
0.3426 5.8333 -1.3733 0.9763
-7.3563 1.3842 -1.9381 0.9695
-7.4815 0.0493 -1.9371 0.9696
-7.4566 -0.6211 -1.9373 0.9696
-6.4745 -3.8076 -1.9448 0.9694
-5.7082 -4.9164 -1.9506 0.9694
-4.7568 -5.8777 -1.9578 0.9692
-4.2199 -6.2933 -1.9618 0.9692
-3.6472 -6.6607 -1.9662 0.9691
-3.0429 -6.9768 -1.9708 0.9690
-1.7578 -7.4444 -1.9805 0.9689
-1.0867 -7.5914 -1.9856 0.9688
0.2869 -7.7036 -1.9960 0.9686
1.6656 -7.5682 -2.0064 0.9685
3.0045 -7.1857 -2.0166 0.9683
3.6449 -6.9042 -2.0214 0.9683
4.2585 -6.5651 -2.0261 0.9682
6.3417 -4.6878 -2.0419 0.9679
6.7462 -4.1071 -2.0450 0.9679
7.3884 -2.8441 -2.0498 0.9678
7.6200 -2.1727 -2.0516 0.9678
7.8934 -0.7789 -2.0537 0.9678
7.9061 0.6421 -2.0538 0.9678
7.8141 1.3474 -2.0531 0.9678
7.4379 2.7163 -2.0502 0.9678
6.8182 3.9908 -2.0455 0.9679
4.9481 6.0884 -2.0314 0.9681
4.3734 6.4933 -2.0270 0.9682
3.1300 7.1361 -2.0176 0.9683
0.8787 6.0495 -1.5828 0.9751
-0.2695 7.6612 -1.9848 0.9688
-0.9528 7.5910 -1.9809 0.9689
-1.6265 7.4640 -1.9779 0.9689
-2.9231 7.0318 -1.9717 0.9690
-3.5330 6.7259 -1.9671 0.9691
-4.6562 5.9616 -1.9586 0.9692
-5.6241 5.0162 -1.9512 0.9693
-6.0411 4.4849 -1.9481 0.9694
-7.1987 2.0686 -1.9393 0.9695
-7.4451 0.7502 -1.9374 0.9696
-7.4813 0.0802 -1.9372 0.9696
-7.4590 -0.5904 -1.9373 0.9696
-7.0450 -2.5564 -1.9404 0.9695
-6.4898 -3.7806 -1.9447 0.9694
-6.1335 -4.3528 -1.9473 0.9694
-5.7280 -4.8925 -1.9504 0.9694
-5.2759 -5.3954 -1.9538 0.9693
-4.7805 -5.8575 -1.9576 0.9692
-3.6743 -6.6449 -1.9660 0.9691
-3.0714 -6.9635 -1.9705 0.9690
-2.4411 -7.2281 -1.9753 0.9690
-0.4349 -7.6756 -1.9905 0.9687
0.2551 -7.7038 -1.9958 0.9687
0.9467 -7.6701 -2.0010 0.9686
1.6342 -7.5741 -2.0062 0.9685
2.3120 -7.4162 -2.0113 0.9684
2.9745 -7.1972 -2.0164 0.9683
3.6160 -6.9185 -2.0212 0.9683
4.8140 -6.1899 -2.0303 0.9681
5.3601 -5.7454 -2.0344 0.9681
5.8642 -5.2520 -2.0383 0.9680
6.3218 -4.7136 -2.0417 0.9679
6.7288 -4.1346 -2.0448 0.9679
7.3763 -2.8744 -2.0497 0.9678
7.6107 -2.2040 -2.0515 0.9678
7.7825 -1.5143 -2.0528 0.9678
7.8900 -0.8114 -2.0536 0.9678
7.8198 1.3151 -2.0531 0.9678
7.4494 2.6857 -2.0503 0.9678
6.8351 3.9629 -2.0457 0.9679
6.4432 4.5526 -2.0427 0.9679
5.9996 5.1031 -2.0393 0.9680
5.5083 5.6098 -2.0356 0.9680
4.4006 6.4758 -2.0272 0.9682
2.5004 7.3536 -2.0110 0.9684
0.9149 6.1217 -1.6026 0.9747
0.3401 5.7920 -1.5022 0.9763
-0.2379 7.6630 -1.9851 0.9688
-0.9216 7.5955 -1.9810 0.9689
-1.5959 7.4710 -1.9780 0.9689
-2.2565 7.2908 -1.9761 0.9690
-6.7442 1.2691 -1.9427 0.9719
-6.6304 -1.7817 -1.9436 0.9719
-5.9341 -3.4898 -1.9489 0.9718
-5.6048 -4.0124 -1.9514 0.9718
-4.3573 -5.3841 -1.9608 0.9716
-1.6086 -6.8126 -1.9816 0.9713
2.1412 -6.7698 -2.0100 0.9709
2.7452 -6.5657 -2.0146 0.9708
4.4197 -5.6348 -2.0273 0.9707
4.9158 -5.2259 -2.0311 0.9706
5.3733 -4.7727 -2.0345 0.9706
6.1567 -3.7482 -2.0405 0.9705
6.4753 -3.1853 -2.0429 0.9704
6.7413 -2.5950 -2.0449 0.9704
6.9521 -1.9822 -2.0465 0.9704
7.1057 -1.3523 -2.0477 0.9704
7.2009 -0.7106 -2.0484 0.9704
7.2124 0.5858 -2.0485 0.9704
6.9863 1.8618 -2.0468 0.9704
6.7864 2.4784 -2.0453 0.9704
6.2222 3.6419 -2.0410 0.9705
5.8631 4.1791 -2.0383 0.9705
5.0073 5.1418 -2.0318 0.9706
4.5183 5.5596 -2.0281 0.9707
3.9943 5.9303 -2.0241 0.9707
2.8598 6.5201 -2.0155 0.9708
2.2591 6.7348 -2.0110 0.9709
1.6429 6.8941 -2.0063 0.9710
0.8870 6.1069 -1.7470 0.9747
-0.2474 7.0322 -1.9920 0.9712
-3.2350 6.1586 -1.9693 0.9715
-5.5361 4.1100 -1.9519 0.9717
-5.8742 3.5928 -1.9493 0.9718
-6.7390 1.2969 -1.9428 0.9719
-6.8258 0.6877 -1.9421 0.9719
-6.8591 0.0735 -1.9419 0.9719
-6.4581 -2.3434 -1.9449 0.9718
-6.2278 -2.9151 -1.9466 0.9718
-5.9481 -3.4651 -1.9488 0.9718
-5.6209 -3.9890 -1.9512 0.9718
-4.3791 -5.3656 -1.9606 0.9716
-3.3645 -6.0847 -1.9683 0.9715
-2.8119 -6.3752 -1.9725 0.9714
-2.2344 -6.6161 -1.9769 0.9714
-1.0227 -6.9407 -1.9861 0.9713
0.2333 -7.0454 -1.9956 0.9711
0.8656 -7.0130 -2.0004 0.9711
1.4939 -6.9237 -2.0051 0.9710
2.1130 -6.7778 -2.0098 0.9709
2.7179 -6.5763 -2.0144 0.9709
3.3033 -6.3202 -2.0189 0.9708
3.8643 -6.0116 -2.0231 0.9707
5.3532 -4.7944 -2.0344 0.9706
6.4618 -3.2118 -2.0428 0.9704
6.7303 -2.6227 -2.0448 0.9704
7.1978 -0.7402 -2.0484 0.9704
7.2148 0.5561 -2.0485 0.9704
7.1339 1.1998 -2.0479 0.9704
5.4766 4.6582 -2.0354 0.9706
5.0289 5.1216 -2.0320 0.9706
4.5416 5.5414 -2.0283 0.9707
3.4659 6.2377 -2.0201 0.9708
2.8869 6.5089 -2.0157 0.9708
0.9152 6.1232 -1.7527 0.9746
0.3419 5.8215 -1.6509 0.9760
-1.4631 6.8495 -1.9828 0.9713
-2.0660 6.6754 -1.9782 0.9714
-6.2200 1.1704 -1.9467 0.9739
-6.3052 -0.5252 -1.9461 0.9739
-6.2345 -1.0882 -1.9466 0.9739
-5.9469 -2.1857 -1.9488 0.9738
-5.4715 -3.2177 -1.9524 0.9738
-5.1674 -3.6993 -1.9547 0.9738
-4.4369 -4.5749 -1.9602 0.9737
-4.0157 -4.9620 -1.9634 0.9736
-3.5613 -5.3111 -1.9668 0.9736
-3.0770 -5.6192 -1.9705 0.9735
-0.9153 -6.3946 -1.9869 0.9733
-0.3396 -6.4651 -1.9913 0.9733
1.9695 -6.2268 -2.0087 0.9730
2.5246 -6.0380 -2.0130 0.9730
3.0615 -5.7993 -2.0170 0.9729
3.5756 -5.5123 -2.0209 0.9729
4.9376 -4.3856 -2.0312 0.9727
5.6560 -3.4433 -2.0367 0.9727
5.9482 -2.9260 -2.0389 0.9726
6.3852 -1.8206 -2.0422 0.9726
6.6132 -0.6526 -2.0440 0.9726
6.6459 -0.0575 -2.0442 0.9726
6.6238 0.5380 -2.0440 0.9726
6.5471 1.1289 -2.0435 0.9726
6.4166 1.7100 -2.0425 0.9726
5.9991 2.8232 -2.0393 0.9726
5.7161 3.3457 -2.0372 0.9727
4.1529 5.1100 -2.0253 0.9728
2.6298 5.9959 -2.0138 0.9730
1.5113 6.3421 -2.0053 0.9731
0.3177 5.8187 -1.7924 0.9759
-1.3731 6.3007 -1.9835 0.9734
-1.9279 6.1394 -1.9793 0.9734
-2.9804 5.6739 -1.9713 0.9735
-3.9306 5.0325 -1.9641 0.9736
-5.6853 2.8112 -1.9508 0.9738
-6.2954 0.6343 -1.9461 0.9739
-6.2388 -1.0625 -1.9466 0.9739
-6.1214 -1.6179 -1.9475 0.9739
-5.9557 -2.1611 -1.9487 0.9738
-5.1823 -3.6777 -1.9546 0.9738
-4.8384 -4.1327 -1.9572 0.9737
-4.4554 -4.5563 -1.9601 0.9737
-4.0358 -4.9450 -1.9632 0.9736
-3.5829 -5.2960 -1.9667 0.9736
-3.0998 -5.6060 -1.9703 0.9735
-1.5070 -6.2665 -1.9824 0.9734
0.2147 -6.4841 -1.9955 0.9732
0.7965 -6.4530 -1.9999 0.9732
1.3743 -6.3696 -2.0042 0.9731
1.9436 -6.2343 -2.0086 0.9730
3.0373 -5.8113 -2.0168 0.9729
3.5525 -5.5265 -2.0207 0.9729
4.9191 -4.4056 -2.0311 0.9727
5.6415 -3.4665 -2.0366 0.9727
6.5207 -1.2688 -2.0433 0.9726
6.6104 -0.6798 -2.0439 0.9726
6.5518 1.1019 -2.0435 0.9726
6.4237 1.6836 -2.0425 0.9726
6.2429 2.2507 -2.0412 0.9726
6.0110 2.7985 -2.0394 0.9726
5.4029 3.8176 -2.0348 0.9727
5.0323 4.2803 -2.0320 0.9727
4.1743 5.0932 -2.0255 0.9728
3.6946 5.4369 -2.0219 0.9729
3.1867 5.7351 -2.0180 0.9729
2.6548 5.9855 -2.0140 0.9730
2.1036 6.1864 -2.0098 0.9730
0.3421 5.8248 -1.7947 0.9759
-0.7785 6.4162 -1.9880 0.9733
-1.9027 6.1479 -1.9794 0.9734
-5.7656 1.0849 -1.9502 0.9756
-5.8644 0.0387 -1.9494 0.9756
-5.8447 -0.4869 -1.9496 0.9756
-5.3125 -2.5135 -1.9536 0.9755
-4.7885 -3.4280 -1.9575 0.9755
-4.1107 -4.2385 -1.9627 0.9754
-3.7200 -4.5967 -1.9656 0.9754
-3.2987 -4.9194 -1.9688 0.9753
-2.3763 -5.4483 -1.9758 0.9753
-1.3712 -5.8072 -1.9834 0.9752
-0.8472 -5.9185 -1.9874 0.9751
-0.3142 -5.9828 -1.9914 0.9751
1.8213 -5.7585 -2.0076 0.9749
3.3052 -5.0955 -2.0189 0.9747
4.1750 -4.4383 -2.0255 0.9746
5.2252 -3.1811 -2.0334 0.9745
5.4946 -2.7029 -2.0355 0.9745
6.0275 -1.1471 -2.0395 0.9745
6.1176 0.4969 -2.0402 0.9745
6.0469 1.0426 -2.0397 0.9745
5.9265 1.5794 -2.0388 0.9745
5.7576 2.1026 -2.0375 0.9745
5.5416 2.6079 -2.0358 0.9745
3.3941 5.0392 -2.0196 0.9747
2.9239 5.3136 -2.0160 0.9748
1.9215 5.7284 -2.0084 0.9749
0.8650 5.9555 -2.0004 0.9750
-1.7849 5.6839 -1.9803 0.9752
-2.2825 5.4907 -1.9766 0.9752
-2.7601 5.2545 -1.9729 0.9753
-3.2141 4.9774 -1.9695 0.9753
-3.6411 4.6619 -1.9663 0.9754
-4.7295 3.5112 -1.9580 0.9755
-5.2691 2.6055 -1.9539 0.9755
-5.6413 1.6211 -1.9511 0.9756
-5.8356 0.5880 -1.9496 0.9756
-5.8642 0.0629 -1.9494 0.9756
-5.6740 -1.4996 -1.9508 0.9756
-5.3226 -2.4914 -1.9535 0.9755
-4.8023 -3.4081 -1.9574 0.9755
-4.1278 -4.2213 -1.9625 0.9754
-0.8715 -5.9145 -1.9872 0.9751
0.1987 -5.9994 -1.9953 0.9750
0.7368 -5.9697 -1.9994 0.9750
1.2712 -5.8916 -2.0035 0.9749
1.7974 -5.7655 -2.0074 0.9749
2.8080 -5.3726 -2.0151 0.9748
4.1564 -4.4552 -2.0253 0.9746
5.4832 -2.7254 -2.0354 0.9745
5.7102 -2.2252 -2.0371 0.9745
6.0226 -1.1719 -2.0395 0.9745
6.1377 -0.0784 -2.0404 0.9745
5.2936 3.0691 -2.0340 0.9745
4.9917 3.5270 -2.0317 0.9746
4.6498 3.9550 -2.0291 0.9746
2.9460 5.3019 -2.0162 0.9748
1.9453 5.7209 -2.0086 0.9749
0.3521 5.9960 -1.9965 0.9750
-0.1860 5.9911 -1.9925 0.9751
-1.2471 5.8381 -1.9844 0.9751
-1.7616 5.6917 -1.9805 0.9752
-5.4414 -0.4533 -1.9526 0.9771
-5.3801 -0.9391 -1.9531 0.9771
-4.7198 -2.7757 -1.9581 0.9770
-4.4567 -3.1905 -1.9601 0.9770
-3.4613 -4.2770 -1.9676 0.9769
-3.0689 -4.5768 -1.9706 0.9769
-2.6508 -4.8410 -1.9737 0.9768
-2.2102 -5.0676 -1.9771 0.9768
-1.2751 -5.4000 -1.9842 0.9767
-0.2921 -5.5616 -1.9916 0.9766
1.2039 -5.4701 -2.0029 0.9765
2.1685 -5.1863 -2.0103 0.9764
2.6289 -4.9799 -2.0138 0.9764
3.0696 -4.7322 -2.0171 0.9763
3.4866 -4.4451 -2.0203 0.9763
4.2357 -3.7622 -2.0259 0.9762
4.5612 -3.3717 -2.0284 0.9762
5.0999 -2.5088 -2.0325 0.9761
5.5937 -1.0645 -2.0362 0.9761
5.6681 -0.5593 -2.0368 0.9761
5.6116 0.9676 -2.0364 0.9761
5.1435 2.4205 -2.0328 0.9761
3.9483 4.0544 -2.0238 0.9762
3.5641 4.3854 -2.0209 0.9763
2.7157 4.9353 -2.0144 0.9764
2.2588 5.1498 -2.0110 0.9764
1.2989 5.4505 -2.0037 0.9765
-0.6926 5.5176 -1.9886 0.9767
-1.1818 5.4232 -1.9849 0.9767
-1.6598 5.2859 -1.9813 0.9767
-2.1229 5.1069 -1.9778 0.9768
-2.5675 4.8878 -1.9744 0.9768
-2.9902 4.6307 -1.9712 0.9769
-3.7574 4.0109 -1.9654 0.9769
-4.4018 3.2679 -1.9605 0.9770
-5.3634 1.0322 -1.9532 0.9771
-5.4431 -0.4308 -1.9526 0.9771
-5.1388 -1.8647 -1.9549 0.9770
-4.9546 -2.3191 -1.9563 0.9770
-4.4696 -3.1720 -1.9600 0.9770
-3.8412 -3.9282 -1.9647 0.9769
-3.4787 -4.2624 -1.9675 0.9769
-0.8103 -5.4989 -1.9877 0.9767
0.1847 -5.5763 -1.9952 0.9766
1.1812 -5.4745 -2.0028 0.9765
1.6699 -5.3566 -2.0065 0.9764
2.1469 -5.1948 -2.0101 0.9764
2.6082 -4.9903 -2.0136 0.9764
3.8591 -4.1366 -2.0231 0.9763
4.8377 -2.9726 -2.0305 0.9762
5.0893 -2.5297 -2.0324 0.9761
5.2996 -2.0652 -2.0340 0.9761
5.5891 -1.0876 -2.0362 0.9761
5.6657 -0.5826 -2.0368 0.9761
5.5062 1.4431 -2.0356 0.9761
5.3518 1.9295 -2.0344 0.9761
5.1536 2.3993 -2.0329 0.9761
4.6337 3.2741 -2.0290 0.9762
4.3167 3.6717 -2.0266 0.9762
3.1715 4.6671 -2.0179 0.9763
2.7362 4.9244 -2.0146 0.9764
2.2802 5.1409 -2.0111 0.9764
1.8073 5.3150 -2.0076 0.9764
0.8267 5.5316 -2.0001 0.9765
-0.1729 5.5692 -1.9926 0.9766
-0.6699 5.5209 -1.9888 0.9767
-1.1596 5.4285 -1.9851 0.9767
-1.6382 5.2931 -1.9814 0.9767
-2.3038 0.2225 -0.8870 0.9901
-2.2891 0.0151 -0.8772 0.9902
-2.3042 -0.1919 -0.8861 0.9901
-4.7945 -1.7622 -1.9575 0.9784
-3.5730 -3.6842 -1.9668 0.9783
-3.2328 -3.9947 -1.9693 0.9782
-2.8660 -4.2742 -1.9721 0.9782
-0.7352 -5.1360 -1.9883 0.9780
1.1231 -5.1030 -2.0023 0.9779
2.4516 -4.6440 -2.0124 0.9778
2.8622 -4.4125 -2.0155 0.9777
3.9484 -3.5070 -2.0238 0.9776
4.2515 -3.1428 -2.0261 0.9776
4.7529 -2.3381 -2.0299 0.9776
5.1005 -1.4543 -2.0325 0.9775
5.3077 -0.0459 -2.0341 0.9775
5.2901 0.4297 -2.0339 0.9775
5.2292 0.9016 -2.0335 0.9775
4.3062 3.0693 -2.0265 0.9776
4.0094 3.4389 -2.0242 0.9776
2.1066 4.8029 -2.0098 0.9778
0.7500 5.1636 -1.9995 0.9779
0.2839 5.2008 -1.9960 0.9779
-0.1828 5.1961 -1.9925 0.9780
-0.6464 5.1497 -1.9890 0.9780
-1.1032 5.0623 -1.9855 0.9781
-1.5496 4.9347 -1.9821 0.9781
-1.9821 4.7682 -1.9788 0.9781
-4.5826 2.2660 -1.9591 0.9783
-4.7639 1.8451 -1.9577 0.9784
-5.0118 0.9645 -1.9559 0.9784
-2.3035 0.2321 -0.8872 0.9901
-2.2907 0.0245 -0.8779 0.9902
-4.9358 -1.3045 -1.9564 0.9784
-4.6293 -2.1669 -1.9588 0.9783
-4.4201 -2.5750 -1.9603 0.9783
-3.5880 -3.6692 -1.9666 0.9783
-2.4938 -4.5100 -1.9749 0.9782
-1.6543 -4.8983 -1.9813 0.9781
-0.7563 -5.1325 -1.9881 0.9780
0.1723 -5.2034 -1.9951 0.9779
1.5577 -4.9965 -2.0056 0.9778
2.0024 -4.8450 -2.0090 0.9778
2.8438 -4.4239 -2.0154 0.9777
3.2334 -4.1575 -2.0183 0.9777
4.2383 -3.1601 -2.0260 0.9776
4.7431 -2.3575 -2.0298 0.9776
5.2795 -0.5429 -2.0339 0.9775
5.3074 -0.0678 -2.0341 0.9775
5.2919 0.4079 -2.0339 0.9775
5.2329 0.8801 -2.0335 0.9775
4.5794 2.6551 -2.0286 0.9776
4.3190 3.0517 -2.0266 0.9776
3.6965 3.7646 -2.0219 0.9777
3.3399 4.0752 -2.0192 0.9777
2.1265 4.7946 -2.0100 0.9778
1.6857 4.9575 -2.0066 0.9778
0.7713 5.1609 -1.9997 0.9779
0.3054 5.2000 -1.9962 0.9779
-0.6252 5.1528 -1.9891 0.9780
-1.0824 5.0672 -1.9857 0.9780
-2.0657 0.3887 -0.8603 0.9910
-1.9918 0.0131 -0.8152 0.9914
-2.0141 -0.1678 -0.8272 0.9913
-2.0516 -0.3581 -0.8524 0.9910
-4.4945 -1.6519 -1.9598 0.9795
-4.3311 -2.0491 -1.9610 0.9795
-3.9024 -2.7937 -1.9643 0.9795
-3.6402 -3.1353 -1.9662 0.9794
-3.0294 -3.7433 -1.9709 0.9794
-2.6854 -4.0049 -1.9735 0.9794
-2.3191 -4.2353 -1.9763 0.9793
-1.5308 -4.5950 -1.9822 0.9793
-1.1148 -4.7211 -1.9854 0.9793
1.0513 -4.7768 -2.0018 0.9791
1.4773 -4.6709 -2.0050 0.9790
2.2942 -4.3457 -2.0112 0.9790
3.0413 -3.8775 -2.0169 0.9789
3.3808 -3.5940 -2.0195 0.9789
4.4452 -2.1867 -2.0275 0.9788
4.7699 -1.3600 -2.0300 0.9788
4.8744 -0.9276 -2.0308 0.9788
4.9470 0.4018 -2.0313 0.9788
4.8900 0.8432 -2.0309 0.9788
4.6571 1.7007 -2.0291 0.9788
4.0278 2.8709 -2.0244 0.9788
3.4433 3.5358 -2.0199 0.9789
3.1088 3.8253 -2.0174 0.9789
2.7500 4.0829 -2.0147 0.9789
2.3698 4.3066 -2.0118 0.9790
1.5585 4.6461 -2.0057 0.9790
0.7021 4.8340 -1.9992 0.9791
-0.1712 4.8655 -1.9926 0.9792
-1.0332 4.7413 -1.9860 0.9792
-1.4515 4.6223 -1.9829 0.9793
-1.8568 4.4667 -1.9798 0.9793
-2.6164 4.0519 -1.9740 0.9794
-2.9649 3.7961 -1.9714 0.9794
-3.2890 3.5109 -1.9689 0.9794
-3.5861 3.1985 -1.9667 0.9794
-4.2956 2.1241 -1.9613 0.9795
-4.4657 1.7296 -1.9600 0.9795
-4.6003 1.3219 -1.9590 0.9795
-2.0698 0.3983 -0.8627 0.9909
-2.0174 0.2032 -0.8299 0.9913
-4.6271 -1.2229 -1.9588 0.9795
-4.5011 -1.6333 -1.9597 0.9795
-3.3625 -3.4386 -1.9684 0.9794
-3.0446 -3.7305 -1.9708 0.9794
-1.1342 -4.7162 -1.9852 0.9793
-0.7083 -4.8066 -1.9885 0.9792
-0.2753 -4.8587 -1.9917 0.9792
0.1613 -4.8719 -1.9951 0.9792
2.2761 -4.3548 -2.0111 0.9790
3.0251 -3.8898 -2.0168 0.9789
3.3657 -3.6077 -2.0193 0.9789
3.6797 -3.2956 -2.0217 0.9789
4.2172 -2.5913 -2.0258 0.9788
4.4360 -2.2049 -2.0275 0.9788
4.6642 1.6816 -2.0292 0.9788
4.4919 2.0913 -2.0279 0.9788
4.2831 2.4833 -2.0263 0.9788
3.4581 3.5218 -2.0201 0.9789
2.7669 4.0717 -2.0148 0.9789
2.3877 4.2971 -2.0120 0.9790
1.5777 4.6400 -2.0058 0.9790
0.7221 4.8314 -1.9993 0.9791
0.2859 4.8686 -1.9960 0.9791
-1.0137 4.7459 -1.9862 0.9792
-1.4686 0.2763 -0.6513 0.9935
-1.4686 0.1418 -0.6430 0.9936
-1.4273 0.0094 -0.6221 0.9938
-1.4651 -0.1221 -0.6407 0.9936
-1.4713 -0.2568 -0.6509 0.9935
-4.0715 -1.9263 -1.9630 0.9805
-3.8853 -2.2849 -1.9644 0.9805
-3.6681 -2.6260 -1.9660 0.9805
-3.4214 -2.9468 -1.9679 0.9805
-2.8469 -3.5178 -1.9723 0.9804
-1.0472 -4.4348 -1.9859 0.9803
-0.6467 -4.5177 -1.9889 0.9803
0.1704 -4.5747 -1.9951 0.9802
0.9870 -4.4848 -2.0013 0.9802
1.3869 -4.3850 -2.0043 0.9801
1.7767 -4.2493 -2.0073 0.9801
2.8541 -3.6388 -2.0155 0.9800
3.9667 -2.4149 -2.0239 0.9799
4.3400 -1.6707 -2.0267 0.9799
4.4744 -1.2758 -2.0277 0.9799
4.5724 -0.8702 -2.0285 0.9799
4.6404 0.3769 -2.0290 0.9799
4.4962 1.1982 -2.0279 0.9799
4.3687 1.5954 -2.0270 0.9799
4.0085 2.3462 -2.0242 0.9799
3.7790 2.6935 -2.0225 0.9800
3.5191 3.0183 -2.0205 0.9800
3.2310 3.3178 -2.0183 0.9800
2.9174 3.5897 -2.0160 0.9800
2.2242 4.0421 -2.0107 0.9801
1.4630 4.3616 -2.0049 0.9801
1.0648 4.4684 -2.0019 0.9802
0.6592 4.5388 -1.9989 0.9802
-1.7445 4.1965 -1.9806 0.9804
-2.1104 4.0177 -1.9779 0.9804
-2.4586 3.8074 -1.9752 0.9804
-2.7863 3.5674 -1.9727 0.9804
-3.3705 3.0062 -1.9683 0.9805
-3.6227 2.6895 -1.9664 0.9805
-1.4936 0.4292 -0.6773 0.9932
-1.4695 0.2828 -0.6522 0.9935
-1.4719 -0.2507 -0.6507 0.9935
-1.4924 -0.3945 -0.6728 0.9933
-1.4867 -0.5395 -0.6893 0.9931
-3.8946 -2.2688 -1.9643 0.9805
-3.6787 -2.6107 -1.9660 0.9805
-3.4333 -2.9325 -1.9678 0.9805
-3.1601 -3.2317 -1.9699 0.9805
-2.5388 -3.7527 -1.9746 0.9804
-2.1953 -3.9702 -1.9772 0.9804
-1.8334 -4.1567 -1.9799 0.9804
-1.4558 -4.3104 -1.9828 0.9803
-1.0654 -4.4301 -1.9858 0.9803
-0.2585 -4.5631 -1.9919 0.9803
0.5616 -4.5502 -1.9981 0.9802
1.3687 -4.3903 -2.0042 0.9801
1.7591 -4.2563 -2.0072 0.9801
2.8389 -3.6503 -2.0153 0.9800
3.7195 -2.7733 -2.0220 0.9800
3.9565 -2.4311 -2.0238 0.9799
4.1616 -2.0685 -2.0254 0.9799
4.6311 -0.4763 -2.0289 0.9799
4.6555 -0.0595 -2.0291 0.9799
4.5903 0.7720 -2.0286 0.9799
4.5012 1.1797 -2.0280 0.9799
4.3754 1.5774 -2.0270 0.9799
4.2139 1.9619 -2.0258 0.9799
3.7902 2.6781 -2.0226 0.9800
3.5317 3.0039 -2.0206 0.9800
3.2449 3.3047 -2.0184 0.9800
2.9323 3.5778 -2.0161 0.9800
2.5968 3.8213 -2.0135 0.9800
1.8681 4.2118 -2.0080 0.9801
1.4811 4.3558 -2.0051 0.9801
-0.9522 4.4579 -1.9866 0.9803
-1.3457 4.3481 -1.9837 0.9803
-1.2726 -0.2221 -0.5980 0.9943
-1.2609 -0.4634 -0.6218 0.9941
-1.2678 -0.5998 -0.6492 0.9938
-3.2237 -2.7766 -1.9694 0.9814
-2.6821 -3.3142 -1.9735 0.9814
-2.3772 -3.5452 -1.9758 0.9814
-1.7108 -3.9225 -1.9809 0.9813
-1.3544 -4.0656 -1.9836 0.9813
-0.6089 -4.2541 -1.9892 0.9812
-0.2257 -4.2978 -1.9921 0.9812
0.5464 -4.2816 -1.9980 0.9812
0.9291 -4.2216 -2.0009 0.9811
1.3054 -4.1273 -2.0037 0.9811
2.0264 -3.8385 -2.0092 0.9810
2.6855 -3.4238 -2.0142 0.9810
2.9848 -3.1731 -2.0165 0.9810
3.5100 -2.5946 -2.0204 0.9809
4.0822 -1.5714 -2.0248 0.9809
4.3576 -0.4300 -2.0269 0.9809
4.3790 -0.0379 -2.0270 0.9809
4.3144 0.7439 -2.0265 0.9809
4.1093 1.5007 -2.0250 0.9809
3.9560 1.8617 -2.0238 0.9809
3.3107 2.8396 -2.0189 0.9810
3.0399 3.1216 -2.0169 0.9810
2.7450 3.3776 -2.0147 0.9810
2.0931 3.8039 -2.0097 0.9810
1.7416 3.9708 -2.0071 0.9811
0.6206 4.2728 -1.9986 0.9811
-0.9140 4.1941 -1.9869 0.9813
-1.2842 4.0895 -1.9841 0.9813
-1.9880 3.7846 -1.9788 0.9813
-2.3161 3.5867 -1.9763 0.9814
-2.9123 3.1088 -1.9718 0.9814
-3.4137 2.5343 -1.9680 0.9814
-3.6240 2.2165 -1.9664 0.9814
-3.8053 1.8817 -1.9650 0.9815
-1.2565 0.4866 -0.6237 0.9941
-1.2703 0.2444 -0.5988 0.9943
-1.2724 -0.1007 -0.5908 0.9944
-1.2706 -0.3358 -0.6083 0.9942
-1.2618 -0.4579 -0.6213 0.9941
-3.4665 -2.4601 -1.9676 0.9814
-3.2350 -2.7631 -1.9693 0.9814
-2.9774 -3.0449 -1.9713 0.9814
-2.0680 -3.7399 -1.9782 0.9813
-1.0033 -4.1720 -1.9862 0.9813
-0.2434 -4.2965 -1.9920 0.9812
0.1426 -4.3074 -1.9949 0.9812
0.5287 -4.2836 -1.9978 0.9812
0.9116 -4.2251 -2.0007 0.9811
1.6556 -4.0059 -2.0064 0.9811
2.3500 -3.6557 -2.0116 0.9810
2.9715 -3.1852 -2.0164 0.9810
3.2483 -2.9092 -2.0185 0.9810
3.7219 -2.2870 -2.0220 0.9809
4.0756 -1.5882 -2.0247 0.9809
4.2972 -0.8362 -2.0264 0.9809
4.3660 0.3365 -2.0269 0.9809
4.3175 0.7261 -2.0266 0.9809
4.2338 1.1096 -2.0259 0.9809
3.7800 2.1915 -2.0225 0.9809
3.5656 2.5193 -2.0209 0.9809
3.3225 2.8261 -2.0190 0.9810
2.7591 3.3664 -2.0148 0.9810
1.3940 4.0998 -2.0044 0.9811
0.6383 4.2705 -1.9987 0.9811
0.2528 4.3042 -1.9958 0.9812
-0.1336 4.3032 -1.9928 0.9812
-0.5178 4.2677 -1.9899 0.9812
-1.1442 0.1105 -0.5639 0.9949
-1.1439 -0.0953 -0.5630 0.9949
-1.1327 -0.3044 -0.5754 0.9948
-1.0913 -0.5163 -0.5922 0.9946
-2.5324 -3.1292 -1.9746 0.9822
-2.2444 -3.3472 -1.9768 0.9822
-1.6150 -3.7029 -1.9816 0.9822
-0.9308 -3.9419 -1.9868 0.9821
-0.5747 -4.0149 -1.9895 0.9821
-0.2130 -4.0558 -1.9922 0.9821
0.8766 -3.9829 -2.0005 0.9820
2.2308 -3.4390 -2.0107 0.9819
2.5327 -3.2291 -2.0130 0.9819
3.0745 -2.7308 -2.0171 0.9818
3.5184 -2.1420 -2.0205 0.9818
3.6986 -1.8194 -2.0219 0.9818
3.9679 -1.1314 -2.0239 0.9818
4.1082 -0.4054 -2.0250 0.9818
4.1148 0.3342 -2.0250 0.9818
4.0676 0.7013 -2.0247 0.9818
3.9872 1.0626 -2.0241 0.9818
3.3522 2.3893 -2.0193 0.9818
3.1219 2.6777 -2.0175 0.9818
2.8668 2.9438 -2.0156 0.9819
2.5888 3.1854 -2.0135 0.9819
1.9743 3.5879 -2.0088 0.9819
0.2218 4.0621 -1.9955 0.9820
-0.1428 4.0600 -1.9928 0.9821
-0.5053 4.0254 -1.9900 0.9821
-1.2122 3.8602 -1.9847 0.9821
-1.8767 3.5728 -1.9796 0.9822
-2.4784 3.1733 -1.9751 0.9822
-2.7499 2.9354 -1.9730 0.9822
-2.9989 2.6747 -1.9711 0.9823
-3.2237 2.3933 -1.9694 0.9823
-1.0866 0.5373 -0.5946 0.9946
-1.1166 0.4325 -0.5874 0.9947
-1.1319 0.3252 -0.5777 0.9948
-1.1391 0.2192 -0.5690 0.9948
-1.1443 0.1153 -0.5641 0.9949
-1.1357 0.0122 -0.5571 0.9950
-1.1437 -0.0905 -0.5628 0.9949
-1.1329 -0.2994 -0.5748 0.9948
-1.1219 -0.4071 -0.5854 0.9947
-3.4659 -2.0191 -1.9676 0.9823
-3.0549 -2.6093 -1.9707 0.9823
-2.5452 -3.1186 -1.9745 0.9822
-1.9523 -3.5307 -1.9790 0.9822
-1.6302 -3.6960 -1.9815 0.9822
-0.9470 -3.9378 -1.9867 0.9821
-0.2297 -4.0547 -1.9921 0.9821
0.1346 -4.0646 -1.9949 0.9820
0.4989 -4.0417 -1.9976 0.9820
1.2154 -3.8984 -2.0030 0.9820
1.5617 -3.7788 -2.0057 0.9819
1.8964 -3.6283 -2.0082 0.9819
2.2164 -3.4480 -2.0106 0.9819
3.5094 -2.1564 -2.0204 0.9818
3.8426 -1.4974 -2.0230 0.9818
4.0513 -0.7883 -2.0245 0.9818
4.1282 -0.0528 -2.0251 0.9818
4.1161 0.3172 -2.0250 0.9818
4.0705 0.6846 -2.0247 0.9818
3.8802 1.3989 -2.0233 0.9818
2.8790 2.9321 -2.0157 0.9819
1.9892 3.5800 -2.0089 0.9819
0.9621 3.9646 -2.0011 0.9820
0.6022 4.0293 -1.9984 0.9820
-0.4887 4.0277 -1.9902 0.9821
-1.1963 3.8654 -1.9848 0.9821
-1.0377 0.1002 -0.5408 0.9953
-1.0304 0.0068 -0.5346 0.9954
-1.0375 -0.0864 -0.5401 0.9953
-0.9791 -0.4633 -0.5619 0.9951
-0.9582 -0.5635 -0.5767 0.9950
-3.0884 -2.2109 -1.9704 0.9830
-2.8802 -2.4807 -1.9720 0.9830
-2.6488 -2.7312 -1.9738 0.9830
-2.3958 -2.9603 -1.9757 0.9830
-2.1232 -3.1664 -1.9777 0.9830
-1.5276 -3.5024 -1.9823 0.9829
-1.2091 -3.6295 -1.9847 0.9829
-0.2014 -3.8351 -1.9923 0.9828
0.1431 -3.8428 -1.9949 0.9828
0.4874 -3.8195 -1.9975 0.9828
0.8287 -3.7653 -2.0001 0.9828
1.1641 -3.6806 -2.0027 0.9828
1.4910 -3.5659 -2.0051 0.9827
1.8066 -3.4221 -2.0075 0.9827
2.1083 -3.2502 -2.0098 0.9827
2.3935 -3.0516 -2.0120 0.9827
2.6599 -2.8277 -2.0140 0.9827
3.3243 -2.0238 -2.0190 0.9826
3.6363 -1.3998 -2.0214 0.9826
3.7487 -1.0689 -2.0222 0.9826
3.8305 -0.7290 -2.0229 0.9826
3.8428 0.6626 -2.0230 0.9826
3.7669 1.0039 -2.0224 0.9826
3.6604 1.3367 -2.0216 0.9826
3.3593 1.9662 -2.0193 0.9826
3.1674 2.2576 -2.0179 0.9826
2.9500 2.5302 -2.0162 0.9826
2.7090 2.7818 -2.0144 0.9827
2.4465 3.0103 -2.0124 0.9827
1.2280 3.6608 -2.0032 0.9828
0.5536 3.8115 -1.9981 0.9828
-0.8158 3.7436 -1.9877 0.9829
-1.1464 3.6508 -1.9852 0.9829
-1.4671 3.5291 -1.9827 0.9829
-1.7752 3.3795 -1.9804 0.9829
-2.3447 3.0020 -1.9761 0.9830
-2.8373 2.5306 -1.9724 0.9830
-3.0501 2.2644 -1.9707 0.9830
-1.0377 0.1046 -0.5410 0.9953
-1.0311 0.0110 -0.5349 0.9954
-1.0332 -0.1760 -0.5437 0.9953
-1.0198 -0.2695 -0.5472 0.9953
-1.0081 -0.3658 -0.5563 0.9952
-2.8903 -2.4687 -1.9719 0.9830
-2.6599 -2.7201 -1.9737 0.9830
-2.4079 -2.9503 -1.9756 0.9830
-1.8467 -3.3398 -1.9798 0.9829
-1.5419 -3.4959 -1.9821 0.9829
0.4716 -3.8212 -1.9974 0.9828
1.4762 -3.5719 -2.0050 0.9827
1.7924 -3.4294 -2.0074 0.9827
2.0948 -3.2587 -2.0097 0.9827
2.3808 -3.0613 -2.0119 0.9827
2.6481 -2.8385 -2.0139 0.9827
2.8945 -2.5923 -2.0158 0.9826
3.1177 -2.3246 -2.0175 0.9826
3.3158 -2.0374 -2.0190 0.9826
3.7442 -1.0843 -2.0222 0.9826
3.8886 0.2997 -2.0233 0.9826
3.8455 0.6467 -2.0230 0.9826
3.3675 1.9524 -2.0194 0.9826
2.7206 2.7707 -2.0145 0.9827
2.4590 3.0003 -2.0125 0.9827
2.1781 3.2052 -2.0104 0.9827
0.9095 3.7479 -2.0007 0.9828
0.5693 3.8094 -1.9982 0.9828
-0.9405 0.1770 -0.5242 0.9956
-0.9417 0.0062 -0.5158 0.9957
-0.9251 -0.2486 -0.5246 0.9956
-0.8945 -0.4232 -0.5420 0.9955
-0.8674 -0.5101 -0.5511 0.9954
-2.0119 -3.0004 -1.9786 0.9837
-1.4473 -3.3184 -1.9829 0.9836
-0.8339 -3.5317 -1.9875 0.9836
-0.5148 -3.5966 -1.9899 0.9836
-0.1908 -3.6327 -1.9924 0.9835
0.1356 -3.6397 -1.9949 0.9835
0.4616 -3.6174 -1.9973 0.9835
1.4118 -3.3766 -2.0045 0.9834
1.9961 -3.0773 -2.0090 0.9834
2.2660 -2.8890 -2.0110 0.9834
2.5181 -2.6770 -2.0129 0.9834
2.7502 -2.4428 -2.0147 0.9834
2.9603 -2.1883 -2.0163 0.9834
3.1466 -1.9157 -2.0177 0.9833
3.3076 -1.6271 -2.0189 0.9833
3.4418 -1.3249 -2.0199 0.9833
1.8844 -0.3586 -1.0506 0.9913
1.8890 -0.1864 -1.0396 0.9914
1.8744 -0.0162 -1.0267 0.9915
1.8880 0.1533 -1.0375 0.9914
1.8845 0.5022 -1.0682 0.9911
3.4645 1.2652 -2.0201 0.9833
3.1798 1.8611 -2.0179 0.9833
2.0495 3.0429 -2.0094 0.9834
1.4704 3.3524 -2.0050 0.9834
0.8466 3.5526 -2.0003 0.9835
0.1986 3.6377 -1.9954 0.9835
-0.1279 3.6364 -1.9929 0.9835
-1.6821 3.2022 -1.9811 0.9836
-2.2219 2.8448 -1.9770 0.9837
-2.6890 2.3983 -1.9735 0.9837
-2.8908 2.1462 -1.9719 0.9837
-0.9097 0.3523 -0.5343 0.9956
-0.9473 0.0954 -0.5215 0.9957
-0.9422 0.0101 -0.5161 0.9957
-0.9472 -0.0750 -0.5204 0.9957
-0.8956 -0.4192 -0.5416 0.9955
-2.9356 -2.0833 -1.9716 0.9837
-2.7393 -2.3397 -1.9731 0.9837
-2.2818 -2.7958 -1.9765 0.9837
-2.0242 -2.9920 -1.9785 0.9837
-1.4609 -3.3123 -1.9828 0.9836
-1.1597 -3.4338 -1.9850 0.9836
-0.5296 -3.5942 -1.9898 0.9836
0.7700 -3.5689 -1.9997 0.9835
1.9833 -3.0853 -2.0089 0.9834
2.7400 -2.4540 -2.0146 0.9834
2.9512 -2.2004 -2.0162 0.9834
3.3008 -1.6406 -2.0189 0.9833
3.4362 -1.3390 -2.0199 0.9833
1.8814 -0.5449 -1.0728 0.9911
1.8848 -0.3668 -1.0517 0.9913
1.8756 -0.0240 -1.0274 0.9915
1.8877 0.1455 -1.0370 0.9914
3.3422 1.5560 -2.0192 0.9833
3.1875 1.8481 -2.0180 0.9833
3.0071 2.1248 -2.0166 0.9833
2.0621 3.0346 -2.0095 0.9834
0.2136 3.6371 -1.9955 0.9835
-0.7583 3.5498 -1.9881 0.9836
-1.0719 3.4635 -1.9857 0.9836
-0.8782 0.1652 -0.5160 0.9959
-0.8822 0.0852 -0.5117 0.9959
-0.8822 -0.0735 -0.5111 0.9959
-0.8793 -0.1535 -0.5154 0.9959
-0.8686 -0.2334 -0.5193 0.9959
-0.8008 -0.5733 -0.5686 0.9955
-2.3825 -2.4566 -1.9758 0.9843
-1.3734 -3.1489 -1.9834 0.9843
-1.0870 -3.2629 -1.9856 0.9842
-0.7912 -3.3509 -1.9878 0.9842
-0.4884 -3.4122 -1.9901 0.9842
-0.1810 -3.4463 -1.9925 0.9842
0.4379 -3.4314 -1.9972 0.9841
1.0456 -3.3058 -2.0018 0.9841
1.3390 -3.2024 -2.0040 0.9841
1.6222 -3.0728 -2.0061 0.9841
1.8929 -2.9181 -2.0082 0.9841
2.1487 -2.7395 -2.0101 0.9840
2.3876 -2.5383 -2.0119 0.9840
2.8067 -2.0747 -2.0151 0.9840
2.9832 -1.8162 -2.0164 0.9840
3.1357 -1.5425 -2.0176 0.9840
1.7357 -0.3303 -1.0201 0.9919
1.7413 -0.1718 -1.0102 0.9920
1.7282 -0.0150 -0.9978 0.9920
1.7399 0.1413 -1.0078 0.9920
1.7297 0.4610 -1.0335 0.9918
1.7028 0.6218 -1.0466 0.9917
3.0146 1.7645 -2.0167 0.9840
2.6477 2.2709 -2.0139 0.9840
1.9435 2.8855 -2.0086 0.9841
1.3945 3.1794 -2.0044 0.9841
1.1029 3.2879 -2.0022 0.9841
0.8030 3.3696 -1.9999 0.9841
0.1884 3.4508 -1.9953 0.9842
-0.1214 3.4497 -1.9929 0.9842
-0.4294 3.4210 -1.9906 0.9842
-1.0306 3.2819 -1.9860 0.9842
-1.3190 3.1729 -1.9839 0.9843
-1.5962 3.0388 -1.9818 0.9843
-1.8601 2.8806 -1.9798 0.9843
-2.3400 2.4979 -1.9761 0.9843
-2.5523 2.2764 -1.9745 0.9843
-0.8030 0.5962 -0.5774 0.9954
-0.8081 0.4943 -0.5469 0.9956
-0.8556 0.3313 -0.5297 0.9958
-0.8660 0.2488 -0.5202 0.9958
-0.8822 0.0889 -0.5119 0.9959
-0.8788 0.0094 -0.5074 0.9959
-0.8821 -0.0698 -0.5109 0.9959
-0.8796 -0.1498 -0.5152 0.9959
-0.8692 -0.2297 -0.5191 0.9959
-0.8589 -0.3117 -0.5275 0.9958
-0.8416 -0.3940 -0.5365 0.9957
-0.8002 -0.5679 -0.5665 0.9955
-2.6000 -2.2207 -1.9741 0.9843
-2.3925 -2.4467 -1.9757 0.9843
-1.9210 -2.8395 -1.9793 0.9843
-1.6606 -3.0031 -1.9813 0.9843
-1.1004 -3.2582 -1.9855 0.9842
-0.8050 -3.3474 -1.9877 0.9842
-0.5025 -3.4100 -1.9900 0.9842
-0.1952 -3.4453 -1.9924 0.9842
0.1144 -3.4530 -1.9947 0.9842
0.7304 -3.3851 -1.9994 0.9841
1.6094 -3.0793 -2.0060 0.9841
1.8807 -2.9258 -2.0081 0.9841
2.3771 -2.5480 -2.0118 0.9840
2.5979 -2.3267 -2.0135 0.9840
2.7980 -2.0862 -2.0150 0.9840
2.9756 -1.8284 -2.0164 0.9840
3.1293 -1.5554 -2.0176 0.9840
1.7382 -0.6773 -1.0770 0.9914
1.7254 -0.4997 -1.0371 0.9917
1.7292 -0.0221 -0.9985 0.9920
1.7395 0.1341 -1.0073 0.9920
1.7389 0.2924 -1.0181 0.9919
1.7302 0.4535 -1.0327 0.9918
1.7045 0.6145 -1.0461 0.9917
2.8510 2.0144 -2.0155 0.9840
2.4420 2.4870 -2.0124 0.9840
1.6881 3.0381 -2.0066 0.9841
1.4077 3.1738 -2.0045 0.9841
1.1165 3.2835 -2.0023 0.9841
0.5115 3.4222 -1.9977 0.9841
0.2026 3.4502 -1.9954 0.9842
-0.1071 3.4504 -1.9930 0.9842
-1.0171 3.2863 -1.9861 0.9842
