ply
format ascii 1.0
element vertex 1577
property float32 x
property float32 y
property float32 z
property float32 I
end_header
6.9408 8.3119 1.9094 0.9570
5.3384 -13.5725 2.5717 0.9425
6.3536 8.9754 1.9390 0.9563
-2.8518 9.9107 1.8184 0.9590
5.4558 -13.4786 2.2276 0.9429
6.8000 8.1433 1.6253 0.9580
1.2413 18.1152 2.7816 0.9292
5.3302 -13.5515 2.2308 0.9428
6.9085 8.1091 1.6320 0.9578
6.7995 8.1427 1.3814 0.9581
5.5392 9.7532 1.4606 0.9558
4.8995 10.7715 1.5410 0.9534
-2.9695 9.9486 1.3520 0.9590
5.3220 -13.5308 1.8934 0.9430
6.9080 8.1085 1.3871 0.9579
5.7065 9.8206 1.4791 0.9552
4.8987 10.4934 1.5080 0.9544
5.4392 -13.4377 1.5567 0.9433
5.5245 9.7273 1.2012 0.9560
4.7238 10.3851 1.2251 0.9551
-2.9640 9.9305 1.1128 0.9592
7.7691 9.1192 1.2864 0.9529
6.3364 8.9510 1.1776 0.9568
5.6548 9.7316 1.2086 0.9557
4.7850 10.2499 1.2147 0.9555
-2.8363 9.8567 1.1014 0.9596
-8.2602 16.6966 2.0003 0.9278
4.7225 10.3824 0.9655 0.9552
5.3059 -13.4899 1.2271 0.9435
6.7292 9.5060 0.9859 0.9543
-2.8312 9.8390 0.8667 0.9597
6.6514 9.5956 0.7240 0.9543
-2.9533 9.8946 0.6403 0.9595
5.2980 -13.4697 0.8975 0.9436
4.7825 10.2445 0.7011 0.9557
-2.8262 9.8214 0.6337 0.9599
7.9585 9.5306 0.4896 0.9515
5.9307 10.4426 0.4735 0.9531
5.3757 11.8182 0.5119 0.9494
-2.9480 9.8769 0.4064 0.9596
5.4327 11.6373 0.5064 0.9499
7.9648 9.5382 0.2099 0.9515
7.2838 10.5080 0.2160 0.9501
-2.9428 9.8592 0.1738 0.9597
5.2822 -13.4295 0.2438 0.9439
-2.8161 9.7867 0.1720 0.9601
7.2877 10.5136 -0.0720 0.9501
5.2743 -13.4096 -0.0811 0.9440
-2.9323 9.8242 -0.2887 0.9598
7.0843 10.0075 -0.3452 0.9521
-16.4650 6.8534 -0.5022 0.9311
-3.5859 -6.3872 -0.3715 0.9711
5.3828 -13.2981 -0.7276 0.9442
10.5974 6.0196 -0.6181 0.9524
8.0106 9.5930 -0.6338 0.9512
7.0171 10.1232 -0.6247 0.9519
2.1702 13.6181 -0.6994 0.9463
-15.4437 6.2500 -0.8449 0.9355
-14.6564 -12.1180 -0.9644 0.9267
-4.4565 -6.3618 -0.3939 0.9694
-3.6713 -6.3906 -0.3738 0.9709
-3.1432 -6.8206 -0.3809 0.9704
5.2587 -13.3698 -0.7286 0.9441
10.6930 5.9350 -0.6202 0.9522
10.5645 7.1706 -0.6475 0.9501
-15.3640 6.3951 -0.8440 0.9355
-14.6563 -11.8762 -0.9567 0.9272
-3.5382 -6.3023 -0.5299 0.9714
-3.0702 -6.8391 -0.5497 0.9704
12.5673 5.7174 -1.0123 0.9461
10.3942 5.9042 -0.8765 0.9532
10.3026 7.1425 -0.9192 0.9510
6.6342 9.5707 -0.8539 0.9544
5.9155 10.4158 -0.8783 0.9531
2.1703 13.6182 -1.0111 0.9462
-2.9303 14.4226 -1.0791 0.9427
-18.6912 5.6782 -1.4323 0.9246
-14.6605 -12.1214 -1.3948 0.9265
-4.3918 -6.2695 -0.5613 0.9698
-3.6158 -6.2939 -0.5322 0.9713
5.2509 -13.3500 -1.0518 0.9441
10.4782 5.8158 -0.8787 0.9531
6.7106 9.4797 -0.8516 0.9545
2.3052 13.5995 -1.0114 0.9462
-2.7801 14.4119 -1.0762 0.9428
-8.5308 13.9442 -1.1986 0.9365
-18.0390 5.6753 -1.3866 0.9270
-14.6605 -11.8795 -1.3835 0.9271
-4.2403 -6.1822 -0.7197 0.9703
-3.4868 -6.2107 -0.6838 0.9718
1.3364 -11.4926 -1.1108 0.9546
5.3668 -13.2587 -1.3732 0.9441
12.2453 5.5709 -1.2916 0.9474
10.1876 5.7868 -1.1248 0.9540
4.8735 19.2747 -1.9087 0.9232
2.1702 13.6181 -1.3239 0.9461
-2.7148 13.3623 -1.3091 0.9467
-6.8993 17.2898 -1.7872 0.9279
-8.3385 16.4441 -1.7701 0.9286
-8.7950 14.0622 -1.5923 0.9355
-10.9311 14.4230 -1.7374 0.9299
-12.0856 13.2851 -1.7242 0.9304
-14.0988 10.7939 -1.7047 0.9311
-15.6569 8.0355 -1.6895 0.9317
-14.7931 5.9867 -1.5321 0.9379
-18.1175 5.5040 -1.8179 0.9267
-18.4994 3.8525 -1.8141 0.9269
-18.8537 0.4917 -1.8107 0.9270
-18.8247 -1.1978 -1.8109 0.9270
-18.6582 -2.8803 -1.8125 0.9269
-18.3551 -4.5459 -1.8154 0.9268
-17.9162 -6.1848 -1.8196 0.9267
-16.6386 -9.3427 -1.8320 0.9262
-13.7121 -11.3372 -1.7081 0.9310
-6.2444 -6.1834 -0.8437 0.9653
-4.3288 -6.1796 -0.7243 0.9701
-3.5671 -6.2091 -0.6875 0.9716
-3.0275 -6.5697 -0.6945 0.9714
-3.0611 -18.6163 -1.8113 0.9270
0.3124 -19.2042 -1.8439 0.9257
3.7995 -19.1863 -1.8777 0.9244
5.2431 -13.3301 -1.3752 0.9441
12.5724 5.5705 -1.3202 0.9462
10.1417 6.8837 -1.1768 0.9519
1.5292 19.4920 -1.8771 0.9244
-0.2194 19.3694 -1.8597 0.9251
-1.9335 19.0890 -1.8420 0.9258
-2.5961 13.4581 -1.3159 0.9464
-2.7914 9.7007 -0.9691 0.9602
-9.5413 15.5959 -1.7553 0.9292
-13.0354 12.2146 -1.7150 0.9307
-14.8499 9.5953 -1.6974 0.9314
-14.7356 6.1335 -1.5324 0.9379
-18.0672 5.6842 -1.8184 0.9267
-18.7247 2.3637 -1.8119 0.9270
-18.3952 -4.3635 -1.8150 0.9268
-17.4130 -7.6126 -1.8245 0.9265
-16.7227 -9.1739 -1.8312 0.9262
-15.9030 -10.6797 -1.8391 0.9259
-6.3713 -6.1856 -0.8525 0.9649
-3.4340 -6.1167 -0.8333 0.9721
-2.9338 -6.5354 -0.8509 0.9716
-4.9252 -14.2705 -1.7932 0.9410
-3.6532 -14.7546 -1.8056 0.9406
0.4060 -15.5260 -1.8449 0.9394
1.3367 -11.4954 -1.3747 0.9545
3.2142 -15.4293 -1.8721 0.9385
4.2787 -14.0808 -1.7481 0.9424
5.0676 -12.5196 -1.6044 0.9470
6.4254 -12.5178 -1.6714 0.9449
8.6608 -13.6966 -1.9249 0.9368
9.9141 -12.9478 -1.9371 0.9364
11.0986 -12.0798 -1.9486 0.9361
12.3414 -11.2256 -1.9817 0.9350
14.2946 -10.8323 -2.1305 0.9303
17.8747 -3.6303 -2.1666 0.9292
17.6674 4.4683 -2.1647 0.9292
17.1575 6.0179 -2.1598 0.9294
12.2815 5.5874 -1.6027 0.9471
10.0257 6.9505 -1.4491 0.9520
12.6928 10.6004 -1.9644 0.9356
7.9661 9.5398 -1.4763 0.9512
6.5901 9.5072 -1.3741 0.9545
5.9134 10.4121 -1.4224 0.9529
5.2848 15.0705 -1.8970 0.9377
3.8892 15.3820 -1.8847 0.9381
2.1702 13.6179 -1.6380 0.9460
-1.7040 15.3129 -1.8302 0.9398
-2.7700 13.6337 -1.6526 0.9455
-9.8883 10.8697 -1.7455 0.9425
-15.2140 3.1683 -1.8460 0.9393
-15.4863 -0.9854 -1.8433 0.9394
-15.0933 -3.7381 -1.8470 0.9393
-14.2478 -6.3972 -1.8552 0.9390
-6.0683 -6.0091 -1.0144 0.9662
-3.5129 -6.1148 -0.8377 0.9720
-3.7958 -14.7066 -1.8042 0.9407
-2.4818 -15.0931 -1.8169 0.9402
0.2524 -15.5168 -1.8434 0.9394
1.2162 -11.4431 -1.3669 0.9547
4.9244 -12.5198 -1.5981 0.9473
10.9718 -12.1811 -1.9474 0.9361
15.1828 -9.7044 -2.1404 0.9300
16.0536 -8.3394 -2.1489 0.9297
16.7914 -6.8921 -2.1561 0.9295
17.8347 -3.8060 -2.1662 0.9292
18.1277 -2.1975 -2.1691 0.9291
18.2385 1.0701 -2.1702 0.9290
18.0549 2.6959 -2.1684 0.9291
17.7143 4.2945 -2.1652 0.9292
17.2209 5.8498 -2.1604 0.9294
10.1891 5.6553 -1.3843 0.9541
5.9942 10.3158 -1.4172 0.9531
6.8013 14.5689 -1.9099 0.9373
5.4371 15.0280 -1.8984 0.9377
4.0440 15.3542 -1.8861 0.9380
2.3055 13.6013 -1.6387 0.9459
-0.1760 15.5382 -1.8458 0.9393
-1.5540 15.3421 -1.8317 0.9398
-2.6322 13.6451 -1.6507 0.9456
-2.7865 9.6836 -1.1969 0.9602
-6.6339 13.4091 -1.7771 0.9415
-8.8121 11.8688 -1.7559 0.9422
-10.6757 10.0035 -1.7379 0.9428
-14.4081 5.9972 -1.8538 0.9391
-15.1843 3.3189 -1.8463 0.9393
-15.4026 1.9443 -1.8441 0.9394
-15.3680 -2.2172 -1.8444 0.9394
-15.1269 -3.5882 -1.8467 0.9393
-14.7723 -4.9368 -1.8501 0.9392
-14.3059 -6.2543 -1.8546 0.9390
-6.1735 -5.9936 -1.0221 0.9659
-4.1225 -6.0105 -1.0327 0.9710
-4.1465 -12.0143 -1.8008 0.9499
-0.8207 -12.9111 -1.8331 0.9491
0.3402 -13.0121 -1.8443 0.9488
1.3372 -11.4998 -1.6404 0.9543
3.8543 -12.6843 -1.8784 0.9479
7.2078 -11.3988 -1.9109 0.9470
8.5867 -11.2143 -2.0012 0.9445
10.9615 -9.9704 -2.0995 0.9419
12.6622 -7.9183 -2.1160 0.9415
15.0641 1.0332 -2.1394 0.9408
14.9002 2.3755 -2.1379 0.9409
14.6086 3.6947 -2.1351 0.9409
14.1926 4.9780 -2.1310 0.9410
13.6568 6.2131 -2.1259 0.9412
10.0824 5.7270 -1.6429 0.9542
9.9984 6.9316 -1.7238 0.9520
9.6560 9.6567 -1.9349 0.9463
6.5976 9.5180 -1.6409 0.9543
6.4680 11.3886 -1.8557 0.9485
4.4001 12.5477 -1.8840 0.9477
3.2400 12.8143 -1.8728 0.9480
-1.4265 12.8192 -1.8275 0.9492
-5.7010 11.2429 -1.7861 0.9503
-8.3601 9.1899 -1.7603 0.9510
-10.0821 7.7188 -1.7991 0.9500
-12.2641 4.9632 -1.8746 0.9480
-12.6347 3.8383 -1.8710 0.9481
-13.0857 1.5207 -1.8666 0.9482
-13.1638 0.3433 -1.8658 0.9482
-13.1430 -0.8363 -1.8660 0.9482
-13.0234 -2.0104 -1.8671 0.9482
-12.0801 -5.4239 -1.8762 0.9479
-11.5761 -6.5001 -1.8811 0.9478
-10.9814 -7.5330 -1.8868 0.9476
-4.2089 -6.0084 -1.0394 0.9708
-4.2623 -11.9653 -1.7997 0.9500
-3.1926 -12.3696 -1.8101 0.9497
-2.0850 -12.6804 -1.8208 0.9494
7.0907 -11.4626 -1.9098 0.9470
8.4141 -11.2166 -1.9867 0.9449
9.8512 -10.9370 -2.0856 0.9423
12.5786 -8.0399 -2.1152 0.9415
14.3804 -4.4463 -2.1327 0.9410
14.7452 -3.1467 -2.1363 0.9409
15.0941 -0.4683 -2.1397 0.9408
15.0742 0.8844 -2.1395 0.9408
14.9246 2.2285 -2.1381 0.9409
14.6469 3.5509 -2.1354 0.9409
13.7216 6.0797 -2.1265 0.9412
10.1911 5.6564 -1.6515 0.9540
9.7558 9.5656 -1.9359 0.9463
8.8190 10.3516 -1.9268 0.9465
6.5564 11.2833 -1.8490 0.9486
5.6612 12.1267 -1.8962 0.9474
4.5268 12.5118 -1.8853 0.9477
3.3687 12.7901 -1.8740 0.9480
2.1970 12.9613 -1.8627 0.9483
1.0219 13.0258 -1.8513 0.9486
-0.1471 12.9850 -1.8400 0.9489
-1.3007 12.8412 -1.8288 0.9492
-2.4301 12.5974 -1.8178 0.9495
-2.5718 8.9375 -1.3177 0.9631
-6.5482 10.7035 -1.7779 0.9506
-8.2729 9.2765 -1.7611 0.9510
-11.1751 7.2208 -1.8852 0.9477
-11.7421 6.1736 -1.8797 0.9478
-12.2174 5.0854 -1.8750 0.9479
-12.5985 3.9637 -1.8713 0.9480
-12.8836 2.8160 -1.8686 0.9481
-13.1502 -0.7064 -1.8659 0.9482
-12.5300 -4.1874 -1.8719 0.9480
-11.6362 -6.3835 -1.8805 0.9478
-11.0513 -7.4215 -1.8862 0.9476
-3.3454 -5.9589 -1.1258 0.9727
-0.7133 -11.2227 -1.8525 0.9554
0.2935 -11.2264 -1.8501 0.9555
2.3378 -11.2223 -1.8884 0.9546
4.5366 -11.2077 -1.9919 0.9522
5.6641 -11.0347 -2.0433 0.9510
8.5255 -9.2793 -2.0759 0.9502
9.3581 -8.5120 -2.0840 0.9500
10.1180 -7.6673 -2.0914 0.9498
10.7976 -6.7523 -2.0980 0.9497
11.3898 -5.7746 -2.1037 0.9495
12.2876 -3.6667 -2.1125 0.9493
12.7730 -1.4205 -2.1172 0.9492
12.4409 3.1465 -2.1140 0.9493
12.0900 4.2405 -2.1107 0.9494
11.6378 5.2945 -2.1063 0.9495
5.6752 6.7964 -1.4586 0.9647
5.6851 10.0101 -1.8964 0.9544
2.7800 10.9949 -1.8683 0.9551
0.7672 11.1963 -1.8488 0.9555
-0.2367 11.1609 -1.8391 0.9558
-1.2282 11.0370 -1.8294 0.9560
-3.5651 8.9341 -1.5846 0.9618
-5.7476 9.1897 -1.7856 0.9570
-6.5195 8.6021 -1.7781 0.9572
-8.3895 7.7070 -1.8767 0.9549
-9.7435 6.1602 -1.8990 0.9543
-10.6368 4.3047 -1.8904 0.9545
-11.3559 1.3197 -1.8833 0.9547
-11.4061 -0.7257 -1.8828 0.9547
-11.3014 -1.7446 -1.8838 0.9547
-10.8351 -3.7404 -1.8883 0.9546
-10.4760 -4.7037 -1.8918 0.9545
-9.5161 -6.5278 -1.9011 0.9543
-6.0282 -5.9693 -1.3976 0.9662
-2.8428 -6.1687 -1.1189 0.9728
-2.7306 -7.6653 -1.3405 0.9676
-1.8444 -11.2167 -1.8726 0.9550
1.1931 -11.2257 -1.8597 0.9553
2.2225 -11.2228 -1.8847 0.9547
4.4087 -11.2088 -1.9842 0.9523
5.5498 -11.0799 -2.0415 0.9510
6.5685 -10.6185 -2.0569 0.9506
12.5562 -2.6796 -2.1151 0.9493
12.8502 -0.3987 -2.1180 0.9492
12.8334 0.7530 -2.1178 0.9492
12.4732 3.0239 -2.1143 0.9493
12.1337 4.1217 -2.1111 0.9494
10.3585 5.7493 -1.9517 0.9531
10.5248 7.1437 -2.0955 0.9497
7.5361 8.8457 -1.9144 0.9540
4.8488 10.3865 -1.8883 0.9546
3.8804 10.7253 -1.8790 0.9548
-1.1197 11.0549 -1.8305 0.9560
-1.7246 8.9404 -1.5000 0.9638
-4.8303 9.7636 -1.7945 0.9568
-7.1589 8.0274 -1.7719 0.9573
-9.1128 7.1205 -1.9052 0.9542
-10.1805 5.3525 -1.8948 0.9544
-10.5960 4.4105 -1.8908 0.9545
-10.9294 3.4385 -1.8875 0.9546
-11.4210 0.4108 -1.8827 0.9547
-11.4123 -0.6130 -1.8828 0.9547
-10.8696 -3.6325 -1.8880 0.9546
-10.0880 -5.5342 -1.8955 0.9544
-8.9898 -7.2846 -1.9062 0.9542
-6.1370 -5.9582 -1.4091 0.9659
-5.1450 -5.9790 -1.2994 0.9685
-3.3278 -5.9274 -1.2777 0.9727
-3.4025 -9.8585 -1.9603 0.9584
-2.5175 -10.1678 -1.9689 0.9583
-0.6705 -10.5487 -1.9867 0.9579
0.2776 -10.6153 -1.9959 0.9577
2.1857 -10.4921 -2.0144 0.9573
4.9595 -9.6619 -2.0413 0.9568
6.6557 -8.6924 -2.0578 0.9564
8.8145 -6.6795 -2.0787 0.9560
9.9148 -5.0268 -2.0894 0.9558
10.3456 -4.1275 -2.0936 0.9557
10.9462 -2.2232 -2.0995 0.9556
11.1545 0.7651 -2.1015 0.9555
11.0352 1.7594 -2.1004 0.9555
10.8230 2.7373 -2.0983 0.9556
10.5199 3.6898 -2.0954 0.9556
9.6549 5.4842 -2.0871 0.9558
9.1019 6.3101 -2.0817 0.9559
8.4759 7.0787 -2.0757 0.9560
7.6998 7.7003 -2.0468 0.9566
4.9643 8.7410 -1.8894 0.9599
1.5543 9.7535 -1.8564 0.9606
0.6721 9.8080 -1.8478 0.9608
-0.2075 9.7835 -1.8393 0.9610
-1.7990 8.8545 -1.6983 0.9639
-2.6420 8.8516 -1.7363 0.9631
-4.3295 8.5380 -1.7993 0.9618
-8.0900 6.1936 -1.9151 0.9594
-8.5900 5.4309 -1.9102 0.9595
-9.6705 2.9378 -1.8997 0.9597
-10.0212 1.1646 -1.8963 0.9598
-10.0821 0.2629 -1.8957 0.9598
-9.5587 -3.2997 -1.9007 0.9597
-9.2400 -4.1487 -1.9038 0.9596
-7.8607 -6.4992 -1.9171 0.9593
-6.0156 -5.9568 -1.5912 0.9661
-5.0450 -5.9813 -1.4708 0.9687
-4.1831 -5.9716 -1.3704 0.9708
-2.7198 -7.6349 -1.5234 0.9676
-2.6165 -10.1375 -1.9679 0.9583
-1.7064 -10.3773 -1.9767 0.9581
1.1269 -10.6030 -2.0042 0.9575
2.0809 -10.5079 -2.0134 0.9573
3.0267 -10.3263 -2.0226 0.9571
3.9563 -10.0586 -2.0316 0.9570
4.8616 -9.7059 -2.0404 0.9568
6.5668 -8.7541 -2.0569 0.9564
8.0796 -7.4962 -2.0716 0.9561
8.7453 -6.7641 -2.0781 0.9560
9.3415 -5.9708 -2.0839 0.9559
9.8623 -5.1232 -2.0889 0.9558
10.9225 -2.3309 -2.0992 0.9556
11.0963 -1.3451 -2.1009 0.9555
11.1619 0.6549 -2.1016 0.9555
11.0530 1.6504 -2.1006 0.9555
10.8509 2.6306 -2.0986 0.9556
10.1764 4.5089 -2.0921 0.9557
8.5483 6.9970 -2.0764 0.9560
5.8883 6.9115 -1.7066 0.9637
4.1633 5.8812 -1.3544 0.9711
5.0527 8.6954 -1.8903 0.9599
2.5283 9.5994 -1.8658 0.9604
1.6514 9.7426 -1.8573 0.9606
-0.1109 9.7900 -1.8403 0.9609
-1.7086 8.8570 -1.6955 0.9640
-3.4302 8.8489 -1.7838 0.9621
-4.2468 8.5842 -1.8002 0.9618
-4.9784 8.1375 -1.7931 0.9619
-5.7346 7.7238 -1.8082 0.9616
-6.8031 7.6283 -1.9212 0.9593
-7.4586 6.9889 -1.9212 0.9593
-8.0308 6.2751 -1.9156 0.9594
-8.5382 5.5170 -1.9107 0.9595
-8.9776 4.7201 -1.9064 0.9596
-9.3464 3.8903 -1.9029 0.9596
-9.6424 3.0336 -1.9000 0.9597
-10.0791 0.3625 -1.8957 0.9598
-10.0715 -0.5410 -1.8958 0.9598
-9.9869 -1.4408 -1.8966 0.9598
-9.2786 -4.0564 -1.9034 0.9596
-7.9220 -6.4193 -1.9165 0.9593
-5.1483 -5.9828 -1.4836 0.9684
-3.3278 -5.9274 -1.4369 0.9726
-1.4281 -9.2548 -1.9794 0.9624
-0.5964 -9.3835 -1.9875 0.9623
0.2468 -9.4378 -1.9957 0.9621
1.9412 -9.3187 -2.0121 0.9618
3.6000 -8.8939 -2.0282 0.9615
4.3983 -8.5686 -2.0359 0.9614
5.1664 -8.1704 -2.0434 0.9612
5.8973 -7.7018 -2.0505 0.9611
7.2208 -6.5680 -2.0633 0.9609
7.8009 -5.9115 -2.0689 0.9608
8.3189 -5.2022 -2.0740 0.9607
9.4518 -2.8205 -2.0850 0.9605
9.6764 -1.9653 -2.0872 0.9604
9.8813 -0.2089 -2.0892 0.9604
9.8594 0.6762 -2.0890 0.9604
9.7546 1.5552 -2.0880 0.9604
9.5681 2.4199 -2.0862 0.9605
8.9580 4.0754 -2.0803 0.9606
8.0539 5.5836 -2.0715 0.9607
7.5025 6.2658 -2.0662 0.9608
5.7488 6.8845 -1.8959 0.9640
2.9270 8.3468 -1.8697 0.9645
2.1596 8.5412 -1.8622 0.9646
1.3809 8.6649 -1.8547 0.9648
0.5974 8.7179 -1.8471 0.9649
-0.1845 8.7005 -1.8395 0.9650
-2.4591 8.2390 -1.8175 0.9655
-3.1745 7.9553 -1.8105 0.9656
-3.9159 7.7225 -1.8303 0.9652
-6.1563 6.7673 -1.9338 0.9633
-6.7182 6.1717 -1.9284 0.9634
-8.0614 4.1372 -1.9153 0.9636
-8.3855 3.3936 -1.9122 0.9637
-8.8358 1.8400 -1.9078 0.9638
-9.0140 0.2351 -1.9060 0.9638
-8.9995 -0.5726 -1.9062 0.9638
-8.2574 -3.7075 -1.9133 0.9637
-7.0196 -5.8038 -1.9253 0.9634
-6.0956 -6.0361 -1.8133 0.9655
-5.0483 -5.9853 -1.6551 0.9685
-2.3299 -9.0271 -1.9707 0.9626
-1.5187 -9.2361 -1.9785 0.9625
0.1535 -9.4355 -1.9948 0.9622
1.8483 -9.3333 -2.0112 0.9618
3.5105 -8.9252 -2.0273 0.9615
4.3117 -8.6081 -2.0351 0.9614
5.8188 -7.7568 -2.0497 0.9611
6.5109 -7.2285 -2.0564 0.9610
7.7399 -5.9865 -2.0683 0.9608
8.7233 -4.5316 -2.0779 0.9606
9.1103 -3.7394 -2.0817 0.9605
9.6556 -2.0606 -2.0870 0.9604
9.8083 -1.1890 -2.0885 0.9604
9.8786 -0.3065 -2.0892 0.9604
9.7702 1.4589 -2.0881 0.9604
9.3348 3.1709 -2.0839 0.9605
7.5663 6.1932 -2.0668 0.9608
6.2959 7.3900 -2.0521 0.9611
4.4901 7.7272 -1.8891 0.9641
2.2448 8.5232 -1.8631 0.9646
1.4670 8.6547 -1.8555 0.9647
0.6838 8.7155 -1.8479 0.9649
-0.0986 8.7059 -1.8404 0.9650
-1.6357 8.4796 -1.8255 0.9653
-2.3787 8.2664 -1.8183 0.9654
-5.4671 7.3635 -1.9386 0.9632
-6.6589 6.2396 -1.9289 0.9634
-7.1721 5.6041 -1.9240 0.9635
-8.3529 3.4768 -1.9125 0.9637
-8.8180 1.9274 -1.9080 0.9638
-9.0114 0.3241 -1.9061 0.9638
-9.0045 -0.4837 -1.9061 0.9638
-8.2921 -3.6251 -1.9130 0.9637
-5.1515 -5.9866 -1.6695 0.9682
-4.0976 -5.9742 -1.7026 0.9707
-3.3278 -5.9274 -1.5976 0.9725
-2.7623 -6.1532 -1.5852 0.9727
-1.2853 -8.3296 -1.9808 0.9660
-0.5366 -8.4420 -1.9881 0.9658
1.7443 -8.3734 -2.0102 0.9655
4.6350 -7.3299 -2.0382 0.9650
6.4716 -5.8865 -2.0560 0.9647
7.4517 -4.6599 -2.0656 0.9645
7.8537 -3.9818 -2.0695 0.9645
8.1915 -3.2681 -2.0728 0.9644
8.4618 -2.5251 -2.0754 0.9644
8.6620 -1.7593 -2.0773 0.9643
8.7900 -0.9776 -2.0786 0.9643
8.5654 2.1663 -2.0765 0.9643
8.3280 2.9210 -2.0742 0.9644
8.0217 3.6494 -2.0712 0.9644
7.2153 5.0021 -2.0634 0.9646
5.5843 6.6875 -2.0476 0.9648
4.1497 5.9865 -1.7119 0.9705
3.5045 7.7045 -1.9892 0.9658
2.7057 7.7158 -1.9216 0.9670
1.2410 7.7875 -1.8533 0.9681
-0.1660 7.8260 -1.8397 0.9683
-1.5689 7.7221 -1.8519 0.9681
-2.3023 7.7136 -1.8919 0.9675
-3.7606 7.4162 -1.9543 0.9664
-4.4015 7.0375 -1.9508 0.9665
-6.5213 4.9927 -1.9303 0.9668
-6.9278 4.3800 -1.9263 0.9669
-7.2791 3.7358 -1.9229 0.9669
-7.8075 2.3718 -1.9178 0.9670
-8.0935 0.9406 -1.9150 0.9671
-8.1299 -0.5173 -1.9146 0.9671
-7.9160 -1.9605 -1.9166 0.9670
-7.1387 -4.0084 -1.9241 0.9669
-6.7640 -4.6400 -1.9278 0.9669
-6.3352 -5.2379 -1.9319 0.9668
-5.8550 -5.7978 -1.9366 0.9667
-5.3266 -6.3152 -1.9417 0.9666
-4.1858 -5.9754 -1.7147 0.9705
-2.8129 -6.1039 -1.5796 0.9728
-2.0980 -8.1283 -1.9729 0.9661
-1.3670 -8.3132 -1.9800 0.9660
-0.6197 -8.4329 -1.9873 0.9659
0.1380 -8.4858 -1.9946 0.9657
1.6609 -8.3868 -2.0094 0.9655
2.4135 -8.2343 -2.0167 0.9654
3.8698 -7.7259 -2.0308 0.9651
4.5607 -7.3728 -2.0375 0.9650
6.9351 -5.3640 -2.0605 0.9646
7.8124 -4.0584 -2.0691 0.9645
8.1575 -3.3483 -2.0724 0.9644
8.4354 -2.6082 -2.0751 0.9644
8.8421 -0.2743 -2.0791 0.9643
8.7455 1.3059 -2.0782 0.9643
6.7800 5.5496 -2.0592 0.9646
5.6519 6.6341 -2.0483 0.9648
4.1647 5.8833 -1.6941 0.9708
3.5960 7.7030 -1.9979 0.9657
2.0341 7.7230 -1.8770 0.9677
1.3184 7.7780 -1.8541 0.9681
-0.0887 7.8304 -1.8404 0.9683
-0.7862 7.7624 -1.8337 0.9684
-2.2199 7.7147 -1.8867 0.9676
-6.4733 5.0581 -1.9307 0.9668
-6.8856 4.4492 -1.9267 0.9669
-7.2431 3.8082 -1.9232 0.9669
-7.5434 3.1399 -1.9203 0.9670
-8.0842 1.0205 -1.9151 0.9671
-8.1407 0.2928 -1.9145 0.9671
-8.1345 -0.4370 -1.9145 0.9671
-8.0655 -1.1636 -1.9152 0.9671
-7.9342 -1.8821 -1.9165 0.9670
-7.4883 -3.2737 -1.9208 0.9670
-6.3850 -5.1738 -1.9314 0.9668
-5.9103 -5.7381 -1.9360 0.9667
-3.1053 -6.9173 -1.9632 0.9692
-1.1674 -7.5653 -1.9820 0.9689
-0.4872 -7.6648 -1.9886 0.9688
2.2629 -7.4471 -2.0152 0.9684
2.9297 -7.2378 -2.0217 0.9683
5.3440 -5.8165 -2.0451 0.9679
5.8574 -5.3278 -2.0501 0.9678
6.7415 -4.2158 -2.0587 0.9677
7.1039 -3.6016 -2.0622 0.9676
7.8322 -1.5907 -2.0693 0.9675
7.9475 -0.8838 -2.0704 0.9675
7.9965 -0.1690 -2.0709 0.9675
7.9790 0.5473 -2.0707 0.9675
7.8949 1.2587 -2.0699 0.9675
7.7452 1.9588 -2.0685 0.9675
6.9198 3.9306 -2.0605 0.9677
5.5921 5.5924 -2.0477 0.9679
5.0563 6.0551 -2.0425 0.9679
3.8739 6.8211 -2.0310 0.9681
2.5776 7.3504 -2.0168 0.9683
1.9005 7.5165 -2.0074 0.9685
-0.1625 7.6645 -1.9849 0.9688
-1.5187 7.4751 -1.9750 0.9690
-2.8145 7.0532 -1.9662 0.9691
-4.0032 6.4007 -1.9547 0.9693
-4.5477 6.0004 -1.9494 0.9694
-5.5178 5.0689 -1.9400 0.9695
-7.1119 2.1605 -1.9245 0.9698
-7.4067 -0.4713 -1.9216 0.9698
-7.3373 -1.1327 -1.9223 0.9698
-7.2110 -1.7859 -1.9235 0.9698
-6.1585 -4.2246 -1.9336 0.9696
-5.7669 -4.7681 -1.9374 0.9696
-5.3287 -5.2766 -1.9417 0.9695
-4.8467 -5.7462 -1.9463 0.9694
-3.4057 -5.9282 -1.7702 0.9721
-1.2416 -7.5507 -1.9813 0.9689
-0.5627 -7.6568 -1.9878 0.9688
0.8169 -7.6858 -2.0012 0.9686
4.1314 -6.6787 -2.0333 0.9681
4.7259 -6.3000 -2.0391 0.9680
5.2848 -5.8673 -2.0445 0.9679
5.8030 -5.3840 -2.0496 0.9678
6.6981 -4.2813 -2.0583 0.9677
7.0667 -3.6710 -2.0618 0.9676
7.3777 -3.0282 -2.0649 0.9676
7.6281 -2.3586 -2.0673 0.9675
7.8155 -1.6679 -2.0691 0.9675
7.9944 -0.2480 -2.0709 0.9675
7.9074 1.1807 -2.0701 0.9675
7.7648 1.8825 -2.0687 0.9675
7.5579 2.5673 -2.0667 0.9676
7.2886 3.2294 -2.0641 0.9676
6.9596 3.8628 -2.0609 0.9676
6.5740 4.4621 -2.0572 0.9677
5.1173 6.0066 -2.0431 0.9679
4.2802 6.0464 -1.9181 0.9699
3.9424 6.7847 -2.0317 0.9681
1.2908 7.6152 -1.9998 0.9686
0.6018 7.6708 -1.9922 0.9687
-0.0869 7.6683 -1.9856 0.9688
-1.4451 7.4914 -1.9754 0.9690
-2.1061 7.3191 -1.9719 0.9690
-2.7456 7.0830 -1.9669 0.9691
-3.3584 6.7883 -1.9609 0.9692
-3.9410 6.4419 -1.9553 0.9693
-4.4895 6.0468 -1.9500 0.9694
-5.8930 4.6046 -1.9363 0.9696
-6.5961 3.4680 -1.9295 0.9697
-7.0910 2.2309 -1.9247 0.9698
-7.2561 1.5860 -1.9231 0.9698
-7.4165 0.2667 -1.9215 0.9698
-7.4108 -0.3981 -1.9216 0.9698
-7.3478 -1.0601 -1.9222 0.9698
-7.2277 -1.7145 -1.9233 0.9698
-6.8202 -2.9816 -1.9272 0.9697
-6.5353 -3.5852 -1.9300 0.9697
-5.3792 -5.2224 -1.9412 0.9695
-4.9018 -5.6964 -1.9458 0.9694
-3.9070 -5.6963 -1.9554 0.9717
-2.2718 -6.5824 -1.9713 0.9715
-1.0682 -6.9226 -1.9829 0.9713
0.8165 -7.0218 -2.0012 0.9710
2.0677 -6.8047 -2.0133 0.9709
2.6762 -6.6117 -2.0192 0.9708
4.3717 -5.7094 -2.0357 0.9705
5.3442 -4.8610 -2.0451 0.9704
5.7694 -4.3720 -2.0493 0.9704
6.1486 -3.8450 -2.0529 0.9703
6.4781 -3.2844 -2.0561 0.9703
7.1401 -1.4502 -2.0626 0.9702
7.2449 -0.8057 -2.0636 0.9702
7.0610 1.7858 -2.0619 0.9702
6.8666 2.4084 -2.0600 0.9702
6.6157 3.0098 -2.0576 0.9702
5.9546 4.1281 -2.0512 0.9703
5.1026 5.1030 -2.0429 0.9704
4.6148 5.5264 -2.0382 0.9705
2.9575 6.5021 -2.0222 0.9707
1.1142 6.9918 -2.0043 0.9710
-1.9945 6.6822 -1.9742 0.9714
-3.1362 6.1847 -1.9631 0.9716
-3.6675 5.8638 -1.9579 0.9717
-4.1672 5.4984 -1.9531 0.9717
-4.6318 5.0916 -1.9486 0.9718
-5.4433 4.1673 -1.9407 0.9719
-5.7845 3.6572 -1.9374 0.9720
-6.5238 1.9819 -1.9302 0.9721
-6.7644 0.7861 -1.9278 0.9721
-6.8062 0.1775 -1.9274 0.9721
-6.7951 -0.4324 -1.9275 0.9721
-6.7312 -1.0391 -1.9281 0.9721
-5.9617 -3.3475 -1.9356 0.9720
-4.8845 -4.8368 -1.9460 0.9718
-3.4057 -5.9282 -1.9355 0.9720
-2.9053 -6.3045 -1.9651 0.9716
-2.3360 -6.5575 -1.9707 0.9715
-1.7448 -6.7599 -1.9764 0.9714
-1.1361 -6.9095 -1.9823 0.9713
0.1146 -7.0441 -1.9944 0.9711
2.6100 -6.6357 -2.0186 0.9708
3.7721 -6.0979 -2.0299 0.9706
4.3139 -5.7507 -2.0351 0.9706
4.8229 -5.3545 -2.0401 0.9705
5.2947 -4.9124 -2.0447 0.9704
5.7247 -4.4278 -2.0488 0.9704
6.1092 -3.9048 -2.0526 0.9703
6.4443 -3.3477 -2.0558 0.9703
6.9547 -2.1503 -2.0608 0.9702
7.1249 -1.5205 -2.0624 0.9702
7.2362 -0.8772 -2.0635 0.9702
7.2782 0.4270 -2.0640 0.9701
7.2085 1.0764 -2.0633 0.9702
7.0789 1.7162 -2.0620 0.9702
6.8908 2.3407 -2.0602 0.9702
6.6461 2.9447 -2.0579 0.9702
5.9962 4.0699 -2.0516 0.9703
5.5974 4.5816 -2.0477 0.9704
3.5998 6.1951 -2.0284 0.9707
3.0226 6.4746 -2.0228 0.9707
2.4240 6.6998 -2.0170 0.9708
-0.0797 7.0387 -1.9927 0.9712
-0.7072 6.9819 -1.9866 0.9712
-1.3252 6.8698 -1.9807 0.9713
-1.9290 6.7038 -1.9748 0.9714
-3.0758 6.2173 -1.9637 0.9716
-3.6104 5.9014 -1.9585 0.9716
-5.4029 4.2217 -1.9411 0.9719
-6.6565 1.4550 -1.9289 0.9721
-6.7566 0.8529 -1.9279 0.9721
-6.7409 -0.9725 -1.9280 0.9721
-6.6304 -1.5728 -1.9291 0.9721
-5.9935 -3.2880 -1.9353 0.9720
-5.6839 -3.8171 -1.9382 0.9719
-3.6014 -5.2508 -1.9584 0.9737
-3.1244 -5.5652 -1.9630 0.9736
-2.0928 -6.0637 -1.9730 0.9735
1.3302 -6.3855 -2.0062 0.9731
1.9016 -6.2580 -2.0117 0.9730
2.4607 -6.0791 -2.0172 0.9729
3.0027 -5.8497 -2.0224 0.9729
4.4802 -4.8762 -2.0368 0.9727
4.9086 -4.4648 -2.0409 0.9726
6.2010 -2.4740 -2.0535 0.9724
6.5536 -1.3310 -2.0569 0.9724
6.6903 -0.1415 -2.0582 0.9724
6.6757 0.4579 -2.0581 0.9724
6.6057 1.0532 -2.0574 0.9724
6.3032 2.2108 -2.0545 0.9724
6.0735 2.7631 -2.0523 0.9725
5.4679 3.7908 -2.0465 0.9725
3.2513 5.7248 -2.0250 0.9728
2.1673 6.1805 -2.0145 0.9730
1.0251 6.4324 -2.0034 0.9731
0.4440 6.4801 -1.9978 0.9732
-0.1373 6.4755 -1.9922 0.9733
-0.7143 6.4191 -1.9866 0.9733
-1.8371 6.1550 -1.9757 0.9735
-2.8900 5.6993 -1.9655 0.9736
-3.3803 5.4046 -1.9607 0.9737
-4.2708 4.6947 -1.9521 0.9738
-6.1550 1.2818 -1.9338 0.9740
-6.2423 0.7254 -1.9329 0.9740
-6.2809 0.1638 -1.9325 0.9740
-6.2116 -0.9589 -1.9332 0.9740
-6.1041 -1.5118 -1.9342 0.9740
-5.9489 -2.0536 -1.9357 0.9740
-5.7470 -2.5804 -1.9377 0.9740
-5.4998 -3.0882 -1.9400 0.9739
-5.2089 -3.5732 -1.9429 0.9739
-4.8762 -4.0317 -1.9461 0.9739
-4.0952 -4.8552 -1.9536 0.9738
-2.6771 -5.8091 -1.9674 0.9736
-1.0461 -6.3623 -1.9832 0.9734
0.1054 -6.4831 -1.9943 0.9732
0.6872 -6.4659 -2.0000 0.9732
1.8391 -6.2746 -2.0111 0.9730
2.3998 -6.1013 -2.0166 0.9729
3.4668 -5.6043 -2.0269 0.9728
3.9639 -5.2841 -2.0317 0.9727
4.8632 -4.5121 -2.0405 0.9726
5.6096 -3.5855 -2.0477 0.9725
5.9166 -3.0735 -2.0507 0.9725
6.1755 -2.5348 -2.0532 0.9725
6.5397 -1.3956 -2.0568 0.9724
6.6416 -0.8051 -2.0578 0.9724
6.6800 0.3919 -2.0582 0.9724
6.4976 1.5752 -2.0564 0.9724
6.3254 2.1487 -2.0547 0.9724
5.8273 3.2343 -2.0499 0.9725
5.1406 4.2077 -2.0433 0.9726
4.2908 5.0365 -2.0351 0.9727
3.8141 5.3880 -2.0304 0.9728
3.3086 5.6940 -2.0256 0.9728
-2.3161 5.9750 -1.9710 0.9735
-3.3276 5.4392 -1.9612 0.9737
-3.7923 5.1078 -1.9567 0.9737
-4.6230 4.3319 -1.9486 0.9738
-5.5809 2.9342 -1.9393 0.9740
-6.0019 1.8883 -1.9352 0.9740
-6.2350 0.7871 -1.9330 0.9740
-6.1183 -1.4513 -1.9341 0.9740
-5.7715 -2.5232 -1.9374 0.9740
-5.5292 -3.0333 -1.9398 0.9740
-4.1420 -4.8134 -1.9532 0.9738
-1.4312 -5.7804 -1.9794 0.9752
-0.3797 -5.9735 -1.9896 0.9751
0.6950 -5.9766 -2.0001 0.9750
1.2303 -5.9057 -2.0052 0.9749
1.7583 -5.7867 -2.0104 0.9748
2.7754 -5.4069 -2.0202 0.9747
3.7115 -4.8472 -2.0293 0.9746
4.1388 -4.5047 -2.0335 0.9745
4.5339 -4.1240 -2.0373 0.9745
5.2133 -3.2602 -2.0439 0.9744
5.4914 -2.7841 -2.0466 0.9744
5.7249 -2.2840 -2.0489 0.9744
5.9116 -1.7641 -2.0507 0.9743
6.1756 -0.1306 -2.0533 0.9743
6.1621 0.4227 -2.0531 0.9743
5.9830 1.5132 -2.0514 0.9743
5.8191 2.0410 -2.0498 0.9743
5.0495 3.5007 -2.0424 0.9744
4.7083 3.9322 -2.0391 0.9745
3.0049 5.2910 -2.0226 0.9747
2.5134 5.5257 -2.0178 0.9747
0.9482 5.9497 -2.0027 0.9749
0.4108 5.9951 -1.9975 0.9750
-1.1872 5.8431 -1.9820 0.9752
-3.1316 5.0071 -1.9631 0.9754
-3.5597 4.6968 -1.9590 0.9755
-4.6540 3.5631 -1.9483 0.9756
-4.9470 3.1277 -1.9455 0.9756
-5.4127 2.1905 -1.9410 0.9757
-5.5823 1.6958 -1.9393 0.9757
-5.7080 1.1887 -1.9381 0.9757
-5.7892 0.6728 -1.9373 0.9757
-5.8251 0.1519 -1.9369 0.9757
-5.8155 -0.3700 -1.9370 0.9757
-5.7606 -0.8893 -1.9375 0.9757
-5.3289 -2.3926 -1.9417 0.9757
-3.7950 -4.4993 -1.9565 0.9755
-3.3839 -4.8307 -1.9605 0.9754
-2.4795 -5.3805 -1.9693 0.9753
-1.9928 -5.5942 -1.9740 0.9753
-1.4878 -5.7644 -1.9789 0.9752
0.0976 -5.9987 -1.9943 0.9750
0.6357 -5.9815 -1.9995 0.9750
2.7211 -5.4326 -2.0197 0.9747
4.4921 -4.1677 -2.0369 0.9745
5.1801 -3.3110 -2.0436 0.9744
5.8934 -1.8222 -2.0505 0.9743
6.0369 -1.2883 -2.0519 0.9743
6.1308 -0.7432 -2.0528 0.9743
6.1661 0.3618 -2.0532 0.9743
6.1073 0.9119 -2.0526 0.9743
5.8395 1.9836 -2.0500 0.9743
5.6331 2.4959 -2.0480 0.9744
5.3807 2.9865 -2.0456 0.9744
5.0847 3.4512 -2.0427 0.9744
4.7478 3.8862 -2.0395 0.9745
3.9641 4.6530 -2.0319 0.9746
2.5685 5.5020 -2.0184 0.9747
1.0072 5.9418 -2.0032 0.9749
-0.6026 5.9491 -1.9876 0.9751
-1.1297 5.8562 -1.9825 0.9752
-2.1449 5.5334 -1.9727 0.9753
-2.6254 5.3067 -1.9680 0.9754
-4.2849 4.0151 -1.9519 0.9756
-4.9166 3.1769 -1.9458 0.9756
-5.5657 1.7510 -1.9395 0.9757
-5.6964 1.2451 -1.9382 0.9757
-5.8233 0.2095 -1.9370 0.9757
-5.7689 -0.8323 -1.9375 0.9757
-5.6739 -1.3459 -1.9384 0.9757
-5.5345 -1.8496 -1.9397 0.9757
-5.1265 -2.8124 -1.9437 0.9757
-4.5559 -3.6917 -1.9492 0.9756
-3.8384 -4.4606 -1.9561 0.9755
-2.2578 -5.0293 -1.9714 0.9769
-1.8026 -5.2229 -1.9759 0.9768
-0.8465 -5.4862 -1.9851 0.9767
-0.3530 -5.5533 -1.9899 0.9766
0.1458 -5.5761 -1.9947 0.9766
1.6335 -5.3756 -2.0092 0.9764
2.1129 -5.2199 -2.0138 0.9764
2.5773 -5.0211 -2.0183 0.9763
3.4455 -4.4999 -2.0267 0.9762
3.8417 -4.1813 -2.0306 0.9762
4.8373 -3.0250 -2.0402 0.9761
5.0949 -2.5831 -2.0427 0.9760
5.3111 -2.1189 -2.0449 0.9760
5.6118 -1.1398 -2.0478 0.9760
5.6935 -0.6332 -2.0486 0.9760
5.7283 -0.1211 -2.0489 0.9760
5.7158 0.3920 -2.0488 0.9760
5.6562 0.9018 -2.0482 0.9760
5.5500 1.4037 -2.0472 0.9760
5.3982 1.8934 -2.0458 0.9760
5.2023 2.3667 -2.0439 0.9760
4.9640 2.8197 -2.0416 0.9760
4.6855 3.2483 -2.0389 0.9761
4.3695 3.6492 -2.0358 0.9761
3.6362 4.3545 -2.0287 0.9762
3.2255 4.6533 -2.0247 0.9762
2.7903 4.9130 -2.0205 0.9763
0.8810 5.5286 -2.0020 0.9765
-0.6147 5.5237 -1.9875 0.9767
-1.1039 5.4336 -1.9828 0.9767
-2.4906 4.9116 -1.9693 0.9769
-2.9141 4.6592 -1.9652 0.9769
-4.3329 3.3173 -1.9514 0.9771
-5.3162 1.1071 -1.9419 0.9772
-5.3919 0.6266 -1.9411 0.9772
-5.3653 -0.8282 -1.9414 0.9772
-5.2720 -1.3057 -1.9423 0.9772
-4.9624 -2.2281 -1.9453 0.9772
-4.4961 -3.0842 -1.9498 0.9771
-3.1491 -4.4955 -1.9628 0.9770
-1.3837 -5.3609 -1.9799 0.9768
-0.9004 -5.4761 -1.9846 0.9767
0.5908 -5.5588 -1.9990 0.9765
1.0885 -5.4968 -2.0039 0.9765
1.5799 -5.3901 -2.0086 0.9764
2.0607 -5.2392 -2.0133 0.9764
2.5270 -5.0451 -2.0178 0.9763
3.4002 -4.5327 -2.0263 0.9762
4.1691 -3.8681 -2.0338 0.9761
5.2893 -2.1711 -2.0446 0.9760
5.5999 -1.1951 -2.0477 0.9760
5.6868 -0.6894 -2.0485 0.9760
5.7267 -0.1777 -2.0489 0.9760
5.5640 1.3489 -2.0474 0.9760
5.4172 1.8402 -2.0459 0.9760
5.2260 2.3155 -2.0441 0.9760
4.9923 2.7709 -2.0418 0.9760
4.7181 3.2024 -2.0392 0.9761
4.4060 3.6065 -2.0362 0.9761
2.3854 5.1098 -2.0166 0.9763
1.9142 5.2907 -2.0120 0.9764
-1.0505 5.4456 -1.9833 0.9767
-1.5300 5.3173 -1.9786 0.9768
-1.9952 5.1472 -1.9741 0.9768
-2.4425 4.9371 -1.9698 0.9769
-3.2702 4.4046 -1.9618 0.9770
-4.5778 2.9580 -1.9491 0.9771
-4.8184 2.5333 -1.9467 0.9771
-5.0207 2.0898 -1.9448 0.9772
-5.1834 1.6308 -1.9432 0.9772
-5.3856 0.6798 -1.9412 0.9772
-5.4195 -0.2911 -1.9409 0.9772
-5.3730 -0.7752 -1.9413 0.9772
-5.1543 -1.7225 -1.9434 0.9772
-4.9837 -2.1788 -1.9451 0.9772
-4.7736 -2.6188 -1.9471 0.9771
-4.5257 -3.0392 -1.9495 0.9771
-4.2415 -3.4369 -1.9522 0.9771
-2.9006 -4.2290 -1.9652 0.9783
-2.1084 -4.6967 -1.9729 0.9782
-1.6831 -4.8767 -1.9770 0.9781
-0.7902 -5.1210 -1.9857 0.9780
-0.3294 -5.1827 -1.9901 0.9780
0.1360 -5.2032 -1.9946 0.9780
0.6025 -5.1819 -1.9992 0.9779
1.5235 -5.0137 -2.0081 0.9778
1.9703 -4.8677 -2.0124 0.9778
2.4031 -4.6816 -2.0166 0.9777
3.2117 -4.1944 -2.0245 0.9776
3.9213 -3.5668 -2.0314 0.9775
4.5069 -2.8184 -2.0370 0.9775
4.9476 -1.9739 -2.0413 0.9774
5.1083 -1.5243 -2.0429 0.9774
5.0287 1.7638 -2.0422 0.9774
4.3657 3.0266 -2.0358 0.9775
4.0716 3.4005 -2.0329 0.9775
3.3891 4.0586 -2.0263 0.9776
3.0068 4.3377 -2.0226 0.9776
2.6014 4.5805 -2.0187 0.9777
2.1766 4.7852 -2.0146 0.9777
1.2831 5.0747 -2.0059 0.9778
0.8219 5.1577 -2.0014 0.9779
-0.5737 5.1556 -1.9879 0.9780
-1.0305 5.0722 -1.9835 0.9781
-1.9100 4.7866 -1.9750 0.9782
-2.3260 4.5870 -1.9709 0.9782
-2.7219 4.3520 -1.9671 0.9783
-3.0948 4.0834 -1.9635 0.9783
-4.0491 3.0999 -1.9542 0.9784
-4.5261 2.3229 -1.9496 0.9784
-4.7114 1.9067 -1.9478 0.9785
-4.8596 1.4763 -1.9463 0.9785
-4.9695 1.0349 -1.9452 0.9785
-5.0154 -0.7742 -1.9448 0.9785
-4.8021 -1.6577 -1.9468 0.9785
-4.4377 -2.4918 -1.9503 0.9784
-4.2018 -2.8823 -1.9526 0.9784
-3.9322 -3.2512 -1.9552 0.9784
-2.5589 -4.4541 -1.9685 0.9782
-1.7308 -4.8587 -1.9766 0.9781
-0.8405 -5.1117 -1.9852 0.9781
-0.3805 -5.1779 -1.9896 0.9780
1.9217 -4.8858 -2.0120 0.9778
2.7733 -4.4833 -2.0202 0.9777
3.5412 -3.9315 -2.0277 0.9776
3.8852 -3.6047 -2.0310 0.9776
4.4783 -2.8624 -2.0368 0.9775
4.9274 -2.0225 -2.0411 0.9774
5.0926 -1.5746 -2.0427 0.9774
5.2162 -1.1132 -2.0439 0.9774
5.3341 -0.1655 -2.0451 0.9774
5.3273 0.3125 -2.0450 0.9774
5.1827 1.2565 -2.0437 0.9774
4.8685 2.1571 -2.0406 0.9774
4.3961 2.9838 -2.0361 0.9775
3.4297 4.0257 -2.0267 0.9776
3.0501 4.3087 -2.0230 0.9776
2.2243 4.7646 -2.0150 0.9777
1.3335 5.0630 -2.0064 0.9778
0.4077 5.1963 -1.9974 0.9779
-0.0589 5.2001 -1.9929 0.9780
-0.9806 5.0834 -1.9840 0.9781
-1.8631 4.8063 -1.9754 0.9782
-2.2811 4.6108 -1.9714 0.9782
-3.0549 4.1145 -1.9638 0.9783
-4.0188 3.1402 -1.9545 0.9784
-4.5034 2.3677 -1.9498 0.9784
-4.9397 -1.1717 -1.9455 0.9785
-4.6581 -2.0364 -1.9482 0.9785
-3.3377 -3.8788 -1.9610 0.9783
-2.3570 -4.1982 -1.9705 0.9794
-1.9755 -4.4005 -1.9742 0.9794
-0.7401 -4.7961 -1.9862 0.9792
-0.3085 -4.8533 -1.9903 0.9792
1.4258 -4.6923 -2.0072 0.9790
1.8438 -4.5551 -2.0112 0.9790
2.2484 -4.3803 -2.0151 0.9789
2.6363 -4.1693 -2.0189 0.9789
3.0042 -3.9235 -2.0225 0.9789
3.3488 -3.6449 -2.0258 0.9788
3.6672 -3.3356 -2.0289 0.9788
4.2141 -2.6353 -2.0342 0.9787
4.6255 -1.8454 -2.0382 0.9787
4.9876 -0.1055 -2.0417 0.9787
4.9767 0.3413 -2.0416 0.9787
4.9250 0.7852 -2.0412 0.9787
4.7012 1.6489 -2.0390 0.9787
4.5311 2.0614 -2.0373 0.9787
4.3242 2.4562 -2.0353 0.9787
4.0823 2.8301 -2.0330 0.9788
3.8076 3.1799 -2.0304 0.9788
3.5026 3.5029 -2.0274 0.9788
3.1700 3.7963 -2.0242 0.9789
2.4339 4.2855 -2.0171 0.9789
1.2009 4.7497 -2.0051 0.9790
0.7694 4.8280 -2.0009 0.9791
-1.3837 4.6359 -1.9801 0.9793
-2.5507 4.0783 -1.9687 0.9794
-2.9005 3.8271 -1.9653 0.9795
-3.5254 3.2386 -1.9593 0.9795
-4.2439 2.1780 -1.9523 0.9796
-4.4179 1.7879 -1.9506 0.9796
-4.5570 1.3844 -1.9492 0.9796
-2.0297 -0.3133 -0.8405 0.9912
-2.1031 -0.5209 -0.8867 0.9907
-4.5031 -1.5545 -1.9497 0.9796
-4.1609 -2.3364 -1.9530 0.9796
-3.6863 -3.0479 -1.9576 0.9795
-3.0929 -3.6670 -1.9634 0.9795
-2.7569 -3.9356 -1.9666 0.9794
-2.3978 -4.1739 -1.9701 0.9794
-1.6215 -4.5518 -1.9776 0.9793
-1.2100 -4.6881 -1.9816 0.9793
-0.3563 -4.8489 -1.9899 0.9792
0.0792 -4.8716 -1.9941 0.9792
0.5160 -4.8553 -1.9983 0.9791
0.9505 -4.7997 -2.0025 0.9791
2.2046 -4.4014 -2.0147 0.9789
2.9648 -3.9522 -2.0221 0.9789
3.3121 -3.6772 -2.0255 0.9788
3.6335 -3.3712 -2.0286 0.9788
4.1874 -2.6764 -2.0339 0.9788
4.4149 -2.2934 -2.0362 0.9787
4.9516 -0.6002 -2.0414 0.9787
4.9799 0.2922 -2.0417 0.9787
4.8450 1.1746 -2.0404 0.9787
4.5517 2.0167 -2.0375 0.9787
4.3487 2.4137 -2.0356 0.9787
4.1106 2.7900 -2.0333 0.9788
3.8394 3.1427 -2.0307 0.9788
3.5377 3.4687 -2.0277 0.9788
2.8532 4.0306 -2.0211 0.9789
2.4766 4.2621 -2.0175 0.9789
2.0812 4.4581 -2.0136 0.9790
1.2481 4.7387 -2.0056 0.9790
0.8172 4.8213 -2.0014 0.9791
0.3817 4.8648 -1.9972 0.9791
-0.0552 4.8691 -1.9929 0.9792
-0.9185 4.7612 -1.9846 0.9793
-1.3381 4.6503 -1.9805 0.9793
-1.7455 4.5029 -1.9765 0.9793
-2.5108 4.1041 -1.9691 0.9794
-2.8631 3.8562 -1.9657 0.9795
-3.1915 3.5787 -1.9625 0.9795
-3.4938 3.2738 -1.9596 0.9795
-4.2226 2.2201 -1.9525 0.9796
-4.4004 1.8316 -1.9508 0.9796
-4.5435 1.4294 -1.9494 0.9796
-2.0202 0.2550 -0.8334 0.9912
-2.0207 -0.2915 -0.8356 0.9912
-4.5179 -1.5098 -1.9496 0.9796
-3.9654 -2.6630 -1.9549 0.9796
-2.2150 -3.9453 -1.9719 0.9805
-1.8563 -4.1350 -1.9753 0.9804
-1.4815 -4.2924 -1.9790 0.9804
-1.0934 -4.4161 -1.9827 0.9803
-0.6951 -4.5050 -1.9866 0.9803
-0.2897 -4.5581 -1.9905 0.9803
0.1196 -4.5749 -1.9945 0.9802
0.5296 -4.5549 -1.9985 0.9802
1.7305 -4.2753 -2.0101 0.9801
2.8187 -3.6813 -2.0207 0.9800
3.1418 -3.4195 -2.0238 0.9799
3.7112 -2.8123 -2.0293 0.9799
3.9526 -2.4717 -2.0317 0.9799
4.1621 -2.1102 -2.0337 0.9798
4.3379 -1.7306 -2.0354 0.9798
4.5823 -0.9307 -2.0378 0.9798
4.2494 1.9332 -2.0346 0.9798
2.9742 3.5617 -2.0223 0.9800
2.6392 3.8075 -2.0190 0.9800
1.1274 4.4588 -2.0044 0.9801
0.3132 4.5703 -1.9965 0.9802
-0.0969 4.5709 -1.9925 0.9802
-0.5046 4.5349 -1.9886 0.9803
-0.9067 4.4627 -1.9847 0.9803
-2.0481 4.0389 -1.9736 0.9804
-3.0326 3.3336 -1.9641 0.9805
-3.3142 3.0446 -1.9613 0.9806
-3.9904 2.0480 -1.9547 0.9806
-4.1543 1.6812 -1.9532 0.9806
-1.4939 0.4538 -0.6805 0.9932
-1.4770 0.3076 -0.6575 0.9934
-1.4720 0.1711 -0.6458 0.9936
-4.0896 -1.8362 -1.9537 0.9806
-1.1367 -4.4042 -1.9823 0.9803
-0.7394 -4.4970 -1.9862 0.9803
-0.3347 -4.5541 -1.9901 0.9803
0.0744 -4.5748 -1.9941 0.9802
0.8924 -4.5061 -2.0020 0.9802
2.0690 -4.1306 -2.0134 0.9800
3.6827 -2.8484 -2.0291 0.9799
4.3202 -1.7733 -2.0353 0.9798
4.4646 -1.3805 -2.0367 0.9798
4.6757 -0.1451 -2.0387 0.9798
4.5434 1.1015 -2.0375 0.9798
4.4241 1.5028 -2.0363 0.9798
4.2687 1.8914 -2.0348 0.9798
2.3240 3.9996 -2.0160 0.9800
0.7673 4.5266 -2.0009 0.9802
-0.0518 4.5726 -1.9930 0.9802
-0.4599 4.5406 -1.9890 0.9803
-1.2571 4.3689 -1.9813 0.9804
-1.6400 4.2309 -1.9776 0.9804
-3.5421 2.7677 -1.9591 0.9806
-3.7713 2.4369 -1.9569 0.9806
-3.9704 2.0875 -1.9549 0.9806
-4.1378 1.7223 -1.9533 0.9806
-1.4939 0.4700 -0.6825 0.9932
-1.4812 0.3237 -0.6608 0.9934
-1.4729 0.1859 -0.6470 0.9935
-1.4540 -0.0781 -0.6346 0.9937
-1.4872 -0.3528 -0.6661 0.9934
-1.4923 -0.4987 -0.6857 0.9932
-4.1072 -1.7956 -1.9536 0.9806
-3.7283 -2.5037 -1.9572 0.9806
-3.4933 -2.8306 -1.9595 0.9806
-3.2301 -3.1360 -1.9620 0.9805
-2.9407 -3.4174 -1.9648 0.9805
-2.4073 -3.5097 -1.9700 0.9814
-2.0868 -3.7169 -1.9731 0.9814
-1.3954 -4.0431 -1.9798 0.9813
0.1126 -4.3072 -1.9944 0.9812
1.2597 -4.1456 -2.0056 0.9811
1.6285 -4.0233 -2.0091 0.9811
1.9855 -3.8681 -2.0126 0.9810
2.3276 -3.6809 -2.0159 0.9810
3.2358 -2.9432 -2.0247 0.9809
3.7172 -2.3246 -2.0294 0.9809
3.9141 -1.9844 -2.0313 0.9808
4.0792 -1.6274 -2.0329 0.9808
4.2111 -1.2566 -2.0342 0.9808
4.3710 -0.4861 -2.0358 0.9808
4.3976 -0.0930 -2.0360 0.9808
4.3881 0.3010 -2.0359 0.9808
4.3426 0.6923 -2.0355 0.9808
4.1457 1.4541 -2.0336 0.9808
3.6012 2.4966 -2.0283 0.9809
3.0909 3.0911 -2.0234 0.9809
2.7979 3.3506 -2.0206 0.9809
1.4351 4.0923 -2.0074 0.9811
0.2948 4.3027 -1.9963 0.9812
-0.8539 4.2029 -1.9852 0.9813
-1.5838 3.9691 -1.9781 0.9813
-1.9294 3.8049 -1.9748 0.9814
-2.2586 3.6111 -1.9716 0.9814
-2.5688 3.3893 -1.9685 0.9814
-2.8577 3.1414 -1.9657 0.9815
-3.1233 2.8692 -1.9632 0.9815
-3.3636 2.5751 -1.9608 0.9815
-3.5767 2.2614 -1.9588 0.9815
-3.7613 1.9304 -1.9570 0.9815
-1.2520 0.5067 -0.6252 0.9941
-1.2696 0.3857 -0.6142 0.9942
-1.2750 0.1482 -0.5942 0.9944
-1.2744 -0.1967 -0.5969 0.9943
-1.2701 -0.3146 -0.6057 0.9942
-1.2547 -0.5634 -0.6366 0.9940
-3.4909 -2.3947 -1.9595 0.9815
-1.4350 -4.0283 -1.9794 0.9813
-0.6964 -4.2349 -1.9866 0.9813
0.4561 -4.2917 -1.9978 0.9812
1.5884 -4.0384 -2.0087 0.9811
1.9468 -3.8868 -2.0122 0.9810
2.2907 -3.7031 -2.0156 0.9810
2.6170 -3.4887 -2.0187 0.9810
3.2061 -2.9746 -2.0244 0.9809
3.6937 -2.3609 -2.0292 0.9809
4.0626 -1.6675 -2.0328 0.9808
4.3659 -0.5293 -2.0357 0.9808
4.3964 -0.1364 -2.0360 0.9808
4.3909 0.2576 -2.0360 0.9808
4.3493 0.6494 -2.0356 0.9808
4.2722 1.0357 -2.0348 0.9808
2.8313 3.3233 -2.0209 0.9809
2.5187 3.5581 -2.0179 0.9810
2.1867 3.7632 -2.0146 0.9810
1.8380 3.9372 -2.0113 0.9810
0.7223 4.2609 -2.0005 0.9811
0.3374 4.3005 -1.9967 0.9812
-1.1841 4.1148 -1.9820 0.9813
-1.5448 3.9853 -1.9785 0.9813
-1.8921 3.8245 -1.9751 0.9814
-3.0952 2.9003 -1.9634 0.9815
-3.3384 2.6085 -1.9611 0.9815
-1.2488 0.5198 -0.6261 0.9941
-1.2687 0.3992 -0.6157 0.9942
-1.2677 0.2771 -0.6007 0.9943
-1.2752 0.1610 -0.5950 0.9944
-1.2659 0.0455 -0.5863 0.9944
-1.2687 -0.0681 -0.5881 0.9944
-1.2749 -0.1839 -0.5962 0.9943
-1.2479 -0.5455 -0.6304 0.9940
-3.5140 -2.3598 -1.9593 0.9815
-3.0440 -2.9553 -1.9639 0.9815
-2.7710 -3.2202 -1.9665 0.9814
-2.2731 -3.3142 -1.9713 0.9823
-1.9703 -3.5095 -1.9743 0.9822
-0.9721 -3.9259 -1.9839 0.9821
-0.2575 -4.0504 -1.9908 0.9821
0.4704 -4.0457 -1.9979 0.9820
0.8321 -3.9944 -2.0014 0.9820
1.5361 -3.7950 -2.0082 0.9819
2.5006 -3.2657 -2.0176 0.9818
3.9693 -1.1845 -2.0319 0.9817
4.0611 -0.8248 -2.0328 0.9817
4.1198 -0.4582 -2.0333 0.9817
4.1448 -0.0876 -2.0336 0.9817
4.1358 0.2837 -2.0335 0.9817
4.0930 0.6526 -2.0331 0.9817
3.9077 1.3706 -2.0313 0.9817
3.7668 1.7137 -2.0299 0.9817
3.5954 2.0423 -2.0283 0.9817
2.6382 3.1594 -2.0190 0.9818
2.3415 3.3780 -2.0161 0.9819
1.0010 3.9591 -2.0032 0.9820
0.6416 4.0258 -1.9997 0.9820
0.2782 4.0599 -1.9962 0.9820
-0.8060 3.9670 -1.9856 0.9821
-1.1558 3.8723 -1.9823 0.9822
-1.4952 3.7471 -1.9790 0.9822
-2.1326 3.4098 -1.9728 0.9822
-2.6988 2.9667 -1.9673 0.9823
-3.1770 2.4323 -1.9626 0.9823
-3.3785 2.1360 -1.9607 0.9823
-1.0915 0.5602 -0.6018 0.9945
-1.1123 0.4502 -0.5886 0.9947
-1.1306 0.3435 -0.5796 0.9947
-1.1366 0.2367 -0.5695 0.9948
-1.1330 -0.2806 -0.5725 0.9948
-1.1251 -0.3884 -0.5838 0.9947
-1.0995 -0.4937 -0.5912 0.9946
-2.5871 -3.0672 -1.9683 0.9823
-1.6868 -3.6604 -1.9770 0.9822
-1.3547 -3.8029 -1.9802 0.9822
0.0661 -4.0645 -1.9940 0.9821
1.1494 -3.9214 -2.0045 0.9820
2.4678 -3.2898 -2.0173 0.9818
2.7561 -3.0599 -2.0201 0.9818
3.0228 -2.8046 -2.0227 0.9818
3.4820 -2.2256 -2.0271 0.9818
3.8294 -1.5718 -2.0305 0.9817
4.1150 -0.4988 -2.0333 0.9817
4.1385 0.2428 -2.0335 0.9817
4.0994 0.6121 -2.0331 0.9817
4.0268 0.9762 -2.0324 0.9817
3.9213 1.3320 -2.0314 0.9817
3.6157 2.0068 -2.0285 0.9817
3.4184 2.3202 -2.0266 0.9818
3.1936 2.6140 -2.0244 0.9818
2.9433 2.8859 -2.0220 0.9818
2.3752 3.3552 -2.0165 0.9819
0.6814 4.0200 -2.0001 0.9820
-0.7669 3.9755 -1.9860 0.9821
-1.1177 3.8842 -1.9826 0.9822
-1.4584 3.7623 -1.9793 0.9822
-2.3944 3.2249 -1.9702 0.9823
-2.6698 2.9936 -1.9676 0.9823
-2.9233 2.7392 -1.9651 0.9823
-3.1531 2.4638 -1.9629 0.9823
-1.1093 0.4617 -0.5894 0.9947
-1.1348 0.2480 -0.5698 0.9948
-1.1442 0.1445 -0.5657 0.9949
-1.1397 0.0410 -0.5594 0.9949
-1.1032 -0.4823 -0.5906 0.9947
-3.3192 -2.2290 -1.9612 0.9823
-3.1096 -2.5197 -1.9632 0.9823
-2.8749 -2.7911 -1.9655 0.9823
-2.6169 -3.0411 -1.9680 0.9823
-2.1506 -3.1355 -1.9725 0.9830
-1.8640 -3.3201 -1.9753 0.9830
-0.9193 -3.7131 -1.9844 0.9829
0.1005 -3.8429 -1.9943 0.9828
0.4448 -3.8249 -1.9977 0.9828
0.7866 -3.7760 -2.0010 0.9828
1.1232 -3.6965 -2.0042 0.9827
2.3628 -3.0858 -2.0163 0.9826
2.6329 -2.8657 -2.0189 0.9826
3.1087 -2.3558 -2.0235 0.9826
3.4852 -1.7670 -2.0272 0.9825
3.7491 -1.1188 -2.0297 0.9825
3.8358 -0.7791 -2.0306 0.9825
3.8659 0.6164 -2.0309 0.9825
3.7939 0.9596 -2.0302 0.9825
3.6910 1.2946 -2.0292 0.9825
3.5581 1.6187 -2.0279 0.9825
3.2071 2.2234 -2.0245 0.9826
2.2126 3.1920 -2.0149 0.9827
1.9153 3.3724 -2.0120 0.9827
1.2795 3.6487 -2.0059 0.9827
0.6065 3.8059 -1.9993 0.9828
-0.7622 3.7517 -1.9861 0.9829
-1.0932 3.6625 -1.9829 0.9829
-1.7233 3.3984 -1.9767 0.9830
-2.0176 3.2259 -1.9739 0.9830
-2.2951 3.0282 -1.9712 0.9830
-2.5536 2.8071 -1.9687 0.9830
-3.0065 2.3017 -1.9643 0.9831
-0.9988 0.4042 -0.5590 0.9952
-1.0169 0.3089 -0.5514 0.9952
-1.0280 0.2141 -0.5447 0.9953
-1.0374 0.1206 -0.5418 0.9953
-1.0332 0.0269 -0.5362 0.9954
-1.0367 -0.0660 -0.5389 0.9953
-1.0349 -0.1598 -0.5433 0.9953
-1.0113 -0.3491 -0.5550 0.9952
-2.6945 -2.6682 -1.9672 0.9831
-2.4479 -2.9022 -1.9696 0.9830
-2.1812 -3.1137 -1.9722 0.9830
-1.8964 -3.3010 -1.9750 0.9830
-1.2814 -3.5970 -1.9809 0.9829
-0.9558 -3.7032 -1.9841 0.9829
0.4069 -3.8284 -1.9973 0.9828
0.7491 -3.7829 -2.0006 0.9828
1.0865 -3.7067 -2.0039 0.9827
1.4161 -3.6003 -2.0071 0.9827
1.7353 -3.4645 -2.0102 0.9827
2.0414 -3.3002 -2.0131 0.9827
2.3319 -3.1085 -2.0160 0.9826
2.6041 -2.8912 -2.0186 0.9826
2.8559 -2.6497 -2.0210 0.9826
3.0850 -2.3861 -2.0233 0.9826
3.2894 -2.1025 -2.0253 0.9826
3.6172 -1.4847 -2.0284 0.9825
3.8866 -0.4711 -2.0311 0.9825
3.9088 0.2293 -2.0313 0.9825
3.8719 0.5782 -2.0309 0.9825
3.8034 0.9221 -2.0303 0.9825
3.7039 1.2582 -2.0293 0.9825
3.2293 2.1919 -2.0247 0.9826
2.2444 3.1705 -2.0152 0.9826
1.9488 3.3539 -2.0123 0.9827
1.6384 3.5096 -2.0093 0.9827
1.3157 3.6365 -2.0062 0.9827
0.3010 3.8364 -1.9964 0.9828
-0.7253 3.7597 -1.9864 0.9829
-1.0571 3.6738 -1.9832 0.9829
-1.6899 3.4158 -1.9771 0.9830
-2.2654 3.0512 -1.9715 0.9830
-2.9839 2.3316 -1.9645 0.9831
-3.1775 2.0532 -1.9626 0.9831
-1.0157 0.3195 -0.5524 0.9952
-1.0370 0.1309 -0.5422 0.9953
-1.0360 -0.0557 -0.5382 0.9953
-1.0358 -0.1495 -0.5429 0.9953
-1.0227 -0.2426 -0.5453 0.9953
-0.9901 -0.4329 -0.5606 0.9951
-0.9520 -0.5223 -0.5633 0.9951
-3.1412 -2.1094 -1.9629 0.9831
-2.9426 -2.3844 -1.9648 0.9831
-2.7204 -2.6411 -1.9670 0.9831
-2.4761 -2.8775 -1.9694 0.9830
-2.0382 -2.9716 -1.9736 0.9837
-1.7664 -3.1463 -1.9762 0.9837
-1.4798 -3.2964 -1.9790 0.9837
-0.5535 -3.5872 -1.9880 0.9836
-0.2306 -3.6281 -1.9911 0.9836
0.4212 -3.6225 -1.9974 0.9835
1.3747 -3.3961 -2.0067 0.9834
1.6755 -3.2642 -2.0096 0.9834
1.9637 -3.1055 -2.0124 0.9834
2.2367 -2.9211 -2.0150 0.9834
2.7281 -2.4814 -2.0198 0.9833
3.1328 -1.9591 -2.0237 0.9833
1.8892 -0.2101 -1.0411 0.9914
3.3671 1.5318 -2.0261 0.9833
3.2142 1.8257 -2.0246 0.9833
2.8320 2.3651 -2.0209 0.9833
2.3596 2.8257 -2.0163 0.9834
1.8133 3.1927 -2.0110 0.9834
0.8961 3.5440 -2.0021 0.9835
0.2491 3.6355 -1.9959 0.9835
-0.0771 3.6375 -1.9927 0.9835
-0.7221 3.5543 -1.9865 0.9836
-1.0357 3.4701 -1.9834 0.9836
-1.6330 3.2204 -1.9776 0.9837
-2.1752 2.8700 -1.9724 0.9837
-2.4204 2.6606 -1.9700 0.9837
-2.6458 2.4306 -1.9678 0.9837
-2.8499 2.1818 -1.9658 0.9838
-0.8661 0.5476 -0.5612 0.9953
-0.9220 0.2801 -0.5278 0.9956
-0.9374 0.1952 -0.5244 0.9956
-0.9440 0.0246 -0.5172 0.9957
-0.9445 -0.1458 -0.5234 0.9957
-0.9296 -0.2302 -0.5245 0.9956
-0.8993 -0.4038 -0.5399 0.9955
-0.8764 -0.6012 -0.5821 0.9952
-2.7672 -2.2879 -1.9665 0.9838
-2.5540 -2.5290 -1.9686 0.9837
-2.0671 -2.9509 -1.9733 0.9837
-1.2141 -3.4082 -1.9816 0.9836
-0.9056 -3.5085 -1.9846 0.9836
-0.5888 -3.5810 -1.9876 0.9836
-0.2664 -3.6250 -1.9908 0.9836
0.0592 -3.6400 -1.9939 0.9835
0.3854 -3.6259 -1.9971 0.9835
0.7094 -3.5824 -2.0002 0.9835
1.3408 -3.4090 -2.0063 0.9834
2.2074 -2.9426 -2.0148 0.9834
2.9197 -2.2583 -2.0217 0.9833
3.1130 -1.9898 -2.0235 0.9833
3.4230 -1.4050 -2.0266 0.9833
1.8772 -0.5804 -1.0762 0.9911
1.8861 -0.4025 -1.0563 0.9912
1.8889 -0.2290 -1.0422 0.9914
1.8862 0.4573 -1.0630 0.9912
3.3823 1.4986 -2.0262 0.9833
3.0562 2.0744 -2.0231 0.9833
2.6321 2.5808 -2.0189 0.9833
2.1246 3.0013 -2.0140 0.9834
1.8450 3.1752 -2.0113 0.9834
1.5512 3.3228 -2.0085 0.9834
1.2458 3.4433 -2.0055 0.9834
0.6101 3.5991 -1.9994 0.9835
-1.0016 3.4807 -1.9837 0.9836
-1.3071 3.3720 -1.9808 0.9836
-2.1470 2.8917 -1.9726 0.9837
-2.3943 2.6847 -1.9702 0.9837
-0.8689 0.5615 -0.5666 0.9953
-0.9208 0.2897 -0.5287 0.9956
-0.9355 0.2045 -0.5245 0.9956
-0.9462 -0.0508 -0.5190 0.9957
-0.9453 -0.1364 -0.5231 0.9957
-0.8738 -0.5868 -0.5765 0.9952
-2.7893 -2.2602 -1.9663 0.9838
-1.9345 -2.8205 -1.9746 0.9843
-1.6764 -2.9860 -1.9771 0.9843
-0.8265 -3.3379 -1.9853 0.9842
-0.2188 -3.4420 -1.9912 0.9842
0.3996 -3.4362 -1.9972 0.9841
1.0087 -3.3196 -2.0031 0.9841
1.3036 -3.2206 -2.0060 0.9841
1.5888 -3.0953 -2.0088 0.9841
2.1206 -2.7696 -2.0139 0.9840
2.5862 -2.3524 -2.0184 0.9840
2.7891 -2.1135 -2.0204 0.9840
2.9696 -1.8570 -2.0222 0.9840
1.7667 -0.7049 -1.0982 0.9913
1.7311 -0.0366 -0.9997 0.9920
1.7399 0.2774 -1.0172 0.9919
1.7311 0.4378 -1.0310 0.9918
3.1915 1.4520 -2.0244 0.9839
3.0467 1.7306 -2.0230 0.9839
2.8772 1.9947 -2.0213 0.9840
2.4707 2.4709 -2.0174 0.9840
2.2371 2.6791 -2.0151 0.9840
1.9860 2.8651 -2.0127 0.9840
1.7194 3.0274 -2.0101 0.9840
1.1489 3.2764 -2.0046 0.9841
0.5448 3.4188 -1.9987 0.9841
0.2363 3.4486 -1.9957 0.9842
-0.0732 3.4508 -1.9927 0.9842
-0.9828 3.2927 -1.9839 0.9843
-1.8147 2.9015 -1.9759 0.9843
-2.0646 2.7241 -1.9734 0.9843
-2.2975 2.5255 -1.9712 0.9844
-2.5116 2.3073 -1.9691 0.9844
-0.8027 0.5075 -0.5483 0.9956
-0.8529 0.3452 -0.5312 0.9958
-0.8651 0.2628 -0.5220 0.9958
-0.8763 0.1825 -0.5168 0.9959
-0.8820 0.1025 -0.5127 0.9959
-0.8799 0.0229 -0.5082 0.9959
-0.8817 -0.0561 -0.5101 0.9959
-0.8716 -0.2159 -0.5184 0.9959
-0.8611 -0.2972 -0.5259 0.9958
-0.7978 -0.5473 -0.5585 0.9955
-2.4244 -2.4007 -1.9699 0.9844
-2.2022 -2.6109 -1.9720 0.9843
-1.9620 -2.8008 -1.9743 0.9843
-1.7056 -2.9689 -1.9768 0.9843
-1.4349 -3.1138 -1.9794 0.9843
-0.8592 -3.3291 -1.9850 0.9842
-0.5587 -3.3976 -1.9879 0.9842
-0.2527 -3.4391 -1.9909 0.9842
0.3655 -3.4394 -1.9969 0.9842
1.2716 -3.2329 -2.0057 0.9841
1.5579 -3.1104 -2.0085 0.9841
2.3369 -2.5945 -2.0160 0.9840
2.5626 -2.3775 -2.0182 0.9840
2.7678 -2.1408 -2.0202 0.9840
1.7328 -0.3698 -1.0229 0.9918
1.7419 -0.2111 -1.0130 0.9919
1.7374 0.1019 -1.0048 0.9920
1.7408 0.2599 -1.0162 0.9919
1.7118 0.5815 -1.0437 0.9917
3.2059 1.4205 -2.0245 0.9839
2.7070 2.2157 -2.0197 0.9840
2.2638 2.6572 -2.0154 0.9840
2.0145 2.8457 -2.0130 0.9840
1.1814 3.2654 -2.0049 0.9841
0.5787 3.4138 -1.9991 0.9841
-0.0391 3.4519 -1.9931 0.9842
-0.6519 3.3795 -1.9871 0.9842
-1.2404 3.1999 -1.9814 0.9843
-1.5197 3.0719 -1.9787 0.9843
-1.7862 2.9197 -1.9761 0.9843
-2.0379 2.7447 -1.9737 0.9843
-2.4890 2.3323 -1.9693 0.9844
-2.6851 2.0981 -1.9674 0.9844
-0.8293 0.4360 -0.5409 0.9957
-0.8752 0.1913 -0.5172 0.9959
-0.8818 0.1113 -0.5131 0.9959
-0.8805 0.0317 -0.5087 0.9959
-0.8811 -0.1271 -0.5140 0.9959
-0.7961 -0.5346 -0.5537 0.9956
-2.6480 -2.1457 -1.9677 0.9844
-2.4477 -2.3764 -1.9696 0.9844
-2.2276 -2.5887 -1.9718 0.9843
