ply
format ascii 1.0
element vertex 1389
property float32 x
property float32 y
property float32 z
property float32 I
end_header
4.1840 8.4851 1.6682 0.9623
1.8567 9.6960 1.7407 0.9607
9.3019 -13.2167 2.8498 0.9365
-10.1784 -13.6233 2.6052 0.9335
9.3065 -13.2233 2.4771 0.9367
-4.5842 17.9197 2.8336 0.9279
4.1828 8.4827 1.2316 0.9626
1.8590 9.7080 1.2872 0.9609
-10.1844 -13.6314 2.2158 0.9337
4.1822 8.4815 1.0155 0.9627
1.8601 9.7139 1.0620 0.9610
-10.1905 -13.6395 1.8283 0.9338
9.3157 -13.2364 1.7381 0.9370
4.1818 8.4807 0.8004 0.9628
1.8613 9.7198 0.8378 0.9611
-10.1965 -13.6476 1.4421 0.9339
9.3203 -13.2428 1.3709 0.9371
9.3248 -13.2493 1.0047 0.9371
4.1810 8.4790 0.3728 0.9629
9.3294 -13.2558 0.6392 0.9372
1.8646 9.7375 0.1675 0.9611
-10.2144 -13.6716 0.2883 0.9340
9.4514 2.9853 -0.2791 0.9611
1.8669 9.7493 -0.2795 0.9611
8.7160 3.6397 -0.4790 0.9629
4.1793 8.4756 -0.4792 0.9629
-10.2324 -13.6957 -0.8670 0.9338
9.3475 -13.2816 -0.8237 0.9370
9.4627 2.9002 -0.5019 0.9611
13.2383 8.4167 -0.7956 0.9391
12.3787 2.7201 -0.9293 0.9504
8.6150 3.5975 -0.6845 0.9632
10.7717 8.4378 -1.0033 0.9466
4.1789 8.4748 -0.6928 0.9628
3.2136 8.3229 -0.6542 0.9648
-1.8449 6.9633 -0.5282 0.9715
-2.3329 6.4184 -0.5007 0.9730
-11.9784 14.0159 -1.3519 0.9287
-9.5601 -12.7958 -1.1712 0.9379
-3.4044 -11.7019 -0.8936 0.9523
9.3521 -13.2881 -1.1914 0.9369
7.1369 14.1673 -1.1631 0.9384
-1.8182 7.1074 -0.5379 0.9710
-6.0627 13.2290 -1.0670 0.9433
-17.1205 9.6577 -1.4413 0.9242
11.7812 2.5888 -1.1580 0.9527
8.2848 3.4597 -0.8620 0.9646
10.6838 8.3690 -1.3029 0.9469
3.2136 8.3229 -0.8565 0.9648
5.4645 19.0869 -1.9061 0.9233
0.1328 13.3785 -1.2845 0.9477
-1.5334 19.1964 -1.8488 0.9255
-1.2514 7.3189 -0.7128 0.9706
-1.6011 6.0431 -0.6002 0.9752
-2.1874 6.0180 -0.6147 0.9746
-2.8355 6.0503 -0.6415 0.9735
-9.3015 15.9517 -1.7728 0.9285
-12.9258 12.6339 -1.7352 0.9299
-13.9376 11.3713 -1.7269 0.9303
-14.8358 10.0348 -1.7195 0.9306
-18.1976 6.1477 -1.8441 0.9257
-18.6381 4.4852 -1.8404 0.9259
-18.9392 2.7949 -1.8380 0.9260
-18.7328 -4.0326 -1.8396 0.9259
-18.3295 -5.7036 -1.8430 0.9258
-17.7882 -7.3392 -1.8474 0.9256
-16.3016 -10.4623 -1.8596 0.9251
-14.4786 -11.2421 -1.7598 0.9290
-11.1647 -12.4431 -1.6050 0.9350
-9.5630 -12.7997 -1.5339 0.9378
-9.6264 -15.6301 -1.7623 0.9289
-5.8906 -11.8186 -1.2678 0.9483
-6.7741 -17.3238 -1.7858 0.9280
-3.6282 -18.5187 -1.8117 0.9270
-0.2719 -19.1565 -1.8393 0.9259
3.1972 -19.1912 -1.8678 0.9248
8.3674 -18.0541 -1.9104 0.9232
7.9365 -13.7454 -1.5238 0.9382
8.8178 -12.5289 -1.4709 0.9403
12.3491 2.6033 -1.2116 0.9506
13.2392 8.4173 -1.5062 0.9389
12.6697 13.9997 -1.8127 0.9269
5.6310 19.0519 -1.9073 0.9233
2.1126 19.4666 -1.8799 0.9243
0.2471 13.3802 -1.2848 0.9476
-1.5600 6.0980 -0.6043 0.9750
-2.1272 6.0119 -0.6122 0.9747
-11.6941 13.9222 -1.7456 0.9295
-12.8236 12.7500 -1.7361 0.9299
-13.8460 11.4949 -1.7277 0.9302
-14.7552 10.1650 -1.7202 0.9305
-17.0282 7.6855 -1.7936 0.9277
-18.6021 4.6449 -1.8407 0.9258
-18.9166 2.9569 -1.8381 0.9259
-19.0904 1.2506 -1.8367 0.9260
-19.1229 -0.4632 -1.8364 0.9260
-14.7333 -11.2395 -1.7791 0.9282
17.5162 -4.1362 -2.1379 0.9301
17.8383 -2.5547 -2.1406 0.9300
18.0070 -0.9482 -2.1419 0.9299
11.7401 2.5798 -1.4278 0.9527
8.2148 3.4304 -1.0575 0.9648
14.6530 7.7260 -1.9677 0.9355
10.6925 8.3758 -1.6134 0.9468
11.9009 11.1790 -1.9395 0.9363
3.2136 8.3229 -1.0598 0.9647
1.8715 9.7731 -1.1820 0.9607
1.5571 15.5875 -1.8608 0.9388
-2.8098 5.9953 -0.7865 0.9737
-8.6309 12.1527 -1.7706 0.9417
-9.6387 11.2782 -1.7623 0.9420
-12.1449 8.2147 -1.7417 0.9426
-13.8024 7.6314 -1.8734 0.9384
-14.9225 5.0413 -1.8710 0.9385
-15.2892 3.6793 -1.8680 0.9386
-15.5400 2.2933 -1.8659 0.9387
-15.6736 0.8925 -1.8648 0.9387
-15.6894 -0.5142 -1.8647 0.9387
-15.5874 -1.9174 -1.8655 0.9387
-15.3680 -3.3083 -1.8673 0.9386
-14.5821 -6.0164 -1.8738 0.9384
-14.0195 -7.3156 -1.8784 0.9383
-11.6782 -10.8764 -1.8957 0.9377
-10.0680 -11.2209 -1.7908 0.9411
-8.9096 -11.9252 -1.7682 0.9418
-7.8450 -12.7377 -1.7770 0.9415
-5.8661 -11.7693 -1.5621 0.9484
-5.5069 -14.0832 -1.7962 0.9409
-0.2198 -15.4862 -1.8397 0.9395
2.5770 -15.4684 -1.8627 0.9388
3.9758 -15.2693 -1.8743 0.9384
5.3590 -14.9423 -1.8856 0.9381
6.7146 -14.4878 -1.8968 0.9377
7.8037 -13.5154 -1.8538 0.9391
8.7377 -12.4151 -1.8034 0.9407
11.6133 -11.4485 -1.9371 0.9364
15.5973 -8.7109 -2.1221 0.9306
16.9921 -5.8214 -2.1336 0.9302
17.4777 -4.2849 -2.1376 0.9301
17.8142 -2.7067 -2.1404 0.9300
17.8990 2.1242 -2.1411 0.9300
12.0903 2.5487 -1.4677 0.9514
14.9479 7.7190 -1.9984 0.9345
10.8801 8.3738 -1.6309 0.9462
12.0010 11.0817 -1.9403 0.9363
9.7383 12.9189 -1.9217 0.9369
8.4973 13.6658 -1.9115 0.9372
7.2055 14.3035 -1.9025 0.9375
3.0976 15.4605 -1.8730 0.9385
1.6911 15.5827 -1.8619 0.9388
-2.1067 5.9538 -0.7502 0.9749
-9.5462 11.3650 -1.7631 0.9420
-11.3249 9.4019 -1.7484 0.9424
-13.6232 7.6849 -1.8580 0.9389
-14.3902 6.4949 -1.8754 0.9384
-15.2592 3.8102 -1.8682 0.9386
-15.3939 -3.1766 -1.8671 0.9386
-14.6299 -5.8904 -1.8734 0.9384
-14.0778 -7.1938 -1.8779 0.9383
-13.4161 -8.4495 -1.8834 0.9381
-12.6482 -9.6488 -1.8897 0.9379
-11.7758 -10.7809 -1.8965 0.9377
13.6239 -5.9402 -2.1059 0.9417
14.5152 -3.4275 -2.1132 0.9415
14.9171 -0.7855 -2.1165 0.9414
14.9282 0.5530 -2.1166 0.9414
14.8121 1.8863 -2.1157 0.9415
11.6271 2.5550 -1.6867 0.9530
8.2557 3.4475 -1.2676 0.9645
13.1214 6.9184 -2.1018 0.9418
9.8921 9.2921 -1.9230 0.9466
8.9856 10.1010 -1.9155 0.9468
8.0116 10.8193 -1.9075 0.9471
1.7156 8.9590 -1.2925 0.9638
1.2994 13.0082 -1.8523 0.9486
0.1291 13.0044 -1.8427 0.9488
-0.5541 6.9364 -0.9859 0.9723
-1.0133 5.9263 -0.8519 0.9760
-1.5659 5.9104 -0.8663 0.9756
-2.7753 5.9217 -0.9266 0.9739
-3.4096 5.8474 -0.9591 0.9730
-7.2811 10.2521 -1.7817 0.9505
-8.1373 9.5214 -1.7746 0.9507
-8.9243 8.7228 -1.7682 0.9508
-11.7191 6.4795 -1.8974 0.9473
-12.2251 5.3925 -1.8932 0.9475
-12.6362 4.2689 -1.8898 0.9475
-12.9498 3.1163 -1.8872 0.9476
-13.1645 1.9427 -1.8855 0.9477
-13.2789 0.7561 -1.8845 0.9477
-13.2924 -0.4356 -1.8844 0.9477
-13.0173 -2.8022 -1.8867 0.9476
-12.3451 -5.0934 -1.8922 0.9475
-11.8643 -6.1910 -1.8961 0.9474
-11.2905 -7.2462 -1.9009 0.9472
-9.8775 -9.1992 -1.9125 0.9469
-2.4713 -12.6138 -1.8212 0.9494
-0.1843 -12.9851 -1.8400 0.9489
0.9839 -13.0171 -1.8496 0.9486
5.6021 -12.0874 -1.8876 0.9476
7.8964 -11.2198 -1.9440 0.9461
9.4214 -11.1197 -2.0650 0.9428
10.4531 -10.3048 -2.0798 0.9424
11.3750 -9.3617 -2.0874 0.9422
12.2072 -8.3331 -2.0942 0.9420
13.5698 -6.0550 -2.1054 0.9417
14.7592 -2.2425 -2.1152 0.9415
14.9094 -0.9128 -2.1165 0.9414
14.8286 1.7598 -2.1158 0.9415
8.6196 2.6419 -1.2774 0.9642
8.4522 3.4451 -1.2933 0.9638
8.4440 4.3605 -1.3465 0.9623
12.1238 7.7081 -2.0356 0.9436
10.7969 8.3097 -1.9304 0.9464
9.0750 10.0277 -1.9163 0.9468
4.2299 8.3966 -1.3321 0.9627
2.6327 8.9076 -1.3161 0.9632
1.7938 8.9527 -1.2937 0.9638
-0.9696 5.9777 -0.8580 0.9758
-1.5121 5.9109 -0.8645 0.9757
-2.7150 5.9241 -0.9233 0.9740
-3.3444 5.8498 -0.9548 0.9731
-7.1961 10.3180 -1.7824 0.9504
-8.0586 9.5941 -1.7753 0.9506
-8.8524 8.8016 -1.7688 0.9508
-11.0262 7.5960 -1.8971 0.9473
-11.6660 6.5808 -1.8978 0.9473
-13.1483 2.0552 -1.8856 0.9477
-13.2955 -0.3221 -1.8844 0.9477
-12.7617 -3.8519 -1.8888 0.9476
-12.3859 -4.9869 -1.8919 0.9475
-11.9141 -6.0881 -1.8957 0.9474
-10.6939 -8.1580 -1.9058 0.9471
-9.9524 -9.1116 -1.9119 0.9469
-9.1290 -10.0013 -1.9186 0.9468
11.6262 -5.0692 -2.0894 0.9499
12.6036 -1.8050 -2.0975 0.9497
12.6316 1.6086 -2.0977 0.9497
11.7742 2.5873 -1.9860 0.9523
10.6019 6.8684 -2.0810 0.9501
9.8310 7.7009 -2.0573 0.9506
8.4557 7.9428 -1.9112 0.9541
6.8563 9.2591 -1.8980 0.9544
3.2136 8.3229 -1.4698 0.9645
2.5586 8.9369 -1.5314 0.9630
1.7166 8.9644 -1.5036 0.9637
0.8982 8.9911 -1.4886 0.9640
0.0671 6.7631 -1.1142 0.9730
-0.4998 6.2572 -1.0341 0.9749
-1.0031 5.8663 -0.9804 0.9762
-2.1130 5.8135 -1.0190 0.9752
-2.7146 5.7922 -1.0538 0.9744
-6.2910 8.8580 -1.7898 0.9569
-9.0200 7.3591 -1.9177 0.9539
-10.5894 4.6710 -1.9067 0.9542
-10.9480 3.6986 -1.9037 0.9542
-11.4093 1.6837 -1.8999 0.9543
-11.5092 0.6553 -1.8991 0.9543
-11.5210 -0.3776 -1.8990 0.9543
-11.4447 -1.4078 -1.8996 0.9543
-11.2808 -2.4284 -1.9010 0.9543
-11.0300 -3.4322 -1.9030 0.9542
-9.7745 -6.2732 -1.9133 0.9540
-8.5442 -7.9575 -1.9235 0.9538
-7.0334 -9.4140 -1.9359 0.9535
-2.1972 -11.2146 -1.8826 0.9547
0.8485 -11.2260 -1.8546 0.9554
1.8697 -11.2228 -1.8743 0.9549
2.9209 -11.2180 -1.9097 0.9541
8.9366 -8.8098 -2.0673 0.9504
9.7196 -7.9993 -2.0737 0.9502
11.0482 -6.1703 -2.0847 0.9500
12.0172 -4.1170 -2.0927 0.9498
12.5869 -1.9125 -2.0973 0.9497
8.3342 3.3970 -1.4826 0.9642
8.3547 4.3143 -1.5490 0.9626
10.6627 6.7792 -2.0815 0.9501
9.9515 7.6591 -2.0687 0.9504
8.5363 7.8824 -1.9141 0.9540
7.7612 8.5760 -1.9055 0.9542
6.9376 9.2035 -1.8987 0.9544
6.0628 9.7505 -1.8915 0.9545
4.2229 8.3828 -1.5463 0.9627
-0.9519 5.8681 -0.9793 0.9762
-2.6548 5.7928 -1.0497 0.9745
-3.3037 5.7786 -1.0966 0.9734
-6.2172 8.9144 -1.7904 0.9569
-6.9662 8.2934 -1.7843 0.9570
-7.7675 7.7229 -1.8045 0.9566
-10.1018 5.6984 -1.9107 0.9541
-10.5509 4.7620 -1.9070 0.9542
-10.9175 3.7924 -1.9040 0.9542
-11.1995 2.7965 -1.9016 0.9543
-11.3952 1.7812 -1.9000 0.9543
-11.5035 0.7536 -1.8991 0.9543
-11.5237 -0.2791 -1.8990 0.9543
-11.0576 -3.3375 -1.9028 0.9543
-10.7297 -4.3201 -1.9055 0.9542
-10.3181 -5.2726 -1.9089 0.9541
-9.8255 -6.1882 -1.9129 0.9540
-9.2548 -7.0602 -1.9176 0.9539
-8.6094 -7.8821 -1.9229 0.9538
-7.8934 -8.6475 -1.9288 0.9536
10.1298 -4.4167 -2.0771 0.9560
10.4999 -3.4973 -2.0802 0.9560
11.0002 1.4008 -2.0843 0.9559
8.7938 2.7776 -1.7334 0.9632
9.7611 5.1466 -2.0741 0.9561
9.2421 5.9874 -2.0698 0.9562
8.6486 6.7747 -2.0650 0.9563
7.9702 7.4867 -2.0554 0.9565
5.2214 8.5595 -1.8846 0.9600
4.1249 8.3651 -1.7531 0.9628
0.0605 6.0916 -1.1450 0.9755
-0.4635 5.8021 -1.0940 0.9766
-0.9895 5.7868 -1.1035 0.9764
-1.5276 5.7659 -1.1212 0.9760
-3.4356 5.8919 -1.2820 0.9726
-5.5330 7.7907 -1.7961 0.9619
-7.3555 7.1894 -1.9333 0.9590
-7.9494 6.4857 -1.9284 0.9591
-8.4789 5.7350 -1.9240 0.9592
-8.9405 4.9432 -1.9202 0.9593
-9.6493 3.2598 -1.9144 0.9594
-9.8920 2.3805 -1.9124 0.9594
-10.0582 1.4843 -1.9110 0.9595
-10.1468 0.5778 -1.9103 0.9595
-10.0897 -1.2412 -1.9108 0.9595
-9.7220 -3.0252 -1.9138 0.9594
-8.6098 -5.5257 -1.9229 0.9592
-8.0983 -6.2880 -1.9271 0.9591
-6.8827 -7.6709 -1.9371 0.9589
-6.1867 -8.2806 -1.9429 0.9588
-5.4378 -8.8291 -1.9490 0.9587
-3.8023 -9.7239 -1.9625 0.9584
-2.0224 -10.3225 -1.9771 0.9581
-1.0944 -10.5025 -1.9848 0.9579
-0.1505 -10.5997 -1.9925 0.9578
1.7558 -10.5389 -2.0082 0.9574
2.7026 -10.3796 -2.0160 0.9573
4.5440 -9.8044 -2.0312 0.9570
5.4227 -9.3916 -2.0384 0.9568
6.2628 -8.8986 -2.0453 0.9567
7.7970 -7.6864 -2.0579 0.9564
8.4768 -6.9764 -2.0635 0.9563
9.6290 -5.3777 -2.0730 0.9561
10.0902 -4.5024 -2.0768 0.9560
10.4684 -3.5864 -2.0799 0.9560
10.7598 -2.6379 -2.0823 0.9559
11.0714 -0.6778 -2.0849 0.9559
11.0883 0.3160 -2.0850 0.9559
8.7931 2.6950 -1.7286 0.9633
9.8064 5.0640 -2.0745 0.9561
8.7082 6.7022 -2.0655 0.9563
6.0573 8.0357 -1.8914 0.9599
4.2132 8.3636 -1.7602 0.9626
3.2951 8.3220 -1.6824 0.9642
2.6090 8.8273 -1.7301 0.9632
-0.4136 5.8017 -1.0933 0.9766
-0.9389 5.7881 -1.1022 0.9764
-1.4757 5.7685 -1.1192 0.9761
-2.0315 5.7413 -1.1447 0.9755
-2.6395 5.7594 -1.1908 0.9745
-3.3030 5.7773 -1.2509 0.9733
-5.4679 7.8400 -1.7966 0.9618
-7.2956 7.2537 -1.9337 0.9590
-7.8956 6.5548 -1.9288 0.9591
-8.8996 5.0203 -1.9206 0.9593
-9.6222 3.3425 -1.9146 0.9594
-9.8722 2.4651 -1.9126 0.9594
-10.1597 -0.2461 -1.9102 0.9595
-10.0995 -1.1549 -1.9107 0.9595
-9.4558 -3.8072 -1.9160 0.9594
-8.1499 -6.2173 -1.9267 0.9591
-7.5790 -6.9387 -1.9314 0.9590
8.9660 -3.9093 -2.0675 0.9608
9.2920 -3.0950 -2.0702 0.9607
9.5412 -2.2530 -2.0723 0.9607
9.7111 -1.3908 -2.0737 0.9607
9.8001 -0.5160 -2.0744 0.9607
7.6601 6.0004 -2.0568 0.9610
6.4357 7.2346 -2.0468 0.9612
4.7097 7.7206 -1.9117 0.9637
2.4239 8.4665 -1.8615 0.9646
1.6506 8.6199 -1.8552 0.9648
0.8694 8.7028 -1.8487 0.9649
-0.4584 5.7389 -1.2170 0.9767
-0.9835 5.7521 -1.2335 0.9764
-1.5230 5.7485 -1.2570 0.9760
-2.0875 5.7433 -1.2917 0.9753
-2.6937 5.7477 -1.3418 0.9744
-3.3762 5.7900 -1.4168 0.9730
-5.9769 6.9935 -1.9446 0.9631
-7.5688 5.1195 -1.9315 0.9633
-8.3332 3.6758 -1.9252 0.9634
-8.6183 2.9115 -1.9229 0.9635
-9.0647 0.5161 -1.9192 0.9636
-9.0134 -1.1088 -1.9196 0.9636
-8.8829 -1.9122 -1.9207 0.9635
-8.4164 -3.4725 -1.9245 0.9635
-6.7111 -6.2503 -1.9385 0.9632
-4.1357 -8.2976 -1.9597 0.9628
-0.9737 -9.3436 -1.9858 0.9623
-0.1338 -9.4260 -1.9927 0.9622
0.7130 -9.4330 -1.9996 0.9621
1.5600 -9.3638 -2.0066 0.9619
3.2266 -8.9966 -2.0203 0.9617
4.0322 -8.7001 -2.0269 0.9616
6.2547 -7.3822 -2.0452 0.9612
6.9086 -6.8105 -2.0506 0.9611
8.0489 -5.4945 -2.0600 0.9609
8.5246 -4.7609 -2.0639 0.9609
9.2642 -3.1738 -2.0700 0.9608
9.5209 -2.3342 -2.0721 0.9607
9.8101 0.2796 -2.0745 0.9607
9.5949 2.0227 -2.0727 0.9607
8.9174 2.7331 -1.9715 0.9626
9.0612 3.6933 -2.0683 0.9608
5.7924 7.6843 -2.0341 0.9614
4.7996 7.7190 -1.9213 0.9635
3.2540 8.2181 -1.8684 0.9645
2.4969 8.4482 -1.8621 0.9646
0.1068 5.7852 -1.2231 0.9766
-0.9332 5.7527 -1.2319 0.9765
-1.4707 5.7489 -1.2543 0.9760
-2.0314 5.7410 -1.2873 0.9754
-2.6352 5.7501 -1.3370 0.9745
-5.9184 7.0461 -1.9451 0.9631
-6.5091 6.4718 -1.9402 0.9632
-7.0462 5.8497 -1.9358 0.9633
-7.5262 5.1849 -1.9319 0.9633
-8.3026 3.7473 -1.9255 0.9634
-8.5940 2.9853 -1.9231 0.9635
-8.8182 2.2019 -1.9212 0.9635
-8.9740 1.4027 -1.9199 0.9635
-9.0763 -0.2199 -1.9191 0.9636
-8.8983 -1.8362 -1.9206 0.9635
-8.7054 -2.6276 -1.9221 0.9635
-8.1177 -4.1482 -1.9270 0.9634
-7.7267 -4.8663 -1.9302 0.9634
-7.2741 -5.5491 -1.9339 0.9633
-6.1962 -6.7883 -1.9428 0.9631
8.0341 -3.5030 -2.0599 0.9646
8.3251 -2.7729 -2.0623 0.9646
8.7785 -0.4623 -2.0660 0.9645
8.7849 0.3254 -2.0661 0.9645
8.7182 1.1102 -2.0655 0.9645
8.0896 3.3781 -2.0604 0.9646
7.3354 4.7522 -2.0542 0.9647
5.1559 6.9628 -2.0362 0.9650
2.9778 7.7124 -1.9430 0.9666
2.2107 7.7216 -1.8877 0.9675
1.4835 7.7470 -1.8538 0.9681
0.7816 7.8242 -1.8480 0.9682
0.0574 5.7805 -1.3586 0.9765
-0.9841 5.7554 -1.3723 0.9763
-1.5257 5.7585 -1.4001 0.9758
-2.0918 5.7550 -1.4391 0.9752
-4.8146 6.7791 -1.9542 0.9664
-5.9186 5.7850 -1.9451 0.9666
-6.3996 5.2213 -1.9411 0.9666
-6.8289 4.6190 -1.9376 0.9667
-7.2035 3.9828 -1.9345 0.9667
-7.5209 3.3175 -1.9319 0.9668
-7.7791 2.6280 -1.9298 0.9668
-8.1921 -0.2685 -1.9264 0.9669
-8.1371 -1.0010 -1.9268 0.9669
-6.5203 -5.0628 -1.9401 0.9666
-6.0529 -5.6373 -1.9440 0.9666
-5.5360 -6.1699 -1.9482 0.9665
-4.9732 -6.6565 -1.9528 0.9664
-3.7260 -7.4757 -1.9631 0.9663
-2.3468 -8.0667 -1.9745 0.9661
-0.8761 -8.4071 -1.9866 0.9659
-0.1204 -8.4782 -1.9928 0.9658
0.6411 -8.4815 -1.9990 0.9657
1.4021 -8.4164 -2.0053 0.9655
2.8981 -8.0808 -2.0176 0.9653
3.6205 -7.8119 -2.0236 0.9652
6.1958 -6.1078 -2.0448 0.9649
7.6400 -4.2669 -2.0566 0.9647
8.3003 -2.8436 -2.0621 0.9646
8.5294 -2.0911 -2.0640 0.9646
8.6878 -1.3200 -2.0653 0.9645
8.7874 0.2504 -2.0661 0.9645
8.3919 2.5720 -2.0628 0.9646
8.1191 3.3093 -2.0606 0.9646
7.3769 4.6901 -2.0545 0.9647
6.3972 5.9071 -2.0464 0.9649
5.2164 6.9202 -2.0367 0.9650
4.5607 7.3347 -2.0299 0.9651
3.0534 7.7114 -1.9492 0.9665
2.2820 7.7209 -1.8922 0.9675
1.5500 7.7363 -1.8543 0.9681
0.8486 7.8196 -1.8486 0.9682
0.1056 5.7201 -1.3446 0.9768
-0.4081 5.7247 -1.3489 0.9767
-2.0363 5.7549 -1.4347 0.9752
-3.3622 5.8809 -1.5921 0.9725
-4.7576 6.8216 -1.9547 0.9664
-7.1702 4.0447 -1.9348 0.9667
-7.4932 3.3820 -1.9321 0.9668
-7.9603 1.9877 -1.9283 0.9668
-8.0329 -1.6576 -1.9277 0.9669
-7.8581 -2.3718 -1.9291 0.9668
-7.3258 -3.7435 -1.9335 0.9668
-6.9718 -4.3909 -1.9364 0.9667
-6.0996 -5.5843 -1.9436 0.9666
7.2704 -3.1700 -2.0536 0.9678
7.5329 -2.5091 -2.0558 0.9677
7.9418 -0.4182 -2.0591 0.9677
7.9476 0.2944 -2.0592 0.9677
7.7619 1.7056 -2.0577 0.9677
7.5724 2.3918 -2.0561 0.9677
7.0087 3.6954 -2.0515 0.9678
5.7457 5.3972 -2.0411 0.9680
4.6709 6.3078 -2.0322 0.9681
4.0777 6.6845 -2.0273 0.9682
2.1345 7.4554 -2.0079 0.9685
1.4528 7.5868 -2.0001 0.9686
0.0567 5.7146 -1.4797 0.9767
-0.9846 5.7585 -1.5126 0.9762
-2.7052 5.7723 -1.6505 0.9740
-3.3609 5.7639 -1.7276 0.9728
-4.3783 6.1648 -1.9578 0.9692
-6.2148 4.2036 -1.9427 0.9695
-6.5567 3.6252 -1.9398 0.9695
-6.8464 3.0200 -1.9375 0.9696
-7.0822 2.3926 -1.9355 0.9696
-7.2623 1.7476 -1.9340 0.9696
-7.3857 1.0899 -1.9330 0.9696
-7.4091 -0.9114 -1.9328 0.9696
-7.1361 -2.2206 -1.9351 0.9696
-6.9152 -2.8531 -1.9369 0.9696
-6.6398 -3.4648 -1.9391 0.9695
-5.9333 -4.6070 -1.9450 0.9694
-5.5070 -5.1288 -1.9485 0.9694
-5.0357 -5.6124 -1.9523 0.9693
-4.5229 -6.0537 -1.9566 0.9693
-3.9720 -6.4491 -1.9611 0.9692
-2.7722 -7.0896 -1.9710 0.9690
-2.1321 -7.3288 -1.9762 0.9690
-0.7955 -7.6338 -1.9872 0.9688
1.2721 -7.6356 -2.0042 0.9685
1.9560 -7.5121 -2.0099 0.9684
2.6278 -7.3269 -2.0154 0.9683
3.2819 -7.0811 -2.0208 0.9683
3.9126 -6.7763 -2.0260 0.9682
5.6108 -5.5311 -2.0399 0.9680
6.0953 -5.0164 -2.0439 0.9679
7.5106 -2.5731 -2.0556 0.9677
7.8600 -1.1942 -2.0585 0.9677
7.9499 0.2266 -2.0592 0.9677
7.8960 0.9371 -2.0588 0.9677
7.0409 3.6359 -2.0517 0.9678
6.2600 4.8180 -2.0453 0.9679
5.7927 5.3489 -2.0415 0.9679
2.8685 7.2444 -2.0174 0.9683
0.8308 7.6555 -1.9938 0.9687
-0.4087 5.7325 -1.4880 0.9765
-3.3619 5.8804 -1.7538 0.9724
-5.3404 5.3097 -1.9499 0.9694
-5.7834 4.8013 -1.9462 0.9694
-6.5263 3.6815 -1.9401 0.9695
-7.2476 1.8097 -1.9342 0.9696
-7.3765 1.1530 -1.9331 0.9696
-7.4478 0.4879 -1.9325 0.9696
-7.4611 -0.1808 -1.9324 0.9696
-7.4164 -0.8481 -1.9328 0.9696
-6.9386 -2.7937 -1.9367 0.9696
-6.3452 -3.9962 -1.9416 0.9695
-5.5496 -5.0807 -1.9481 0.9694
6.8714 -2.2887 -2.0503 0.9703
7.0539 -1.6657 -2.0518 0.9703
7.1783 -1.0280 -2.0528 0.9703
6.3944 3.3715 -2.0464 0.9704
5.6742 4.4448 -2.0405 0.9705
4.2650 5.7597 -2.0289 0.9706
3.7241 6.1049 -2.0244 0.9707
3.1553 6.3990 -2.0198 0.9708
1.3319 6.9552 -2.0048 0.9710
0.0568 5.7256 -1.6210 0.9765
-0.9861 5.7670 -1.6563 0.9760
-1.5291 5.7716 -1.6903 0.9755
-2.9524 6.2996 -1.9695 0.9715
-3.3531 5.7505 -1.8845 0.9727
-4.4909 5.2548 -1.9568 0.9717
-4.9341 4.8226 -1.9532 0.9717
-6.2769 2.7688 -1.9421 0.9719
-6.4936 2.1937 -1.9404 0.9719
-6.6592 1.6025 -1.9390 0.9719
-6.7942 -0.8358 -1.9379 0.9719
-6.6949 -1.4412 -1.9387 0.9719
-5.7856 -3.7132 -1.9462 0.9718
-5.4380 -4.2224 -1.9490 0.9718
-5.0465 -4.7000 -1.9522 0.9717
-4.1432 -5.5456 -1.9597 0.9716
-2.5379 -6.4905 -1.9729 0.9714
-1.3466 -6.8730 -1.9827 0.9713
-0.7278 -6.9838 -1.9878 0.9712
-0.0999 -7.0392 -1.9929 0.9712
0.5320 -7.0382 -1.9981 0.9711
1.1629 -6.9804 -2.0033 0.9710
2.4012 -6.6950 -2.0135 0.9709
2.9981 -6.4690 -2.0184 0.9708
3.5735 -6.1891 -2.0232 0.9707
4.6399 -5.4763 -2.0319 0.9706
5.5628 -4.5782 -2.0395 0.9705
5.9598 -4.0684 -2.0428 0.9704
6.3090 -3.5235 -2.0457 0.9704
6.8511 -2.3471 -2.0502 0.9703
7.2016 0.8547 -2.0530 0.9703
6.7023 2.7319 -2.0489 0.9704
6.4237 3.3171 -2.0466 0.9704
6.0928 3.8737 -2.0439 0.9704
5.7128 4.3968 -2.0408 0.9705
5.2872 4.8822 -2.0373 0.9705
4.8198 5.3258 -2.0335 0.9706
4.3149 5.7242 -2.0293 0.9706
2.6209 6.6191 -2.0154 0.9708
2.0128 6.8102 -2.0104 0.9709
1.3916 6.9453 -2.0052 0.9710
-0.9354 5.7665 -1.6538 0.9760
-1.4772 5.7744 -1.6873 0.9755
-2.0431 5.7742 -1.7340 0.9749
-3.9630 5.6822 -1.9612 0.9716
-5.6642 3.9021 -1.9472 0.9718
-5.9827 3.3749 -1.9446 0.9718
-6.4751 2.2493 -1.9405 0.9719
-6.6457 1.6594 -1.9391 0.9719
-6.8297 0.4474 -1.9376 0.9719
-6.8009 -0.7777 -1.9378 0.9719
-6.7066 -1.3839 -1.9386 0.9719
-6.3616 -2.5614 -1.9414 0.9719
-6.1132 -3.1239 -1.9435 0.9719
-5.8164 -3.6632 -1.9459 0.9718
-5.4730 -4.1752 -1.9487 0.9718
-5.0856 -4.6560 -1.9519 0.9717
-4.6568 -5.1017 -1.9555 0.9717
6.0913 -2.6559 -2.0439 0.9726
6.3102 -2.1018 -2.0457 0.9725
6.4773 -1.5295 -2.0471 0.9725
6.6557 0.2466 -2.0485 0.9725
6.5010 1.4286 -2.0473 0.9725
6.3430 2.0035 -2.0460 0.9725
4.8186 4.5264 -2.0334 0.9727
3.4234 5.6120 -2.0220 0.9729
2.9011 5.8834 -2.0177 0.9729
2.3576 6.1060 -2.0132 0.9730
1.7974 6.2781 -2.0086 0.9730
1.2253 6.3988 -2.0039 0.9731
0.6460 6.4673 -1.9991 0.9732
0.0567 5.7146 -1.7578 0.9764
-1.6488 6.2234 -1.9802 0.9734
-2.1943 6.0371 -1.9757 0.9735
-5.5431 3.0648 -1.9482 0.9738
-5.7892 2.5536 -1.9462 0.9739
-5.9894 2.0234 -1.9445 0.9739
-6.1425 1.4781 -1.9432 0.9739
-6.2474 0.9220 -1.9424 0.9739
-6.3034 0.3589 -1.9419 0.9739
-6.2673 -0.7709 -1.9422 0.9739
-6.1755 -1.3294 -1.9430 0.9739
-6.0353 -1.8780 -1.9441 0.9739
-5.8476 -2.4126 -1.9457 0.9739
-5.6137 -2.9293 -1.9476 0.9738
-5.0140 -3.8932 -1.9525 0.9738
-4.6525 -4.3330 -1.9555 0.9737
-3.8186 -5.1111 -1.9624 0.9737
-3.3523 -5.4430 -1.9662 0.9736
-2.3379 -5.9788 -1.9745 0.9735
-1.7973 -6.1779 -1.9790 0.9734
-1.2399 -6.3287 -1.9836 0.9734
0.4896 -6.4768 -1.9978 0.9732
1.6444 -6.3156 -2.0073 0.9731
3.7891 -5.3838 -2.0249 0.9728
4.2641 -5.0327 -2.0289 0.9728
4.7059 -4.6391 -2.0325 0.9727
5.1106 -4.2061 -2.0358 0.9727
5.4747 -3.7372 -2.0388 0.9726
5.7947 -3.2363 -2.0415 0.9726
6.0678 -2.7075 -2.0437 0.9726
6.6476 -0.4070 -2.0485 0.9725
6.6127 0.7848 -2.0482 0.9725
6.1552 2.5089 -2.0444 0.9726
5.2482 4.0392 -2.0370 0.9727
4.8579 4.4857 -2.0338 0.9727
4.4291 4.8941 -2.0302 0.9728
2.9519 5.8597 -2.0181 0.9729
2.4102 6.0869 -2.0136 0.9730
1.2802 6.3895 -2.0043 0.9731
0.1055 5.7141 -1.7578 0.9764
-0.4088 5.7337 -1.7680 0.9762
-2.1431 6.0569 -1.9762 0.9735
-2.6709 5.8279 -1.9718 0.9735
-3.1752 5.5537 -1.9677 0.9736
-4.5112 4.4853 -1.9567 0.9737
-5.5173 3.1123 -1.9484 0.9738
-5.9724 2.0746 -1.9446 0.9739
-6.3115 -0.1529 -1.9418 0.9739
-5.8675 -2.3624 -1.9455 0.9739
-5.6379 -2.8810 -1.9474 0.9739
-5.0464 -3.8497 -1.9523 0.9738
-4.6886 -4.2925 -1.9552 0.9737
-4.2926 -4.7028 -1.9585 0.9737
5.6258 -2.4529 -2.0401 0.9745
5.8275 -1.9410 -2.0417 0.9744
5.9816 -1.4125 -2.0430 0.9744
6.0866 -0.8717 -2.0439 0.9744
6.1416 -0.3234 -2.0443 0.9744
6.1460 0.2277 -2.0444 0.9744
6.0034 1.3192 -2.0432 0.9744
5.8578 1.8502 -2.0420 0.9744
5.1408 3.3304 -2.0361 0.9745
4.0533 4.5564 -2.0271 0.9746
2.6821 5.4392 -2.0159 0.9748
2.1799 5.6458 -2.0117 0.9748
1.1334 5.9186 -2.0031 0.9749
0.0595 5.9993 -1.9943 0.9750
-1.5264 5.7615 -1.9812 0.9752
-2.0318 5.5900 -1.9771 0.9752
-2.5189 5.3747 -1.9731 0.9753
-2.9842 5.1177 -1.9692 0.9753
-3.4240 4.8212 -1.9656 0.9754
-3.8352 4.4876 -1.9622 0.9754
-4.5600 3.7204 -1.9563 0.9755
-4.8685 3.2930 -1.9537 0.9755
-5.1379 2.8407 -1.9515 0.9756
-5.3663 2.3671 -1.9496 0.9756
-5.5523 1.8758 -1.9481 0.9756
-5.8439 0.3328 -1.9457 0.9756
-5.8501 -0.1917 -1.9456 0.9756
-5.8104 -0.7148 -1.9460 0.9756
-5.2034 -2.7152 -1.9510 0.9756
-4.6467 -3.6080 -1.9555 0.9755
-3.9405 -4.3918 -1.9613 0.9754
-3.5376 -4.7349 -1.9647 0.9754
-3.1051 -5.0417 -1.9682 0.9754
-2.1648 -5.5362 -1.9760 0.9753
-1.6640 -5.7197 -1.9801 0.9752
-0.0851 -5.9953 -1.9931 0.9750
0.4529 -5.9921 -1.9975 0.9750
3.0368 -5.2594 -2.0188 0.9747
3.5020 -4.9759 -2.0226 0.9747
3.9404 -4.6507 -2.0262 0.9746
4.7215 -3.8858 -2.0326 0.9746
5.0572 -3.4523 -2.0354 0.9745
5.3524 -2.9892 -2.0378 0.9745
5.6042 -2.5006 -2.0399 0.9745
6.0787 -0.9236 -2.0438 0.9744
6.0147 1.2680 -2.0433 0.9744
5.4493 2.8140 -2.0386 0.9745
2.7289 5.4171 -2.0162 0.9748
2.2285 5.6281 -2.0121 0.9748
1.7121 5.7927 -2.0079 0.9749
1.1841 5.9099 -2.0035 0.9749
0.6489 5.9791 -1.9991 0.9750
0.1108 5.9998 -1.9947 0.9750
-0.4258 5.9724 -1.9903 0.9751
-0.9566 5.8973 -1.9859 0.9751
-1.4775 5.7755 -1.9816 0.9752
-1.9844 5.6082 -1.9775 0.9752
-2.9409 5.1439 -1.9696 0.9753
-3.3833 4.8510 -1.9660 0.9754
-4.5287 3.7597 -1.9565 0.9755
-4.8407 3.3348 -1.9540 0.9755
-5.8409 0.3826 -1.9457 0.9756
-5.8515 -0.1417 -1.9456 0.9756
-5.8162 -0.6651 -1.9459 0.9756
-5.7352 -1.1835 -1.9466 0.9756
-5.4391 -2.1899 -1.9490 0.9756
-4.9712 -3.1309 -1.9529 0.9755
-4.6768 -3.5678 -1.9553 0.9755
-4.3447 -3.9776 -1.9580 0.9755
-3.9773 -4.3573 -1.9610 0.9754
5.4077 -1.8012 -2.0383 0.9761
5.5504 -1.3106 -2.0395 0.9761
5.6477 -0.8088 -2.0403 0.9761
5.7026 0.2113 -2.0407 0.9760
5.6599 0.7208 -2.0404 0.9761
5.5706 1.2241 -2.0396 0.9761
5.2564 2.1950 -2.0370 0.9761
5.0343 2.6544 -2.0352 0.9761
4.7714 3.0911 -2.0330 0.9761
4.1330 3.8823 -2.0278 0.9762
3.7632 4.2303 -2.0248 0.9762
3.3640 4.5429 -2.0215 0.9763
2.9387 4.8174 -2.0180 0.9763
2.4911 5.0519 -2.0143 0.9764
2.0250 5.2446 -2.0105 0.9764
1.5443 5.3942 -2.0065 0.9764
0.0554 5.5764 -1.9943 0.9766
-0.9361 5.4744 -1.9861 0.9767
-3.1859 4.4859 -1.9676 0.9769
-3.5689 4.1760 -1.9644 0.9769
-3.9226 3.8340 -1.9615 0.9770
-4.7829 2.6445 -1.9544 0.9771
-4.9960 2.2037 -1.9527 0.9771
-5.4471 -0.1785 -1.9490 0.9771
-5.4101 -0.6655 -1.9493 0.9771
-5.0466 -2.0821 -1.9523 0.9771
-4.8440 -2.5277 -1.9539 0.9771
-4.6030 -2.9542 -1.9559 0.9770
-4.3251 -3.3583 -1.9582 0.9770
-4.0124 -3.7369 -1.9608 0.9770
-3.6670 -4.0870 -1.9636 0.9769
-2.8889 -4.6906 -1.9700 0.9769
-2.0135 -5.1493 -1.9772 0.9768
-1.5475 -5.3192 -1.9810 0.9767
-1.0672 -5.4472 -1.9850 0.9767
-0.5765 -5.5321 -1.9890 0.9766
-0.0791 -5.5729 -1.9931 0.9766
0.4209 -5.5691 -1.9972 0.9766
1.8969 -5.2891 -2.0094 0.9764
2.3673 -5.1079 -2.0133 0.9764
2.8203 -4.8845 -2.0170 0.9763
3.2519 -4.6205 -2.0205 0.9763
4.9674 -2.7743 -2.0347 0.9761
5.2007 -2.3206 -2.0366 0.9761
5.3918 -1.8472 -2.0381 0.9761
5.6404 -0.8570 -2.0402 0.9761
5.7043 0.1626 -2.0407 0.9760
5.6660 0.6724 -2.0404 0.9761
5.4505 1.6705 -2.0386 0.9761
5.2754 2.1502 -2.0372 0.9761
5.0572 2.6115 -2.0354 0.9761
4.5004 3.4637 -2.0308 0.9762
4.1666 3.8474 -2.0281 0.9762
3.7998 4.1987 -2.0251 0.9762
2.9802 4.7929 -2.0183 0.9763
2.5346 5.0313 -2.0146 0.9764
2.0701 5.2281 -2.0108 0.9764
1.5907 5.3818 -2.0069 0.9764
1.1003 5.4916 -2.0028 0.9765
0.6030 5.5566 -1.9988 0.9765
-0.3958 5.5522 -1.9905 0.9766
-0.8894 5.4832 -1.9865 0.9767
-1.3740 5.3708 -1.9825 0.9767
-2.3008 5.0203 -1.9749 0.9768
-3.1479 4.5136 -1.9679 0.9769
-3.8902 3.8679 -1.9618 0.9770
-4.5059 3.1042 -1.9567 0.9770
-4.7606 2.6855 -1.9546 0.9770
-5.1546 1.7906 -1.9514 0.9771
-5.3860 0.8419 -1.9495 0.9771
-5.4154 -0.6193 -1.9492 0.9771
-5.3400 -1.1019 -1.9498 0.9771
-4.3531 -3.3208 -1.9580 0.9770
-4.0436 -3.7020 -1.9605 0.9770
-3.7013 -4.0549 -1.9633 0.9769
5.1715 -1.2212 -2.0363 0.9775
5.2620 -0.7536 -2.0371 0.9775
5.2734 0.6716 -2.0372 0.9775
5.1904 1.1405 -2.0365 0.9775
4.1662 3.2635 -2.0281 0.9776
3.8524 3.6187 -2.0255 0.9776
3.5081 3.9435 -2.0227 0.9776
2.3230 4.7110 -2.0129 0.9778
0.9825 5.1306 -2.0019 0.9779
0.5183 5.1881 -1.9981 0.9779
0.0517 5.2036 -1.9942 0.9780
-0.4136 5.1774 -1.9904 0.9780
-1.7644 4.8542 -1.9793 0.9781
-2.1879 4.6685 -1.9758 0.9782
-2.9756 4.1897 -1.9693 0.9782
-3.3337 3.9007 -1.9664 0.9783
-3.6644 3.5817 -1.9636 0.9783
-3.9653 3.2352 -1.9612 0.9783
-4.2342 2.8640 -1.9589 0.9783
-4.6685 2.0593 -1.9554 0.9784
-2.3012 -0.2831 -0.8885 0.9901
-4.9816 -1.0724 -1.9528 0.9784
-4.7158 -1.9457 -1.9550 0.9784
-4.5263 -2.3619 -1.9565 0.9784
-4.3008 -2.7602 -1.9584 0.9783
-3.7484 -3.4910 -1.9629 0.9783
-3.4254 -3.8177 -1.9656 0.9783
-3.0744 -4.1150 -1.9685 0.9782
-2.6980 -4.3806 -1.9716 0.9782
-2.2988 -4.6122 -1.9749 0.9782
-1.4447 -4.9658 -1.9819 0.9781
-0.9962 -5.0847 -1.9856 0.9780
0.3928 -5.1963 -1.9970 0.9779
0.8580 -5.1502 -2.0008 0.9779
1.3181 -5.0622 -2.0046 0.9778
3.4106 -4.0254 -2.0218 0.9777
4.0849 -3.3619 -2.0274 0.9776
4.3746 -2.9862 -2.0298 0.9776
4.6291 -2.5853 -2.0319 0.9775
4.8462 -2.1624 -2.0337 0.9775
5.0239 -1.7212 -2.0351 0.9775
5.1607 -1.2652 -2.0362 0.9775
5.2553 -0.7985 -2.0370 0.9775
5.3067 -0.3249 -2.0374 0.9775
5.2001 1.0962 -2.0366 0.9775
5.0786 1.5566 -2.0356 0.9775
4.9156 2.0036 -2.0342 0.9775
4.4715 2.8429 -2.0306 0.9776
3.8837 3.5861 -2.0257 0.9776
2.7788 4.4689 -2.0167 0.9777
1.9306 4.8759 -2.0097 0.9778
1.0264 5.1230 -2.0022 0.9779
0.0961 5.2039 -1.9946 0.9780
-2.1484 4.6878 -1.9761 0.9782
-2.9401 4.2156 -1.9696 0.9782
-4.4483 2.5093 -1.9572 0.9784
-5.0335 0.7868 -1.9524 0.9784
-2.3033 0.1509 -0.8846 0.9902
-2.2952 -0.0556 -0.8798 0.9902
-2.3019 -0.2632 -0.8879 0.9901
-4.8805 -1.4731 -1.9536 0.9784
-4.7320 -1.9052 -1.9548 0.9784
-4.0671 -3.1026 -1.9603 0.9783
-3.7776 -3.4584 -1.9627 0.9783
4.5493 -1.9835 -2.0312 0.9788
4.7117 -1.5694 -2.0325 0.9788
4.9644 -0.2614 -2.0346 0.9787
4.9680 0.1840 -2.0347 0.9787
4.9308 0.6279 -2.0344 0.9787
4.3872 2.3132 -2.0299 0.9788
4.1587 2.6942 -2.0280 0.9788
3.8967 3.0524 -2.0259 0.9788
3.6035 3.3849 -2.0234 0.9789
3.2817 3.6891 -2.0208 0.9789
2.5638 4.2028 -2.0149 0.9789
2.1738 4.4084 -2.0117 0.9790
1.3483 4.7094 -2.0049 0.9791
0.4852 4.8571 -1.9978 0.9791
0.0484 4.8723 -1.9942 0.9792
-1.2412 4.6849 -1.9836 0.9793
-1.6528 4.5472 -1.9802 0.9793
-2.0498 4.3738 -1.9769 0.9793
-2.4293 4.1661 -1.9738 0.9794
-2.7883 3.9261 -1.9708 0.9794
-3.1242 3.6556 -1.9681 0.9794
-3.9690 2.6846 -1.9611 0.9795
-2.0995 0.5052 -0.8838 0.9907
-1.9981 -0.0655 -0.8182 0.9914
-2.0200 -0.2485 -0.8330 0.9912
-4.5639 -1.4201 -1.9562 0.9796
-4.4211 -1.8241 -1.9574 0.9795
-3.7876 -2.9409 -1.9626 0.9795
-2.5280 -4.1046 -1.9730 0.9794
-2.1538 -4.3212 -1.9761 0.9793
-1.7612 -4.5040 -1.9793 0.9793
-0.5039 -4.8352 -1.9896 0.9792
-0.0691 -4.8696 -1.9932 0.9792
1.6558 -4.6168 -2.0074 0.9790
2.4606 -4.2616 -2.0140 0.9790
2.8366 -4.0304 -2.0171 0.9789
3.5196 -3.4696 -2.0227 0.9789
4.3291 -2.4178 -2.0294 0.9788
4.6979 -1.6095 -2.0324 0.9788
4.9694 0.1416 -2.0347 0.9787
4.9361 0.5858 -2.0344 0.9787
4.7489 1.4555 -2.0329 0.9788
4.4072 2.2758 -2.0301 0.9788
2.9683 3.9378 -2.0182 0.9789
2.6000 4.1814 -2.0152 0.9789
2.2117 4.3904 -2.0120 0.9790
1.3887 4.6985 -2.0052 0.9790
0.9608 4.7955 -2.0017 0.9791
0.5267 4.8536 -1.9981 0.9791
0.0900 4.8725 -1.9945 0.9792
-0.3459 4.8523 -1.9909 0.9792
-0.7775 4.7932 -1.9874 0.9792
-1.2014 4.6961 -1.9839 0.9793
-1.6142 4.5619 -1.9805 0.9793
-2.7551 3.9503 -1.9711 0.9794
-3.0932 3.6826 -1.9683 0.9794
-3.6911 3.0643 -1.9634 0.9795
-4.1700 2.3523 -1.9595 0.9795
-4.5160 1.5687 -1.9566 0.9795
-2.1081 0.5264 -0.8893 0.9907
-1.9964 -0.0484 -0.8173 0.9914
-4.2616 -2.1777 -1.9587 0.9795
-3.5406 -3.2415 -1.9646 0.9795
-3.2403 -3.5499 -1.9671 0.9794
4.2674 -1.8606 -2.0289 0.9799
4.4195 -1.4721 -2.0301 0.9799
4.6563 -0.2452 -2.0321 0.9799
4.6248 0.5890 -2.0318 0.9799
4.4424 1.4032 -2.0303 0.9799
4.2964 1.7941 -2.0291 0.9799
3.6558 2.8637 -2.0239 0.9799
3.0793 3.4615 -2.0191 0.9800
2.0403 4.1377 -2.0106 0.9801
1.2658 4.4211 -2.0042 0.9801
0.8635 4.5092 -2.0009 0.9802
0.4556 4.5607 -1.9975 0.9802
-0.3637 4.5535 -1.9908 0.9803
-0.7686 4.4951 -1.9875 0.9803
-1.1660 4.4010 -1.9842 0.9803
-1.5528 4.2721 -1.9810 0.9804
-1.9260 4.1095 -1.9779 0.9804
-2.2827 3.9148 -1.9750 0.9804
-3.4936 2.8503 -1.9650 0.9805
-3.7310 2.5236 -1.9631 0.9805
-3.9385 2.1776 -1.9614 0.9806
-1.4918 0.5040 -0.6863 0.9932
-1.4881 0.3581 -0.6671 0.9933
-1.4940 -0.4649 -0.6819 0.9932
-3.9891 -2.0816 -1.9610 0.9806
-3.3021 -3.0754 -1.9666 0.9805
-3.0172 -3.3627 -1.9689 0.9805
-2.0237 -4.0602 -1.9771 0.9804
-1.2712 -4.3696 -1.9833 0.9803
-0.8764 -4.4732 -1.9866 0.9803
0.3453 -4.5683 -1.9966 0.9802
0.7541 -4.5266 -2.0000 0.9802
1.9391 -4.1839 -2.0097 0.9801
2.3093 -3.9996 -2.0128 0.9800
2.6619 -3.7822 -2.0157 0.9800
2.9939 -3.5335 -2.0184 0.9800
3.3023 -3.2554 -2.0209 0.9800
3.8382 -2.6201 -2.0254 0.9799
4.2511 -1.8969 -2.0288 0.9799
4.4066 -1.5097 -2.0300 0.9799
4.6089 -0.7003 -2.0317 0.9799
4.5607 0.9614 -2.0313 0.9799
4.3118 1.7575 -2.0293 0.9799
4.1342 2.1349 -2.0278 0.9799
3.4083 3.1472 -2.0218 0.9800
3.1091 3.4355 -2.0194 0.9800
2.7854 3.6952 -2.0167 0.9800
2.0759 4.1207 -2.0109 0.9801
1.6960 4.2833 -2.0077 0.9801
0.4946 4.5574 -1.9979 0.9802
-1.1285 4.4115 -1.9845 0.9803
-2.2495 3.9347 -1.9753 0.9804
-4.0992 1.8502 -1.9601 0.9806
-1.4590 0.0956 -0.6372 0.9936
-1.4386 -0.0348 -0.6271 0.9937
-1.4939 -0.4509 -0.6801 0.9932
-4.1707 -1.6792 -1.9595 0.9806
-4.0064 -2.0473 -1.9608 0.9806
-3.8102 -2.3997 -1.9624 0.9805
-3.5835 -2.7337 -1.9643 0.9805
-3.0454 -3.3364 -1.9687 0.9805
4.0137 -1.7500 -2.0268 0.9809
4.1567 -1.3845 -2.0280 0.9809
4.3495 0.5539 -2.0296 0.9809
4.2813 0.9408 -2.0290 0.9809
4.1781 1.3197 -2.0282 0.9809
4.0409 1.6875 -2.0270 0.9809
3.6697 2.3774 -2.0240 0.9809
3.1807 2.9877 -2.0200 0.9809
1.9200 3.8938 -2.0096 0.9810
1.5615 4.0441 -2.0066 0.9811
1.1914 4.1613 -2.0036 0.9811
0.8128 4.2446 -2.0005 0.9811
-0.3425 4.2876 -1.9910 0.9812
-0.7238 4.2330 -1.9878 0.9812
-1.0981 4.1448 -1.9848 0.9813
-1.4625 4.0238 -1.9818 0.9813
-2.7665 3.2370 -1.9710 0.9814
-3.0416 2.9730 -1.9688 0.9814
-1.2502 0.5514 -0.6325 0.9940
-1.2660 0.4277 -0.6185 0.9941
-1.2653 -0.0415 -0.5860 0.9944
-1.2752 -0.1569 -0.5947 0.9944
-1.2673 -0.2728 -0.6001 0.9943
-1.2690 -0.3949 -0.6152 0.9942
-1.2498 -0.5157 -0.6258 0.9941
-3.3550 -2.6051 -1.9662 0.9815
-2.8428 -3.1683 -1.9704 0.9814
-2.2379 -3.6336 -1.9754 0.9814
-1.9063 -3.8247 -1.9781 0.9813
-1.5585 -3.9857 -1.9810 0.9813
-1.1973 -4.1154 -1.9839 0.9813
-0.8253 -4.2125 -1.9870 0.9813
-0.4456 -4.2762 -1.9901 0.9812
-0.0611 -4.3057 -1.9933 0.9812
0.3251 -4.3008 -1.9964 0.9812
1.4629 -4.0789 -2.0058 0.9811
1.8248 -3.9374 -2.0088 0.9811
2.1731 -3.7636 -2.0117 0.9810
2.5047 -3.5588 -2.0144 0.9810
2.8168 -3.3245 -2.0170 0.9810
3.1067 -3.0626 -2.0193 0.9810
3.3721 -2.7752 -2.0215 0.9809
4.1445 -1.4199 -2.0279 0.9809
4.3346 -0.6586 -2.0294 0.9809
4.3834 0.1249 -2.0299 0.9809
4.3541 0.5167 -2.0296 0.9809
4.2893 0.9042 -2.0291 0.9809
4.1894 1.2840 -2.0283 0.9809
4.0555 1.6530 -2.0272 0.9809
3.8886 2.0080 -2.0258 0.9809
3.4622 2.6646 -2.0223 0.9809
2.2960 3.6925 -2.0127 0.9810
1.2270 4.1516 -2.0039 0.9811
0.0796 4.3080 -1.9944 0.9812
-1.0628 4.1546 -1.9850 0.9813
-1.4283 4.0367 -1.9820 0.9813
-1.7813 3.8869 -1.9791 0.9813
-2.4392 3.4974 -1.9737 0.9814
-3.0165 2.9991 -1.9690 0.9814
-3.6944 2.0840 -1.9634 0.9815
-1.2560 0.5669 -0.6379 0.9939
-1.2646 0.4393 -0.6197 0.9941
-1.2702 0.3172 -0.6060 0.9942
-1.2743 0.1992 -0.5970 0.9943
-1.2706 0.0832 -0.5894 0.9944
-1.2680 -0.2617 -0.5993 0.9943
-3.3768 -2.5761 -1.9660 0.9815
-2.8694 -3.1436 -1.9702 0.9814
4.0215 -0.9496 -2.0269 0.9818
4.1003 0.5222 -2.0275 0.9818
4.0360 0.8869 -2.0270 0.9818
3.9389 1.2441 -2.0262 0.9818
3.6496 1.9243 -2.0238 0.9818
3.4600 2.2416 -2.0223 0.9818
3.2426 2.5400 -2.0205 0.9818
2.9992 2.8173 -2.0185 0.9818
2.7320 3.0711 -2.0163 0.9819
2.4432 3.2995 -2.0139 0.9819
2.1354 3.5005 -2.0114 0.9819
0.7669 4.0047 -2.0001 0.9820
0.4047 4.0512 -1.9971 0.9820
0.0404 4.0651 -1.9941 0.9821
-0.3232 4.0463 -1.9911 0.9821
-0.6831 3.9952 -1.9882 0.9821
-1.0365 3.9122 -1.9853 0.9821
-1.7127 3.6544 -1.9797 0.9822
-2.0303 3.4819 -1.9771 0.9822
-2.3309 3.2820 -1.9746 0.9822
-2.6123 3.0566 -1.9723 0.9822
-3.3206 2.2460 -1.9665 0.9823
-1.1020 0.4861 -0.5908 0.9946
-1.1263 0.3805 -0.5831 0.9947
-1.1328 0.2726 -0.5715 0.9948
-1.1435 0.1688 -0.5670 0.9949
-1.1443 -0.1408 -0.5655 0.9949
-1.1354 -0.2444 -0.5697 0.9948
-1.1298 -0.3515 -0.5804 0.9947
-1.1103 -0.4581 -0.5891 0.9947
-1.0946 -0.5712 -0.6056 0.9945
-3.3731 -2.1648 -1.9660 0.9823
-3.1685 -2.4602 -1.9677 0.9823
-2.9383 -2.7366 -1.9696 0.9823
-2.6844 -2.9918 -1.9717 0.9823
-2.4086 -3.2238 -1.9740 0.9822
-2.1129 -3.4307 -1.9764 0.9822
-1.4712 -3.7625 -1.9817 0.9822
0.6698 -4.0204 -1.9993 0.9820
1.7213 -3.7140 -2.0079 0.9819
2.0496 -3.5498 -2.0106 0.9819
2.3622 -3.3563 -2.0132 0.9819
2.6563 -3.1351 -2.0156 0.9819
3.6014 -2.0113 -2.0234 0.9818
3.7696 -1.6820 -2.0248 0.9818
3.9072 -1.3386 -2.0259 0.9818
4.1261 -0.2526 -2.0277 0.9818
4.1322 0.1178 -2.0278 0.9818
4.0436 0.8524 -2.0271 0.9818
3.9495 1.2105 -2.0263 0.9818
3.8233 1.5584 -2.0252 0.9818
3.6661 1.8932 -2.0240 0.9818
3.0235 2.7919 -2.0187 0.9818
2.1655 3.4826 -2.0116 0.9819
0.8012 3.9986 -2.0004 0.9820
0.4393 4.0482 -1.9974 0.9820
0.0751 4.0652 -1.9944 0.9820
-0.2887 4.0495 -1.9914 0.9821
-1.0032 3.9215 -1.9855 0.9821
-1.3483 3.8105 -1.9827 0.9822
-2.0007 3.4995 -1.9773 0.9822
-2.5864 3.0791 -1.9725 0.9822
-2.8485 2.8321 -1.9704 0.9823
-3.0875 2.5632 -1.9684 0.9823
-3.4892 1.9683 -1.9651 0.9823
-1.1247 0.3907 -0.5840 0.9947
-1.1330 0.2829 -0.5728 0.9948
-1.1430 0.1787 -0.5675 0.9949
-1.1428 0.0749 -0.5618 0.9949
-1.1380 -0.0276 -0.5584 0.9949
-1.1307 -0.3413 -0.5794 0.9948
-1.1129 -0.4481 -0.5885 0.9947
-1.0910 -0.5575 -0.6010 0.9946
-2.7096 -2.9685 -1.9715 0.9823
3.7990 -0.8971 -2.0250 0.9826
3.8651 -0.5535 -2.0256 0.9826
3.8997 -0.2053 -2.0259 0.9826
3.8734 0.4933 -2.0257 0.9826
3.4480 1.8180 -2.0222 0.9826
3.2690 2.1178 -2.0207 0.9826
3.0638 2.3999 -2.0190 0.9826
2.8340 2.6621 -2.0171 0.9826
1.3923 3.6059 -2.0052 0.9827
1.0624 3.7110 -2.0025 0.9828
0.7250 3.7860 -1.9998 0.9828
0.3826 3.8302 -1.9969 0.9828
0.0382 3.8436 -1.9941 0.9828
-0.3056 3.8262 -1.9913 0.9829
-0.9803 3.7000 -1.9857 0.9829
-1.3058 3.5926 -1.9830 0.9829
-1.6200 3.4567 -1.9805 0.9829
-2.2051 3.1049 -1.9756 0.9830
-2.7176 2.6562 -1.9714 0.9830
-2.9417 2.4000 -1.9696 0.9830
-3.1421 2.1253 -1.9679 0.9831
-1.0124 0.3420 -0.5544 0.9952
-1.0362 0.0590 -0.5384 0.9953
-1.0371 -0.1276 -0.5421 0.9953
-1.0268 -0.2210 -0.5449 0.9953
-1.0161 -0.3162 -0.5521 0.9952
-0.9621 -0.5021 -0.5630 0.9951
-3.1918 -2.0485 -1.9675 0.9831
-2.9980 -2.3278 -1.9691 0.9830
-2.7801 -2.5892 -1.9709 0.9830
-2.5397 -2.8305 -1.9729 0.9830
-1.9988 -3.2454 -1.9773 0.9830
-1.7023 -3.4155 -1.9798 0.9830
-0.7367 -3.7600 -1.9877 0.9829
-0.0545 -3.8420 -1.9933 0.9828
0.2900 -3.8369 -1.9962 0.9828
0.9723 -3.7341 -2.0018 0.9828
1.3044 -3.6371 -2.0045 0.9827
2.2323 -3.1718 -2.0121 0.9827
3.4025 -1.9003 -2.0218 0.9826
3.6912 -1.2646 -2.0242 0.9826
3.7911 -0.9294 -2.0250 0.9826
3.8977 -0.2386 -2.0259 0.9826
3.8199 0.8053 -2.0252 0.9826
3.7311 1.1436 -2.0245 0.9826
3.4636 1.7886 -2.0223 0.9826
3.2872 2.0900 -2.0208 0.9826
3.0844 2.3739 -2.0192 0.9826
2.8569 2.6380 -2.0173 0.9826
2.6066 2.8802 -2.0152 0.9826
1.4232 3.5943 -2.0055 0.9827
0.4154 3.8273 -1.9972 0.9828
-0.2730 3.8292 -1.9915 0.9828
-0.9488 3.7088 -1.9860 0.9829
-1.2752 3.6041 -1.9833 0.9829
-1.5907 3.4709 -1.9807 0.9829
-1.8926 3.3104 -1.9782 0.9830
-2.1787 3.1240 -1.9759 0.9830
-2.4469 2.9131 -1.9737 0.9830
-2.9214 2.4253 -1.9698 0.9830
-0.9499 0.5359 -0.5658 0.9951
-0.9860 0.4450 -0.5612 0.9951
-1.0109 0.3511 -0.5552 0.9952
-1.0203 0.2548 -0.5456 0.9953
-1.0368 0.0679 -0.5390 0.9953
-1.0374 -0.1186 -0.5417 0.9953
-0.9993 -0.4024 -0.5589 0.9952
-0.9661 -0.4937 -0.5628 0.9951
-0.9710 -0.6115 -0.5953 0.9948
-3.0175 -2.3020 -1.9689 0.9830
-2.8019 -2.5652 -1.9707 0.9830
-2.5636 -2.8085 -1.9727 0.9830
3.3835 -1.4752 -2.0216 0.9833
1.8884 -0.2704 -1.0448 0.9913
3.0942 2.0045 -2.0192 0.9833
2.6826 2.5199 -2.0159 0.9834
2.1859 2.9519 -2.0118 0.9834
1.9107 3.1322 -2.0095 0.9834
1.3183 3.4144 -2.0046 0.9834
-0.9287 3.5054 -1.9861 0.9836
-1.8199 3.1211 -1.9788 0.9837
-2.0896 2.9423 -1.9766 0.9837
-2.5756 2.5175 -1.9726 0.9837
-0.8764 0.4846 -0.5485 0.9954
-0.9008 0.3973 -0.5392 0.9955
-0.9175 0.3100 -0.5304 0.9956
-0.9312 0.2241 -0.5246 0.9956
-0.9451 0.1395 -0.5232 0.9957
-0.9467 -0.1164 -0.5224 0.9957
-0.9361 -0.2015 -0.5245 0.9956
-0.9058 -0.3737 -0.5367 0.9955
-0.8839 -0.4612 -0.5461 0.9955
-0.8681 -0.5571 -0.5649 0.9953
-2.8416 -2.2064 -1.9704 0.9837
-2.6349 -2.4540 -1.9721 0.9837
-2.4069 -2.6826 -1.9740 0.9837
-2.1594 -2.8902 -1.9760 0.9837
-1.8941 -3.0753 -1.9782 0.9837
-1.3185 -3.3718 -1.9829 0.9836
-1.0126 -3.4807 -1.9854 0.9836
-0.3767 -3.6150 -1.9907 0.9836
0.2747 -3.6340 -1.9960 0.9835
0.5997 -3.5996 -1.9987 0.9835
0.9207 -3.5362 -2.0014 0.9835
1.5404 -3.3238 -2.0065 0.9834
1.8829 -0.6451 -1.0901 0.9910
1.8861 -0.4624 -1.0636 0.9912
1.8879 -0.2869 -1.0459 0.9913
1.8890 0.2242 -1.0419 0.9914
3.4186 1.3934 -2.0219 0.9833
3.1114 1.9782 -2.0194 0.9833
2.9196 2.2470 -2.0178 0.9833
2.4675 2.7266 -2.0141 0.9834
2.2112 2.9334 -2.0120 0.9834
1.0362 3.5059 -2.0023 0.9835
0.7173 3.5799 -1.9997 0.9835
0.0672 3.6406 -1.9943 0.9835
-0.2586 3.6272 -1.9917 0.9836
-0.5815 3.5847 -1.9890 0.9836
-0.8989 3.5136 -1.9864 0.9836
-1.5072 3.2887 -1.9814 0.9836
-2.5542 2.5396 -1.9728 0.9837
-0.8769 0.6041 -0.5832 0.9952
-0.8736 0.4928 -0.5493 0.9954
-0.9292 0.2320 -0.5245 0.9956
-0.9470 -0.1083 -0.5221 0.9957
-0.8864 -0.4529 -0.5452 0.9955
-0.8656 -0.5452 -0.5603 0.9953
-2.6555 -2.4312 -1.9719 0.9837
-2.4295 -2.6617 -1.9738 0.9837
3.2074 -1.3985 -2.0202 0.9840
1.7139 -0.5709 -1.0429 0.9917
1.7323 -0.4090 -1.0277 0.9918
1.7412 -0.2494 -1.0155 0.9919
1.7342 0.0643 -1.0019 0.9920
1.7418 0.2218 -1.0137 0.9919
1.7328 0.3808 -1.0243 0.9918
1.7189 0.5429 -1.0408 0.9917
1.8258 0.7624 -1.1424 0.9909
2.9334 1.9004 -2.0179 0.9840
2.5434 2.3892 -2.0147 0.9840
2.0727 2.7990 -2.0108 0.9840
1.8118 2.9702 -2.0087 0.9841
1.2503 3.2382 -2.0041 0.9841
0.9542 3.3330 -2.0016 0.9841
0.6512 3.4008 -1.9991 0.9841
0.3437 3.4411 -1.9966 0.9842
0.0343 3.4537 -1.9941 0.9842
-0.2747 3.4385 -1.9915 0.9842
-0.5806 3.3958 -1.9890 0.9842
-1.1740 3.2299 -1.9841 0.9843
-1.9832 2.7925 -1.9775 0.9843
-2.2230 2.6011 -1.9755 0.9843
-2.4447 2.3895 -1.9737 0.9843
-2.6465 2.1592 -1.9720 0.9843
-0.7967 0.5389 -0.5553 0.9956
-0.8229 0.4550 -0.5429 0.9957
-0.8726 0.2100 -0.5182 0.9959
-0.8810 0.1300 -0.5141 0.9959
-0.8803 -0.0288 -0.5085 0.9959
-0.8756 -0.1885 -0.5171 0.9959
-2.6973 -2.0943 -1.9716 0.9844
-2.2845 -2.5461 -1.9750 0.9843
-2.0494 -2.7431 -1.9769 0.9843
-1.7975 -2.9186 -1.9790 0.9843
-1.5307 -3.0712 -1.9812 0.9843
-1.2511 -3.1996 -1.9835 0.9843
-0.9608 -3.3027 -1.9859 0.9842
-0.6621 -3.3796 -1.9883 0.9842
-0.0490 -3.4523 -1.9934 0.9842
0.2606 -3.4472 -1.9959 0.9842
0.5688 -3.4144 -1.9985 0.9841
1.1715 -3.2663 -2.0034 0.9841
1.7392 -3.0121 -2.0081 0.9841
2.2531 -2.6593 -2.0123 0.9840
2.4845 -2.4492 -2.0142 0.9840
2.6961 -2.2189 -2.0160 0.9840
3.1952 -1.4257 -2.0201 0.9840
1.7108 -0.5861 -1.0441 0.9917
1.7318 -0.4246 -1.0295 0.9918
1.7406 -0.2645 -1.0165 0.9919
1.7377 -0.1064 -1.0051 0.9920
1.7419 0.2067 -1.0127 0.9919
1.7327 0.3653 -1.0224 0.9919
1.7938 0.7312 -1.1184 0.9911
3.1077 1.6048 -2.0194 0.9840
2.9497 1.8754 -2.0181 0.9840
2.3396 2.5852 -2.0130 0.9840
2.0967 2.7815 -2.0110 0.9840
1.8373 2.9549 -2.0089 0.9841
1.5637 3.1040 -2.0067 0.9841
0.6803 3.3956 -1.9994 0.9841
0.3732 3.4385 -1.9969 0.9842
0.0638 3.4537 -1.9943 0.9842
-0.2453 3.4411 -1.9918 0.9842
-1.1465 3.2402 -1.9844 0.9843
-2.4244 2.4105 -1.9738 0.9843
-2.6282 2.1819 -1.9722 0.9843
-0.7981 0.5498 -0.5595 0.9955
-0.8448 0.3813 -0.5351 0.9957
-0.8608 0.2990 -0.5261 0.9958
-0.8713 0.2176 -0.5185 0.9959
-0.8798 -0.0213 -0.5081 0.9959
-0.8532 -0.3435 -0.5310 0.9958
-0.8326 -0.4255 -0.5398 0.9957
-0.8033 -0.5059 -0.5481 0.9956
-0.8052 -0.6142 -0.5847 0.9953
-2.5206 -2.3076 -1.9730 0.9843
