ply
format ascii 1.0
element vertex 1274
property float32 x
property float32 y
property float32 z
property float32 I
end_header
7.6641 -13.3065 2.7076 0.9395
-11.9284 -13.3412 2.3305 0.9304
0.2455 9.6688 1.2595 0.9617
-11.9243 -13.3366 1.9211 0.9306
7.6716 -13.3195 1.6506 0.9400
0.2456 9.6698 1.0387 0.9618
7.6741 -13.3238 1.3016 0.9401
0.2456 9.6707 0.8189 0.9619
-11.9160 -13.3274 1.1086 0.9309
7.6765 -13.3281 0.9538 0.9402
0.2456 9.6716 0.5999 0.9620
-11.9120 -13.3228 0.7047 0.9310
7.6815 -13.3367 0.2600 0.9403
0.2456 9.6735 0.1635 0.9620
7.5729 -13.8654 0.2669 0.9388
7.6840 -13.3410 -0.0867 0.9403
7.5665 -13.8538 -0.0889 0.9388
-11.8998 -13.3092 -0.5027 0.9311
7.6864 -13.3453 -0.4336 0.9402
8.9444 3.6009 -0.2715 0.9622
7.5602 -13.8421 -0.4441 0.9388
9.5374 2.8804 -0.5053 0.9609
8.8437 3.5604 -0.4835 0.9625
2.5035 8.2777 -0.4386 0.9660
0.2457 9.6763 -0.4909 0.9620
-8.9754 9.0812 -0.6475 0.9501
-4.5420 -11.6481 -0.9167 0.9511
5.7871 14.3582 -1.1351 0.9398
-3.4558 6.1603 -0.5179 0.9721
7.5475 -13.8189 -1.1545 0.9388
-15.2799 10.2247 -1.7651 0.9288
-16.0944 8.7985 -1.7610 0.9289
-17.6376 7.6838 -1.8470 0.9256
-18.7734 6.2509 -1.8996 0.9236
-19.2331 4.5436 -1.8973 0.9237
-19.5457 2.8052 -1.8957 0.9237
-19.7096 1.0478 -1.8949 0.9238
-19.5878 -2.4765 -1.8955 0.9237
-18.2933 -7.6067 -1.9020 0.9235
-13.4978 -12.6203 -1.7740 0.9284
-8.3448 -16.7906 -1.8001 0.9274
-4.5421 -11.6483 -1.2003 0.9510
-5.2694 -18.1628 -1.8156 0.9268
-1.9717 -18.9831 -1.8323 0.9262
-0.2696 -19.1730 -1.8409 0.9258
1.4508 -19.2107 -1.8496 0.9255
4.8912 -18.8213 -1.8670 0.9248
6.5827 -18.3930 -1.8755 0.9245
6.8495 -14.8127 -1.5668 0.9365
7.2298 -12.5524 -1.3907 0.9435
12.8183 -15.1743 -1.9070 0.9233
8.9186 2.6936 -0.8944 0.9633
8.5074 3.4250 -0.8805 0.9638
10.9610 8.3507 -1.3229 0.9461
10.5835 16.8059 -1.9067 0.9233
9.0174 17.6397 -1.9019 0.9235
5.4007 13.3995 -1.3870 0.9436
2.5158 8.3182 -0.8343 0.9657
1.7248 8.3265 -0.8164 0.9664
0.2458 9.6782 -0.9295 0.9618
-2.3535 6.8185 -0.6925 0.9714
-2.6882 5.9908 -0.6304 0.9740
-4.1382 6.0402 -0.7029 0.9710
-11.8310 14.3319 -1.7842 0.9280
-8.9183 9.0235 -1.2180 0.9503
-14.0882 11.9103 -1.7711 0.9285
-18.6339 6.6772 -1.9003 0.9235
-19.1305 4.9796 -1.8978 0.9236
-19.6822 1.4942 -1.8950 0.9237
-19.7342 -0.2697 -1.8948 0.9238
-19.6364 -2.0317 -1.8953 0.9237
-19.3891 -3.7799 -1.8965 0.9237
-18.4531 -7.1872 -1.9012 0.9235
-11.6335 -12.4325 -1.6346 0.9339
-10.5768 -13.5503 -1.6503 0.9333
-8.7140 -16.5799 -1.7982 0.9275
-7.2284 -17.3642 -1.8057 0.9272
-4.0593 -18.5361 -1.8217 0.9266
1.0140 -19.2157 -1.8474 0.9256
2.7390 -19.1382 -1.8561 0.9253
7.8213 -17.9726 -1.8818 0.9243
8.3527 -12.4930 -1.4428 0.9414
12.4593 -15.4461 -1.9052 0.9234
-14.0635 7.6883 -1.9039 0.9375
-14.8155 6.4543 -1.9196 0.9370
-15.3127 5.0986 -1.9171 0.9371
-15.9487 2.2890 -1.9139 0.9372
-16.0836 0.8550 -1.9132 0.9372
-16.0952 -0.5849 -1.9131 0.9372
-15.9833 -2.0207 -1.9137 0.9372
-15.7487 -3.4424 -1.9149 0.9371
-13.6222 -8.7880 -1.9256 0.9368
-12.8100 -9.9908 -1.9297 0.9367
-11.8609 -11.0898 -1.9288 0.9367
-10.0522 -11.2428 -1.7915 0.9411
-6.7741 -13.6303 -1.8080 0.9405
-4.5421 -11.6484 -1.4851 0.9509
-4.2706 -14.7203 -1.8207 0.9401
1.1717 -15.5146 -1.8482 0.9393
3.9430 -15.1727 -1.8622 0.9388
5.3019 -14.8143 -1.8690 0.9386
6.6275 -14.3327 -1.8757 0.9384
7.1928 -12.4883 -1.7119 0.9436
11.3702 -11.2465 -1.8997 0.9376
13.3513 -11.0304 -2.0572 0.9326
14.3511 -9.8404 -2.0670 0.9323
15.2043 -8.5371 -2.0713 0.9322
16.9976 -4.2193 -2.0804 0.9319
17.4984 -1.1292 -2.0829 0.9318
17.5307 0.4383 -2.0831 0.9318
17.4167 2.0018 -2.0825 0.9318
9.3196 8.5179 -1.4998 0.9504
9.6528 12.6597 -1.8911 0.9379
7.2018 14.0880 -1.8794 0.9383
-0.6917 10.7848 -1.2837 0.9574
-4.0976 5.9810 -0.8612 0.9712
-4.9634 6.0126 -0.9261 0.9691
-8.9199 9.0250 -1.5073 0.9502
-11.4713 9.6980 -1.7843 0.9413
-12.2640 8.6152 -1.7803 0.9414
-14.6710 6.7910 -1.9204 0.9370
-15.1978 5.4459 -1.9177 0.9370
-16.1039 -0.2201 -1.9131 0.9372
-16.0233 -1.6579 -1.9135 0.9372
-15.7565 -3.0717 -1.9069 0.9374
-15.0491 -5.8614 -1.9184 0.9370
-13.8110 -8.4729 -1.9247 0.9368
-8.2229 -12.7352 -1.8007 0.9408
-7.0753 -13.4619 -1.8065 0.9406
-0.5684 -15.4743 -1.8394 0.9395
0.8191 -15.5222 -1.8464 0.9393
3.5948 -15.2437 -1.8604 0.9389
4.9603 -14.9169 -1.8673 0.9386
8.2765 -12.3790 -1.7688 0.9418
10.0043 -12.4026 -1.8928 0.9378
11.1046 -11.4932 -1.8984 0.9377
14.1164 -10.1572 -2.0658 0.9323
14.9995 -8.8749 -2.0702 0.9322
16.3949 -6.0853 -2.0773 0.9320
16.8933 -4.6022 -2.0798 0.9319
17.2519 -3.0777 -2.0816 0.9318
17.5364 0.0409 -2.0831 0.9318
17.4594 1.6068 -2.0827 0.9318
17.2368 3.1581 -2.0816 0.9318
-12.4964 5.4441 -1.9313 0.9464
-12.9185 4.3014 -1.9292 0.9465
-13.5732 0.7216 -1.9259 0.9466
-13.5830 -0.4936 -1.9258 0.9466
-13.2887 -2.9047 -1.9273 0.9465
-12.9864 -4.0832 -1.9288 0.9465
-12.5831 -5.2323 -1.9309 0.9464
-11.4843 -7.4088 -1.9364 0.9463
-10.0210 -9.3695 -1.9438 0.9461
-9.1644 -10.2499 -1.9482 0.9460
-5.6962 -11.4615 -1.8135 0.9496
-4.5422 -11.6485 -1.7715 0.9507
-1.3383 -12.8850 -1.8355 0.9490
-0.1827 -12.9942 -1.8413 0.9489
4.4345 -12.3906 -1.8647 0.9482
5.5400 -11.9808 -1.8702 0.9481
6.6069 -11.4710 -1.8756 0.9479
7.8723 -11.2158 -1.9415 0.9461
9.2791 -10.9846 -2.0374 0.9436
12.6678 -7.1128 -2.0585 0.9430
13.7683 -4.7583 -2.0640 0.9428
14.4181 -2.2363 -2.0673 0.9428
14.5655 -0.9399 -2.0681 0.9427
14.4980 1.6663 -2.0677 0.9427
8.4871 3.4169 -1.2963 0.9637
12.2358 7.6987 -2.0483 0.9433
8.0580 10.5681 -1.8830 0.9477
2.5158 8.3182 -1.2313 0.9655
1.7248 8.3265 -1.2048 0.9662
-0.5767 8.9925 -1.2768 0.9643
-1.6719 6.7468 -0.9849 0.9723
-3.2992 5.8812 -0.9555 0.9731
-3.9824 5.8128 -0.9984 0.9719
-4.8370 5.8595 -1.0766 0.9698
-8.9164 9.0216 -1.7972 0.9500
-9.6662 8.1719 -1.7934 0.9501
-10.9692 7.7056 -1.8994 0.9473
-11.8297 6.8196 -1.9347 0.9463
-12.3739 5.7277 -1.9320 0.9464
-12.8210 4.5942 -1.9297 0.9465
-13.5905 -0.1857 -1.9258 0.9466
-13.5220 -1.3991 -1.9261 0.9466
-13.3490 -2.6024 -1.9270 0.9465
-12.2176 -6.0660 -1.9327 0.9464
-11.6444 -7.1437 -1.9356 0.9463
-9.3889 -10.0338 -1.9470 0.9460
-5.9503 -11.3214 -1.8122 0.9496
-3.8634 -12.2705 -1.8227 0.9494
-0.4767 -12.9763 -1.8398 0.9489
0.6864 -13.0084 -1.8457 0.9487
3.0089 -12.7594 -1.8575 0.9484
7.5022 -11.2208 -1.9125 0.9469
9.0080 -11.1674 -2.0329 0.9437
10.0294 -10.3803 -2.0451 0.9434
10.9410 -9.4643 -2.0497 0.9432
11.7665 -8.4665 -2.0539 0.9431
13.1290 -6.2588 -2.0608 0.9429
14.0653 -3.8318 -2.0655 0.9428
14.5969 0.0341 -2.0682 0.9427
-9.8119 6.5657 -1.9449 0.9533
-10.3447 5.6553 -1.9422 0.9533
-10.7958 4.7032 -1.9399 0.9534
-11.1620 3.7166 -1.9381 0.9534
-10.8710 -4.5204 -1.9395 0.9534
-9.9178 -6.3983 -1.9443 0.9533
-9.3212 -7.2698 -1.9474 0.9532
-8.6496 -8.0873 -1.9508 0.9531
-5.3156 -10.6956 -1.9676 0.9527
-3.2516 -11.2077 -1.9225 0.9538
-0.1578 -11.2245 -1.8493 0.9555
0.8477 -11.2246 -1.8544 0.9554
1.8665 -11.2220 -1.8741 0.9549
5.1323 -11.0991 -2.0145 0.9516
7.0801 -10.0872 -2.0302 0.9513
7.9704 -9.4353 -2.0347 0.9512
8.7994 -8.7036 -2.0389 0.9511
11.3617 -5.1036 -2.0519 0.9508
11.7844 -4.0727 -2.0540 0.9507
12.1107 -3.0063 -2.0557 0.9507
12.3377 -1.9136 -2.0568 0.9506
12.4632 -0.8043 -2.0574 0.9506
12.4859 0.3122 -2.0576 0.9506
12.4057 1.4258 -2.0572 0.9506
12.2233 2.5270 -2.0562 0.9507
8.5688 2.5879 -1.4746 0.9644
11.0850 5.6612 -2.0505 0.9508
9.8499 7.5042 -2.0399 0.9510
8.4571 7.7296 -1.8875 0.9546
7.7074 8.4261 -1.8812 0.9548
5.1623 10.0984 -1.8684 0.9551
-0.5773 9.0020 -1.4860 0.9641
-1.5246 6.1521 -1.0441 0.9746
-2.6056 5.8067 -1.0485 0.9745
-3.2373 5.7710 -1.0901 0.9735
-7.6952 7.7859 -1.8034 0.9566
-9.0062 7.6139 -1.9428 0.9533
-9.6643 6.7890 -1.9457 0.9532
-10.2173 5.8901 -1.9429 0.9533
-10.6894 4.9479 -1.9405 0.9534
-11.0774 3.9694 -1.9385 0.9534
-11.3787 2.9618 -1.9370 0.9535
-11.5913 1.9326 -1.9359 0.9535
-11.7455 -0.1605 -1.9351 0.9535
-11.5358 -2.2489 -1.9362 0.9535
-10.9679 -4.2718 -1.9390 0.9534
-5.5532 -10.5660 -1.9664 0.9528
-2.4559 -11.2143 -1.8912 0.9545
0.5923 -11.2256 -1.8519 0.9555
1.6062 -11.2229 -1.8677 0.9551
3.7278 -11.2106 -1.9463 0.9532
4.8723 -11.1961 -2.0115 0.9517
6.8457 -10.2390 -2.0290 0.9513
9.3738 -8.1086 -2.0418 0.9510
11.2397 -5.3581 -2.0513 0.9508
11.6862 -4.3376 -2.0535 0.9507
12.0373 -3.2793 -2.0553 0.9507
12.2898 -2.1924 -2.0566 0.9507
12.4357 1.1445 -2.0573 0.9506
-8.6261 5.7723 -1.9509 0.9586
-9.0961 4.9727 -1.9485 0.9587
-9.4941 4.1361 -1.9465 0.9587
-10.0636 2.3774 -1.9436 0.9588
-10.2312 1.4684 -1.9428 0.9588
-10.3191 0.5486 -1.9423 0.9588
-10.2538 -1.2964 -1.9427 0.9588
-9.8694 -3.1031 -1.9446 0.9588
-9.5605 -3.9754 -1.9462 0.9587
-9.1763 -4.8183 -1.9481 0.9587
-8.7196 -5.6253 -1.9504 0.9586
-8.1935 -6.3903 -1.9531 0.9586
-6.9481 -7.7710 -1.9594 0.9585
-5.4753 -8.9170 -1.9668 0.9583
-3.8177 -9.7904 -1.9752 0.9581
-2.9346 -10.1150 -1.9796 0.9580
-2.0241 -10.3607 -1.9842 0.9579
-1.0932 -10.5250 -1.9889 0.9578
-0.1491 -10.6060 -1.9937 0.9577
0.8007 -10.6023 -1.9985 0.9576
4.5043 -9.7411 -2.0172 0.9573
5.3680 -9.3200 -2.0216 0.9572
6.1917 -8.8214 -2.0257 0.9571
8.3535 -6.9014 -2.0367 0.9569
10.2905 -3.5564 -2.0465 0.9567
10.7719 -1.6708 -2.0489 0.9566
10.9008 0.2726 -2.0496 0.9566
6.0414 7.9233 -1.8728 0.9603
5.2989 8.4144 -1.8691 0.9603
3.7012 9.1831 -1.8610 0.9605
1.7248 8.3265 -1.5983 0.9660
1.0322 8.9494 -1.6933 0.9640
0.2279 8.9757 -1.6876 0.9641
-0.5752 8.9687 -1.6892 0.9641
-0.9561 6.1805 -1.1755 0.9749
-2.5780 5.7453 -1.1836 0.9747
-3.2209 5.7416 -1.2374 0.9736
-3.9353 5.7440 -1.3087 0.9721
-4.7672 5.7750 -1.4075 0.9700
-7.3117 7.3979 -1.9551 0.9585
-7.9404 6.7129 -1.9544 0.9586
-9.4002 4.3512 -1.9470 0.9587
-10.3045 0.7823 -1.9424 0.9588
-9.9355 -2.8782 -1.9443 0.9588
-7.7576 -6.9306 -1.9553 0.9585
-7.1193 -7.6083 -1.9585 0.9585
-4.8756 -9.2767 -1.9698 0.9582
-2.2570 -10.3061 -1.9831 0.9580
-1.3306 -10.4912 -1.9877 0.9579
2.4506 -10.3918 -2.0068 0.9575
3.3769 -10.1551 -2.0115 0.9574
5.1526 -9.4341 -2.0205 0.9572
5.9871 -8.9549 -2.0247 0.9571
7.5134 -7.7763 -2.0324 0.9569
9.3485 -5.5314 -2.0417 0.9568
10.7301 -1.9142 -2.0487 0.9566
10.9042 0.0255 -2.0496 0.9566
10.8571 0.9992 -2.0493 0.9566
-8.1091 4.4331 -1.9535 0.9629
-8.4648 3.6877 -1.9517 0.9630
-8.9740 2.1200 -1.9491 0.9630
-9.2025 0.4892 -1.9480 0.9630
-9.2093 -0.3347 -1.9479 0.9630
-9.1441 -1.1561 -1.9483 0.9630
-8.5241 -3.5445 -1.9514 0.9630
-8.1807 -4.2955 -1.9531 0.9629
-7.3025 -5.6954 -1.9576 0.9628
-4.1551 -8.3605 -1.9735 0.9625
-3.3983 -8.7150 -1.9773 0.9625
-2.6116 -9.0018 -1.9813 0.9624
-0.9724 -9.3618 -1.9895 0.9623
-0.1326 -9.4313 -1.9938 0.9622
0.7118 -9.4256 -1.9981 0.9621
1.5542 -9.3442 -2.0023 0.9620
4.7661 -8.2749 -2.0185 0.9617
5.4961 -7.8305 -2.0222 0.9616
6.1842 -7.3208 -2.0257 0.9616
7.9383 -5.4432 -2.0346 0.9614
8.7988 -3.9524 -2.0389 0.9613
9.3750 -2.3272 -2.0418 0.9613
9.5496 -1.4812 -2.0427 0.9613
9.6635 0.2416 -2.0433 0.9613
9.4616 1.9561 -2.0423 0.9613
7.6510 5.8290 -2.0331 0.9614
7.0899 6.4800 -2.0303 0.9615
6.4728 7.0764 -2.0272 0.9615
5.7884 7.5915 -2.0179 0.9617
4.0107 7.8457 -1.8625 0.9646
2.5268 8.3547 -1.8450 0.9649
1.0013 8.6819 -1.8473 0.9649
0.2214 8.7180 -1.8434 0.9650
-0.9041 5.8445 -1.2501 0.9761
-1.9865 5.7554 -1.2870 0.9754
-2.5819 5.7540 -1.3331 0.9745
-3.2256 5.7500 -1.3936 0.9734
-7.0764 5.9825 -1.9587 0.9628
-7.5728 5.3197 -1.9562 0.9629
-8.0086 4.6169 -1.9540 0.9629
-8.3809 3.8794 -1.9521 0.9629
-8.9248 2.3231 -1.9494 0.9630
-9.0926 1.5160 -1.9485 0.9630
-9.1894 0.6976 -1.9480 0.9630
-9.2144 -0.1259 -1.9479 0.9630
-9.0488 -1.7641 -1.9487 0.9630
-8.8594 -2.5665 -1.9497 0.9630
-7.8820 -4.8355 -1.9546 0.9629
-7.4273 -5.5267 -1.9569 0.9629
-6.9131 -6.1762 -1.9595 0.9628
-5.0526 -7.8252 -1.9689 0.9626
-3.5931 -8.6315 -1.9763 0.9625
-2.8134 -8.9357 -1.9802 0.9624
-2.0082 -9.1701 -1.9843 0.9623
-0.3461 -9.4208 -1.9927 0.9622
1.3413 -9.3720 -2.0012 0.9620
2.1776 -9.2342 -2.0055 0.9620
2.9999 -9.0214 -2.0096 0.9619
3.8013 -8.7350 -2.0137 0.9618
6.0142 -7.4559 -2.0248 0.9616
7.2674 -6.2865 -2.0312 0.9615
8.7050 -4.1498 -2.0385 0.9613
9.0486 -3.3586 -2.0402 0.9613
9.5045 1.7414 -2.0425 0.9613
-7.8907 2.6273 -1.9546 0.9664
-8.0897 1.9111 -1.9536 0.9664
-8.2962 0.4410 -1.9526 0.9664
-8.2434 -1.0422 -1.9528 0.9664
-8.1200 -1.7749 -1.9534 0.9664
-7.9328 -2.4943 -1.9544 0.9664
-6.5801 -5.1320 -1.9612 0.9663
-5.5764 -6.2369 -1.9663 0.9662
-5.0044 -6.7199 -1.9692 0.9662
-3.7411 -7.5274 -1.9756 0.9661
-3.0591 -7.8451 -1.9790 0.9660
-2.3504 -8.1016 -1.9826 0.9659
-0.8748 -8.4221 -1.9900 0.9658
2.8804 -8.0483 -2.0090 0.9655
3.5942 -7.7728 -2.0126 0.9654
5.5533 -6.5740 -2.0225 0.9653
6.1271 -6.0604 -2.0254 0.9652
7.5410 -4.2342 -2.0326 0.9651
7.8960 -3.5468 -2.0344 0.9651
8.1872 -2.8295 -2.0358 0.9650
8.6700 0.2168 -2.0383 0.9650
8.4893 1.7551 -2.0374 0.9650
8.2946 2.5051 -2.0364 0.9650
8.0325 3.2338 -2.0351 0.9650
7.3159 4.6032 -2.0314 0.9651
6.8679 5.2324 -2.0292 0.9651
6.3651 5.8176 -2.0266 0.9652
5.8121 6.3541 -2.0239 0.9652
4.5741 7.2634 -2.0174 0.9653
3.8891 7.6077 -2.0081 0.9655
3.1070 7.7088 -1.9534 0.9664
1.6009 7.7283 -1.8549 0.9681
-0.5010 7.8119 -1.8398 0.9683
-0.8922 5.7674 -1.3716 0.9763
-1.9868 5.7562 -1.4311 0.9753
-3.2143 5.7299 -1.5441 0.9734
-3.9807 5.8103 -1.6553 0.9715
-5.3296 6.4562 -1.9676 0.9662
-5.8766 5.9460 -1.9648 0.9662
-6.3760 5.3904 -1.9623 0.9663
-6.8241 4.7938 -1.9600 0.9663
-7.2177 4.1609 -1.9580 0.9663
-7.5539 3.4966 -1.9563 0.9664
-8.0453 2.0941 -1.9538 0.9664
-8.1969 1.3667 -1.9531 0.9664
-8.2645 -0.8551 -1.9527 0.9664
-8.1573 -1.5903 -1.9533 0.9664
-7.7523 -3.0194 -1.9553 0.9664
-7.4574 -3.7026 -1.9568 0.9664
-6.2287 -5.5646 -1.9630 0.9663
-5.7143 -6.1068 -1.9656 0.9662
-3.9090 -7.4375 -1.9747 0.9661
-3.2346 -7.7703 -1.9781 0.9660
-1.8071 -8.2518 -1.9853 0.9659
-1.0649 -8.3961 -1.9891 0.9658
-0.3113 -8.4738 -1.9929 0.9658
0.4477 -8.4840 -1.9967 0.9657
1.9575 -8.3006 -2.0044 0.9656
3.4156 -7.8487 -2.0117 0.9654
4.1101 -7.5253 -2.0152 0.9654
4.7738 -7.1400 -2.0186 0.9653
6.5242 -5.6436 -2.0274 0.9652
7.0107 -5.0445 -2.0299 0.9651
7.8120 -3.7241 -2.0339 0.9651
8.1196 -3.0138 -2.0355 0.9650
8.3613 -2.2779 -2.0367 0.9650
8.5350 -1.5226 -2.0376 0.9650
8.6727 0.0202 -2.0383 0.9650
8.5277 1.5624 -2.0376 0.9650
-6.6453 3.6328 -1.9609 0.9692
-6.9379 3.0225 -1.9594 0.9692
-7.1758 2.3893 -1.9582 0.9692
-7.3570 1.7380 -1.9573 0.9692
-7.4805 1.0736 -1.9567 0.9693
-7.5508 -0.2744 -1.9563 0.9693
-7.3846 -1.6142 -1.9572 0.9692
-6.7042 -3.5202 -1.9606 0.9692
-5.5476 -5.1870 -1.9664 0.9691
-5.0684 -5.6687 -1.9689 0.9691
-4.5479 -6.1069 -1.9715 0.9690
-3.9900 -6.4980 -1.9743 0.9690
-3.3988 -6.8387 -1.9773 0.9689
-0.1083 -7.7002 -1.9939 0.9687
1.9470 -7.4922 -2.0043 0.9685
2.6128 -7.3006 -2.0077 0.9685
3.2597 -7.0495 -2.0109 0.9684
4.4756 -6.3765 -2.0171 0.9683
5.0343 -5.9596 -2.0199 0.9683
5.5537 -5.4932 -2.0225 0.9682
6.8330 -3.8367 -2.0290 0.9681
7.4174 -2.5634 -2.0319 0.9681
7.6205 -1.8916 -2.0330 0.9681
7.7618 -1.2039 -2.0337 0.9681
7.8398 -0.5059 -2.0341 0.9681
7.8539 0.1964 -2.0342 0.9681
7.8040 0.8969 -2.0339 0.9681
7.6906 1.5900 -2.0333 0.9681
7.5145 2.2695 -2.0324 0.9681
6.9816 3.5655 -2.0298 0.9681
6.6294 4.1712 -2.0280 0.9682
6.2241 4.7419 -2.0259 0.9682
5.2685 5.7598 -2.0211 0.9683
4.7266 6.1990 -2.0184 0.9683
4.1480 6.5868 -2.0154 0.9683
2.9008 7.1972 -2.0091 0.9684
0.8816 7.6439 -1.9923 0.9687
-0.8909 5.7592 -1.5089 0.9762
-1.4540 5.8672 -1.5651 0.9753
-1.9869 5.7566 -1.5768 0.9752
-2.5850 5.7608 -1.6349 0.9742
-4.3063 6.2855 -1.9727 0.9690
-6.2042 4.3583 -1.9631 0.9692
-6.5626 3.7833 -1.9613 0.9692
-7.1208 2.5516 -1.9585 0.9692
-7.3165 1.9045 -1.9575 0.9692
-7.5344 0.5720 -1.9564 0.9693
-7.5550 -0.1032 -1.9563 0.9693
-7.4187 -1.4463 -1.9570 0.9693
-7.0497 -2.7457 -1.9588 0.9692
-6.7810 -3.3667 -1.9602 0.9692
-6.4585 -3.9623 -1.9618 0.9692
-6.0846 -4.5276 -1.9637 0.9691
-5.1939 -5.5506 -1.9682 0.9691
-4.1347 -6.4035 -1.9736 0.9690
-0.9668 -7.6231 -1.9896 0.9687
-0.2826 -7.6924 -1.9930 0.9687
1.0944 -7.6465 -2.0000 0.9686
1.7760 -7.5311 -2.0034 0.9685
3.0979 -7.1187 -2.0101 0.9684
5.4260 -5.6159 -2.0219 0.9682
6.7428 -3.9896 -2.0285 0.9681
7.5749 -2.0636 -2.0327 0.9681
7.7319 -1.3793 -2.0335 0.9681
-5.7697 3.8609 -1.9653 0.9716
-6.0865 3.3274 -1.9637 0.9716
-6.3550 2.7685 -1.9624 0.9716
-6.8528 0.9835 -1.9598 0.9716
-6.9122 0.3675 -1.9595 0.9716
-6.7648 -1.4787 -1.9603 0.9716
-6.6084 -2.0778 -1.9611 0.9716
-6.1406 -3.2243 -1.9634 0.9716
-5.8327 -3.7628 -1.9650 0.9716
-5.4783 -4.2727 -1.9668 0.9715
-5.0800 -4.7497 -1.9688 0.9715
-4.6407 -5.1903 -1.9710 0.9715
-4.1636 -5.5909 -1.9734 0.9714
-3.6524 -5.9482 -1.9760 0.9714
-3.1108 -6.2593 -1.9787 0.9714
-2.5430 -6.5216 -1.9816 0.9713
-1.3462 -6.8910 -1.9877 0.9712
-0.7265 -6.9946 -1.9908 0.9712
0.5313 -7.0347 -1.9971 0.9711
1.1593 -6.9702 -2.0003 0.9711
1.7800 -6.8495 -2.0035 0.9710
2.3883 -6.6734 -2.0065 0.9710
3.5479 -6.1599 -2.0124 0.9709
5.0733 -5.0181 -2.0201 0.9708
5.8973 -4.0437 -2.0243 0.9707
6.2403 -3.5038 -2.0260 0.9707
6.7731 -2.3408 -2.0287 0.9706
6.9583 -1.7273 -2.0296 0.9706
7.0870 -1.0992 -2.0303 0.9706
7.1582 -0.4619 -2.0306 0.9706
7.1256 0.8190 -2.0305 0.9706
6.6456 2.6755 -2.0281 0.9707
6.3758 3.2562 -2.0267 0.9707
6.0546 3.8096 -2.0251 0.9707
5.2699 4.8165 -2.0211 0.9708
4.8131 5.2620 -2.0188 0.9708
3.2331 6.3246 -2.0108 0.9709
2.0502 6.7787 -2.0048 0.9710
1.4343 6.9239 -2.0017 0.9710
0.8089 7.0133 -1.9986 0.9711
0.1789 7.0463 -1.9954 0.9711
-0.4504 7.0229 -1.9922 0.9712
-0.8922 5.7675 -1.6522 0.9760
-1.4326 5.7808 -1.6860 0.9755
-3.9422 5.7541 -1.9746 0.9714
-5.3079 4.4874 -1.9677 0.9715
-6.2917 2.9123 -1.9627 0.9716
-6.5228 2.3373 -1.9615 0.9716
-6.7023 1.7446 -1.9606 0.9716
-6.8856 -0.7124 -1.9597 0.9716
-6.4575 -2.5151 -1.9618 0.9716
-6.2110 -3.0838 -1.9631 0.9716
-5.9152 -3.6290 -1.9646 0.9716
-5.5724 -4.1464 -1.9663 0.9715
-5.1849 -4.6322 -1.9683 0.9715
-4.7557 -5.0824 -1.9704 0.9715
-4.2879 -5.4934 -1.9728 0.9714
-3.7850 -5.8619 -1.9753 0.9714
-2.6891 -6.4599 -1.9809 0.9713
-2.1045 -6.6842 -1.9838 0.9713
-1.5014 -6.8560 -1.9869 0.9712
-0.2585 -7.0359 -1.9932 0.9712
0.3716 -7.0421 -1.9963 0.9711
3.9550 -5.9155 -2.0144 0.9709
4.4734 -5.5458 -2.0171 0.9708
4.9568 -5.1303 -2.0195 0.9708
5.4013 -4.6722 -2.0218 0.9707
5.8028 -4.1753 -2.0238 0.9707
6.1580 -3.6436 -2.0256 0.9707
6.9167 -1.8843 -2.0294 0.9706
7.0598 -1.2594 -2.0301 0.9706
7.1733 0.0167 -2.0307 0.9706
7.0538 1.2924 -2.0301 0.9706
-5.3166 3.5577 -1.9676 0.9736
-5.6089 3.0663 -1.9661 0.9736
-6.0579 2.0171 -1.9639 0.9736
-6.2114 1.4674 -1.9631 0.9736
-6.3755 -0.2317 -1.9623 0.9737
-6.2348 -1.3628 -1.9630 0.9736
-5.6588 -2.9713 -1.9659 0.9736
-5.3747 -3.4674 -1.9673 0.9736
-1.7985 -6.1992 -1.9854 0.9733
-1.2394 -6.3441 -1.9882 0.9733
-0.6688 -6.4388 -1.9911 0.9733
-0.0911 -6.4823 -1.9940 0.9732
1.0668 -6.4138 -1.9999 0.9732
3.2631 -5.6655 -2.0110 0.9730
3.7608 -5.3581 -2.0135 0.9730
4.2293 -5.0066 -2.0158 0.9729
4.6647 -4.6139 -2.0180 0.9729
5.0632 -4.1830 -2.0200 0.9729
5.4214 -3.7174 -2.0219 0.9729
6.0051 -2.6974 -2.0248 0.9728
6.3067 1.9047 -2.0263 0.9728
6.1084 2.4592 -2.0253 0.9728
5.8607 2.9931 -2.0241 0.9728
4.8452 4.4284 -2.0190 0.9729
4.4257 4.8384 -2.0168 0.9729
3.9713 5.2084 -2.0145 0.9730
3.4860 5.5356 -2.0121 0.9730
2.9738 5.8173 -2.0095 0.9730
1.8862 6.2365 -2.0040 0.9731
0.7443 6.4539 -1.9982 0.9732
0.1647 6.4851 -1.9953 0.9732
-0.4146 6.4644 -1.9924 0.9733
-0.9889 6.3922 -1.9895 0.9733
-1.4229 5.7418 -1.8195 0.9755
-2.1044 6.0969 -1.9838 0.9734
-3.1472 5.6103 -1.9786 0.9734
-4.0854 4.9489 -1.9738 0.9735
-4.5062 4.5594 -1.9717 0.9735
-4.8906 4.1346 -1.9698 0.9736
-5.2357 3.6780 -1.9680 0.9736
-6.2942 1.0494 -1.9627 0.9736
-6.3616 0.4830 -1.9623 0.9737
-6.3790 -0.0872 -1.9622 0.9737
-6.2636 -1.2211 -1.9628 0.9736
-6.1316 -1.7763 -1.9635 0.9736
-5.9512 -2.3179 -1.9644 0.9736
-5.4508 -3.3441 -1.9669 0.9736
-4.3813 -4.6823 -1.9723 0.9735
-2.9939 -5.6964 -1.9793 0.9734
-1.3823 -6.3121 -1.9875 0.9733
-0.8142 -6.4196 -1.9903 0.9733
0.3420 -6.4810 -1.9962 0.9732
2.0568 -6.1852 -2.0049 0.9731
2.6046 -5.9850 -2.0076 0.9731
3.1329 -5.7361 -2.0103 0.9730
3.6373 -5.4402 -2.0128 0.9730
4.5577 -4.7172 -2.0175 0.9729
4.9659 -4.2956 -2.0196 0.9729
6.1743 -2.2917 -2.0257 0.9728
6.3572 -1.7319 -2.0266 0.9728
6.5673 -0.5735 -2.0277 0.9728
6.5927 0.0154 -2.0278 0.9728
6.5645 0.6041 -2.0276 0.9728
6.4830 1.1878 -2.0272 0.9728
-5.1955 2.8403 -1.9682 0.9754
-5.4252 2.3635 -1.9671 0.9754
-5.8643 -0.7414 -1.9648 0.9754
-3.1148 -5.0728 -1.9787 0.9752
-2.6524 -5.3370 -1.9811 0.9752
-2.1678 -5.5594 -1.9835 0.9752
-1.6648 -5.7382 -1.9861 0.9751
-1.1471 -5.8717 -1.9887 0.9751
2.5344 -5.4810 -2.0073 0.9749
3.9103 -4.6290 -2.0142 0.9748
4.3125 -4.2655 -2.0163 0.9748
4.6805 -3.8669 -2.0181 0.9747
5.3021 -2.9770 -2.0213 0.9747
6.0196 -0.9337 -2.0249 0.9746
6.0523 0.6956 -2.0251 0.9746
5.6456 2.2729 -2.0230 0.9747
5.4169 2.7665 -2.0218 0.9747
4.8312 3.6807 -2.0189 0.9747
3.6719 4.8158 -2.0130 0.9748
3.2235 5.1187 -2.0108 0.9748
2.7501 5.3798 -2.0084 0.9749
2.2558 5.5969 -2.0059 0.9749
1.2209 5.8936 -2.0007 0.9749
0.6887 5.9710 -1.9980 0.9750
-0.9152 5.9159 -1.9899 0.9751
-1.4190 5.7259 -1.9609 0.9754
-1.9480 5.6438 -1.9846 0.9751
-3.3623 4.9077 -1.9775 0.9752
-3.7832 4.5828 -1.9754 0.9753
-5.5688 1.9955 -1.9663 0.9754
-5.9097 -0.0808 -1.9646 0.9754
-5.6802 -1.6455 -1.9658 0.9754
-5.3020 -2.6324 -1.9677 0.9754
-4.7557 -3.5387 -1.9704 0.9753
-4.0574 -4.3361 -1.9740 0.9753
-3.6577 -4.6860 -1.9760 0.9753
-3.2281 -4.9994 -1.9782 0.9752
-1.7938 -5.6971 -1.9854 0.9751
-0.2201 -5.9927 -1.9934 0.9750
1.3820 -5.8603 -2.0014 0.9749
2.4088 -5.5353 -2.0066 0.9749
2.8972 -5.3045 -2.0091 0.9748
3.3633 -5.0304 -2.0115 0.9748
3.8034 -4.7151 -2.0137 0.9748
4.5907 -3.9710 -2.0177 0.9747
4.9312 -3.5482 -2.0194 0.9747
5.2323 -3.0959 -2.0209 0.9747
5.4915 -2.6179 -2.0222 0.9747
5.7064 -2.1181 -2.0233 0.9747
5.8753 -1.6006 -2.0242 0.9747
5.9966 -1.0698 -2.0248 0.9747
6.0693 -0.5300 -2.0251 0.9746
6.0667 0.5583 -2.0251 0.9746
-4.5814 3.0657 -1.9713 0.9769
-5.2217 1.7386 -1.9681 0.9769
-5.3543 1.2649 -1.9674 0.9769
-5.4919 0.2920 -1.9667 0.9769
-5.4960 -0.1997 -1.9667 0.9769
-5.4567 -0.6899 -1.9669 0.9769
-5.2497 -1.6506 -1.9679 0.9769
-4.6316 -2.9880 -1.9711 0.9769
-4.3494 -3.3922 -1.9725 0.9768
-4.0323 -3.7702 -1.9741 0.9768
-3.3033 -4.4357 -1.9778 0.9768
-2.8969 -4.7179 -1.9798 0.9768
-2.4667 -4.9632 -1.9820 0.9767
-2.0158 -5.1696 -1.9843 0.9767
-0.0784 -5.5756 -1.9941 0.9766
0.4204 -5.5673 -1.9966 0.9766
0.9172 -5.5144 -1.9991 0.9765
1.4078 -5.4172 -2.0016 0.9765
2.3548 -5.0924 -2.0064 0.9764
3.2304 -4.6024 -2.0108 0.9764
5.1540 -2.3152 -2.0205 0.9763
5.4883 -1.3623 -2.0222 0.9763
5.6554 0.1414 -2.0230 0.9763
5.6197 0.6459 -2.0229 0.9763
5.4123 1.6346 -2.0218 0.9763
5.2425 2.1106 -2.0210 0.9763
5.0303 2.5690 -2.0199 0.9763
3.8006 4.1550 -2.0137 0.9764
2.9946 4.7553 -2.0096 0.9764
1.6212 5.3604 -2.0027 0.9765
1.1346 5.4771 -2.0002 0.9765
0.6400 5.5496 -1.9977 0.9765
-0.3566 5.5608 -1.9927 0.9766
-0.8508 5.4999 -1.9902 0.9766
-1.3370 5.3952 -1.9877 0.9767
-2.7099 4.8308 -1.9808 0.9767
-3.1273 4.5646 -1.9787 0.9768
-3.8820 3.9278 -1.9749 0.9768
-4.2137 3.5623 -1.9732 0.9768
-4.5116 3.1693 -1.9717 0.9769
-4.9973 2.3131 -1.9692 0.9769
-5.4257 0.9046 -1.9671 0.9769
-5.4840 0.4163 -1.9668 0.9769
-5.4708 -0.5660 -1.9668 0.9769
-5.3993 -1.0526 -1.9672 0.9769
-5.2853 -1.5311 -1.9678 0.9769
-5.1295 -1.9978 -1.9686 0.9769
-4.4243 -3.2921 -1.9721 0.9768
-3.7742 -4.0335 -1.9754 0.9768
-3.0023 -4.6498 -1.9793 0.9768
-2.5778 -4.9047 -1.9814 0.9767
-1.1895 -5.4317 -1.9885 0.9767
0.2941 -5.5736 -1.9960 0.9766
0.7917 -5.5321 -1.9985 0.9765
1.2843 -5.4460 -2.0010 0.9765
1.7677 -5.3160 -2.0034 0.9765
2.2381 -5.1430 -2.0058 0.9765
4.2637 -3.6882 -2.0160 0.9763
4.8591 -2.8750 -2.0190 0.9763
5.0995 -2.4310 -2.0202 0.9763
5.2989 -1.9668 -2.0212 0.9763
5.4555 -1.4862 -2.0220 0.9763
5.6355 -0.4921 -2.0229 0.9763
5.6572 0.0132 -2.0231 0.9763
-4.2786 2.8631 -1.9729 0.9782
-4.7144 2.0538 -1.9707 0.9782
-4.8770 1.6239 -1.9698 0.9782
-5.0010 1.1814 -1.9692 0.9782
-2.2985 -0.0835 -0.8814 0.9902
-2.3017 -0.2910 -0.8891 0.9901
-4.9032 -1.5417 -1.9697 0.9782
-4.3255 -2.7905 -1.9726 0.9782
-3.4388 -3.8460 -1.9771 0.9781
-3.0843 -4.1416 -1.9789 0.9781
-2.7047 -4.4047 -1.9808 0.9781
-1.8818 -4.8258 -1.9850 0.9781
-1.4448 -4.9801 -1.9872 0.9780
-0.5369 -5.1696 -1.9918 0.9780
-0.0731 -5.2030 -1.9941 0.9780
0.8558 -5.1451 -1.9988 0.9779
1.7615 -4.9220 -2.0034 0.9779
2.6148 -4.5398 -2.0077 0.9778
3.0128 -4.2924 -2.0097 0.9778
3.3874 -4.0100 -2.0116 0.9778
3.7352 -3.6946 -2.0133 0.9777
4.0535 -3.3489 -2.0149 0.9777
4.3396 -2.9756 -2.0164 0.9777
4.5909 -2.5777 -2.0177 0.9777
4.8053 -2.1585 -2.0188 0.9777
5.2630 -0.3396 -2.0211 0.9777
5.2391 0.6022 -2.0209 0.9777
5.1634 1.0675 -2.0206 0.9777
4.1838 3.1875 -2.0156 0.9777
3.5443 3.8748 -2.0124 0.9778
2.7931 4.4352 -2.0086 0.9778
2.3833 4.6621 -2.0065 0.9778
1.9552 4.8511 -2.0044 0.9778
1.5125 5.0008 -2.0021 0.9779
-1.6908 4.8987 -1.9859 0.9780
-2.1193 4.7229 -1.9838 0.9781
-2.9198 4.2618 -1.9797 0.9781
-3.2857 3.9803 -1.9779 0.9781
-3.6249 3.6677 -1.9762 0.9782
-4.8394 1.7341 -1.9700 0.9782
-2.3040 0.1749 -0.8855 0.9902
-2.2917 -0.0313 -0.8783 0.9902
-2.3032 -0.2383 -0.8874 0.9901
-4.9365 -1.4301 -1.9695 0.9782
-4.6072 -2.2875 -1.9712 0.9782
-3.8434 -3.4337 -1.9750 0.9782
-3.5242 -3.7663 -1.9767 0.9781
-3.1766 -4.0696 -1.9784 0.9781
-2.8031 -4.3412 -1.9803 0.9781
-1.1102 -5.0697 -1.9889 0.9780
0.2744 -5.2009 -1.9959 0.9779
0.7387 -5.1617 -1.9982 0.9779
1.1982 -5.0809 -2.0005 0.9779
1.6491 -4.9592 -2.0028 0.9779
2.9141 -4.3585 -2.0092 0.9778
3.2949 -4.0847 -2.0111 0.9778
3.6498 -3.7775 -2.0129 0.9778
3.9758 -3.4392 -2.0146 0.9777
4.2703 -3.0726 -2.0160 0.9777
4.5306 -2.6807 -2.0174 0.9777
4.9403 -1.8337 -2.0194 0.9777
5.1910 -0.9261 -2.0207 0.9777
5.2741 0.0123 -2.0211 0.9777
-2.0207 0.2900 -0.8355 0.9912
-2.0202 -0.2554 -0.8334 0.9912
-4.4490 -1.8500 -1.9720 0.9794
-4.2679 -2.2410 -1.9729 0.9794
-3.8056 -2.9681 -1.9752 0.9794
-3.5278 -3.2985 -1.9766 0.9793
-1.7625 -4.5199 -1.9856 0.9793
-0.9321 -4.7715 -1.9898 0.9792
-0.5028 -4.8409 -1.9919 0.9792
0.8012 -4.8169 -1.9985 0.9791
1.2295 -4.7312 -2.0007 0.9791
1.6489 -4.6073 -2.0028 0.9791
2.0560 -4.4462 -2.0049 0.9791
2.8196 -4.0172 -2.0087 0.9790
3.4953 -3.4573 -2.0121 0.9790
4.2954 -2.4118 -2.0162 0.9789
4.4959 -2.0196 -2.0172 0.9789
4.6603 -1.6106 -2.0180 0.9789
4.8751 -0.7561 -2.0191 0.9789
4.7209 1.4258 -2.0183 0.9789
4.3882 2.2411 -2.0166 0.9789
4.1682 2.6226 -2.0155 0.9789
2.9771 3.9045 -2.0095 0.9790
2.6140 4.1510 -2.0077 0.9790
0.9910 4.7839 -1.9995 0.9791
0.1237 4.8732 -1.9951 0.9792
-0.7436 4.8069 -1.9907 0.9792
-1.1687 4.7161 -1.9886 0.9792
-1.9850 4.4237 -1.9844 0.9793
-3.6867 3.1168 -1.9758 0.9794
-4.3734 2.0244 -1.9724 0.9794
-4.6604 1.2131 -1.9709 0.9794
-2.0123 0.1528 -0.8260 0.9913
-1.9938 -0.0273 -0.8161 0.9914
-4.6259 -1.3401 -1.9711 0.9794
-4.3171 -2.1434 -1.9727 0.9794
-3.3018 -3.5285 -1.9778 0.9793
-2.9759 -3.8125 -1.9794 0.9793
-1.4581 -4.6310 -1.9871 0.9792
-1.0397 -4.7478 -1.9892 0.9792
-0.6122 -4.8269 -1.9914 0.9792
1.5437 -4.6423 -2.0023 0.9791
1.9542 -4.4905 -2.0043 0.9791
3.0835 -3.8226 -2.0100 0.9790
3.4154 -3.5349 -2.0117 0.9790
4.2391 -2.5082 -2.0159 0.9789
4.6221 -1.7156 -2.0178 0.9789
4.8565 -0.8664 -2.0190 0.9789
4.9341 0.0115 -2.0194 0.9789
-3.7671 2.5208 -1.9754 0.9804
-4.1514 1.8086 -1.9735 0.9804
-1.4925 0.4970 -0.6856 0.9932
-1.4869 0.3513 -0.6659 0.9934
-1.4538 0.0773 -0.6345 0.9937
-1.4454 -0.0525 -0.6304 0.9937
-1.4729 -0.1862 -0.6470 0.9935
-1.4812 -0.3237 -0.6608 0.9934
-1.4939 -0.4697 -0.6825 0.9932
-4.0106 -2.1059 -1.9742 0.9804
-3.8085 -2.4570 -1.9752 0.9804
-3.5759 -2.7890 -1.9764 0.9804
-2.7146 -3.6452 -1.9808 0.9804
-1.2710 -4.3810 -1.9880 0.9803
-0.8755 -4.4815 -1.9900 0.9803
-0.0643 -4.5752 -1.9941 0.9802
0.3449 -4.5674 -1.9962 0.9802
0.7523 -4.5230 -1.9983 0.9802
1.9301 -4.1741 -2.0042 0.9801
2.2974 -3.9887 -2.0061 0.9801
2.6468 -3.7709 -2.0078 0.9801
2.9755 -3.5223 -2.0095 0.9801
4.0312 -2.2634 -2.0148 0.9800
4.3733 -1.5114 -2.0166 0.9800
4.4921 -1.1151 -2.0172 0.9800
4.6204 -0.2982 -2.0178 0.9800
4.5995 0.5286 -2.0177 0.9800
4.5331 0.9372 -2.0174 0.9800
4.4301 1.3380 -2.0169 0.9800
4.2914 1.7277 -2.0162 0.9800
4.1182 2.1032 -2.0153 0.9800
3.9119 2.4614 -2.0142 0.9800
3.6742 2.7992 -2.0130 0.9800
2.4539 3.8966 -2.0069 0.9801
2.0941 4.0965 -2.0051 0.9801
1.3293 4.3952 -2.0012 0.9802
0.1162 4.5763 -1.9951 0.9802
-0.2927 4.5636 -1.9930 0.9802
-0.6984 4.5146 -1.9910 0.9803
-1.4875 4.3097 -1.9870 0.9803
-2.2264 3.9688 -1.9832 0.9803
-2.5697 3.7508 -1.9815 0.9804
-3.4642 2.9287 -1.9770 0.9804
-3.7096 2.6059 -1.9757 0.9804
-1.4919 0.3883 -0.6719 0.9933
-1.4708 -0.2867 -0.6530 0.9935
-1.5515 -0.6043 -0.7257 0.9928
-3.8626 -2.3697 -1.9750 0.9804
-3.6376 -2.7068 -1.9761 0.9804
-3.3835 -3.0228 -1.9774 0.9804
-3.1023 -3.3153 -1.9788 0.9804
-2.7959 -3.5820 -1.9803 0.9804
-2.4669 -3.8206 -1.9820 0.9804
-2.1177 -4.0292 -1.9838 0.9803
-1.7510 -4.2062 -1.9856 0.9803
0.2413 -4.5728 -1.9957 0.9802
0.6494 -4.5377 -1.9977 0.9802
1.4493 -4.3585 -2.0018 0.9802
1.8346 -4.2158 -2.0037 0.9801
2.2059 -4.0388 -2.0056 0.9801
2.5601 -3.8291 -2.0074 0.9801
2.8943 -3.5881 -2.0091 0.9801
3.7500 -2.6983 -2.0134 0.9800
4.3375 -1.6100 -2.0164 0.9800
4.5573 -0.8130 -2.0175 0.9800
4.6301 0.0108 -2.0179 0.9800
4.5534 0.8343 -2.0175 0.9800
-3.5488 2.3747 -1.9765 0.9814
-1.2470 0.5432 -0.6296 0.9940
-1.2667 0.4218 -0.6180 0.9941
-1.2694 0.2999 -0.6038 0.9943
-1.2749 0.1830 -0.5962 0.9943
-1.2686 0.0674 -0.5880 0.9944
-1.2659 -0.0460 -0.5864 0.9944
-1.2687 -0.3989 -0.6156 0.9942
-3.3686 -2.6272 -1.9774 0.9813
-2.5569 -3.4334 -1.9815 0.9813
-2.2418 -3.6510 -1.9831 0.9813
-1.5592 -3.9985 -1.9866 0.9813
-0.4446 -4.2809 -1.9922 0.9812
0.3247 -4.3001 -1.9961 0.9812
2.8002 -3.3149 -2.0086 0.9811
3.5859 -2.4588 -2.0126 0.9810
3.7932 -2.1298 -2.0136 0.9810
4.1149 -1.4221 -2.0153 0.9810
4.2267 -1.0492 -2.0158 0.9810
4.3472 -0.2805 -2.0164 0.9810
4.3550 0.1089 -2.0165 0.9810
4.2652 0.8818 -2.0160 0.9810
4.0379 1.6257 -2.0149 0.9810
3.8750 1.9790 -2.0141 0.9810
3.6810 2.3160 -2.0131 0.9810
3.4575 2.6341 -2.0119 0.9810
3.2063 2.9305 -2.0107 0.9810
2.9297 3.2030 -2.0093 0.9810
1.9711 3.8557 -2.0044 0.9811
1.6174 4.0128 -2.0027 0.9811
0.8760 4.2286 -1.9989 0.9811
0.4943 4.2858 -1.9970 0.9812
-0.6576 4.2511 -1.9912 0.9812
-1.4008 4.0586 -1.9874 0.9813
-1.7562 3.9137 -1.9856 0.9813
-2.0969 3.7379 -1.9839 0.9813
-3.0058 3.0413 -1.9793 0.9813
-3.4946 2.4549 -1.9768 0.9814
-1.2627 0.4525 -0.6209 0.9941
-1.2705 0.3307 -0.6077 0.9942
-1.2720 0.0966 -0.5905 0.9944
-1.2615 -0.0172 -0.5840 0.9945
-3.8219 -1.8976 -1.9752 0.9814
-3.4268 -2.5499 -1.9772 0.9813
-1.6490 -3.9613 -1.9861 0.9813
-1.2898 -4.0964 -1.9879 0.9812
-0.9196 -4.1992 -1.9898 0.9812
-0.5414 -4.2687 -1.9917 0.9812
0.2272 -4.3053 -1.9956 0.9812
0.6114 -4.2719 -1.9976 0.9812
0.9915 -4.2043 -1.9995 0.9811
1.7269 -3.9682 -2.0032 0.9811
2.0762 -3.8014 -2.0050 0.9811
2.7239 -3.3769 -2.0082 0.9811
3.0168 -3.1224 -2.0097 0.9810
3.2859 -2.8424 -2.0111 0.9810
3.7435 -2.2149 -2.0134 0.9810
4.2879 -0.7649 -2.0161 0.9810
4.3396 -0.3790 -2.0164 0.9810
4.3378 0.3992 -2.0164 0.9810
4.2842 0.7849 -2.0161 0.9810
-1.1103 0.6070 -0.6207 0.9944
-1.1036 0.4808 -0.5905 0.9947
-1.1327 0.2676 -0.5709 0.9948
-1.1437 0.1642 -0.5668 0.9949
-1.1418 0.0607 -0.5608 0.9949
-1.1398 -0.0414 -0.5595 0.9949
-1.1348 -0.2480 -0.5698 0.9948
-1.1094 -0.4613 -0.5893 0.9947
-1.0967 -0.5758 -0.6076 0.9945
-3.3874 -2.1853 -1.9774 0.9822
-3.1803 -2.4804 -1.9784 0.9822
-2.9478 -2.7562 -1.9796 0.9822
-2.6916 -3.0104 -1.9809 0.9822
-2.1162 -3.4464 -1.9838 0.9821
-1.4717 -3.7740 -1.9870 0.9821
-0.7781 -3.9827 -1.9905 0.9821
-0.4196 -4.0399 -1.9923 0.9821
0.3064 -4.0576 -1.9960 0.9820
0.6682 -4.0177 -1.9978 0.9820
1.7139 -3.7066 -2.0031 0.9820
2.0398 -3.5416 -2.0048 0.9820
2.3498 -3.3478 -2.0063 0.9819
2.9121 -2.8804 -2.0092 0.9819
3.1597 -2.6104 -2.0104 0.9819
3.3821 -2.3191 -2.0116 0.9819
3.7442 -1.6819 -2.0134 0.9819
3.9861 -0.9895 -2.0146 0.9819
4.0593 -0.6296 -2.0150 0.9819
4.0997 -0.2646 -2.0152 0.9819
4.1070 0.1027 -2.0152 0.9819
4.0812 0.4691 -2.0151 0.9819
3.9311 1.1873 -2.0143 0.9819
3.8082 1.5332 -2.0137 0.9819
3.6546 1.8665 -2.0129 0.9819
3.4717 2.1844 -2.0120 0.9819
3.2610 2.4845 -2.0110 0.9819
3.0243 2.7642 -2.0098 0.9819
2.7635 3.0212 -2.0084 0.9819
1.8595 3.6375 -2.0039 0.9820
1.5259 3.7858 -2.0022 0.9820
1.1806 3.9036 -2.0004 0.9820
0.8265 3.9898 -1.9987 0.9820
0.1032 4.0658 -1.9950 0.9820
-0.6206 4.0119 -1.9913 0.9821
-0.9756 3.9369 -1.9895 0.9821
-2.5716 3.1152 -1.9815 0.9822
-2.8377 2.8711 -1.9801 0.9822
-3.2993 2.3177 -1.9778 0.9822
-1.1227 0.4023 -0.5850 0.9947
-1.1421 0.1904 -0.5680 0.9949
-1.1435 0.0868 -0.5625 0.9949
-1.1362 -0.0155 -0.5574 0.9950
-1.1443 -0.1184 -0.5643 0.9949
-1.1388 -0.2220 -0.5691 0.9948
-1.1317 -0.3278 -0.5780 0.9948
-1.1161 -0.4347 -0.5875 0.9947
-1.0872 -0.5398 -0.5954 0.9946
-2.7587 -2.9482 -1.9805 0.9822
-2.4861 -3.1850 -1.9819 0.9822
-2.1933 -3.3969 -1.9834 0.9821
-1.8826 -3.5820 -1.9850 0.9821
-1.2173 -3.8663 -1.9883 0.9821
-0.8679 -3.9631 -1.9901 0.9821
-0.1492 -4.0617 -1.9937 0.9821
1.2872 -3.8708 -2.0010 0.9820
1.6292 -3.7437 -2.0027 0.9820
2.8456 -2.9452 -2.0088 0.9819
3.0993 -2.6809 -2.0101 0.9819
3.5306 -2.0890 -2.0123 0.9819
3.9624 -1.0795 -2.0145 0.9819
4.0926 -0.3574 -2.0152 0.9819
-3.1695 2.1209 -1.9785 0.9830
-0.9906 0.4316 -0.5605 0.9951
-1.0229 0.2417 -0.5453 0.9953
-1.0370 -0.1311 -0.5422 0.9953
-1.0157 -0.3194 -0.5524 0.9952
-2.2830 -3.0656 -1.9829 0.9829
-2.0015 -3.2596 -1.9844 0.9829
-1.7037 -3.4279 -1.9859 0.9829
-1.0683 -3.6823 -1.9891 0.9829
-0.3968 -3.8201 -1.9925 0.9828
-0.0540 -3.8436 -1.9942 0.9828
0.6318 -3.7985 -1.9977 0.9828
1.2997 -3.6316 -2.0010 0.9828
2.2211 -3.1645 -2.0057 0.9827
2.7524 -2.7224 -2.0084 0.9827
3.1964 -2.1917 -2.0106 0.9827
3.3810 -1.8984 -2.0116 0.9827
3.8360 -0.5950 -2.0139 0.9827
3.8742 -0.2500 -2.0140 0.9827
3.8811 0.0970 -2.0141 0.9827
3.7150 1.1220 -2.0132 0.9827
3.4538 1.7639 -2.0119 0.9827
3.2811 2.0644 -2.0111 0.9827
3.0820 2.3481 -2.0100 0.9827
2.8584 2.6125 -2.0089 0.9827
2.3449 3.0754 -2.0063 0.9827
2.0594 3.2702 -2.0049 0.9827
1.4425 3.5789 -2.0018 0.9828
0.4410 3.8235 -1.9967 0.9828
-0.2459 3.8343 -1.9932 0.9828
-0.5869 3.7937 -1.9915 0.9829
-0.9226 3.7230 -1.9898 0.9829
-2.1610 3.1542 -1.9836 0.9829
-2.4324 2.9466 -1.9822 0.9829
-2.6842 2.7158 -1.9809 0.9829
-2.9143 2.4638 -1.9798 0.9830
-0.9543 0.5501 -0.5714 0.9950
-0.9824 0.4547 -0.5616 0.9951
-1.0200 0.2655 -0.5468 0.9953
-1.0336 0.1723 -0.5436 0.9953
-1.0373 0.0787 -0.5397 0.9953
-1.0315 -0.0141 -0.5352 0.9954
-1.0377 -0.1074 -0.5412 0.9953
-1.0300 -0.2008 -0.5444 0.9953
-1.0182 -0.2950 -0.5500 0.9952
-2.8463 -2.5429 -1.9801 0.9829
-2.6094 -2.7887 -1.9813 0.9829
-2.0745 -3.2128 -1.9840 0.9829
-1.7805 -3.3878 -1.9855 0.9829
-1.1512 -3.6564 -1.9887 0.9829
-0.1411 -3.8406 -1.9938 0.9828
0.2027 -3.8412 -1.9955 0.9828
1.2168 -3.6594 -2.0006 0.9828
1.5401 -3.5389 -2.0022 0.9828
2.4286 -3.0108 -2.0067 0.9827
2.9292 -2.5338 -2.0093 0.9827
3.3367 -1.9743 -2.0113 0.9827
3.5012 -1.6691 -2.0122 0.9827
3.7446 -1.0201 -2.0134 0.9827
3.8214 -0.6817 -2.0138 0.9827
3.8675 -0.3377 -2.0140 0.9827
3.8182 0.6996 -2.0138 0.9827
-0.8734 0.5844 -0.5756 0.9952
-0.8779 0.4800 -0.5480 0.9954
-0.9183 0.3057 -0.5301 0.9956
-0.9462 0.0503 -0.5190 0.9957
-0.9449 -0.0344 -0.5179 0.9957
-0.9465 -0.1197 -0.5225 0.9957
-0.9052 -0.3764 -0.5370 0.9955
-0.8831 -0.4637 -0.5463 0.9955
-2.8507 -2.2233 -1.9801 0.9836
-2.6421 -2.4704 -1.9811 0.9836
-2.1631 -2.9046 -1.9835 0.9836
-1.3185 -3.3814 -1.9878 0.9836
0.2744 -3.6337 -1.9959 0.9835
0.5984 -3.5976 -1.9975 0.9835
0.9180 -3.5326 -1.9991 0.9835
1.5343 -3.3181 -2.0022 0.9835
2.3640 -2.7985 -2.0064 0.9834
2.6061 -2.5777 -2.0076 0.9834
2.8275 -2.3360 -2.0088 0.9834
1.8947 -0.6548 -1.0980 0.9909
1.8877 -0.2928 -1.0462 0.9913
1.8788 0.0470 -1.0294 0.9915
3.4072 1.3717 -2.0117 0.9834
2.9181 2.2231 -2.0092 0.9834
2.7064 2.4736 -2.0082 0.9834
2.2204 2.9121 -2.0057 0.9834
1.6645 3.2561 -2.0029 0.9835
1.3660 3.3892 -2.0014 0.9835
1.0570 3.4949 -1.9998 0.9835
0.0925 3.6412 -1.9949 0.9835
-0.2329 3.6319 -1.9933 0.9835
-1.1846 3.4319 -1.9885 0.9836
-1.4852 3.3099 -1.9870 0.9836
-1.7736 3.1617 -1.9855 0.9836
-2.3047 2.7919 -1.9828 0.9836
-2.5433 2.5733 -1.9816 0.9836
-2.7615 2.3346 -1.9805 0.9836
-0.8704 0.5018 -0.5503 0.9954
-0.9141 0.3275 -0.5318 0.9956
-0.9268 0.2412 -0.5245 0.9956
-0.9432 0.1573 -0.5237 0.9956
-0.9472 0.0719 -0.5203 0.9957
-0.9426 -0.0129 -0.5163 0.9957
-0.9235 -0.2675 -0.5266 0.9956
-0.9094 -0.3542 -0.5345 0.9956
-0.8896 -0.4417 -0.5440 0.9955
-0.8620 -0.5289 -0.5539 0.9954
-1.0906 -3.4638 -1.9890 0.9836
-0.7775 -3.5502 -1.9905 0.9836
-0.4576 -3.6084 -1.9922 0.9835
-0.1336 -3.6378 -1.9938 0.9835
0.1920 -3.6382 -1.9954 0.9835
0.5166 -3.6095 -1.9971 0.9835
0.8376 -3.5518 -1.9987 0.9835
1.7533 -3.2101 -2.0033 0.9835
2.0344 -3.0428 -2.0047 0.9834
2.2996 -2.8509 -2.0061 0.9834
2.5466 -2.6357 -2.0073 0.9834
2.9782 -2.1429 -2.0095 0.9834
3.1591 -1.8692 -2.0104 0.9834
3.3147 -1.5802 -2.0112 0.9834
3.4437 -1.2782 -2.0119 0.9834
1.8839 -0.5132 -1.0694 0.9911
1.8725 0.0044 -1.0256 0.9915
1.8888 0.1738 -1.0388 0.9914
-0.7958 0.5325 -0.5529 0.9956
-0.8477 0.3693 -0.5338 0.9957
-0.8624 0.2872 -0.5248 0.9958
-0.8812 0.1265 -0.5140 0.9959
-0.8814 0.0469 -0.5096 0.9959
-0.8818 -0.1115 -0.5132 0.9959
-0.8752 -0.1913 -0.5172 0.9959
-0.7992 -0.5156 -0.5491 0.9956
-2.5073 -2.3443 -1.9818 0.9843
-2.0526 -2.7562 -1.9841 0.9843
-1.7994 -2.9304 -1.9854 0.9842
-1.5315 -3.0815 -1.9867 0.9842
-1.2510 -3.2083 -1.9881 0.9842
-0.9602 -3.3096 -1.9896 0.9842
-0.0486 -3.4538 -1.9942 0.9842
0.2603 -3.4470 -1.9958 0.9842
0.5676 -3.4126 -1.9973 0.9841
0.8708 -3.3508 -1.9989 0.9841
1.1675 -3.2621 -2.0004 0.9841
2.8698 -1.9678 -2.0090 0.9841
3.0353 -1.7043 -2.0098 0.9841
3.1766 -1.4269 -2.0105 0.9840
1.7315 -0.4298 -1.0300 0.9918
1.7403 -0.2699 -1.0168 0.9919
1.7319 0.0433 -1.0002 0.9920
1.7418 0.2002 -1.0123 0.9919
1.7225 0.5202 -1.0389 0.9917
1.7781 0.7158 -1.1066 0.9912
2.9457 1.8535 -2.0094 0.9841
2.7672 2.1082 -2.0085 0.9841
1.8495 2.9369 -2.0038 0.9841
1.5787 3.0882 -2.0025 0.9841
1.2956 3.2146 -2.0010 0.9841
1.0026 3.3150 -1.9995 0.9841
0.7020 3.3887 -1.9980 0.9841
-0.2210 3.4455 -1.9934 0.9842
-0.8292 3.3461 -1.9903 0.9842
-1.1239 3.2562 -1.9888 0.9842
-1.4092 3.1405 -1.9874 0.9842
-1.6829 3.0000 -1.9860 0.9842
-1.9429 2.8358 -1.9847 0.9842
-2.4135 2.4420 -1.9823 0.9843
-2.6206 2.2155 -1.9812 0.9843
-0.8172 0.4711 -0.5446 0.9957
-0.8799 0.1467 -0.5150 0.9959
-0.8790 -0.0120 -0.5076 0.9959
-0.8358 -0.4149 -0.5387 0.9957
-2.3463 -2.5074 -1.9826 0.9843
-1.8650 -2.8884 -1.9850 0.9842
-1.6006 -3.0455 -1.9864 0.9842
-1.3232 -3.1785 -1.9878 0.9842
-0.7376 -3.3682 -1.9907 0.9842
-0.4342 -3.4233 -1.9923 0.9842
0.1821 -3.4513 -1.9954 0.9842
0.4900 -3.4239 -1.9969 0.9842
1.0931 -3.2871 -2.0000 0.9841
1.9294 -2.8858 -2.0042 0.9841
2.4150 -2.4995 -2.0067 0.9841
2.6301 -2.2751 -2.0078 0.9841
2.9956 -1.7725 -2.0096 0.9841
1.7005 -0.6312 -1.0472 0.9917
1.7287 -0.4709 -1.0345 0.9918
1.7376 -0.3100 -1.0190 0.9919
1.7405 -0.1520 -1.0087 0.9920
1.7266 0.0040 -0.9969 0.9921
