ply
format ascii 1.0
element vertex 1581
property float32 x
property float32 y
property float32 z
property float32 I
end_header
13.9846 -13.4194 3.4175 0.9243
-5.3675 -13.3397 2.5354 0.9433
6.5231 10.0742 2.1162 0.9524
13.9809 -13.4159 2.9684 0.9246
-5.3660 -13.3360 2.2022 0.9435
0.6870 17.9074 2.7453 0.9300
-5.0208 -13.5062 1.8764 0.9435
0.2128 18.1719 2.3665 0.9293
6.5061 10.0478 1.5588 0.9529
13.9737 -13.4089 2.0796 0.9250
-5.3631 -13.3287 1.5428 0.9438
6.4893 10.0220 1.0107 0.9532
-7.9006 18.2502 1.6835 0.9233
-5.0270 -13.5229 0.8946 0.9438
13.9677 -13.4031 1.2004 0.9254
-12.5076 10.2959 1.0046 0.9371
-5.0291 -13.5284 0.5691 0.9439
13.9738 -13.4090 0.7636 0.9254
-12.5188 10.3052 0.6394 0.9372
6.4728 9.9964 0.4696 0.9534
13.9799 -13.4148 0.3273 0.9254
-12.5300 10.3144 0.2741 0.9371
6.4646 9.9837 0.2009 0.9535
-5.0332 -13.5395 -0.0813 0.9439
-12.5413 10.3237 -0.0915 0.9371
6.4564 9.9711 -0.0669 0.9536
-5.0352 -13.5450 -0.4069 0.9438
8.8070 8.2818 -0.3404 0.9528
-18.0053 6.1914 -0.5361 0.9266
10.1533 2.9322 -0.2976 0.9586
7.9896 8.5183 -0.3288 0.9543
-17.9498 6.7120 -0.5396 0.9262
-5.0373 -13.5506 -0.7332 0.9437
-12.5639 10.3423 -0.8253 0.9369
-5.3530 -13.3036 -0.7273 0.9442
9.8762 2.8521 -0.5213 0.9597
9.5747 3.7194 -0.5209 0.9597
17.0249 8.4328 -0.9635 0.9267
8.0286 8.5599 -0.5952 0.9541
2.1706 -11.9036 -0.8872 0.9526
13.1296 -12.5989 -1.3342 0.9296
15.5501 -12.4568 -1.4609 0.9232
19.6612 2.5508 -1.4537 0.9236
12.1319 2.6925 -0.9112 0.9514
9.4581 3.0065 -0.7277 0.9610
8.8442 8.3168 -0.8902 0.9525
3.1414 6.3629 -0.5203 0.9719
-12.5752 10.3517 -1.1943 0.9368
-16.5277 5.6833 -1.2815 0.9323
14.7765 -12.4975 -1.4190 0.9253
13.3759 2.5969 -0.9991 0.9468
9.1573 3.5572 -0.7203 0.9614
8.0295 8.5608 -0.8606 0.9540
6.4319 9.9333 -0.8677 0.9536
2.7307 6.5340 -0.5192 0.9720
-7.6677 14.1050 -1.1771 0.9376
-13.1565 13.6753 -1.3914 0.9267
-11.4524 -15.9053 -1.8816 0.9243
-5.9947 -12.5607 -1.3362 0.9456
-3.4047 -19.0177 -1.8548 0.9253
-1.6884 -19.1865 -1.8491 0.9255
2.1242 -11.6493 -1.1368 0.9535
5.0704 -18.3389 -1.8267 0.9264
6.6677 -17.7614 -1.8214 0.9266
8.2035 -17.0476 -1.8163 0.9268
9.6666 -16.2040 -1.8115 0.9270
12.3335 -14.1578 -1.8026 0.9273
13.0378 -12.5109 -1.7348 0.9300
11.8347 2.6265 -1.1638 0.9525
9.1476 3.8369 -0.9523 0.9609
15.8292 8.3728 -1.7192 0.9306
14.7124 11.5437 -1.7954 0.9276
11.2304 15.1669 -1.8118 0.9270
1.9160 6.6670 -0.6660 0.9725
3.6504 18.9329 -1.8511 0.9254
1.9530 19.2541 -1.8580 0.9252
-4.9659 18.9392 -1.8797 0.9243
-6.6500 18.4577 -1.8835 0.9242
-8.2845 17.8195 -1.8866 0.9241
-11.3433 16.0942 -1.8903 0.9239
-12.7387 15.0223 -1.8909 0.9239
-14.0285 13.8251 -1.8909 0.9239
-11.8295 9.7377 -1.4710 0.9403
-16.4429 5.6541 -1.6693 0.9325
-15.6969 -11.9818 -1.8958 0.9237
-14.5348 -13.3077 -1.8919 0.9239
-13.2590 -14.5191 -1.8877 0.9240
-11.8810 -15.6065 -1.8831 0.9242
-10.4134 -16.5615 -1.8782 0.9244
-6.4142 -12.5672 -1.3546 0.9449
-5.0482 -12.5462 -1.2983 0.9471
-4.2587 -14.1081 -1.4148 0.9425
-3.9136 -18.9376 -1.8565 0.9252
-0.4810 -19.2128 -1.8451 0.9257
1.2321 -19.1199 -1.8394 0.9259
1.8090 -11.6744 -1.1342 0.9536
4.5842 -18.4837 -1.8283 0.9263
7.7529 -17.2743 -1.8178 0.9267
10.6446 -15.5383 -1.8082 0.9271
11.9602 -14.4912 -1.8039 0.9273
13.0760 -13.2343 -1.7861 0.9280
13.1259 2.5483 -1.2837 0.9477
9.1485 3.5538 -0.9422 0.9613
15.9139 9.7411 -1.7913 0.9278
9.4353 8.4105 -1.2135 0.9505
8.0304 8.5618 -1.1269 0.9539
3.8632 5.9663 -0.6824 0.9718
2.5299 6.0536 -0.6299 0.9740
2.4625 19.1747 -1.8560 0.9253
0.7437 19.3855 -1.8625 0.9250
-0.6846 13.4033 -1.2885 0.9475
-4.4567 19.0522 -1.8785 0.9244
-2.9406 8.8982 -0.8997 0.9630
-7.8035 18.0259 -1.8858 0.9241
-7.3378 13.4981 -1.4750 0.9401
-12.3335 15.3555 -1.8908 0.9239
-12.4219 8.9806 -1.4716 0.9403
-16.2216 6.0658 -1.6627 0.9328
-9.2199 -12.8048 -1.8743 0.9384
-8.0230 -13.5477 -1.8703 0.9385
-5.9947 -12.5607 -1.6533 0.9455
-4.6617 -12.5402 -1.5892 0.9475
-4.1182 -15.0835 -1.8573 0.9390
-2.7486 -15.3531 -1.8527 0.9391
2.1243 -11.6497 -1.4066 0.9534
4.1054 -14.8485 -1.8300 0.9398
5.4017 -14.3889 -1.8257 0.9400
10.0112 -11.4920 -1.8104 0.9405
16.1933 -2.2675 -1.9423 0.9363
16.3276 -0.8128 -1.9419 0.9363
16.3350 0.6478 -1.9419 0.9363
16.2156 2.1038 -1.9423 0.9363
14.4486 7.6425 -1.9416 0.9363
8.8443 8.3168 -1.4421 0.9523
7.9177 8.9056 -1.4155 0.9531
3.6171 5.9264 -0.8247 0.9724
2.9445 5.9640 -0.7901 0.9736
2.3287 6.0176 -0.7665 0.9743
1.7633 6.1355 -0.7583 0.9746
2.9318 15.2059 -1.8395 0.9395
0.1824 15.5733 -1.8500 0.9392
-1.0562 13.5712 -1.6169 0.9466
-5.3227 14.7736 -1.8653 0.9387
-7.8866 13.6295 -1.8705 0.9385
-9.0910 12.8986 -1.8745 0.9384
-10.3697 8.5361 -1.5954 0.9473
-13.0139 8.8906 -1.8722 0.9385
-16.3244 5.6134 -2.0505 0.9328
-16.7722 4.1368 -2.0520 0.9328
-17.2532 1.0894 -2.0535 0.9327
-17.1691 -1.9954 -2.0532 0.9327
-16.9152 -3.5184 -2.0523 0.9328
-16.5228 -5.0109 -2.0510 0.9328
-15.9956 -6.4601 -2.0492 0.9329
-14.5576 -9.1796 -2.0443 0.9330
-13.6599 -10.4270 -2.0413 0.9331
-9.5635 -12.5624 -1.8754 0.9384
-8.3864 -13.3379 -1.8715 0.9385
-6.4142 -12.5672 -1.6760 0.9448
-4.1479 -13.7410 -1.7050 0.9438
-3.1589 -15.2857 -1.8541 0.9391
-1.7775 -15.4682 -1.8495 0.9392
-0.3887 -15.5263 -1.8449 0.9394
1.8092 -11.6756 -1.4035 0.9535
3.7111 -14.9632 -1.8313 0.9398
5.0200 -14.5377 -1.8269 0.9399
6.2832 -13.9995 -1.8228 0.9401
7.4912 -13.3534 -1.8188 0.9402
12.5610 -10.6237 -1.9542 0.9359
14.2103 -8.1982 -1.9487 0.9361
14.8688 -6.8894 -1.9466 0.9361
16.1288 -2.6982 -1.9425 0.9363
16.3008 -1.2474 -1.9420 0.9363
16.3461 0.2125 -1.9419 0.9363
13.1259 2.5483 -1.5883 0.9476
9.3872 2.7109 -1.1606 0.9614
14.6879 7.2753 -1.9470 0.9361
12.9327 7.9163 -1.8012 0.9407
9.4036 8.3822 -1.4964 0.9505
8.0313 8.5627 -1.3945 0.9538
3.8328 5.9194 -0.8377 0.9720
0.5966 15.5507 -1.8486 0.9392
-0.7959 15.5817 -1.8533 0.9391
-2.9186 8.8316 -1.1049 0.9632
-6.2444 14.4244 -1.8671 0.9386
-7.5158 13.8257 -1.8693 0.9386
-11.7162 10.1799 -1.8437 0.9394
-13.6718 8.1321 -1.8896 0.9379
-15.5196 7.4435 -2.0446 0.9330
-16.6529 4.5812 -2.0516 0.9328
-17.0047 3.0781 -2.0527 0.9328
-17.2884 0.0055 -2.0536 0.9327
-17.2176 -1.5375 -2.0533 0.9327
-17.0055 -3.0671 -2.0526 0.9328
-16.1666 -6.0335 -2.0497 0.9329
-6.7107 -11.3316 -1.8660 0.9482
-5.6618 -11.8631 -1.8625 0.9483
-4.5713 -12.2971 -1.8589 0.9484
-2.3026 -12.8615 -1.8513 0.9486
-1.1430 -12.9886 -1.8475 0.9487
0.0209 -13.0114 -1.8436 0.9488
1.1798 -12.9306 -1.8397 0.9489
3.4460 -12.4636 -1.8322 0.9491
4.5358 -12.0824 -1.8286 0.9492
6.6947 -11.2222 -1.8515 0.9486
8.1205 -11.2018 -1.9604 0.9456
9.1125 -10.4603 -1.9656 0.9455
10.7966 -8.6489 -1.9601 0.9456
12.1351 -6.5766 -1.9557 0.9458
12.6625 -5.4623 -1.9540 0.9458
13.7550 0.5455 -1.9505 0.9459
9.2697 2.9466 -1.3782 0.9615
9.2654 3.8863 -1.4236 0.9602
11.5632 7.5085 -1.9535 0.9458
10.0542 7.8888 -1.8107 0.9497
8.8443 8.3168 -1.7202 0.9521
2.3080 5.9642 -0.9061 0.9745
1.2159 6.3064 -0.9100 0.9744
0.1524 13.0119 -1.8438 0.9488
-1.0118 13.0008 -1.8476 0.9487
-2.1727 12.8854 -1.8515 0.9486
-3.3210 12.6660 -1.8553 0.9485
-7.6012 10.7847 -1.8695 0.9481
-8.5477 10.0800 -1.8726 0.9480
-12.5538 7.0214 -2.0381 0.9435
-13.1429 5.8783 -2.0400 0.9435
-13.9977 3.4525 -2.0428 0.9434
-14.2558 2.1901 -2.0436 0.9434
-14.3975 0.9091 -2.0440 0.9434
-14.4215 -0.3797 -2.0441 0.9434
-14.3277 -1.6651 -2.0437 0.9434
-14.1168 -2.9363 -2.0430 0.9434
-13.3527 -5.3928 -2.0404 0.9435
-12.8065 -6.5572 -2.0386 0.9435
-12.1570 -7.6659 -2.0364 0.9436
-10.5726 -9.6800 -2.0311 0.9437
-9.6517 -10.5690 -2.0280 0.9438
-7.0642 -11.2350 -1.8804 0.9478
-0.3258 -13.0155 -1.8447 0.9488
0.8355 -12.9655 -1.8409 0.9489
1.8094 -11.6771 -1.6743 0.9534
3.1147 -12.5585 -1.8333 0.9491
5.2773 -11.7584 -1.8261 0.9493
6.3010 -11.2318 -1.8247 0.9493
8.8348 -10.7043 -1.9666 0.9455
9.7401 -9.8580 -1.9636 0.9456
10.5665 -8.9368 -1.9608 0.9456
11.9592 -6.8995 -1.9563 0.9457
12.5156 -5.7990 -1.9544 0.9458
12.9734 -4.6552 -1.9529 0.9458
13.3292 -3.4765 -1.9518 0.9459
13.5807 -2.2720 -1.9510 0.9459
13.7261 -1.0504 -1.9505 0.9459
9.2904 2.6830 -1.3701 0.9617
9.2668 3.5998 -1.4086 0.9606
12.3656 6.1249 -1.9552 0.9458
10.3963 7.7188 -1.8347 0.9490
1.8984 5.9990 -0.8915 0.9749
1.6531 12.8719 -1.8388 0.9489
-0.6648 13.0150 -1.8465 0.9487
-1.8276 12.9307 -1.8503 0.9486
-2.9807 12.7422 -1.8542 0.9485
-5.2197 12.0573 -1.8616 0.9483
-6.2870 11.5651 -1.8651 0.9482
-8.2722 10.2991 -1.8717 0.9480
-9.1731 9.5348 -1.8747 0.9480
-10.0021 8.6906 -1.8774 0.9479
-12.3467 7.3439 -2.0355 0.9436
-12.9782 6.2246 -2.0394 0.9435
-14.1910 2.5688 -2.0434 0.9434
-14.3679 -1.2830 -2.0439 0.9434
-13.8998 -3.8143 -2.0423 0.9434
-13.4948 -5.0364 -2.0409 0.9435
-12.9803 -6.2155 -2.0392 0.9435
-12.3610 -7.3418 -2.0371 0.9436
-8.8434 -8.5407 -2.0253 0.9514
-8.0350 -9.2836 -2.0226 0.9514
-7.1639 -9.9494 -2.0197 0.9515
-3.0613 -11.2124 -1.9147 0.9540
-0.9876 -11.2228 -1.8560 0.9554
0.0180 -11.2255 -1.8493 0.9555
2.0456 -11.2181 -1.8785 0.9548
5.2051 -10.8166 -1.9775 0.9525
7.0279 -9.6946 -1.9726 0.9526
7.8543 -9.0160 -1.9698 0.9527
8.6167 -8.2684 -1.9673 0.9527
9.9277 -6.5900 -1.9630 0.9528
10.4669 -5.6725 -1.9612 0.9529
10.9231 -4.7120 -1.9598 0.9529
11.5744 -2.6918 -1.9576 0.9530
11.7648 -1.6474 -1.9570 0.9530
11.7810 1.5284 -1.9571 0.9530
11.3304 3.6017 -1.9586 0.9529
9.9943 6.4897 -1.9631 0.9528
9.3762 7.3568 -1.9633 0.9528
5.0880 5.7228 -1.2615 0.9694
1.6873 5.8712 -1.0064 0.9755
1.1275 11.1151 -1.8405 0.9557
-0.8700 11.1786 -1.8471 0.9556
-1.8677 11.0762 -1.8504 0.9555
-2.8539 10.8845 -1.8537 0.9554
-3.8207 10.6046 -1.8569 0.9553
-4.7599 10.2384 -1.8600 0.9553
-5.6639 9.7883 -1.8630 0.9552
-6.5250 9.2578 -1.8659 0.9551
-7.3358 8.6509 -1.8686 0.9551
-10.1756 6.9516 -2.0301 0.9513
-10.7657 6.0213 -2.0321 0.9512
-11.6820 4.0170 -2.0351 0.9512
-12.0000 2.9598 -2.0361 0.9511
-12.2205 1.8774 -2.0368 0.9511
-12.3416 0.7793 -2.0372 0.9511
-12.3622 -0.3254 -2.0372 0.9511
-12.2820 -1.4274 -2.0369 0.9511
-12.1019 -2.5172 -2.0363 0.9511
-11.8233 -3.5857 -2.0354 0.9511
-11.4489 -4.6239 -2.0341 0.9512
-9.7878 -7.4713 -2.0285 0.9513
-8.2828 -9.0700 -2.0235 0.9514
-6.5190 -10.3679 -2.0176 0.9516
-4.5067 -11.2005 -1.9889 0.9522
-2.3181 -11.2174 -1.8870 0.9546
-0.2810 -11.2258 -1.8499 0.9555
2.7811 -11.2134 -1.9032 0.9542
5.8698 -10.4632 -1.9764 0.9525
7.6144 -9.2258 -1.9706 0.9527
8.3965 -8.4981 -1.9681 0.9527
9.1106 -7.7055 -1.9657 0.9528
9.7516 -6.8542 -1.9636 0.9528
10.3147 -5.9508 -1.9617 0.9529
11.8435 -0.9063 -1.9568 0.9530
11.8766 0.1544 -1.9567 0.9530
11.6644 2.2646 -1.9575 0.9530
10.1607 6.2195 -1.9626 0.9529
9.5746 7.1087 -1.9645 0.9528
8.6461 7.7070 -1.9081 0.9541
5.3601 5.7147 -1.2907 0.9687
3.7307 5.7616 -1.1308 0.9726
2.4259 5.8045 -1.0364 0.9748
1.8474 5.8379 -1.0087 0.9755
1.3208 5.9876 -1.0101 0.9754
0.4289 11.1780 -1.8428 0.9557
-2.5617 10.9509 -1.8527 0.9554
-2.9193 8.8336 -1.5327 0.9630
-4.4834 10.3564 -1.8591 0.9553
-6.2733 9.4241 -1.8650 0.9551
-7.0998 8.8395 -1.8678 0.9551
-8.8594 7.6977 -1.9335 0.9535
-9.9837 7.2179 -2.0295 0.9513
-11.1286 5.3375 -2.0333 0.9512
-12.1651 2.2021 -2.0366 0.9511
-12.3160 1.1077 -2.0371 0.9511
-11.9165 -3.2701 -2.0357 0.9511
-11.5704 -4.3182 -2.0345 0.9512
-7.7368 -7.4721 -2.0217 0.9572
-7.0308 -8.1233 -2.0193 0.9572
-6.2697 -8.7075 -2.0168 0.9573
-5.4601 -9.2200 -2.0141 0.9573
-4.6088 -9.6569 -2.0113 0.9574
-3.7230 -10.0151 -2.0083 0.9574
-1.8772 -10.4853 -2.0022 0.9576
-0.9323 -10.5943 -1.9990 0.9576
0.9633 -10.5579 -1.9927 0.9578
2.8165 -10.1868 -1.9866 0.9579
3.7090 -9.8800 -1.9836 0.9580
5.3915 -9.0376 -1.9780 0.9581
8.1751 -6.5489 -1.9688 0.9583
9.1936 -4.9824 -1.9655 0.9583
9.5953 -4.1392 -1.9642 0.9584
10.4276 0.4135 -1.9615 0.9584
10.1922 2.2620 -1.9624 0.9584
9.9537 3.1641 -1.9632 0.9584
9.6369 4.0421 -1.9642 0.9584
8.2412 6.4663 -1.9689 0.9583
3.5040 5.7411 -1.2642 0.9730
2.8434 5.7591 -1.2072 0.9742
2.2293 5.7607 -1.1610 0.9752
1.6747 5.8273 -1.1396 0.9756
1.2111 6.2814 -1.2024 0.9743
0.1149 9.8089 -1.8438 0.9609
-1.6362 9.7035 -1.8496 0.9607
-2.4997 9.5335 -1.8525 0.9607
-8.8997 6.0799 -2.0259 0.9571
-9.4147 5.2657 -2.0276 0.9570
-10.2141 3.5123 -2.0302 0.9570
-10.4915 2.5877 -2.0311 0.9570
-10.6839 1.6414 -2.0317 0.9570
-10.8074 -0.2845 -2.0321 0.9570
-10.5804 -2.2008 -2.0313 0.9570
-10.3375 -3.1351 -2.0304 0.9570
-8.5615 -6.5352 -2.0245 0.9571
-7.2472 -7.9360 -2.0201 0.9572
-5.7061 -9.0750 -2.0149 0.9573
-3.9902 -9.9167 -2.0092 0.9574
-3.0844 -10.2179 -2.0062 0.9575
-2.1568 -10.4364 -2.0031 0.9576
-0.2659 -10.6201 -1.9968 0.9577
1.6216 -10.4652 -1.9905 0.9578
4.3168 -9.6183 -1.9816 0.9580
5.9421 -8.6738 -1.9762 0.9581
6.6843 -8.0987 -1.9738 0.9582
8.0001 -6.7663 -1.9694 0.9583
9.0597 -5.2267 -1.9659 0.9583
9.8320 -3.5280 -1.9634 0.9584
10.1032 -2.6351 -1.9625 0.9584
10.4056 -0.7963 -1.9616 0.9584
10.4348 0.1357 -1.9615 0.9584
10.2478 1.9896 -1.9622 0.9584
10.0331 2.8974 -1.9629 0.9584
9.7394 3.7833 -1.9639 0.9584
9.3688 4.6406 -1.9651 0.9583
8.9239 5.4625 -1.9666 0.9583
8.4082 6.2427 -1.9684 0.9583
4.5029 5.7542 -1.3734 0.9707
3.7227 5.7493 -1.2874 0.9725
3.0318 5.7497 -1.2218 0.9739
1.8335 5.7938 -1.1422 0.9756
-0.5009 9.8077 -1.8459 0.9608
-2.2439 9.5923 -1.8517 0.9607
-2.9196 8.8348 -1.7489 0.9628
-4.7259 8.6935 -1.8599 0.9605
-5.4905 8.2482 -1.8624 0.9605
-6.2128 7.7351 -1.8648 0.9604
-7.3991 7.6909 -2.0060 0.9575
-8.7322 6.3131 -2.0253 0.9571
-9.7314 4.6674 -2.0286 0.9570
-10.1154 3.7825 -2.0299 0.9570
-10.4177 2.8659 -2.0309 0.9570
-10.6356 1.9252 -2.0316 0.9570
-10.6363 -1.9184 -2.0315 0.9570
-10.4188 -2.8591 -2.0307 0.9570
-6.8699 -6.6348 -2.0188 0.9617
-5.5687 -7.7339 -2.0145 0.9618
-4.8504 -8.1904 -2.0121 0.9618
-2.4974 -9.1469 -2.0042 0.9620
0.8567 -9.3900 -1.9931 0.9622
4.0667 -8.4510 -1.9824 0.9624
7.7656 -5.1548 -1.9702 0.9626
8.1890 -4.4380 -1.9688 0.9626
8.8381 -2.9081 -1.9667 0.9627
9.2860 -0.4623 -1.9653 0.9627
9.2214 1.1964 -1.9656 0.9627
9.0800 2.0152 -1.9660 0.9627
7.8176 5.0763 -1.9703 0.9626
5.1455 5.7875 -1.6369 0.9688
4.2633 5.7576 -1.5144 0.9711
2.2258 5.7518 -1.3037 0.9751
-1.4544 8.6255 -1.8490 0.9649
-2.2216 8.4729 -1.8516 0.9648
-2.9730 8.2519 -1.8540 0.9648
-3.7025 7.9640 -1.8565 0.9647
-4.4689 7.7232 -1.8861 0.9642
-5.4280 7.7014 -1.9916 0.9622
-6.1694 7.2753 -2.0163 0.9618
-7.3811 6.0759 -2.0208 0.9617
-7.9007 5.3974 -2.0226 0.9616
-8.7465 3.9120 -2.0253 0.9616
-9.0654 3.1173 -2.0264 0.9616
-9.5750 0.6046 -2.0280 0.9615
-9.5909 -0.2525 -2.0280 0.9615
-9.5290 -1.1074 -2.0278 0.9615
-8.5246 -4.3647 -2.0244 0.9616
-8.0952 -5.1046 -2.0229 0.9616
-7.0463 -6.4514 -2.0194 0.9617
-6.4358 -7.0474 -2.0174 0.9617
-5.7747 -7.5855 -2.0152 0.9618
-5.0686 -8.0612 -2.0128 0.9618
-4.3235 -8.4710 -2.0103 0.9619
-3.5455 -8.8117 -2.0077 0.9619
-1.9171 -9.2766 -2.0023 0.9620
-1.0799 -9.3976 -1.9995 0.9621
2.2644 -9.1303 -1.9884 0.9623
3.8416 -8.5596 -1.9832 0.9624
7.1244 -6.0256 -1.9723 0.9626
8.7586 -3.1428 -1.9670 0.9627
9.2966 0.1209 -1.9653 0.9627
9.2495 0.9503 -1.9655 0.9627
9.1297 1.7725 -1.9659 0.9627
8.6759 3.3702 -1.9674 0.9627
8.3452 4.1335 -1.9685 0.9626
5.3589 5.7135 -1.6558 0.9685
4.5032 5.7546 -1.5446 0.9706
3.0325 5.7511 -1.3743 0.9738
1.3151 5.9618 -1.2905 0.9753
0.3343 8.7128 -1.8431 0.9650
-0.4454 8.7201 -1.8457 0.9649
-1.2237 8.6576 -1.8482 0.9649
-1.9943 8.5256 -1.8508 0.9648
-2.7511 8.3249 -1.8533 0.9648
-3.4878 8.0567 -1.8557 0.9647
-5.1314 7.7086 -1.9575 0.9628
-7.7522 5.6046 -2.0221 0.9616
-8.2279 4.8940 -2.0236 0.9616
-8.6377 4.1428 -2.0250 0.9616
-9.5552 0.8594 -2.0279 0.9615
-9.5556 -0.8533 -2.0279 0.9615
-9.4394 -1.7025 -2.0275 0.9615
-9.2467 -2.5374 -2.0268 0.9616
-8.9793 -3.3512 -2.0259 0.9616
-8.6395 -4.1369 -2.0248 0.9616
-5.6099 -6.4816 -2.0147 0.9654
-5.0039 -6.9495 -2.0126 0.9654
-4.3589 -7.3605 -2.0105 0.9655
-2.2452 -8.2234 -2.0034 0.9656
0.0137 -8.4924 -1.9959 0.9657
0.7707 -8.4466 -1.9934 0.9657
1.5196 -8.3337 -1.9909 0.9658
2.9700 -7.9116 -1.9861 0.9659
3.6601 -7.6061 -1.9838 0.9659
5.5272 -6.3448 -1.9776 0.9660
6.0661 -5.8209 -1.9759 0.9660
6.9936 -4.6423 -1.9728 0.9661
7.3753 -3.9970 -1.9716 0.9661
7.6986 -3.3209 -1.9705 0.9661
8.1601 -1.8977 -1.9690 0.9662
8.2951 -1.1615 -1.9686 0.9662
8.1790 1.8152 -1.9690 0.9662
7.9870 2.5389 -1.9697 0.9661
7.7319 3.2431 -1.9705 0.9661
7.0403 4.5716 -1.9729 0.9661
6.1248 5.7596 -1.9760 0.9660
4.2786 5.7784 -1.6898 0.9709
3.5011 5.7363 -1.5794 0.9728
1.6604 5.7773 -1.4128 0.9756
-0.6095 7.8316 -1.8462 0.9682
-1.3078 7.7557 -1.8485 0.9682
-2.0252 7.7239 -1.8767 0.9677
-4.2793 7.3955 -2.0081 0.9655
-4.9337 7.0000 -2.0127 0.9654
-5.5444 6.5383 -2.0147 0.9654
-6.1115 6.0229 -2.0166 0.9654
-7.0964 4.8480 -2.0199 0.9653
-8.3614 2.0623 -2.0240 0.9652
-8.5980 0.5429 -2.0248 0.9652
-8.6123 -0.2267 -2.0248 0.9652
-8.2392 -2.4987 -2.0235 0.9652
-7.9798 -3.2228 -2.0226 0.9653
-7.6561 -3.9201 -2.0215 0.9653
-6.8277 -5.2117 -2.0187 0.9653
-6.3300 -5.7956 -2.0171 0.9653
-5.1888 -6.8158 -2.0132 0.9654
-3.1870 -7.9206 -2.0066 0.9655
-2.4643 -8.1637 -2.0042 0.9656
-1.7237 -8.3408 -2.0017 0.9656
1.2976 -8.3744 -1.9917 0.9658
2.7592 -7.9907 -1.9868 0.9659
3.4574 -7.7035 -1.9845 0.9659
5.9104 -5.9819 -1.9764 0.9660
7.2676 -4.1928 -1.9719 0.9661
7.6085 -3.5253 -1.9708 0.9661
7.8891 -2.8308 -1.9699 0.9661
8.1074 -2.1146 -1.9692 0.9662
8.2617 -1.3821 -1.9687 0.9662
8.3509 -0.6391 -1.9684 0.9662
8.0509 2.3250 -1.9695 0.9662
7.5161 3.7229 -1.9713 0.9661
3.0272 5.7409 -1.5253 0.9737
2.4087 5.7633 -1.4681 0.9747
1.8208 5.7537 -1.4183 0.9755
1.3133 5.9537 -1.4329 0.9753
0.3007 7.8367 -1.8432 0.9683
-0.4005 7.8421 -1.8455 0.9682
-1.1003 7.7849 -1.8478 0.9682
-1.8073 7.7259 -1.8648 0.9679
-2.5506 7.7182 -1.9104 0.9672
-3.3365 7.7073 -1.9738 0.9661
-4.0760 7.4979 -2.0057 0.9655
-8.4758 1.5342 -2.0244 0.9652
-8.5803 0.7717 -2.0247 0.9652
-8.4764 -1.5288 -2.0243 0.9652
-8.3037 -2.2787 -2.0237 0.9652
-8.0639 -3.0095 -2.0229 0.9653
-7.7591 -3.7154 -2.0219 0.9653
-5.5969 -5.4054 -2.0146 0.9684
-2.6982 -7.2583 -2.0050 0.9685
-2.0373 -7.4620 -2.0028 0.9685
-0.6765 -7.6879 -1.9982 0.9686
0.0124 -7.7088 -1.9959 0.9687
2.0473 -7.4049 -1.9892 0.9688
3.9237 -6.5772 -1.9830 0.9689
5.0214 -5.7642 -1.9793 0.9689
6.7023 -3.6323 -1.9738 0.9690
7.2350 -2.3806 -1.9721 0.9690
7.4164 -1.7247 -1.9715 0.9690
7.5392 -1.0557 -1.9711 0.9690
7.6026 -0.3785 -1.9709 0.9690
7.5496 0.9795 -1.9711 0.9690
7.4335 1.6498 -1.9715 0.9690
6.7388 3.5645 -1.9739 0.9690
6.0052 4.7118 -1.9763 0.9690
5.5648 5.2329 -1.9778 0.9689
5.0796 5.7134 -1.9794 0.9689
3.5246 5.7748 -1.7517 0.9724
2.8492 5.7710 -1.6664 0.9738
1.6648 5.7930 -1.5606 0.9754
0.7746 7.6360 -1.9873 0.9688
-0.5967 7.6676 -1.9913 0.9687
-2.6242 7.2837 -2.0045 0.9685
-3.8866 6.7167 -2.0092 0.9684
-4.4749 6.3492 -2.0112 0.9684
-5.5422 5.4619 -2.0147 0.9684
-6.0123 4.9492 -2.0163 0.9683
-6.4345 4.3958 -2.0177 0.9683
-7.1215 3.1852 -2.0199 0.9683
-7.7183 1.1858 -2.0218 0.9682
-7.7569 -0.9015 -2.0219 0.9682
-7.6440 -1.5900 -2.0215 0.9683
-7.4694 -2.2653 -2.0209 0.9683
-6.1911 -4.7258 -2.0166 0.9683
-5.7403 -5.2556 -2.0151 0.9684
-5.2439 -5.7423 -2.0135 0.9684
-4.1317 -6.5711 -2.0097 0.9684
-3.5251 -6.9067 -2.0077 0.9685
-2.8915 -7.1862 -2.0056 0.9685
-0.1930 -7.7090 -1.9966 0.9686
4.8674 -5.8974 -1.9798 0.9689
5.3699 -5.4348 -1.9782 0.9689
6.2416 -4.3871 -1.9753 0.9690
6.6043 -3.8101 -1.9741 0.9690
6.9144 -3.2038 -1.9731 0.9690
7.1698 -2.5727 -1.9723 0.9690
7.5900 -0.5808 -1.9709 0.9690
7.5727 0.7780 -1.9710 0.9690
7.1017 2.7587 -1.9726 0.9690
4.1616 6.4271 -1.9825 0.9689
3.0400 5.7653 -1.6875 0.9734
2.4010 5.7452 -1.6122 0.9746
1.3152 5.9624 -1.5809 0.9751
-0.3921 7.6775 -1.9904 0.9687
-1.0776 7.6240 -1.9936 0.9687
-1.7575 7.5130 -1.9978 0.9686
-3.0788 7.1120 -2.0066 0.9685
-5.3935 5.6062 -2.0142 0.9684
-5.8770 5.1064 -2.0158 0.9683
-6.3139 4.5647 -2.0173 0.9683
-6.7003 3.9854 -2.0185 0.9683
-7.0331 3.3732 -2.0196 0.9683
-7.3094 2.7332 -2.0205 0.9683
-7.5268 2.0706 -2.0212 0.9683
-7.8099 0.0025 -2.0221 0.9682
-7.7785 -0.6946 -2.0220 0.9682
-7.6842 -1.3859 -2.0217 0.9683
-7.3107 -2.7284 -2.0204 0.9683
-7.0347 -3.3685 -2.0195 0.9683
-3.6144 -6.1032 -2.0080 0.9709
-1.2451 -6.9547 -2.0001 0.9711
-0.6187 -7.0308 -1.9981 0.9711
0.0113 -7.0505 -1.9960 0.9711
0.6400 -7.0140 -1.9939 0.9711
1.2622 -6.9217 -1.9918 0.9712
2.4678 -6.5738 -1.9878 0.9712
3.0418 -6.3212 -1.9859 0.9713
3.5906 -6.0190 -1.9841 0.9713
4.1100 -5.6695 -1.9824 0.9713
5.4530 -4.3683 -1.9779 0.9714
5.8176 -3.8617 -1.9767 0.9714
6.1358 -3.3253 -1.9757 0.9714
6.4053 -2.7631 -1.9748 0.9714
6.6240 -2.1795 -1.9741 0.9714
6.7902 -1.5791 -1.9736 0.9714
6.9028 -0.9666 -1.9732 0.9714
6.9641 0.2762 -1.9730 0.9714
6.6458 2.1125 -1.9741 0.9714
6.4330 2.6983 -1.9749 0.9714
5.8565 3.8029 -1.9768 0.9714
5.0936 4.7898 -1.9794 0.9714
4.1672 5.6279 -1.9825 0.9713
3.6514 5.9826 -1.9842 0.9713
1.9415 6.7556 -1.9899 0.9712
1.3321 6.9090 -1.9919 0.9712
0.7108 7.0076 -1.9940 0.9711
0.0826 7.0504 -1.9961 0.9711
-1.7939 6.8416 -2.0023 0.9710
-2.3998 6.6609 -2.0043 0.9710
-2.9877 6.4263 -2.0062 0.9710
-3.5527 6.1397 -2.0081 0.9709
-4.5956 5.4195 -2.0116 0.9709
-5.4941 4.5226 -2.0145 0.9709
-6.2181 3.4778 -2.0169 0.9708
-6.9252 1.7081 -2.0192 0.9708
-7.0514 1.0833 -2.0196 0.9708
-7.1207 0.4496 -2.0198 0.9708
-7.0867 -0.8236 -2.0197 0.9708
-6.8243 -2.0696 -2.0188 0.9708
-6.0240 -3.7986 -2.0161 0.9708
-5.2458 -4.8029 -2.0135 0.9709
-4.3015 -5.6503 -2.0103 0.9709
-3.7767 -6.0064 -2.0086 0.9709
-2.6435 -6.5699 -2.0048 0.9710
-2.0445 -6.7728 -2.0028 0.9710
-1.4303 -6.9212 -2.0008 0.9710
-0.8060 -7.0140 -1.9987 0.9711
2.2925 -6.6391 -1.9884 0.9712
2.8732 -6.4018 -1.9865 0.9713
3.9586 -5.7784 -1.9829 0.9713
4.9151 -4.9746 -1.9797 0.9713
5.3358 -4.5128 -1.9783 0.9714
5.7137 -4.0160 -1.9771 0.9714
6.3302 -2.9331 -1.9751 0.9714
6.5642 -2.3554 -1.9743 0.9714
6.7463 -1.7595 -1.9737 0.9714
6.8749 -1.1501 -1.9733 0.9714
6.9493 -0.5318 -1.9731 0.9714
6.9689 0.0906 -1.9730 0.9714
6.9334 0.7124 -1.9731 0.9714
6.8433 1.3286 -1.9735 0.9714
6.6990 1.9346 -1.9740 0.9714
6.5018 2.5257 -1.9746 0.9714
6.2531 3.0973 -1.9755 0.9714
5.9547 3.6449 -1.9765 0.9714
5.6089 4.1643 -1.9776 0.9714
4.7857 5.1024 -1.9804 0.9713
4.3146 5.5136 -1.9820 0.9713
3.2712 6.2038 -1.9854 0.9713
2.4029 5.7496 -1.7641 0.9744
1.8201 5.7515 -1.7078 0.9752
1.5152 6.8689 -1.9913 0.9712
0.8969 6.9840 -1.9934 0.9712
0.2702 7.0435 -1.9954 0.9711
-0.3599 7.0469 -1.9975 0.9711
-2.8147 6.5018 -2.0057 0.9710
-3.3870 6.2305 -2.0076 0.9709
-3.9331 5.9086 -2.0094 0.9709
-4.4486 5.5386 -2.0111 0.9709
-4.9291 5.1235 -2.0127 0.9709
-5.7695 4.1711 -2.0154 0.9708
-6.1223 3.6416 -2.0166 0.9708
-6.4261 3.0821 -2.0176 0.9708
-6.8767 1.8918 -2.0191 0.9708
-7.1061 0.6391 -2.0198 0.9708
-7.0203 -1.2662 -2.0195 0.9708
-6.6795 -2.4928 -2.0183 0.9708
-6.1241 -3.6374 -2.0164 0.9708
-3.3251 -5.6147 -2.0071 0.9731
-2.8082 -5.8840 -2.0054 0.9731
-2.2698 -6.1058 -2.0036 0.9731
-1.1458 -6.4001 -1.9998 0.9732
-0.5694 -6.4706 -1.9979 0.9732
2.2721 -6.0525 -1.9885 0.9733
2.8008 -5.8204 -1.9867 0.9733
3.7849 -5.2211 -1.9835 0.9734
5.0225 -4.0234 -1.9794 0.9734
5.3586 -3.5571 -1.9783 0.9734
5.6520 -3.0631 -1.9773 0.9735
6.1020 -2.0078 -1.9758 0.9735
6.2553 -1.4547 -1.9753 0.9735
6.3591 -0.8904 -1.9750 0.9735
6.4127 -0.3192 -1.9748 0.9735
6.4156 0.2544 -1.9749 0.9735
6.2698 1.3915 -1.9754 0.9735
5.6828 3.0059 -1.9774 0.9735
5.0631 3.9726 -1.9794 0.9734
3.8376 5.1828 -1.9835 0.9734
3.3624 5.5090 -1.9851 0.9734
2.2240 5.7471 -1.8954 0.9745
-0.5040 6.4763 -1.9980 0.9732
-1.6507 6.2954 -2.0018 0.9731
-2.7487 5.9124 -2.0054 0.9731
-3.2683 5.6483 -2.0072 0.9731
-3.7625 5.3383 -2.0088 0.9730
-4.2272 4.9850 -2.0103 0.9730
-5.4073 3.6941 -2.0142 0.9730
-6.2007 2.1322 -2.0168 0.9729
-6.4840 0.9961 -2.0177 0.9729
-6.5477 0.4134 -2.0179 0.9729
-6.4218 -1.3357 -2.0175 0.9729
-5.8326 -2.9864 -2.0155 0.9729
-5.5401 -3.4934 -2.0145 0.9730
-3.9568 -5.1975 -2.0092 0.9730
-3.4743 -5.5255 -2.0076 0.9731
-2.4322 -6.0448 -2.0041 0.9731
-1.8812 -6.2320 -2.0023 0.9731
-1.3162 -6.3691 -2.0004 0.9731
0.9920 -6.4023 -1.9927 0.9733
1.5581 -6.2823 -1.9908 0.9733
2.1107 -6.1125 -1.9890 0.9733
3.1584 -5.6300 -1.9855 0.9733
3.6454 -5.3212 -1.9839 0.9734
4.1026 -4.9708 -1.9824 0.9734
5.5692 -3.2129 -1.9776 0.9735
6.0469 -2.1698 -1.9760 0.9735
6.2148 -1.6209 -1.9755 0.9735
6.3334 -1.0595 -1.9751 0.9735
6.4020 -0.4899 -1.9749 0.9735
6.3042 1.2239 -1.9752 0.9735
6.1712 1.7822 -1.9757 0.9735
5.9894 2.3266 -1.9763 0.9735
5.4850 3.3574 -1.9780 0.9734
5.1662 3.8357 -1.9791 0.9734
4.8061 4.2841 -1.9803 0.9734
3.9734 5.0775 -1.9831 0.9734
3.5070 5.4162 -1.9846 0.9734
2.4923 5.9636 -1.9880 0.9733
1.3948 6.3233 -1.9917 0.9733
-0.3313 6.4856 -1.9974 0.9732
-1.4820 6.3354 -2.0012 0.9731
-2.0435 6.1836 -2.0031 0.9731
-2.5896 5.9819 -2.0049 0.9731
-3.6181 5.4354 -2.0083 0.9730
-4.0920 5.0947 -2.0099 0.9730
-5.3061 3.8361 -2.0139 0.9730
-5.6303 3.3490 -2.0150 0.9730
-5.9095 2.8343 -2.0159 0.9729
-6.1412 2.2964 -2.0166 0.9729
-6.5342 0.5877 -2.0179 0.9729
-6.5608 0.0021 -2.0180 0.9729
-6.4554 -1.1643 -2.0176 0.9729
-6.3243 -1.7355 -2.0171 0.9729
-5.9109 -2.8304 -2.0157 0.9729
-5.6320 -3.3451 -2.0148 0.9730
-4.3507 -4.2018 -2.0105 0.9748
-3.9556 -4.5703 -2.0092 0.9748
-3.0755 -5.1932 -2.0063 0.9749
-2.5976 -5.4427 -2.0047 0.9749
-2.0996 -5.6482 -2.0030 0.9749
-1.0601 -5.9212 -1.9995 0.9750
0.5451 -5.9745 -1.9942 0.9750
1.0753 -5.8968 -1.9925 0.9751
1.5959 -5.7723 -1.9907 0.9751
2.1030 -5.6020 -1.9890 0.9751
2.5926 -5.3876 -1.9874 0.9751
3.0607 -5.1306 -1.9859 0.9751
3.5039 -4.8334 -1.9844 0.9751
3.9186 -4.4982 -1.9830 0.9752
4.3017 -4.1279 -1.9818 0.9752
4.6503 -3.7253 -1.9806 0.9752
5.6506 -1.8592 -1.9773 0.9752
5.8888 -0.8246 -1.9766 0.9752
5.9385 -0.2956 -1.9764 0.9752
5.8969 0.7650 -1.9766 0.9752
5.8060 1.2886 -1.9769 0.9752
5.6691 1.8021 -1.9774 0.9752
5.2620 2.7833 -1.9787 0.9752
4.9949 3.2434 -1.9796 0.9752
4.6879 3.6782 -1.9807 0.9752
3.9640 4.4586 -1.9831 0.9752
3.1125 5.0997 -1.9859 0.9751
2.6470 5.3613 -1.9875 0.9751
2.1596 5.5807 -1.9891 0.9751
1.1348 5.8859 -1.9925 0.9750
0.6055 5.9690 -1.9943 0.9750
-1.0002 5.9319 -1.9996 0.9750
-2.0426 5.6693 -2.0031 0.9749
-3.9094 4.6102 -2.0093 0.9748
-4.3081 4.2456 -2.0106 0.9748
-4.6727 3.8465 -2.0118 0.9748
-5.2875 2.9573 -2.0138 0.9748
-5.7332 1.9714 -2.0153 0.9748
-5.8877 1.4522 -2.0158 0.9748
-5.9949 0.9210 -2.0161 0.9748
-6.0537 0.3823 -2.0163 0.9748
-6.0637 -0.1596 -2.0163 0.9748
-5.6202 -2.2698 -2.0148 0.9748
-5.3931 -2.7614 -2.0140 0.9748
-5.1228 -3.2303 -2.0131 0.9748
-4.8115 -3.6727 -2.0121 0.9748
-4.0768 -4.4643 -2.0096 0.9748
-3.6595 -4.8070 -2.0082 0.9749
-1.7403 -5.7653 -2.0018 0.9749
-0.1503 -6.0044 -1.9965 0.9750
0.3859 -5.9885 -1.9947 0.9750
0.9181 -5.9249 -1.9930 0.9750
2.9237 -5.2115 -1.9863 0.9751
3.7982 -4.6019 -1.9834 0.9752
4.1910 -4.2418 -1.9821 0.9752
4.8730 -3.4251 -1.9799 0.9752
5.1568 -2.9750 -1.9790 0.9752
5.5995 -2.0092 -1.9775 0.9752
5.8650 -0.9812 -1.9767 0.9752
5.9286 -0.4537 -1.9765 0.9752
5.9150 0.6077 -1.9765 0.9752
4.7834 3.5515 -1.9804 0.9752
4.4498 3.9665 -1.9815 0.9752
4.0805 4.3506 -1.9827 0.9752
3.2465 5.0138 -1.9855 0.9751
1.2909 5.8521 -1.9920 0.9751
-0.3065 6.0009 -1.9973 0.9750
-0.8417 5.9549 -1.9991 0.9750
-1.3710 5.8611 -2.0009 0.9749
-1.8904 5.7203 -2.0026 0.9749
-2.8821 5.3017 -2.0059 0.9749
-3.7844 4.7117 -2.0089 0.9748
-4.1927 4.3581 -2.0102 0.9748
-4.5678 3.9688 -2.0114 0.9748
-5.2061 3.0966 -2.0135 0.9748
-5.6781 2.1232 -2.0151 0.9748
-5.9680 1.0803 -2.0160 0.9748
-6.0413 0.5433 -2.0163 0.9748
-5.9685 -1.0765 -2.0160 0.9748
-5.6792 -2.1196 -2.0150 0.9748
-5.2077 -3.0931 -2.0134 0.9748
-0.9852 -5.5033 -1.9993 0.9765
-0.4897 -5.5647 -1.9977 0.9765
0.0090 -5.5815 -1.9960 0.9766
0.5067 -5.5539 -1.9943 0.9766
1.9553 -5.2086 -1.9895 0.9766
2.4106 -5.0094 -1.9880 0.9767
2.8461 -4.7708 -1.9866 0.9767
3.2583 -4.4946 -1.9852 0.9767
3.6441 -4.1832 -1.9840 0.9767
4.3250 -3.4646 -1.9817 0.9767
5.0820 -2.1922 -1.9792 0.9768
5.2558 -1.7294 -1.9787 0.9768
5.3881 -1.2531 -1.9782 0.9768
5.5238 -0.2750 -1.9778 0.9768
5.5263 0.2192 -1.9778 0.9768
4.8942 2.5888 -1.9800 0.9768
4.3599 3.4208 -1.9818 0.9767
4.0393 3.7984 -1.9828 0.9767
3.6863 4.1463 -1.9840 0.9767
3.3036 4.4616 -1.9853 0.9767
2.0079 5.1887 -1.9896 0.9766
-1.4192 5.4126 -2.0010 0.9765
-1.8981 5.2685 -2.0026 0.9765
-2.8089 4.8543 -2.0056 0.9765
-3.2333 4.5874 -2.0070 0.9764
-4.3410 3.5734 -2.0107 0.9764
-4.6449 3.1732 -2.0117 0.9764
-4.9118 2.7472 -2.0126 0.9764
-5.1393 2.2986 -2.0133 0.9764
-5.4690 1.3489 -2.0144 0.9764
-5.5685 0.8555 -2.0147 0.9764
-5.6231 0.3551 -2.0149 0.9763
-5.5963 -0.6504 -2.0147 0.9764
-5.5151 -1.1472 -2.0145 0.9764
-5.2207 -2.1085 -2.0135 0.9764
-4.4699 -3.4120 -2.0109 0.9764
-3.7877 -4.1477 -2.0087 0.9764
-3.4001 -4.4663 -2.0074 0.9764
-2.9859 -4.7487 -2.0060 0.9765
-2.5482 -4.9926 -2.0045 0.9765
-1.6174 -5.3579 -2.0014 0.9765
-1.1317 -5.4764 -1.9998 0.9765
-0.1397 -5.5812 -1.9965 0.9766
0.8535 -5.5080 -1.9932 0.9766
1.3406 -5.4054 -1.9916 0.9766
1.8163 -5.2600 -1.9900 0.9766
2.2768 -5.0730 -1.9885 0.9767
2.7186 -4.8459 -1.9870 0.9767
3.5321 -4.2795 -1.9843 0.9767
3.8976 -3.9448 -1.9831 0.9767
4.7963 -2.7671 -1.9802 0.9768
5.5146 -0.4220 -1.9778 0.9768
5.5302 0.0719 -1.9778 0.9768
5.4302 1.0543 -1.9781 0.9768
5.3155 1.5351 -1.9785 0.9768
4.4488 3.3030 -1.9815 0.9767
4.1383 3.6889 -1.9825 0.9767
3.7948 4.0459 -1.9837 0.9767
3.0188 4.6622 -1.9862 0.9767
1.6795 5.3074 -1.9907 0.9766
1.2001 5.4404 -1.9923 0.9766
0.7102 5.5304 -1.9939 0.9766
0.2139 5.5763 -1.9956 0.9766
-0.7823 5.5346 -1.9989 0.9765
-2.6780 4.9264 -2.0052 0.9765
-3.1093 4.6710 -2.0066 0.9764
-3.8953 4.0489 -2.0092 0.9764
-4.5581 3.2954 -2.0114 0.9764
-5.0757 2.4344 -2.0131 0.9764
-5.2745 1.9723 -2.0137 0.9764
-5.6118 -0.5011 -2.0148 0.9764
-5.5440 -0.9999 -2.0146 0.9764
-4.8378 -2.8734 -2.0122 0.9764
-3.0591 -4.2485 -2.0062 0.9778
-2.6659 -4.5016 -2.0049 0.9778
-2.2519 -4.7184 -2.0035 0.9779
-1.8204 -4.8970 -2.0021 0.9779
-1.3750 -5.0362 -2.0006 0.9779
-0.9193 -5.1350 -1.9991 0.9779
-0.4569 -5.1925 -1.9976 0.9779
0.0084 -5.2085 -1.9960 0.9779
0.4729 -5.1830 -1.9945 0.9780
1.3848 -5.0087 -1.9914 0.9780
1.8250 -4.8615 -1.9900 0.9780
2.2501 -4.6759 -1.9886 0.9780
3.0417 -4.1958 -1.9860 0.9780
3.4020 -3.9052 -1.9848 0.9781
3.7349 -3.5840 -1.9837 0.9781
4.0379 -3.2346 -1.9827 0.9781
4.3086 -2.8600 -1.9818 0.9781
5.0310 -1.1700 -1.9794 0.9781
5.1578 -0.2568 -1.9790 0.9781
5.1602 0.2046 -1.9790 0.9781
5.0426 1.1191 -1.9794 0.9781
4.9236 1.5651 -1.9798 0.9781
4.5696 2.4171 -1.9810 0.9781
4.0705 3.1938 -1.9827 0.9781
3.7710 3.5461 -1.9837 0.9781
3.0840 4.1650 -1.9860 0.9780
2.7016 4.4265 -1.9873 0.9780
2.2973 4.6531 -1.9886 0.9780
1.4354 4.9947 -1.9915 0.9780
-0.4045 5.1971 -1.9976 0.9779
-0.8674 5.1442 -1.9992 0.9779
-1.3241 5.0500 -2.0007 0.9779
-1.7709 4.9153 -2.0022 0.9779
-2.2042 4.7410 -2.0036 0.9779
-2.6204 4.5285 -2.0050 0.9778
-3.0161 4.2793 -2.0063 0.9778
-3.7333 3.6792 -2.0087 0.9778
-4.7931 2.1438 -2.0121 0.9778
-5.1931 0.7978 -2.0134 0.9777
-2.3031 0.1454 -0.8843 0.9902
-2.2958 -0.0604 -0.8801 0.9902
-5.1434 -1.0698 -2.0132 0.9777
-4.6725 -2.3924 -2.0116 0.9778
-3.8665 -3.5400 -2.0089 0.9778
-3.5331 -3.8689 -2.0078 0.9778
-1.9506 -4.8479 -2.0025 0.9779
-1.0560 -5.1098 -1.9996 0.9779
-0.5952 -5.1797 -1.9980 0.9779
-0.1304 -5.2081 -1.9965 0.9779
0.7965 -5.1404 -1.9934 0.9780
2.1252 -4.7352 -1.9890 0.9780
2.9294 -4.2761 -1.9863 0.9780
3.2974 -3.9951 -1.9851 0.9781
4.6892 -2.1727 -1.9805 0.9781
4.8631 -1.7450 -1.9800 0.9781
4.9983 -1.3037 -1.9795 0.9781
5.1492 -0.3941 -1.9790 0.9781
4.9632 1.4333 -1.9797 0.9781
4.4103 2.6996 -1.9816 0.9781
3.8635 3.4439 -1.9834 0.9781
3.5426 3.7771 -1.9845 0.9781
3.1932 4.0806 -1.9857 0.9780
2.8180 4.3521 -1.9869 0.9780
2.0020 4.7904 -1.9896 0.9780
0.6628 5.1611 -1.9941 0.9780
0.1997 5.2037 -1.9956 0.9779
-1.1889 5.0824 -2.0002 0.9779
-1.6390 4.9597 -2.0017 0.9779
-3.6334 3.7767 -2.0083 0.9778
-3.9581 3.4391 -2.0094 0.9778
-4.7338 2.2705 -2.0120 0.9778
-4.9191 1.8394 -2.0126 0.9778
-2.2866 0.0007 -0.8763 0.9903
-2.3041 -0.2058 -0.8865 0.9901
-5.1703 -0.9325 -2.0133 0.9777
-4.9200 -1.8362 -2.0125 0.9778
-3.5288 -3.4080 -2.0078 0.9790
-2.4955 -4.2139 -2.0044 0.9791
-0.8607 -4.8076 -1.9989 0.9791
-0.4278 -4.8617 -1.9975 0.9791
0.4428 -4.8533 -1.9946 0.9792
0.8736 -4.7909 -1.9931 0.9792
1.2969 -4.6905 -1.9917 0.9792
1.7092 -4.5529 -1.9904 0.9792
2.1074 -4.3793 -1.9891 0.9792
2.4883 -4.1711 -1.9878 0.9792
3.4985 -3.3571 -1.9845 0.9793
4.2576 -2.3074 -1.9820 0.9793
4.5974 -1.5127 -1.9809 0.9793
4.4644 1.8726 -1.9814 0.9793
4.0630 2.6383 -1.9827 0.9793
3.8129 2.9917 -1.9836 0.9793
3.5324 3.3217 -1.9845 0.9793
3.2234 3.6256 -1.9855 0.9793
2.8886 3.9011 -1.9867 0.9792
2.1516 4.3579 -1.9891 0.9792
1.7552 4.5356 -1.9904 0.9792
0.9220 4.7820 -1.9932 0.9792
-0.8121 4.8162 -1.9990 0.9791
-2.8231 4.0056 -2.0056 0.9790
-3.4942 3.4436 -2.0079 0.9790
-3.7895 3.1194 -2.0088 0.9790
-4.2873 2.3979 -2.0105 0.9790
-4.6480 1.5983 -2.0117 0.9790
-2.1026 0.5186 -0.8863 0.9907
-2.0289 0.3117 -0.8401 0.9912
-1.9968 -0.0526 -0.8175 0.9914
-2.0804 -0.4327 -0.8697 0.9909
-4.7039 -1.4266 -2.0118 0.9790
-4.5566 -1.8403 -2.0113 0.9790
-4.3728 -2.2390 -2.0106 0.9790
-3.6188 -3.3133 -2.0081 0.9790
-3.3069 -3.6212 -2.0071 0.9790
-2.9688 -3.8997 -2.0059 0.9790
-2.2253 -4.3601 -2.0035 0.9791
-1.8261 -4.5383 -2.0021 0.9791
-0.5573 -4.8496 -1.9979 0.9791
0.7459 -4.8135 -1.9936 0.9792
1.5876 -4.5978 -1.9908 0.9792
1.9904 -4.4347 -1.9894 0.9792
2.3767 -4.2366 -1.9882 0.9792
2.7437 -4.0051 -1.9870 0.9792
4.1950 -2.4202 -1.9822 0.9793
4.6826 -1.2213 -1.9806 0.9793
4.7722 -0.7983 -1.9803 0.9793
4.8376 0.0629 -1.9801 0.9793
4.8129 0.4945 -1.9802 0.9793
4.6496 1.3428 -1.9807 0.9793
4.5123 1.7528 -1.9812 0.9793
4.3391 2.1493 -1.9818 0.9793
4.1314 2.5289 -1.9825 0.9793
3.8908 2.8887 -1.9833 0.9793
3.3183 3.5379 -1.9852 0.9793
2.9909 3.8221 -1.9863 0.9792
2.6394 4.0762 -1.9875 0.9792
1.4680 4.6389 -1.9914 0.9792
1.0488 4.7548 -1.9928 0.9792
0.6207 4.8329 -1.9942 0.9792
0.1869 4.8725 -1.9957 0.9791
-0.6834 4.8351 -1.9986 0.9791
-1.1130 4.7582 -2.0000 0.9791
-1.5344 4.6431 -2.0014 0.9791
-1.9440 4.4906 -2.0027 0.9791
-3.0700 3.8222 -2.0065 0.9790
-3.4008 3.5349 -2.0076 0.9790
-3.9789 2.8766 -2.0095 0.9790
-4.2214 2.5109 -2.0103 0.9790
-4.4302 2.1248 -2.0109 0.9790
-4.6035 1.7214 -2.0115 0.9790
-4.7398 1.3039 -2.0119 0.9790
-2.0584 0.3726 -0.8561 0.9910
-2.0154 -0.1800 -0.8281 0.9913
-4.7405 -1.3008 -2.0119 0.9790
-4.6044 -1.7184 -2.0114 0.9790
-4.4313 -2.1219 -2.0108 0.9790
-4.2228 -2.5081 -2.0101 0.9790
-3.0124 -3.4805 -2.0061 0.9801
-2.3429 -3.9562 -2.0039 0.9801
-1.9792 -4.1471 -2.0026 0.9801
-1.2087 -4.4272 -2.0001 0.9802
-0.4018 -4.5655 -1.9974 0.9802
0.0074 -4.5800 -1.9960 0.9802
0.4159 -4.5579 -1.9947 0.9802
2.3373 -3.9180 -1.9883 0.9803
2.9935 -3.4363 -1.9861 0.9803
4.0000 -2.1678 -1.9828 0.9803
4.5020 -0.6304 -1.9812 0.9804
4.5400 -0.2260 -1.9811 0.9804
4.5082 0.5849 -1.9812 0.9804
4.3336 1.3776 -1.9818 0.9804
4.0218 2.1273 -1.9829 0.9803
3.8172 2.4787 -1.9835 0.9803
3.3184 3.1205 -1.9852 0.9803
2.7134 3.6646 -1.9872 0.9803
2.3769 3.8943 -1.9884 0.9803
1.6485 4.2601 -1.9908 0.9803
0.4619 4.5536 -1.9947 0.9802
-0.3556 4.5694 -1.9975 0.9802
-0.7626 4.5225 -1.9988 0.9802
-1.1640 4.4394 -2.0001 0.9802
-1.5566 4.3205 -2.0014 0.9802
-2.3029 3.9798 -2.0039 0.9801
-2.9771 3.5108 -2.0061 0.9801
-3.2803 3.2327 -2.0071 0.9801
-3.5573 2.9283 -2.0081 0.9801
-3.8061 2.6002 -2.0089 0.9801
-4.2105 1.8832 -2.0102 0.9801
-1.4580 0.0921 -0.6367 0.9936
-1.4398 -0.0379 -0.6277 0.9937
-1.4720 -0.1711 -0.6458 0.9936
-1.4769 -0.3072 -0.6574 0.9934
-4.1047 -2.1017 -2.0098 0.9801
-3.3972 -3.1104 -2.0074 0.9801
-3.1045 -3.3995 -2.0064 0.9801
-2.7872 -3.6612 -2.0053 0.9801
-2.0893 -4.0936 -2.0030 0.9801
-1.3265 -4.3943 -2.0005 0.9802
-0.9283 -4.4922 -1.9991 0.9802
-0.5233 -4.5541 -1.9978 0.9802
-0.1146 -4.5795 -1.9964 0.9802
1.1005 -4.4372 -1.9924 0.9802
1.4912 -4.3185 -1.9911 0.9803
1.8695 -4.1655 -1.9899 0.9803
2.2325 -3.9796 -1.9887 0.9803
3.4768 -2.9406 -1.9845 0.9803
3.7239 -2.6174 -1.9837 0.9803
3.9412 -2.2738 -1.9830 0.9803
4.2803 -1.5359 -1.9819 0.9804
4.3995 -1.1475 -1.9815 0.9804
4.5325 -0.3469 -1.9811 0.9804
4.5452 0.0591 -1.9811 0.9804
4.5220 0.4646 -1.9812 0.9804
4.4630 0.8665 -1.9814 0.9804
4.3685 1.2616 -1.9817 0.9804
4.2394 1.6469 -1.9821 0.9804
3.8814 2.3758 -1.9833 0.9803
2.4793 3.8290 -1.9880 0.9803
2.1289 4.0374 -1.9892 0.9803
0.9851 4.4657 -1.9930 0.9802
-0.2337 4.5763 -1.9971 0.9802
-1.4407 4.3596 -2.0011 0.9802
-2.8821 3.5883 -2.0058 0.9801
-3.1925 3.3184 -2.0069 0.9801
-3.4776 3.0216 -2.0078 0.9801
-4.1585 1.9945 -2.0100 0.9801
-1.5094 0.5644 -0.7023 0.9930
-1.4701 0.2661 -0.6511 0.9935
-1.4669 0.1319 -0.6419 0.9936
-1.4668 -0.1310 -0.6418 0.9936
-2.5304 -3.5142 -2.0045 0.9811
-1.8631 -3.9038 -2.0023 0.9811
-1.5063 -4.0521 -2.0011 0.9811
-1.1379 -4.1679 -1.9998 0.9811
-0.7609 -4.2501 -1.9986 0.9811
0.0069 -4.3122 -1.9960 0.9812
0.7726 -4.2368 -1.9935 0.9812
2.2012 -3.6898 -1.9888 0.9812
2.5204 -3.4767 -1.9877 0.9813
3.3468 -2.6810 -1.9850 0.9813
3.5715 -2.3707 -1.9842 0.9813
3.7676 -2.0418 -1.9836 0.9813
3.9337 -1.6969 -1.9831 0.9813
4.0686 -1.3387 -1.9826 0.9813
4.1711 -0.9700 -1.9823 0.9813
4.2406 -0.5938 -1.9821 0.9813
4.2764 -0.2129 -1.9819 0.9813
4.1808 0.9279 -1.9823 0.9813
3.7881 2.0037 -1.9836 0.9813
3.3738 2.6472 -1.9850 0.9813
2.8519 3.2077 -1.9868 0.9813
1.5524 4.0116 -1.9911 0.9812
0.8154 4.2289 -1.9936 0.9812
0.4349 4.2875 -1.9948 0.9812
-0.3348 4.3021 -1.9974 0.9812
-0.7179 4.2577 -1.9987 0.9811
-1.0958 4.1792 -1.9999 0.9811
-1.4654 4.0673 -2.0011 0.9811
-2.1677 3.7462 -2.0035 0.9811
-2.4948 3.5397 -2.0045 0.9811
-2.8022 3.3045 -2.0056 0.9811
-3.5822 2.4472 -2.0081 0.9811
-1.2701 0.3133 -0.6055 0.9943
-1.2744 0.1958 -0.5968 0.9943
-1.2677 -0.2637 -0.5994 0.9943
-1.2696 -0.3851 -0.6141 0.9942
-3.8631 -1.9780 -2.0090 0.9811
-3.6700 -2.3142 -2.0083 0.9811
-3.1975 -2.9275 -2.0067 0.9811
-2.9221 -3.1998 -2.0058 0.9811
-2.6235 -3.4461 -2.0048 0.9811
-1.6140 -4.0113 -2.0014 0.9811
-0.8740 -4.2291 -1.9990 0.9811
-0.4927 -4.2875 -1.9977 0.9812
0.6596 -4.2567 -1.9939 0.9812
1.0363 -4.1782 -1.9926 0.9812
1.4042 -4.0665 -1.9914 0.9812
1.7605 -3.9226 -1.9902 0.9812
2.1024 -3.7477 -1.9891 0.9812
2.4273 -3.5431 -1.9880 0.9812
2.7325 -3.3107 -1.9870 0.9813
4.0317 -1.4467 -1.9827 0.9813
4.2234 -0.7065 -1.9821 0.9813
4.2814 0.0557 -1.9819 0.9813
3.6558 2.2378 -1.9841 0.9813
1.6584 3.9681 -1.9908 0.9812
0.9275 4.2049 -1.9932 0.9812
0.5488 4.2736 -1.9944 0.9812
-0.2201 4.3086 -1.9970 0.9812
-0.9839 4.2062 -1.9995 0.9811
-1.7182 3.9690 -2.0020 0.9811
-2.0668 3.8020 -2.0031 0.9811
-2.3993 3.6043 -2.0042 0.9811
-2.7128 3.3775 -2.0053 0.9811
-3.5153 2.5415 -2.0079 0.9811
-3.7295 2.2183 -2.0086 0.9811
-1.2719 0.6100 -0.6529 0.9938
-1.2735 0.1145 -0.5919 0.9944
-1.2720 -0.2294 -0.5983 0.9943
-1.2707 -0.3487 -0.6099 0.9942
-1.2597 -0.4701 -0.6224 0.9941
-1.2710 -0.6086 -0.6523 0.9938
-3.7307 -2.2158 -2.0085 0.9811
-2.9414 -2.8408 -2.0059 0.9819
-2.3872 -3.3154 -2.0040 0.9820
-2.0807 -3.5135 -2.0030 0.9820
-1.0737 -3.9326 -1.9996 0.9820
-0.7180 -4.0104 -1.9985 0.9820
0.0065 -4.0692 -1.9960 0.9820
1.0824 -3.9151 -1.9925 0.9821
1.4268 -3.8006 -1.9913 0.9821
1.7593 -3.6561 -1.9902 0.9821
2.0776 -3.4826 -1.9892 0.9821
2.6611 -3.0547 -1.9872 0.9821
2.9219 -2.8038 -1.9864 0.9821
3.7135 -1.6019 -1.9838 0.9821
3.8408 -1.2638 -1.9834 0.9821
4.0033 -0.5606 -1.9828 0.9822
4.0371 -0.2010 -1.9827 0.9822
4.0087 0.5201 -1.9829 0.9822
3.7295 1.5643 -1.9838 0.9821
3.5759 1.8915 -1.9843 0.9821
3.1847 2.4988 -1.9856 0.9821
2.9501 2.7742 -1.9864 0.9821
2.4120 3.2575 -1.9882 0.9821
1.7962 3.6382 -1.9903 0.9821
1.1220 3.9040 -1.9925 0.9821
0.4104 4.0461 -1.9949 0.9820
-0.3159 4.0595 -1.9973 0.9820
-0.6774 4.0175 -1.9985 0.9820
-1.7206 3.7009 -2.0020 0.9820
-2.0452 3.5344 -2.0030 0.9820
-2.3537 3.3395 -2.0041 0.9820
-3.1585 2.6000 -2.0067 0.9819
-3.3792 2.3085 -2.0075 0.9819
-1.1000 0.4920 -0.5911 0.9946
-1.1432 0.1756 -0.5673 0.9949
-1.1383 -0.0300 -0.5586 0.9949
-1.1443 -0.1330 -0.5651 0.9949
-1.1367 -0.2364 -0.5695 0.9948
-1.1126 -0.4493 -0.5886 0.9947
-3.4620 -2.1831 -2.0076 0.9819
-3.2522 -2.4825 -2.0069 0.9819
-2.4751 -3.2512 -2.0043 0.9820
-1.8556 -3.6357 -2.0022 0.9820
-1.5228 -3.7847 -2.0011 0.9820
-1.1783 -3.9033 -2.0000 0.9820
-0.8247 -3.9905 -1.9988 0.9820
-0.4649 -4.0458 -1.9976 0.9820
-0.1019 -4.0687 -1.9964 0.9820
0.2616 -4.0591 -1.9952 0.9820
1.6616 -3.7023 -1.9906 0.9821
1.9844 -3.5372 -1.9895 0.9821
2.2910 -3.3443 -1.9885 0.9821
3.6697 -1.7003 -1.9839 0.9821
3.8060 -1.3657 -1.9835 0.9821
3.9120 -1.0203 -1.9831 0.9821
3.9870 -0.6670 -1.9829 0.9822
4.0417 0.0526 -1.9827 0.9822
4.0211 0.4131 -1.9828 0.9822
3.9685 0.7705 -1.9830 0.9822
3.8845 1.1218 -1.9833 0.9821
3.7696 1.4643 -1.9837 0.9821
3.6247 1.7954 -1.9842 0.9821
3.4510 2.1124 -1.9847 0.9821
3.2498 2.4128 -1.9854 0.9821
3.0226 2.6943 -1.9862 0.9821
2.2038 3.4035 -1.9889 0.9821
1.8922 3.5885 -1.9900 0.9821
0.8753 3.9683 -1.9934 0.9821
-0.5701 4.0334 -1.9982 0.9820
-0.9284 3.9688 -1.9993 0.9820
-1.6211 3.7448 -2.0016 0.9820
-2.5593 3.1864 -2.0047 0.9820
-2.8348 2.9466 -2.0057 0.9819
-3.3162 2.3975 -2.0072 0.9819
-3.5181 2.0926 -2.0079 0.9819
-1.1406 0.2065 -0.5686 0.9948
-1.1441 -0.1022 -0.5634 0.9949
-1.1407 -0.2057 -0.5686 0.9948
-1.1326 -0.3108 -0.5761 0.9948
-1.1197 -0.4179 -0.5863 0.9947
-1.0893 -0.5216 -0.5924 0.9946
-3.5192 -2.0903 -2.0078 0.9819
-2.7805 -2.6853 -2.0053 0.9827
-2.5286 -2.9216 -2.0045 0.9827
-2.2567 -3.1342 -2.0036 0.9827
-1.9670 -3.3215 -2.0026 0.9828
-1.0151 -3.7181 -1.9995 0.9828
-0.3375 -3.8350 -1.9972 0.9828
0.6894 -3.7809 -1.9938 0.9828
1.0236 -3.7022 -1.9927 0.9828
1.6638 -3.4575 -1.9906 0.9829
1.9648 -3.2935 -1.9896 0.9829
2.2499 -3.1036 -1.9886 0.9829
2.7635 -2.6518 -1.9869 0.9829
2.9880 -2.3936 -1.9862 0.9829
3.5124 -1.5151 -1.9845 0.9829
3.8186 -0.1901 -1.9835 0.9829
3.7331 0.8285 -1.9838 0.9829
3.5275 1.4796 -1.9845 0.9829
3.3822 1.7890 -1.9850 0.9829
2.7902 2.6238 -1.9870 0.9829
2.5459 2.8635 -1.9878 0.9829
2.2811 3.0807 -1.9887 0.9829
1.6987 3.4406 -1.9906 0.9829
1.3855 3.5804 -1.9916 0.9828
0.3881 3.8259 -1.9950 0.9828
0.0451 3.8474 -1.9961 0.9828
-0.2987 3.8383 -1.9973 0.9828
-0.6405 3.7985 -1.9984 0.9828
-1.3071 3.6281 -2.0006 0.9828
-1.6266 3.4988 -2.0017 0.9828
-1.9334 3.3413 -2.0027 0.9828
-2.2250 3.1569 -2.0036 0.9827
-2.9856 2.4577 -2.0061 0.9827
-0.9872 0.4415 -0.5610 0.9951
-1.0115 0.3478 -0.5549 0.9952
-1.0207 0.2517 -0.5454 0.9953
-1.0350 0.1590 -0.5432 0.9953
-1.0366 0.0655 -0.5389 0.9953
-1.0332 -0.0272 -0.5362 0.9954
-0.9990 -0.4035 -0.5590 0.9952
-2.8514 -2.6106 -2.0056 0.9827
-2.6059 -2.8535 -2.0048 0.9827
-1.4397 -3.5781 -2.0009 0.9828
-1.1140 -3.6903 -1.9998 0.9828
-0.4396 -3.8253 -1.9975 0.9828
-0.0963 -3.8470 -1.9964 0.9828
0.5886 -3.7985 -1.9941 0.9828
2.4393 -2.9554 -1.9880 0.9829
3.3145 -1.9122 -1.9851 0.9829
3.4710 -1.6083 -1.9846 0.9829
3.8034 0.3908 -1.9835 0.9829
3.6742 1.0611 -1.9840 0.9829
3.4284 1.6982 -1.9848 0.9829
3.2641 1.9980 -1.9854 0.9829
3.0737 2.2821 -1.9860 0.9829
2.3621 3.0185 -1.9884 0.9829
2.0842 3.2188 -1.9893 0.9829
1.1587 3.6616 -1.9924 0.9828
0.8277 3.7525 -1.9935 0.9828
0.4898 3.8135 -1.9946 0.9828
0.1475 3.8442 -1.9958 0.9828
-0.1963 3.8443 -1.9969 0.9828
-0.5390 3.8135 -1.9980 0.9828
-1.2098 3.6610 -2.0003 0.9828
-1.5326 3.5403 -2.0013 0.9828
-1.8435 3.3911 -2.0024 0.9828
-3.1346 2.2662 -2.0066 0.9827
-1.0376 -0.0927 -0.5404 0.9953
-1.0318 -0.1861 -0.5439 0.9953
-1.0193 -0.2797 -0.5484 0.9952
-1.0060 -0.3755 -0.5571 0.9952
-0.9602 -0.5703 -0.5794 0.9950
-2.6330 -2.5429 -2.0049 0.9834
-2.3946 -2.7667 -2.0041 0.9835
-2.1371 -2.9681 -2.0032 0.9835
-1.5739 -3.2977 -2.0013 0.9835
-0.6429 -3.5913 -1.9982 0.9835
-0.3196 -3.6324 -1.9971 0.9835
0.0059 -3.6444 -1.9961 0.9835
0.3310 -3.6274 -1.9950 0.9835
0.6531 -3.5814 -1.9939 0.9835
0.9696 -3.5070 -1.9929 0.9835
1.8613 -3.1202 -1.9899 0.9836
2.6182 -2.5124 -1.9874 0.9836
3.0212 -2.0054 -1.9861 0.9836
1.8715 -0.6158 -1.0791 0.9911
1.8865 -0.4387 -1.0608 0.9912
1.8888 0.2450 -1.0432 0.9914
1.8864 0.4187 -1.0583 0.9912
3.3423 1.4019 -1.9851 0.9836
3.2046 1.6950 -1.9856 0.9836
2.8538 2.2392 -1.9867 0.9836
2.4120 2.7129 -1.9882 0.9836
2.1611 2.9186 -1.9891 0.9836
1.8928 3.1013 -1.9900 0.9836
0.3676 3.6239 -1.9950 0.9835
-0.2829 3.6355 -1.9972 0.9835
-0.6066 3.5977 -1.9983 0.9835
-0.9258 3.5310 -1.9993 0.9835
-1.2380 3.4361 -2.0004 0.9835
-1.5405 3.3135 -2.0014 0.9835
-2.6072 2.5694 -2.0049 0.9834
-0.8748 0.4893 -0.5490 0.9954
-0.8996 0.4024 -0.5398 0.9955
-0.9166 0.3152 -0.5308 0.9956
-0.9299 0.2293 -0.5245 0.9956
-0.9445 0.1451 -0.5234 0.9957
-0.9221 -0.2797 -0.5277 0.9956
-0.9072 -0.3664 -0.5359 0.9955
-0.8861 -0.4537 -0.5453 0.9955
-2.7001 -2.4722 -2.0051 0.9834
-2.4677 -2.7022 -2.0043 0.9834
-2.2157 -2.9105 -2.0035 0.9835
-1.9462 -3.0953 -2.0026 0.9835
-1.0550 -3.4951 -1.9996 0.9835
-0.0912 -3.6439 -1.9964 0.9835
1.1872 -3.4381 -1.9921 0.9835
1.4886 -3.3167 -1.9911 0.9836
1.7778 -3.1691 -1.9902 0.9836
2.3109 -2.8000 -1.9884 0.9836
3.1403 -1.8117 -1.9857 0.9836
3.2887 -1.5238 -1.9852 0.9836
3.4109 -1.2239 -1.9848 0.9836
1.8865 -0.3156 -1.0476 0.9913
1.8876 -0.1444 -1.0369 0.9914
2.9121 2.1621 -1.9865 0.9836
2.7085 2.4143 -1.9872 0.9836
2.4831 2.6474 -1.9880 0.9836
2.2378 2.8597 -1.9888 0.9836
1.4022 3.3550 -1.9916 0.9836
1.0976 3.4686 -1.9926 0.9835
0.1397 3.6412 -1.9958 0.9835
-0.5105 3.6120 -1.9979 0.9835
-1.1458 3.4673 -2.0001 0.9835
-2.0264 3.0442 -2.0030 0.9835
-2.2911 2.8525 -2.0038 0.9835
-2.9682 2.1459 -2.0061 0.9834
-0.8656 0.5149 -0.5516 0.9954
-0.8932 0.4284 -0.5426 0.9955
-0.9116 0.3409 -0.5330 0.9956
-0.9415 0.1704 -0.5240 0.9956
-0.9408 0.0003 -0.5153 0.9957
-0.9474 -0.0846 -0.5209 0.9957
-0.9416 -0.1698 -0.5240 0.9956
-0.9117 -0.3403 -0.5330 0.9956
-0.8934 -0.4278 -0.5425 0.9955
-0.8658 -0.5143 -0.5516 0.9954
-2.4972 -2.4118 -2.0044 0.9841
-2.2711 -2.6241 -2.0037 0.9841
-2.0270 -2.8152 -2.0028 0.9841
-1.7669 -2.9836 -2.0020 0.9841
-1.4928 -3.1279 -2.0011 0.9841
-0.6099 -3.4067 -1.9981 0.9841
-0.3032 -3.4457 -1.9971 0.9842
0.0056 -3.4573 -1.9961 0.9842
0.3140 -3.4412 -1.9950 0.9842
0.6196 -3.3977 -1.9940 0.9842
0.9199 -3.3272 -1.9930 0.9842
1.4954 -3.1076 -1.9911 0.9842
1.7661 -2.9604 -1.9902 0.9842
2.0224 -2.7898 -1.9894 0.9842
2.2624 -2.5971 -1.9886 0.9842
2.6863 -2.1519 -1.9872 0.9842
2.8668 -1.9030 -1.9866 0.9842
3.1579 -1.3622 -1.9856 0.9842
1.7151 -0.5643 -1.0425 0.9917
1.7325 -0.4029 -1.0269 0.9918
1.7414 -0.2438 -1.0152 0.9919
1.7347 0.0688 -1.0023 0.9920
1.7328 0.3846 -1.0247 0.9918
1.8318 0.7684 -1.1469 0.9909
3.0408 1.6084 -1.9861 0.9842
2.8859 1.8739 -1.9866 0.9842
2.5083 2.3587 -1.9879 0.9842
1.2452 3.2179 -1.9921 0.9842
0.9535 3.3178 -1.9931 0.9842
0.6539 3.3914 -1.9941 0.9842
0.0405 3.4571 -1.9961 0.9842
-0.2684 3.4487 -1.9971 0.9841
-0.8782 3.3494 -1.9992 0.9841
-1.1743 3.2593 -2.0001 0.9841
-1.7367 3.0013 -2.0020 0.9841
-1.9985 2.8356 -2.0029 0.9841
-2.6814 2.2072 -2.0051 0.9841
-0.8612 0.2961 -0.5258 0.9958
-0.8718 0.2150 -0.5184 0.9959
-0.8799 -0.0232 -0.5082 0.9959
-0.8764 -0.1823 -0.5168 0.9959
-0.8651 -0.2624 -0.5219 0.9958
-0.8530 -0.3445 -0.5312 0.9958
-0.8324 -0.4262 -0.5399 0.9957
-2.3405 -2.5629 -2.0039 0.9841
-2.1015 -2.7605 -2.0031 0.9841
-1.8460 -2.9358 -2.0022 0.9841
-1.2933 -3.2143 -2.0004 0.9841
-0.7005 -3.3897 -1.9984 0.9841
-0.3949 -3.4370 -1.9974 0.9841
-0.0865 -3.4567 -1.9964 0.9842
0.2222 -3.4489 -1.9953 0.9842
0.5289 -3.4135 -1.9943 0.9842
0.8311 -3.3510 -1.9933 0.9842
1.4123 -3.1468 -1.9914 0.9842
1.6868 -3.0068 -1.9905 0.9842
1.9476 -2.8430 -1.9896 0.9842
2.1927 -2.6567 -1.9888 0.9842
2.4202 -2.4495 -1.9881 0.9842
1.7304 -0.4513 -1.0325 0.9918
1.7415 0.1789 -1.0107 0.9919
1.7344 0.6738 -1.0743 0.9914
3.0824 1.5268 -1.9860 0.9842
2.9345 1.7963 -1.9865 0.9842
2.5700 2.2908 -1.9877 0.9842
2.3561 2.5120 -1.9884 0.9842
2.1233 2.7133 -1.9892 0.9842
1.8734 2.8932 -1.9900 0.9842
1.6084 3.0503 -1.9909 0.9842
1.3303 3.1831 -1.9918 0.9842
1.0414 3.2908 -1.9928 0.9842
0.7439 3.3722 -1.9938 0.9842
0.4401 3.4269 -1.9948 0.9842
0.1325 3.4543 -1.9958 0.9842
-0.4843 3.4263 -1.9979 0.9841
-0.7886 3.3711 -1.9989 0.9841
-1.0869 3.2889 -1.9999 0.9841
-1.3768 3.1803 -2.0008 0.9841
-2.1730 2.7054 -2.0035 0.9841
-2.6214 2.2776 -2.0049 0.9841
-0.8014 0.5794 -0.5710 0.9954
-0.8125 0.4833 -0.5458 0.9956
-0.8393 0.4025 -0.5374 0.9957
-0.8788 0.1591 -0.5156 0.9959
-0.8789 -0.1585 -0.5156 0.9959
-0.8576 -0.3201 -0.5285 0.9958
-0.8394 -0.4020 -0.5373 0.9957
-0.8127 -0.4827 -0.5458 0.9956
