ply
format ascii 1.0
element vertex 1255
property float32 x
property float32 y
property float32 z
property float32 I
end_header
9.5839 -13.4879 2.9175 0.9350
2.0869 9.8461 1.7747 0.9599
-5.1885 -11.8652 2.2835 0.9488
10.2053 -13.2527 2.9494 0.9343
-9.7005 -13.3397 2.5268 0.9354
-2.6672 17.9773 2.7842 0.9291
-16.9373 9.9954 3.0128 0.9235
-9.6974 -13.3354 2.1472 0.9357
9.5629 -13.4584 1.7729 0.9357
6.6931 16.4259 1.9047 0.9311
2.0707 9.7697 1.0724 0.9606
-16.9462 10.0006 2.1130 0.9239
-5.1869 -11.8615 1.3902 0.9493
10.2201 -13.2719 1.7987 0.9348
9.5560 -13.4486 1.3966 0.9359
6.7139 16.4768 1.5062 0.9311
2.0709 9.7705 0.8455 0.9607
-16.9506 10.0032 1.6661 0.9240
10.2249 -13.2783 1.4187 0.9349
-9.6882 -13.3227 1.0215 0.9361
2.0710 9.7712 0.6194 0.9608
-16.9550 10.0058 1.2208 0.9241
-5.1859 -11.8592 0.8026 0.9494
-9.6851 -13.3185 0.6493 0.9362
9.5423 -13.4293 0.6496 0.9362
10.2347 -13.2909 0.6615 0.9351
-9.6821 -13.3143 0.2781 0.9363
9.5364 -13.4211 0.2781 0.9363
2.0713 9.7728 0.1687 0.9608
10.2395 -13.2972 0.2835 0.9351
-9.6790 -13.3101 -0.0927 0.9363
9.5393 -13.4252 -0.0927 0.9362
-5.1846 -11.8562 -0.0729 0.9496
10.2444 -13.3035 -0.0945 0.9350
-9.6760 -13.3060 -0.4633 0.9363
9.5423 -13.4294 -0.4639 0.9362
9.8903 2.9891 -0.2909 0.9595
10.2493 -13.3098 -0.4730 0.9350
-9.6730 -13.3018 -0.8341 0.9363
9.6375 2.9127 -0.5106 0.9605
8.4687 3.4074 -0.4629 0.9641
13.8881 8.7189 -0.8316 0.9364
4.2684 8.2800 -0.4724 0.9634
-16.2767 10.4691 -1.4190 0.9253
-17.1372 8.9772 -1.4185 0.9253
-10.9767 -12.5714 -1.2237 0.9353
-2.1783 -11.7337 -0.8750 0.9533
8.3748 3.3696 -0.6619 0.9644
-1.6408 6.8130 -0.5138 0.9723
-5.8701 13.3452 -1.0690 0.9432
-7.3649 9.0795 -0.8572 0.9542
-16.2793 9.6071 -1.3860 0.9270
-10.0460 -14.9941 -1.3233 0.9302
-5.1833 -11.8533 -0.9486 0.9494
-11.1167 14.8355 -1.7798 0.9282
-14.4470 11.2266 -1.7565 0.9291
-15.3417 9.8677 -1.7512 0.9293
-16.1161 8.4423 -1.7467 0.9295
-19.1397 4.1882 -1.8810 0.9243
-19.5416 -1.0109 -1.8786 0.9244
-19.3839 -2.7459 -1.8795 0.9243
-19.0811 -4.4628 -1.8813 0.9243
-16.4433 -10.9125 -1.8946 0.9238
-14.2917 -11.4380 -1.7574 0.9291
-13.2637 -12.7073 -1.7635 0.9288
-10.9767 -12.5713 -1.6022 0.9351
-9.1206 -12.5422 -1.4888 0.9396
-8.1381 -16.8184 -1.7937 0.9277
-5.0810 -18.1752 -1.8118 0.9270
-1.8002 -18.9888 -1.8312 0.9262
3.3298 -19.1016 -1.8615 0.9250
6.7327 -18.4063 -1.8816 0.9243
8.3860 -17.8269 -1.8914 0.9239
8.9298 -12.5674 -1.4801 0.9399
8.9538 2.7060 -0.8980 0.9631
8.2655 3.3256 -0.8553 0.9648
7.9757 4.0671 -0.8595 0.9647
13.8841 8.7164 -1.5738 0.9362
11.3052 8.5879 -1.3630 0.9445
4.2892 8.3205 -0.8987 0.9631
7.4791 18.3548 -1.9028 0.9234
2.3362 19.4041 -1.8763 0.9245
-0.8953 6.0347 -0.5857 0.9758
-7.5894 17.2537 -1.8096 0.9271
-9.0347 16.4037 -1.7979 0.9275
-10.3900 15.4350 -1.7863 0.9280
-7.1445 8.8077 -1.0888 0.9555
-16.4122 7.8089 -1.7449 0.9296
-18.9166 5.1545 -1.8823 0.9242
-19.2781 3.4481 -1.8802 0.9243
-19.5662 -0.0212 -1.8785 0.9244
-19.4914 -1.7613 -1.8789 0.9244
-19.2709 -3.4899 -1.8802 0.9243
-13.8616 -11.9961 -1.7599 0.9290
-8.7183 -13.0123 -1.5037 0.9390
-5.9762 -17.8427 -1.8065 0.9272
-4.3887 -18.3984 -1.8159 0.9268
-1.0717 -19.0886 -1.8355 0.9261
0.6333 -19.2132 -1.8456 0.9257
4.0710 -19.0041 -1.8659 0.9249
7.4518 -18.1750 -1.8859 0.9241
8.7791 -13.7822 -1.5688 0.9364
9.6482 -12.5293 -1.5182 0.9384
-7.9500 12.8501 -1.7949 0.9409
-9.0289 12.0494 -1.7885 0.9412
-10.9505 10.1943 -1.7772 0.9415
-12.5175 8.0512 -1.7679 0.9418
-15.9712 -0.8262 -1.8997 0.9376
-15.8409 -2.2440 -1.9005 0.9376
-15.5907 -3.6465 -1.9019 0.9375
-15.2221 -5.0241 -1.9041 0.9375
-11.6606 -11.1715 -1.9182 0.9370
-9.8751 -11.3098 -1.7835 0.9413
-8.8601 -12.1839 -1.7895 0.9411
-7.7694 -12.9700 -1.7959 0.9409
-6.6105 -13.6614 -1.8028 0.9407
1.2994 -15.5158 -1.8495 0.9392
2.6858 -15.4067 -1.8577 0.9389
4.0628 -15.1730 -1.8658 0.9387
5.4190 -14.8150 -1.8739 0.9384
6.7430 -14.3341 -1.8817 0.9382
8.8490 -12.4536 -1.8147 0.9403
10.4056 -12.1846 -1.9033 0.9375
14.4801 -9.8401 -2.0796 0.9319
17.1305 -4.2053 -2.0953 0.9314
17.6293 -1.1060 -2.0982 0.9313
17.2791 3.5829 -2.0962 0.9314
11.3033 8.5864 -1.6861 0.9444
9.7282 12.6901 -1.8994 0.9376
8.5294 13.4545 -1.8923 0.9378
5.9725 14.6574 -1.8801 0.9382
-0.8855 5.9682 -0.7167 0.9760
-1.4401 5.9800 -0.7307 0.9755
-2.0288 6.0139 -0.7539 0.9748
-7.3054 13.2638 -1.7987 0.9408
-12.1107 8.6858 -1.7703 0.9417
-13.0489 7.7007 -1.7998 0.9408
-15.4549 4.2112 -1.9028 0.9375
-15.9327 1.4050 -1.8999 0.9376
-15.7475 -2.8519 -1.9010 0.9376
-15.4460 -4.2448 -1.9028 0.9375
-15.0269 -5.6087 -1.9053 0.9374
-14.4926 -6.9341 -1.9084 0.9373
-12.2333 -10.5870 -1.9218 0.9369
-9.4466 -11.6975 -1.7860 0.9412
-8.3981 -12.5344 -1.7922 0.9410
-5.1427 -11.7604 -1.5247 0.9496
-0.8668 -15.4380 -1.8367 0.9396
0.5117 -15.5225 -1.8449 0.9394
1.8983 -15.4839 -1.8530 0.9391
5.9952 -14.6224 -1.8773 0.9383
7.3016 -14.0891 -1.8850 0.9381
8.5591 -13.4368 -1.8924 0.9378
9.5609 -12.4159 -1.8614 0.9388
12.3682 -11.2144 -1.9832 0.9350
-7.6051 10.1491 -1.7970 0.9501
-8.4537 9.4064 -1.7919 0.9502
-9.9448 7.7279 -1.7845 0.9504
-12.5159 5.1961 -1.9201 0.9467
-13.5011 0.5045 -1.9143 0.9469
-13.3819 -1.8956 -1.9150 0.9469
-12.8553 -4.2429 -1.9181 0.9468
-11.9342 -6.4712 -1.9235 0.9466
-11.3324 -7.5206 -1.9271 0.9465
-10.6412 -8.5165 -1.9312 0.9464
-9.0092 -10.3180 -1.9408 0.9462
-4.5322 -11.9816 -1.8151 0.9496
-2.1796 -11.7404 -1.6920 0.9529
-1.2221 -12.8904 -1.8346 0.9490
3.3989 -12.6937 -1.8619 0.9483
7.9691 -11.2154 -1.9494 0.9459
9.3756 -10.9784 -2.0456 0.9433
10.3636 -10.1492 -2.0553 0.9431
12.0559 -8.1927 -2.0653 0.9428
13.3664 -5.9499 -2.0730 0.9426
14.5100 -2.2181 -2.0798 0.9424
14.6559 -0.9194 -2.0807 0.9424
14.3671 2.9791 -2.0790 0.9424
8.5758 2.5918 -1.2694 0.9645
8.2120 3.3041 -1.2542 0.9649
7.9619 4.0601 -1.2663 0.9645
12.2656 7.7003 -2.0520 0.9432
10.7070 8.1335 -1.9051 0.9471
8.1148 10.5854 -1.8898 0.9475
7.1192 11.2299 -1.8840 0.9477
4.2892 8.3204 -1.3263 0.9629
2.7504 8.9582 -1.3278 0.9628
1.8996 8.9625 -1.2981 0.9637
1.2566 10.4368 -1.4895 0.9584
0.2047 6.6468 -0.9422 0.9735
-0.3455 5.9252 -0.8410 0.9763
-0.8784 5.9207 -0.8481 0.9761
-1.4291 5.9344 -0.8649 0.9756
-2.0135 5.9687 -0.8925 0.9749
-2.6201 5.9565 -0.9220 0.9741
-7.1451 8.8085 -1.6071 0.9552
-10.7394 7.7023 -1.8726 0.9480
-12.2472 5.8272 -1.9217 0.9467
-13.0533 3.5569 -1.9169 0.9468
-13.3074 2.3802 -1.9154 0.9469
-13.5101 -0.0146 -1.9142 0.9469
-13.4575 -1.2161 -1.9145 0.9469
-13.3024 -2.4090 -1.9155 0.9468
-13.0458 -3.5852 -1.9170 0.9468
-12.2349 -5.8539 -1.9218 0.9467
-11.6856 -6.9303 -1.9250 0.9466
-11.0447 -7.9576 -1.9288 0.9465
-10.3163 -8.9280 -1.9331 0.9464
-9.5051 -9.8343 -1.9379 0.9462
-8.6163 -10.6693 -1.9431 0.9461
-7.5066 -11.2039 -1.9108 0.9470
-5.1226 -11.7145 -1.8116 0.9497
-4.0745 -12.1650 -1.8178 0.9495
-1.8686 -12.7854 -1.8308 0.9491
-0.7270 -12.9484 -1.8375 0.9490
2.7468 -12.8228 -1.8581 0.9484
5.0106 -12.2208 -1.8714 0.9480
6.0983 -11.7671 -1.8779 0.9479
7.1535 -11.2302 -1.8866 0.9476
8.6292 -11.2060 -2.0040 0.9445
9.8217 -10.6438 -2.0521 0.9432
-5.7734 9.3320 -1.8078 0.9565
-6.5634 8.7590 -1.8031 0.9566
-7.2986 8.1210 -1.7988 0.9567
-9.2947 7.2228 -1.9392 0.9534
-9.8824 6.3563 -1.9357 0.9535
-10.3922 5.4439 -1.9327 0.9536
-10.8209 4.4923 -1.9301 0.9536
-11.4243 2.4999 -1.9266 0.9537
-11.5737 -1.6395 -1.9257 0.9537
-11.3885 -2.6636 -1.9268 0.9537
-10.7574 -4.6478 -1.9305 0.9536
-9.7928 -6.4989 -1.9362 0.9535
-8.5197 -8.1623 -1.9437 0.9533
-7.7777 -8.9076 -1.9481 0.9532
-3.1332 -11.2080 -1.9172 0.9539
-2.0823 -11.2163 -1.8793 0.9548
0.9400 -11.2243 -1.8556 0.9554
1.9562 -11.2216 -1.8765 0.9549
4.0995 -11.2076 -1.9660 0.9528
7.1598 -10.0764 -2.0364 0.9511
8.0481 -9.4240 -2.0416 0.9510
10.3175 -7.0113 -2.0550 0.9507
11.4329 -5.0892 -2.0616 0.9505
12.4052 -1.8963 -2.0674 0.9504
12.4681 1.4455 -2.0677 0.9504
8.6071 2.6013 -1.4813 0.9642
8.0938 3.2566 -1.4372 0.9653
8.0910 4.1259 -1.4962 0.9639
8.4916 7.7331 -1.8921 0.9545
6.9540 9.0712 -1.8830 0.9547
4.2892 8.3204 -1.5421 0.9628
4.2769 10.4961 -1.8672 0.9551
2.7504 8.9581 -1.5437 0.9627
1.9045 8.9857 -1.5132 0.9634
-1.9604 5.8112 -1.0103 0.9754
-2.5573 5.8138 -1.0463 0.9746
-5.3022 9.6269 -1.8106 0.9564
-6.1208 9.0929 -1.8057 0.9565
-6.8878 8.4912 -1.8012 0.9566
-8.8960 7.6651 -1.9345 0.9535
-10.1122 5.9676 -1.9343 0.9535
-10.5874 5.0375 -1.9315 0.9536
-11.2880 3.0758 -1.9274 0.9537
-11.5090 2.0585 -1.9261 0.9537
-11.6417 1.0266 -1.9253 0.9537
-11.6853 -0.0126 -1.9250 0.9537
-11.6395 -1.0518 -1.9253 0.9537
-11.2815 -3.1003 -1.9274 0.9537
-10.9715 -4.0950 -1.9292 0.9536
-10.5767 -5.0605 -1.9316 0.9536
-10.0995 -5.9897 -1.9344 0.9535
-9.5431 -6.8756 -1.9377 0.9534
-6.6056 -9.8590 -1.9550 0.9530
-5.7180 -10.4352 -1.9603 0.9529
-4.7741 -10.9175 -1.9630 0.9528
-3.7520 -11.2019 -1.9461 0.9532
-2.6744 -11.2119 -1.8989 0.9543
3.4693 -11.2129 -1.9336 0.9535
5.6551 -10.9121 -2.0247 0.9514
6.6308 -10.4096 -2.0332 0.9512
8.4132 -9.1174 -2.0438 0.9510
9.2118 -8.3525 -2.0485 0.9508
9.9388 -7.5160 -2.0528 0.9507
-6.9192 7.6989 -1.9456 0.9587
-7.5904 7.0662 -1.9492 0.9587
-8.1742 6.3520 -1.9458 0.9587
-9.8264 3.0878 -1.9360 0.9589
-10.0550 2.2003 -1.9347 0.9590
-10.2061 1.2969 -1.9338 0.9590
-10.2787 0.3841 -1.9333 0.9590
-10.2723 -0.5314 -1.9334 0.9590
-10.1870 -1.4430 -1.9339 0.9590
-10.0233 -2.3443 -1.9348 0.9590
-8.6138 -5.7165 -1.9432 0.9588
-8.0844 -6.4702 -1.9463 0.9587
-7.4905 -7.1763 -1.9498 0.9587
-5.3651 -8.9562 -1.9623 0.9584
-3.7121 -9.8135 -1.9721 0.9582
-2.8323 -10.1314 -1.9773 0.9581
-1.9254 -10.3711 -1.9827 0.9580
-0.0582 -10.6068 -1.9937 0.9577
2.7665 -10.3318 -2.0104 0.9574
3.6841 -10.0720 -2.0158 0.9573
5.4378 -9.3077 -2.0262 0.9571
6.2588 -8.8084 -2.0310 0.9570
7.7537 -7.5933 -2.0399 0.9568
8.4143 -6.8870 -2.0438 0.9567
9.0088 -6.1220 -2.0473 0.9566
10.6275 -2.6089 -2.0569 0.9564
10.9311 -0.6858 -2.0587 0.9564
10.8781 1.2612 -2.0583 0.9564
10.7179 2.2224 -2.0574 0.9564
8.5476 2.5833 -1.6784 0.9643
10.1379 4.0790 -2.0540 0.9565
8.5713 4.3708 -1.8084 0.9616
7.0842 7.7107 -1.9681 0.9583
6.0781 7.9287 -1.8778 0.9602
5.3366 8.4180 -1.8734 0.9602
4.2892 8.3204 -1.7595 0.9626
3.7421 9.1838 -1.8640 0.9604
2.7176 8.8512 -1.7403 0.9630
1.8842 8.8901 -1.7081 0.9637
0.7073 5.8743 -1.1121 0.9762
0.1785 5.7979 -1.0903 0.9767
-0.3377 5.7903 -1.0902 0.9767
-0.8570 5.7765 -1.0976 0.9765
-1.3881 5.7638 -1.1143 0.9762
-1.9449 5.7653 -1.1436 0.9755
-7.2197 7.4374 -1.9483 0.9587
-7.8501 6.7640 -1.9477 0.9587
-8.8958 5.2498 -1.9415 0.9588
-10.2471 0.9036 -1.9335 0.9590
-10.2451 -0.9258 -1.9335 0.9590
-9.9287 -2.7285 -1.9354 0.9590
-9.6548 -3.6036 -1.9370 0.9589
-9.3060 -4.4526 -1.9391 0.9589
-7.8357 -6.7812 -1.9478 0.9587
-7.2152 -7.4651 -1.9514 0.9586
-5.8035 -8.6619 -1.9598 0.9585
-4.1976 -9.5992 -1.9692 0.9583
-3.3360 -9.9601 -1.9743 0.9581
-1.5272 -10.4498 -1.9850 0.9579
2.2369 -10.4422 -2.0073 0.9575
4.0731 -9.9343 -2.0181 0.9572
5.7975 -9.1015 -2.0283 0.9570
6.5992 -8.5699 -2.0330 0.9569
7.3512 -7.9665 -2.0375 0.9568
8.6794 -6.5636 -2.0453 0.9567
-4.7691 7.7087 -1.9161 0.9636
-6.7663 6.2990 -1.9541 0.9629
-8.4933 3.5261 -1.9439 0.9631
-9.1058 1.1571 -1.9403 0.9632
-9.1651 -0.4741 -1.9399 0.9632
-9.0888 -1.2875 -1.9404 0.9632
-8.9423 -2.0915 -1.9412 0.9632
-8.0939 -4.3889 -1.9462 0.9631
-7.2078 -5.7686 -1.9515 0.9630
-6.6771 -6.3970 -1.9546 0.9629
-6.0925 -6.9777 -1.9581 0.9628
-5.4584 -7.5061 -1.9618 0.9628
-4.0595 -8.3895 -1.9701 0.9626
-2.5208 -9.0173 -1.9792 0.9624
-1.7131 -9.2279 -1.9839 0.9624
-0.0517 -9.4319 -1.9937 0.9622
0.7891 -9.4225 -1.9987 0.9621
2.4578 -9.1788 -2.0086 0.9619
6.2395 -7.3062 -2.0309 0.9615
6.8772 -6.7349 -2.0347 0.9614
7.4614 -6.1071 -2.0381 0.9613
7.9871 -5.4277 -2.0412 0.9613
8.4494 -4.7023 -2.0440 0.9612
9.1677 -3.1377 -2.0482 0.9612
9.4172 -2.3118 -2.0497 0.9611
9.5902 -1.4660 -2.0507 0.9611
9.7014 0.2560 -2.0514 0.9611
8.6220 2.6058 -1.9039 0.9638
8.9848 3.6150 -2.0472 0.9612
8.6186 4.3950 -2.0450 0.9612
8.1834 5.1375 -2.0424 0.9613
7.6830 5.8363 -2.0395 0.9613
7.1220 6.4858 -2.0362 0.9614
6.5055 7.0807 -2.0325 0.9615
5.8217 7.5941 -2.0227 0.9616
4.8911 7.7154 -1.9310 0.9633
1.3087 6.1744 -1.3341 0.9745
0.6865 5.7017 -1.2139 0.9768
-0.3352 5.7487 -1.2172 0.9767
-0.8520 5.7426 -1.2272 0.9765
-2.5296 5.7507 -1.3280 0.9746
-4.2514 7.7190 -1.8628 0.9646
-5.1681 7.6776 -1.9563 0.9629
-5.8400 7.1996 -1.9596 0.9628
-6.4453 6.6397 -1.9560 0.9629
-8.8627 2.4150 -1.9417 0.9631
-9.0375 1.6165 -1.9407 0.9632
-9.1770 -0.0099 -1.9398 0.9632
-9.0341 -1.6361 -1.9407 0.9632
-8.8576 -2.4342 -1.9417 0.9631
-8.6124 -3.2145 -1.9432 0.9631
-7.4841 -5.3922 -1.9498 0.9630
-6.4311 -6.6538 -1.9561 0.9629
-5.8246 -7.2125 -1.9596 0.9628
-3.7377 -8.5475 -1.9720 0.9626
-2.9697 -8.8663 -1.9765 0.9625
1.1518 -9.3953 -2.0009 0.9620
1.9876 -9.2785 -2.0058 0.9619
3.6170 -8.8219 -2.0154 0.9618
5.1454 -8.0777 -2.0245 0.9616
6.5210 -7.0668 -2.0326 0.9614
7.1363 -6.4705 -2.0362 0.9614
-5.0123 6.6890 -1.9645 0.9662
-6.5692 5.1048 -1.9553 0.9664
-7.6583 3.1794 -1.9488 0.9665
-8.2709 0.3091 -1.9452 0.9666
-8.1966 -1.1611 -1.9456 0.9666
-7.8692 -2.5972 -1.9476 0.9665
-7.6130 -3.2892 -1.9491 0.9665
-7.2973 -3.9569 -1.9509 0.9665
-6.4967 -5.1995 -1.9557 0.9664
-6.0173 -5.7649 -1.9585 0.9663
-5.4896 -6.2871 -1.9616 0.9663
-4.9173 -6.7620 -1.9650 0.9662
-4.3044 -7.1857 -1.9686 0.9662
-0.7989 -8.4266 -1.9893 0.9658
-0.0465 -8.4832 -1.9938 0.9657
3.6506 -7.7605 -2.0156 0.9654
4.3349 -7.4200 -2.0197 0.9653
4.9870 -7.0185 -2.0235 0.9652
5.6014 -6.5590 -2.0271 0.9652
6.1727 -6.0450 -2.0305 0.9651
7.1665 -4.8701 -2.0364 0.9650
7.5803 -4.2186 -2.0388 0.9650
8.2230 -2.8144 -2.0426 0.9649
8.4461 -2.0734 -2.0440 0.9649
8.6859 -0.5449 -2.0454 0.9649
8.7003 0.2296 -2.0455 0.9649
8.6440 1.0022 -2.0451 0.9649
8.5175 1.7662 -2.0444 0.9649
8.0593 3.2427 -2.0417 0.9649
7.7317 3.9427 -2.0398 0.9650
7.3422 4.6094 -2.0375 0.9650
6.8943 5.2372 -2.0348 0.9651
5.8397 6.3561 -2.0286 0.9652
5.2422 6.8383 -2.0251 0.9652
3.9211 7.6064 -2.0112 0.9654
2.3700 7.7191 -1.8977 0.9674
1.2570 5.9305 -1.4248 0.9754
0.6883 5.7168 -1.3533 0.9766
0.1769 5.7459 -1.3511 0.9767
-0.3356 5.7549 -1.3548 0.9766
-0.8537 5.7543 -1.3672 0.9764
-1.3853 5.7523 -1.3906 0.9760
-4.0413 7.3375 -1.9687 0.9662
-4.6723 6.9411 -1.9665 0.9662
-5.8081 5.9832 -1.9598 0.9663
-6.3076 5.4348 -1.9568 0.9664
-7.1522 4.2208 -1.9518 0.9665
-7.7721 2.8817 -1.9482 0.9665
-8.1472 -1.4754 -1.9459 0.9666
-7.9876 -2.1951 -1.9469 0.9665
-7.7660 -2.8986 -1.9482 0.9665
-6.7463 -4.8606 -1.9542 0.9664
-6.2959 -5.4486 -1.9569 0.9664
-5.7952 -5.9959 -1.9598 0.9663
-5.2478 -6.4982 -1.9630 0.9663
-4.6574 -6.9514 -1.9665 0.9662
-3.3655 -7.6962 -1.9742 0.9661
-2.6733 -7.9815 -1.9783 0.9660
-1.9572 -8.2051 -1.9825 0.9659
2.5266 -8.1660 -2.0090 0.9655
3.2496 -7.9259 -2.0133 0.9654
3.9496 -7.6211 -2.0174 0.9653
4.6207 -7.2540 -2.0214 0.9653
5.2572 -6.8271 -2.0251 0.9652
5.8536 -6.3436 -2.0286 0.9652
6.4047 -5.8073 -2.0319 0.9651
-4.0039 6.4718 -1.9704 0.9690
-4.5560 6.0801 -1.9672 0.9691
-5.0707 5.6421 -1.9641 0.9691
-5.9737 4.6421 -1.9588 0.9692
-6.3554 4.0878 -1.9565 0.9693
-6.9661 2.8920 -1.9529 0.9693
-7.1908 2.2596 -1.9516 0.9693
-7.4710 0.9493 -1.9499 0.9694
-7.3361 -1.7158 -1.9507 0.9693
-6.2972 -4.1791 -1.9568 0.9693
-5.9076 -4.7281 -1.9592 0.9692
-5.4710 -5.2415 -1.9617 0.9692
-4.9905 -5.7155 -1.9646 0.9691
-3.9118 -6.5302 -1.9709 0.9690
-3.3215 -6.8643 -1.9744 0.9690
-2.0608 -7.3718 -1.9819 0.9689
-1.3999 -7.5407 -1.9858 0.9688
2.0038 -7.4836 -2.0059 0.9685
2.6665 -7.2900 -2.0098 0.9684
4.5206 -6.3621 -2.0208 0.9683
5.0767 -5.9446 -2.0241 0.9682
6.0669 -4.9656 -2.0299 0.9681
7.1857 -3.1986 -2.0365 0.9680
7.4474 -2.5489 -2.0381 0.9680
7.6490 -1.8777 -2.0393 0.9680
7.7888 -1.1906 -2.0401 0.9680
7.8786 0.2079 -2.0406 0.9680
7.8278 0.9075 -2.0403 0.9680
7.7135 1.5994 -2.0396 0.9680
7.5369 2.2778 -2.0386 0.9680
7.2995 2.9370 -2.0372 0.9680
7.0034 3.5713 -2.0355 0.9680
6.6513 4.1756 -2.0334 0.9681
6.2463 4.7449 -2.0310 0.9681
5.7920 5.2746 -2.0283 0.9681
5.2923 5.7603 -2.0254 0.9682
4.7516 6.1983 -2.0222 0.9682
3.5662 6.9179 -2.0152 0.9684
2.9314 7.1942 -2.0114 0.9684
2.2728 7.4025 -2.0049 0.9685
0.1772 5.7530 -1.4903 0.9765
-0.3360 5.7612 -1.4942 0.9764
-2.5806 5.8666 -1.6594 0.9739
-3.6751 6.6726 -1.9724 0.9690
-5.2804 5.4397 -1.9629 0.9692
-5.7353 4.9418 -1.9602 0.9692
-6.5049 3.8388 -1.9556 0.9693
-6.8141 3.2421 -1.9538 0.9693
-7.0699 2.6214 -1.9523 0.9693
-7.4147 1.3262 -1.9503 0.9694
-7.5013 0.6615 -1.9497 0.9694
-7.5297 -0.0081 -1.9496 0.9694
-6.8071 -3.2569 -1.9538 0.9693
-5.7247 -4.9543 -1.9602 0.9692
-4.7703 -5.9069 -1.9659 0.9691
-4.2330 -6.3179 -1.9690 0.9691
-3.6607 -6.6807 -1.9724 0.9690
-1.7775 -7.4518 -1.9835 0.9688
-1.1101 -7.5954 -1.9875 0.9688
-0.4312 -7.6795 -1.9915 0.9687
0.2539 -7.7031 -1.9956 0.9687
2.9471 -7.1880 -2.0115 0.9684
4.7652 -6.1881 -2.0222 0.9682
6.2567 -4.7315 -2.0310 0.9681
-4.1717 5.5673 -1.9694 0.9715
-4.6436 5.1669 -1.9666 0.9715
-6.1263 3.2092 -1.9579 0.9717
-6.5887 2.0704 -1.9551 0.9717
-6.7436 1.4757 -1.9542 0.9717
-6.8951 0.2577 -1.9533 0.9717
-6.8330 -0.9679 -1.9537 0.9717
-6.3446 -2.7412 -1.9566 0.9717
-6.0805 -3.2971 -1.9581 0.9717
-5.4112 -4.3308 -1.9621 0.9716
-4.0924 -5.6277 -1.9699 0.9715
-3.5813 -5.9785 -1.9729 0.9714
-1.8858 -6.7458 -1.9829 0.9713
-1.2808 -6.8992 -1.9865 0.9713
-0.6635 -6.9986 -1.9901 0.9712
-0.0386 -7.0429 -1.9938 0.9711
3.0252 -6.4309 -2.0119 0.9709
5.9283 -4.0286 -2.0291 0.9706
6.7986 -2.3269 -2.0342 0.9706
7.1451 0.8284 -2.0363 0.9705
7.0411 1.4600 -2.0357 0.9705
6.8801 2.0793 -2.0347 0.9706
6.3940 3.2606 -2.0319 0.9706
5.7039 4.3329 -2.0278 0.9707
5.2896 4.8171 -2.0253 0.9707
4.3406 5.6622 -2.0197 0.9708
2.6791 6.5750 -2.0099 0.9709
1.2697 5.9905 -1.7335 0.9749
0.1773 5.7570 -1.6305 0.9763
-0.3358 5.7580 -1.6328 0.9763
-0.8551 5.7633 -1.6494 0.9761
-3.8881 5.7760 -1.9711 0.9715
-4.8360 4.9818 -1.9655 0.9715
-5.6285 4.0368 -1.9608 0.9716
-5.9592 3.5168 -1.9589 0.9716
-6.4777 2.4018 -1.9558 0.9717
-6.8998 -0.0075 -1.9533 0.9717
-6.8724 -0.6210 -1.9535 0.9717
-6.7916 -1.2300 -1.9539 0.9717
-6.6580 -1.8297 -1.9547 0.9717
-6.4726 -2.4158 -1.9558 0.9717
-6.2366 -2.9839 -1.9572 0.9717
-5.9516 -3.5297 -1.9589 0.9716
-4.3682 -5.4090 -1.9682 0.9715
-3.8757 -5.7846 -1.9712 0.9715
-2.7987 -6.4002 -1.9775 0.9714
-2.2224 -6.6351 -1.9809 0.9713
-1.0156 -6.9488 -1.9881 0.9712
-0.3944 -7.0245 -1.9917 0.9712
0.2322 -7.0448 -1.9954 0.9711
1.4819 -6.9178 -2.0028 0.9710
2.6934 -6.5693 -2.0100 0.9709
3.8272 -6.0083 -2.0167 0.9708
4.3530 -5.6529 -2.0198 0.9708
4.8454 -5.2510 -2.0227 0.9707
5.7133 -4.3206 -2.0278 0.9707
-4.6794 4.3562 -1.9664 0.9736
-5.8833 2.4425 -1.9593 0.9737
-6.3111 0.8020 -1.9568 0.9737
-6.3526 -0.3286 -1.9565 0.9737
-5.6045 -3.0390 -1.9609 0.9737
-5.3167 -3.5284 -1.9626 0.9736
-4.9868 -3.9911 -1.9646 0.9736
-3.2990 -5.5072 -1.9746 0.9735
-2.2782 -6.0228 -1.9806 0.9734
-1.7365 -6.2115 -1.9838 0.9734
-0.6108 -6.4424 -1.9904 0.9733
3.3023 -5.6526 -2.0136 0.9730
4.6963 -4.5992 -2.0218 0.9729
5.0926 -4.1682 -2.0241 0.9728
5.7616 -3.2065 -2.0281 0.9728
6.0286 -2.6835 -2.0297 0.9728
6.4159 -1.5750 -2.0320 0.9727
6.4698 1.3416 -2.0323 0.9727
5.8761 2.9965 -2.0288 0.9728
5.5816 3.5041 -2.0271 0.9728
4.8624 4.4281 -2.0228 0.9729
4.4440 4.8370 -2.0203 0.9729
3.5073 5.5325 -2.0148 0.9730
2.9970 5.8137 -2.0118 0.9730
1.9137 6.2328 -2.0054 0.9731
0.1778 5.7734 -1.7766 0.9761
-0.3368 5.7762 -1.7796 0.9761
-0.9488 6.3950 -1.9885 0.9733
-1.5111 6.2748 -1.9852 0.9734
-2.0597 6.1055 -1.9819 0.9734
-2.5903 5.8889 -1.9788 0.9734
-3.0990 5.6267 -1.9758 0.9735
-3.5819 5.3211 -1.9729 0.9735
-4.4561 4.5904 -1.9677 0.9736
-5.1873 3.7203 -1.9634 0.9736
-5.7544 2.7380 -1.9601 0.9737
-5.9712 2.2140 -1.9588 0.9737
-6.2634 1.1203 -1.9571 0.9737
-6.3368 0.5588 -1.9566 0.9737
-6.3609 -0.0069 -1.9565 0.9737
-6.3356 -0.5725 -1.9566 0.9737
-4.8320 -4.1817 -1.9655 0.9736
-4.4462 -4.6002 -1.9678 0.9736
-4.0246 -4.9836 -1.9703 0.9735
-3.5704 -5.3290 -1.9730 0.9735
-2.0465 -6.1101 -1.9820 0.9734
0.2137 -6.4836 -1.9953 0.9732
1.9272 -6.2287 -2.0054 0.9731
2.4774 -6.0425 -2.0087 0.9730
4.4546 -4.8274 -2.0204 0.9729
-3.5594 4.7501 -1.9730 0.9753
-4.6713 3.6300 -1.9665 0.9754
-4.9711 3.1974 -1.9647 0.9754
-5.2316 2.7405 -1.9632 0.9754
-5.7602 1.2605 -1.9600 0.9755
-5.8901 0.2201 -1.9593 0.9755
-5.8369 -0.8268 -1.9596 0.9755
-5.7419 -1.3429 -1.9601 0.9755
-4.9254 -3.2687 -1.9650 0.9754
-4.6195 -3.6971 -1.9668 0.9754
-3.8999 -4.4665 -1.9710 0.9753
-3.4916 -4.8015 -1.9734 0.9753
-2.1091 -5.5758 -1.9816 0.9752
-1.6074 -5.7498 -1.9846 0.9751
-1.0914 -5.8790 -1.9876 0.9751
-0.5652 -5.9621 -1.9907 0.9751
-0.0329 -5.9982 -1.9939 0.9750
2.5730 -5.4696 -2.0093 0.9748
3.5108 -4.9409 -2.0148 0.9748
3.9412 -4.6150 -2.0173 0.9747
4.7069 -3.8525 -2.0219 0.9747
5.0357 -3.4220 -2.0238 0.9747
5.3245 -2.9632 -2.0255 0.9746
6.0361 -0.9227 -2.0297 0.9746
6.1053 0.1611 -2.0301 0.9746
6.0661 0.7033 -2.0299 0.9746
5.6586 2.2768 -2.0275 0.9746
5.4302 2.7691 -2.0262 0.9746
4.8455 3.6809 -2.0227 0.9747
4.4944 4.0930 -2.0206 0.9747
0.1847 5.9994 -1.9952 0.9750
-1.3987 5.8080 -1.9858 0.9751
-1.9067 5.6521 -1.9828 0.9752
-2.8695 5.2100 -1.9771 0.9752
-4.4842 3.8638 -1.9676 0.9754
-5.0885 3.0029 -1.9640 0.9754
-5.3314 2.5367 -1.9626 0.9754
-5.5325 2.0513 -1.9614 0.9754
-5.6903 1.5505 -1.9604 0.9754
-5.8036 1.0381 -1.9598 0.9755
-5.8717 0.5178 -1.9594 0.9755
-5.8941 -0.0064 -1.9592 0.9755
-5.8706 -0.5305 -1.9594 0.9755
-5.8014 -1.0506 -1.9598 0.9755
-5.6870 -1.5629 -1.9605 0.9754
-5.5281 -2.0633 -1.9614 0.9754
-5.3260 -2.5483 -1.9626 0.9754
-5.0820 -3.0140 -1.9640 0.9754
-4.7980 -3.4569 -1.9657 0.9754
-4.4759 -3.8735 -1.9676 0.9754
-4.1182 -4.2608 -1.9697 0.9753
-3.7274 -4.6155 -1.9720 0.9753
-2.8583 -5.2163 -1.9772 0.9752
-2.3865 -5.4575 -1.9800 0.9752
-1.8945 -5.6563 -1.9829 0.9752
-1.3862 -5.8112 -1.9859 0.9751
-0.8653 -5.9206 -1.9889 0.9751
-0.3359 -5.9834 -1.9921 0.9751
0.1978 -5.9991 -1.9952 0.9750
0.7316 -5.9672 -1.9984 0.9750
1.2612 -5.8877 -2.0015 0.9749
2.7830 -5.3700 -2.0105 0.9748
3.2540 -5.1084 -2.0133 0.9748
3.7002 -4.8051 -2.0159 0.9748
4.1178 -4.4625 -2.0184 0.9747
4.8536 -3.6704 -2.0227 0.9747
-3.3110 4.4186 -1.9745 0.9768
-3.6866 4.1021 -1.9723 0.9768
-4.3463 3.3775 -1.9684 0.9769
-5.0726 2.1059 -1.9641 0.9769
-5.2371 1.6457 -1.9631 0.9769
-5.4321 -0.7695 -1.9620 0.9770
-5.3436 -1.2498 -1.9625 0.9770
-5.0423 -2.1785 -1.9643 0.9769
-4.8317 -2.6199 -1.9655 0.9769
-3.6281 -4.1551 -1.9726 0.9768
-2.8413 -4.7432 -1.9773 0.9768
-2.4114 -4.9835 -1.9798 0.9768
-1.4946 -5.3464 -1.9852 0.9767
-1.0147 -5.4659 -1.9881 0.9767
-0.5255 -5.5426 -1.9910 0.9766
-0.0306 -5.5755 -1.9939 0.9766
0.4660 -5.5643 -1.9968 0.9766
0.9603 -5.5089 -1.9997 0.9765
1.4485 -5.4095 -2.0026 0.9765
2.3904 -5.0814 -2.0082 0.9764
2.8365 -4.8551 -2.0108 0.9764
4.3709 -3.5775 -2.0199 0.9763
4.6759 -3.1775 -2.0217 0.9763
5.1723 -2.3024 -2.0246 0.9762
5.6036 -0.8566 -2.0272 0.9762
4.7897 3.0069 -2.0224 0.9763
4.4995 3.4180 -2.0207 0.9763
4.1738 3.8009 -2.0187 0.9763
3.0123 4.7516 -2.0119 0.9764
2.1174 5.1963 -2.0066 0.9764
1.1602 5.4738 -2.0009 0.9765
-0.3243 5.5614 -1.9922 0.9766
-1.3005 5.4003 -1.9864 0.9767
-2.2303 5.0705 -1.9809 0.9767
-2.6689 4.8457 -1.9783 0.9768
-3.0853 4.5835 -1.9758 0.9768
-4.1721 3.5949 -1.9694 0.9769
-4.4712 3.2068 -1.9677 0.9769
-4.9612 2.3606 -1.9648 0.9769
-5.1486 1.9090 -1.9636 0.9769
-5.4012 0.9661 -1.9622 0.9770
-5.2925 -1.4544 -1.9628 0.9770
-4.9562 -2.3713 -1.9648 0.9769
-4.1644 -3.6039 -1.9695 0.9769
-3.4674 -4.2935 -1.9736 0.9768
-1.2889 -5.4032 -1.9864 0.9767
-0.3123 -5.5622 -1.9922 0.9766
1.1720 -5.4713 -2.0010 0.9765
2.1287 -5.1918 -2.0066 0.9764
3.0226 -4.7451 -2.0119 0.9764
3.4367 -4.4630 -2.0144 0.9764
-3.0917 4.1260 -1.9758 0.9782
-3.4427 3.8307 -1.9737 0.9782
-3.7661 3.5060 -1.9718 0.9782
-4.3204 2.7788 -1.9685 0.9782
-4.5472 2.3821 -1.9672 0.9783
-4.8922 1.5373 -1.9652 0.9783
-5.0078 1.0958 -1.9645 0.9783
-2.3017 0.2925 -0.8892 0.9901
-5.0746 -0.7188 -1.9641 0.9783
-4.5131 -2.4472 -1.9674 0.9782
-3.7160 -3.5601 -1.9721 0.9782
-2.2513 -4.6527 -1.9808 0.9781
-1.8310 -4.8405 -1.9832 0.9781
-0.9471 -5.1017 -1.9885 0.9780
-0.0285 -5.2029 -1.9939 0.9780
0.4348 -5.1920 -1.9966 0.9779
0.8960 -5.1397 -1.9994 0.9779
1.3513 -5.0465 -2.0020 0.9779
1.7970 -4.9128 -2.0047 0.9778
2.6454 -4.5281 -2.0097 0.9778
3.0411 -4.2799 -2.0120 0.9778
3.4134 -3.9969 -2.0142 0.9777
4.0753 -3.3356 -2.0181 0.9777
4.3594 -2.9624 -2.0198 0.9777
4.6089 -2.5649 -2.0213 0.9777
4.8217 -2.1463 -2.0226 0.9776
4.9960 -1.7099 -2.0236 0.9776
5.1302 -1.2594 -2.0244 0.9776
5.2233 -0.7985 -2.0249 0.9776
5.2744 -0.3309 -2.0252 0.9776
5.2493 0.6086 -2.0251 0.9776
5.1732 1.0727 -2.0246 0.9776
5.0556 1.5279 -2.0239 0.9776
4.8974 1.9705 -2.0230 0.9776
4.7001 2.3968 -2.0218 0.9777
3.5576 3.8722 -2.0151 0.9777
3.1958 4.1688 -2.0130 0.9778
1.9750 4.8470 -2.0057 0.9778
1.5342 4.9970 -2.0031 0.9779
0.6232 5.1757 -1.9978 0.9779
0.1602 5.2035 -1.9950 0.9779
-0.3027 5.1900 -1.9923 0.9780
-1.2139 5.0407 -1.9869 0.9780
-2.4918 4.5243 -1.9794 0.9781
-2.8809 4.2798 -1.9771 0.9781
-4.6342 2.2050 -1.9667 0.9783
-4.9469 1.3480 -1.9648 0.9783
-5.0456 0.9025 -1.9643 0.9783
-2.3041 0.2032 -0.8864 0.9901
-5.0437 -0.9134 -1.9643 0.9783
-4.9439 -1.3587 -1.9649 0.9783
-4.6295 -2.2150 -1.9667 0.9783
-4.4170 -2.6196 -1.9680 0.9782
-3.8893 -3.3659 -1.9711 0.9782
-3.5779 -3.7018 -1.9729 0.9782
-3.2379 -4.0094 -1.9749 0.9782
-2.8717 -4.2861 -1.9771 0.9781
-2.4821 -4.5297 -1.9794 0.9781
-1.6446 -4.9100 -1.9843 0.9781
-0.7508 -5.1373 -1.9896 0.9780
-0.2914 -5.1908 -1.9923 0.9780
0.1715 -5.2032 -1.9951 0.9779
1.0935 -5.1045 -2.0005 0.9779
1.5451 -4.9937 -2.0032 0.9779
3.2049 -4.1619 -2.0130 0.9777
3.5660 -3.8645 -2.0151 0.9777
4.2020 -3.1777 -2.0189 0.9777
-2.8966 3.8656 -1.9770 0.9793
-3.2257 3.5892 -1.9750 0.9794
-4.2614 2.2323 -1.9689 0.9794
-4.4406 1.8436 -1.9678 0.9794
-2.0207 -0.2862 -0.8353 0.9912
-4.4141 -1.9071 -1.9680 0.9794
-4.2294 -2.2933 -1.9691 0.9794
-4.0113 -2.6621 -1.9704 0.9794
-3.7615 -3.0104 -1.9718 0.9794
-3.4818 -3.3358 -1.9735 0.9794
-2.4853 -4.1488 -1.9794 0.9793
-1.7150 -4.5339 -1.9839 0.9793
-1.3067 -4.6741 -1.9863 0.9792
-0.8870 -4.7777 -1.9888 0.9792
-0.0267 -4.8717 -1.9939 0.9792
0.4071 -4.8610 -1.9965 0.9791
0.8388 -4.8117 -1.9990 0.9791
1.2649 -4.7240 -2.0015 0.9791
2.8459 -4.0051 -2.0109 0.9790
3.1940 -3.7400 -2.0129 0.9790
3.5172 -3.4445 -2.0148 0.9789
3.8129 -3.1208 -2.0166 0.9789
4.3117 -2.3996 -2.0195 0.9789
4.5106 -2.0078 -2.0207 0.9789
4.7990 -1.1781 -2.0224 0.9789
4.9337 -0.3095 -2.0232 0.9789
4.9418 0.1304 -2.0233 0.9789
4.8391 1.0034 -2.0227 0.9789
4.7292 1.4293 -2.0220 0.9789
4.1775 2.6226 -2.0188 0.9789
3.9249 2.9815 -2.0173 0.9789
2.9905 3.9010 -2.0117 0.9790
2.2473 4.3595 -2.0074 0.9790
1.8486 4.5367 -2.0050 0.9790
1.0133 4.7807 -2.0001 0.9791
0.5834 4.8457 -1.9975 0.9791
0.1500 4.8721 -1.9950 0.9792
-0.2834 4.8599 -1.9924 0.9792
-1.1369 4.7208 -1.9874 0.9792
-1.9504 4.4341 -1.9826 0.9793
-2.3343 4.2382 -1.9803 0.9793
-2.6990 4.0095 -1.9781 0.9793
-3.6511 3.1460 -1.9725 0.9794
-3.9133 2.8066 -1.9710 0.9794
-4.1445 2.4458 -1.9696 0.9794
-4.3430 2.0664 -1.9684 0.9794
-4.6362 1.2633 -1.9667 0.9794
-2.0151 0.1777 -0.8279 0.9913
-1.9902 -0.0021 -0.8145 0.9914
-2.0156 -0.1821 -0.8283 0.9913
-4.6335 -1.2734 -1.9667 0.9794
-4.3385 -2.0758 -1.9684 0.9794
-4.1392 -2.4548 -1.9696 0.9794
-3.9073 -2.8151 -1.9710 0.9794
-3.6443 -3.1539 -1.9725 0.9794
-2.6903 -4.0154 -1.9782 0.9793
-1.9408 -4.4383 -1.9826 0.9793
-1.5403 -4.5988 -1.9850 0.9793
-0.2729 -4.8606 -1.9924 0.9792
0.1606 -4.8718 -1.9950 0.9792
1.0236 -4.7785 -2.0001 0.9791
1.4463 -4.6744 -2.0026 0.9791
1.8585 -4.5328 -2.0050 0.9790
2.2568 -4.3547 -2.0074 0.9790
3.6484 -3.3081 -2.0156 0.9789
-2.7216 3.6320 -1.9780 0.9804
-3.3160 3.0870 -1.9745 0.9804
-3.5746 2.7778 -1.9730 0.9804
-4.1735 1.7327 -1.9694 0.9805
-1.4813 0.3242 -0.6608 0.9934
-1.4460 0.0540 -0.6306 0.9937
-1.4863 -0.3476 -0.6652 0.9934
-3.9748 -2.1553 -1.9706 0.9805
-3.2719 -3.1346 -1.9747 0.9804
-2.9827 -3.4161 -1.9764 0.9804
-1.9812 -4.0944 -1.9824 0.9803
-1.6111 -4.2591 -1.9845 0.9803
-1.2274 -4.3905 -1.9868 0.9803
-0.8331 -4.4875 -1.9891 0.9803
-0.4313 -4.5492 -1.9915 0.9803
0.3823 -4.5647 -1.9963 0.9802
1.9589 -4.1642 -2.0056 0.9801
2.9978 -3.5102 -2.0118 0.9801
3.3009 -3.2327 -2.0136 0.9800
4.0460 -2.2517 -2.0180 0.9800
4.2325 -1.8840 -2.0191 0.9800
4.5844 -0.7008 -2.0212 0.9800
4.6367 0.1224 -2.0215 0.9800
4.5404 0.9415 -2.0209 0.9800
4.2988 1.7297 -2.0195 0.9800
4.1259 2.1040 -2.0185 0.9800
3.6832 2.7979 -2.0158 0.9800
3.4172 3.1119 -2.0143 0.9800
3.1243 3.4005 -2.0125 0.9801
2.4677 3.8927 -2.0087 0.9801
1.7354 4.2590 -2.0043 0.9801
0.9514 4.4887 -1.9997 0.9802
0.1409 4.5752 -1.9949 0.9802
-0.6702 4.5170 -1.9901 0.9803
-2.5358 3.7671 -1.9791 0.9804
-2.8580 3.5233 -1.9772 0.9804
-3.8950 2.2986 -1.9711 0.9805
-1.4932 0.4069 -0.6745 0.9933
-1.4705 0.2630 -0.6510 0.9935
-1.4235 -0.0015 -0.6204 0.9938
-1.4670 -0.1326 -0.6420 0.9936
-1.4933 -0.4104 -0.6750 0.9933
-1.5075 -0.5627 -0.7013 0.9930
-3.8900 -2.3071 -1.9711 0.9805
-3.6719 -2.6455 -1.9724 0.9804
-3.4246 -2.9637 -1.9738 0.9804
-2.8504 -3.5296 -1.9772 0.9804
-2.5277 -3.7727 -1.9791 0.9804
-2.1845 -3.9866 -1.9812 0.9804
-1.8233 -4.1695 -1.9833 0.9803
-1.4469 -4.3199 -1.9855 0.9803
-1.0583 -4.4366 -1.9878 0.9803
-0.6604 -4.5185 -1.9902 0.9803
-0.2563 -4.5648 -1.9925 0.9802
0.5577 -4.5490 -1.9974 0.9802
0.9611 -4.4867 -1.9997 0.9802
2.4762 -3.8873 -2.0087 0.9801
2.8149 -3.6554 -2.0107 0.9801
3.6893 -2.7900 -2.0159 0.9800
-2.2514 3.6391 -1.9808 0.9813
-2.5637 3.4213 -1.9789 0.9813
-2.8552 3.1770 -1.9772 0.9813
-3.3677 2.6170 -1.9742 0.9814
-3.5847 2.3057 -1.9729 0.9814
-3.7734 1.9767 -1.9718 0.9814
-1.2677 0.2774 -0.6007 0.9943
-1.2661 0.0473 -0.5865 0.9944
-1.2750 -0.1806 -0.5961 0.9943
-1.2692 -0.2968 -0.6034 0.9943
-3.7450 -2.0307 -1.9719 0.9814
-3.3302 -2.6652 -1.9744 0.9814
-3.0823 -2.9530 -1.9758 0.9814
-2.8098 -3.2180 -1.9775 0.9813
-2.1993 -3.6715 -1.9811 0.9813
-1.5173 -4.0111 -1.9851 0.9813
-1.1559 -4.1346 -1.9872 0.9813
-0.7845 -4.2257 -1.9894 0.9812
0.7414 -4.2532 -1.9984 0.9812
1.8438 -3.9194 -2.0050 0.9811
2.1872 -3.7437 -2.0070 0.9811
2.8210 -3.3032 -2.0107 0.9810
3.1061 -3.0419 -2.0124 0.9810
3.6011 -2.4471 -2.0153 0.9810
3.9820 -1.7725 -2.0176 0.9810
4.3129 -0.6593 -2.0195 0.9810
4.3621 0.1151 -2.0198 0.9810
4.0445 1.6273 -2.0180 0.9810
3.6884 2.3156 -2.0159 0.9810
3.4656 2.6326 -2.0146 0.9810
2.9400 3.1999 -2.0114 0.9810
2.6415 3.4457 -2.0097 0.9810
1.9855 3.8516 -2.0058 0.9811
1.6335 4.0088 -2.0037 0.9811
0.8956 4.2255 -1.9994 0.9811
-0.2506 4.2974 -1.9926 0.9812
-0.6310 4.2533 -1.9903 0.9812
-1.7257 3.9231 -1.9839 0.9813
-2.3886 3.5484 -1.9800 0.9813
-2.6922 3.3189 -1.9782 0.9813
-3.4647 2.4849 -1.9736 0.9814
-1.2602 0.4673 -0.6221 0.9941
-1.2707 0.3462 -0.6096 0.9942
-1.2722 0.2276 -0.5982 0.9943
-1.2733 0.1123 -0.5917 0.9944
-1.2585 -0.0014 -0.5825 0.9945
-3.6650 -2.1736 -1.9724 0.9814
-3.2263 -2.7921 -1.9750 0.9814
-2.6850 -3.3248 -1.9782 0.9813
-0.9966 -4.1779 -1.9882 0.9812
-0.6218 -4.2547 -1.9904 0.9812
0.1420 -4.3074 -1.9949 0.9812
1.9939 -3.8474 -2.0058 0.9811
2.3304 -3.6584 -2.0078 0.9811
2.6490 -3.4400 -2.0097 0.9810
2.9469 -3.1936 -2.0115 0.9810
3.2218 -2.9213 -2.0131 0.9810
-2.4202 3.2299 -1.9798 0.9822
-2.6956 2.9994 -1.9781 0.9822
-2.9494 2.7457 -1.9766 0.9822
-1.1096 0.4606 -0.5893 0.9947
-1.1347 0.2483 -0.5698 0.9948
-1.1416 -0.0590 -0.5607 0.9949
-1.1047 -0.4773 -0.5903 0.9947
-1.1075 -0.6005 -0.6180 0.9944
-3.3535 -2.2255 -1.9742 0.9822
-2.9101 -2.7880 -1.9769 0.9822
-2.6527 -3.0381 -1.9784 0.9822
-2.3740 -3.2646 -1.9800 0.9822
-1.7614 -3.6402 -1.9837 0.9821
-0.0223 -4.0648 -1.9939 0.9821
1.4023 -3.8336 -2.0023 0.9820
1.7393 -3.6974 -2.0043 0.9820
2.0632 -3.5315 -2.0063 0.9819
2.6608 -3.1157 -2.0098 0.9819
2.9296 -2.8690 -2.0114 0.9819
3.1754 -2.5990 -2.0128 0.9819
3.3961 -2.3079 -2.0141 0.9819
3.8905 -1.3316 -2.0171 0.9818
3.9947 -0.9806 -2.0177 0.9818
4.1066 -0.2576 -2.0183 0.9818
4.1133 0.1086 -2.0184 0.9818
4.0870 0.4738 -2.0182 0.9818
3.4784 2.1837 -2.0146 0.9819
3.0326 2.7617 -2.0120 0.9819
2.4915 3.2501 -2.0088 0.9819
2.1907 3.4557 -2.0070 0.9819
1.8730 3.6334 -2.0051 0.9820
0.8450 3.9868 -1.9991 0.9820
0.4866 4.0419 -1.9970 0.9820
-0.2365 4.0555 -1.9927 0.9821
-0.5955 4.0141 -1.9906 0.9821
-0.9491 3.9411 -1.9885 0.9821
-2.2549 3.3498 -1.9808 0.9822
-2.5416 3.1334 -1.9791 0.9822
-3.0518 2.6296 -1.9760 0.9822
-3.2714 2.3463 -1.9747 0.9822
-1.1326 0.3086 -0.5758 0.9948
-1.1409 0.2041 -0.5685 0.9948
-1.1338 -0.0012 -0.5562 0.9950
-1.1441 -0.1034 -0.5635 0.9949
-1.1406 -0.2066 -0.5686 0.9948
-1.0894 -0.5212 -0.5924 0.9946
-1.9422 -3.5445 -1.9826 0.9822
-1.6209 -3.7067 -1.9845 0.9821
-1.2862 -3.8400 -1.9865 0.9821
-0.5869 -4.0154 -1.9906 0.9821
-0.2277 -4.0560 -1.9927 0.9821
0.1340 -4.0646 -1.9949 0.9820
0.8537 -3.9850 -1.9991 0.9820
1.2059 -3.8974 -2.0012 0.9820
1.5492 -3.7786 -2.0032 0.9820
1.8809 -3.6294 -2.0052 0.9820
2.1982 -3.4510 -2.0070 0.9819
2.4986 -3.2447 -2.0088 0.9819
2.7795 -3.0122 -2.0105 0.9819
3.0387 -2.7552 -2.0120 0.9819
3.2739 -2.4758 -2.0134 0.9819
-2.0103 3.2493 -1.9822 0.9829
-2.2893 3.0551 -1.9805 0.9829
-3.2021 2.0596 -1.9752 0.9830
-0.9614 0.5036 -0.5630 0.9951
-0.9962 0.4136 -0.5596 0.9952
-1.0358 -0.0536 -0.5381 0.9953
-0.9916 -0.4284 -0.5604 0.9951
-0.9544 -0.5175 -0.5633 0.9951
-3.1726 -2.1054 -1.9753 0.9830
-2.9745 -2.3806 -1.9765 0.9830
-2.5093 -2.8738 -1.9792 0.9830
-1.6660 -3.4429 -1.9842 0.9829
-1.0317 -3.6905 -1.9880 0.9829
-0.0211 -3.8434 -1.9939 0.9828
0.3211 -3.8340 -1.9960 0.9828
0.6614 -3.7940 -1.9980 0.9828
0.9971 -3.7239 -2.0000 0.9828
1.3256 -3.6240 -2.0019 0.9828
1.9502 -3.3380 -2.0056 0.9827
2.2412 -3.1541 -2.0073 0.9827
2.5148 -2.9447 -2.0089 0.9827
2.7687 -2.7115 -2.0104 0.9827
3.0009 -2.4562 -2.0118 0.9827
3.2094 -2.1810 -2.0130 0.9827
3.5485 -1.5795 -2.0150 0.9826
3.7747 -0.9266 -2.0164 0.9826
3.8803 -0.2434 -2.0170 0.9826
3.8867 0.1026 -2.0170 0.9826
3.7200 1.1243 -2.0160 0.9826
3.4594 1.7641 -2.0145 0.9827
3.0888 2.3464 -2.0123 0.9827
2.0707 3.2663 -2.0063 0.9827
1.7705 3.4345 -2.0045 0.9827
1.4567 3.5750 -2.0027 0.9828
0.1184 3.8433 -1.9948 0.9828
-0.5632 3.7958 -1.9907 0.9829
-2.1329 3.1685 -1.9815 0.9829
-0.9589 0.5659 -0.5776 0.9950
-0.9782 0.4655 -0.5620 0.9951
-1.0065 0.3732 -0.5569 0.9952
-1.0321 0.1846 -0.5439 0.9953
-1.0376 0.0915 -0.5404 0.9953
-1.0295 -0.0011 -0.5341 0.9954
-1.0376 -0.0938 -0.5405 0.9953
-1.0193 -0.2801 -0.5484 0.9952
-0.9774 -0.4676 -0.5621 0.9951
-0.9599 -0.5693 -0.5790 0.9950
-2.6503 -2.7421 -1.9784 0.9830
-2.3978 -2.9691 -1.9799 0.9829
-1.5330 -3.5057 -1.9850 0.9829
-0.8895 -3.7290 -1.9888 0.9829
0.1267 -3.8431 -1.9948 0.9828
1.7779 -3.4307 -2.0046 0.9827
2.0778 -3.2619 -2.0063 0.9827
2.3616 -3.0667 -2.0080 0.9827
2.6269 -2.8468 -2.0096 0.9827
2.8718 -2.6038 -2.0110 0.9827
3.0939 -2.3397 -2.0123 0.9827
-1.9047 3.0787 -1.9828 0.9836
-2.4162 2.6885 -1.9798 0.9836
-2.8505 2.2151 -1.9772 0.9837
-0.8683 0.5585 -0.5655 0.9953
-0.8834 0.4628 -0.5462 0.9955
-0.9053 0.3759 -0.5369 0.9955
-0.9465 0.1203 -0.5226 0.9957
-0.9450 0.0353 -0.5180 0.9957
-0.9461 -0.0489 -0.5189 0.9957
-0.9455 -0.1339 -0.5230 0.9957
-0.9326 -0.2181 -0.5246 0.9956
-0.9187 -0.3032 -0.5299 0.9956
-0.8790 -0.4766 -0.5477 0.9955
-2.6086 -2.4992 -1.9786 0.9837
-2.3777 -2.7231 -1.9800 0.9836
-1.8606 -3.1060 -1.9831 0.9836
-0.9774 -3.4962 -1.9883 0.9836
0.6264 -3.5933 -1.9978 0.9835
1.5569 -3.3096 -2.0033 0.9835
1.8466 -3.1608 -2.0050 0.9834
2.1221 -2.9865 -2.0066 0.9834
3.0384 -2.0647 -2.0120 0.9834
3.3592 -1.4953 -2.0139 0.9834
1.8816 -0.6440 -1.0893 0.9910
1.8860 -0.1183 -1.0350 0.9914
1.8792 0.0496 -1.0296 0.9915
1.8891 0.2190 -1.0416 0.9914
3.2749 1.6700 -2.0134 0.9834
2.9243 2.2214 -2.0114 0.9834
2.4813 2.7007 -2.0087 0.9834
2.2297 2.9085 -2.0072 0.9834
1.9607 3.0928 -2.0057 0.9834
1.6765 3.2522 -2.0040 0.9835
1.3795 3.3854 -2.0022 0.9835
1.0720 3.4915 -2.0004 0.9835
0.4358 3.6194 -1.9966 0.9835
0.1121 3.6403 -1.9947 0.9835
-1.1598 3.4379 -1.9872 0.9836
-2.0209 3.0022 -1.9821 0.9836
-2.5170 2.5929 -1.9792 0.9837
-2.9328 2.1034 -1.9767 0.9837
-0.8668 0.5116 -0.5513 0.9954
-0.8940 0.4254 -0.5422 0.9955
-0.9120 0.3382 -0.5327 0.9956
-0.9418 0.1685 -0.5240 0.9956
-0.9474 0.0836 -0.5209 0.9957
-0.9415 -0.1705 -0.5240 0.9956
-0.9247 -0.2541 -0.5252 0.9956
-0.8934 -0.4275 -0.5425 0.9955
-2.7307 -2.3632 -1.9779 0.9837
-2.5114 -2.5984 -1.9792 0.9837
-2.2720 -2.8134 -1.9806 0.9836
-0.5257 -3.5969 -1.9910 0.9836
-0.2040 -3.6328 -1.9929 0.9835
0.1200 -3.6401 -1.9948 0.9835
0.4436 -3.6184 -1.9967 0.9835
1.0796 -3.4892 -2.0004 0.9835
1.3868 -3.3825 -2.0023 0.9835
2.4872 -2.6954 -2.0088 0.9834
2.7189 -2.4652 -2.0101 0.9834
-2.2930 2.5514 -1.9805 0.9843
-2.7053 2.1023 -1.9781 0.9843
-0.7997 0.5144 -0.5490 0.9956
-0.8297 0.4347 -0.5408 0.9957
-0.8512 0.3534 -0.5321 0.9958
-0.8752 0.1915 -0.5173 0.9959
-0.8818 0.1121 -0.5132 0.9959
-0.8806 0.0329 -0.5088 0.9959
-0.8813 -0.0456 -0.5095 0.9959
-0.8734 -0.2043 -0.5179 0.9959
-0.8483 -0.3665 -0.5335 0.9957
-0.8255 -0.4476 -0.5421 0.9957
-2.6752 -2.1410 -1.9783 0.9843
-2.2564 -2.5842 -1.9807 0.9843
-1.7656 -2.9474 -1.9836 0.9843
-1.4977 -3.0952 -1.9852 0.9842
-1.2176 -3.2188 -1.9869 0.9842
-0.6292 -3.3895 -1.9903 0.9842
-0.3257 -3.4351 -1.9921 0.9842
0.2885 -3.4447 -1.9958 0.9842
0.8957 -3.3451 -1.9994 0.9841
1.4766 -3.1390 -2.0028 0.9841
2.0125 -2.8322 -2.0060 0.9841
2.2580 -2.6440 -2.0074 0.9841
2.4858 -2.4344 -2.0087 0.9841
2.6940 -2.2050 -2.0100 0.9840
3.0452 -1.6947 -2.0121 0.9840
3.1851 -1.4178 -2.0129 0.9840
1.7378 -0.1090 -1.0053 0.9920
1.7322 0.0457 -1.0004 0.9920
1.7418 0.2020 -1.0124 0.9919
1.7327 0.3593 -1.0216 0.9919
1.7225 0.5206 -1.0389 0.9917
1.7773 0.7151 -1.1061 0.9912
2.7729 2.1064 -2.0105 0.9840
2.5731 2.3433 -2.0093 0.9841
2.3530 2.5611 -2.0080 0.9841
1.5900 3.0844 -2.0035 0.9841
1.3084 3.2109 -2.0018 0.9841
1.0168 3.3117 -2.0001 0.9841
0.4134 3.4333 -1.9965 0.9842
0.1063 3.4533 -1.9947 0.9842
-0.8067 3.3498 -1.9893 0.9842
-1.1004 3.2620 -1.9876 0.9842
-1.3849 3.1485 -1.9859 0.9842
-1.6581 3.0105 -1.9843 0.9843
-1.9177 2.8489 -1.9827 0.9843
-2.1619 2.6652 -1.9813 0.9843
-2.3887 2.4607 -1.9800 0.9843
-2.5964 2.2372 -1.9787 0.9843
-0.8009 0.5744 -0.5690 0.9955
-0.8790 0.1572 -0.5155 0.9959
-0.8822 -0.0797 -0.5114 0.9959
-0.8676 -0.2384 -0.5195 0.9959
-0.8575 -0.3201 -0.5285 0.9958
-2.5916 -2.2428 -1.9787 0.9843
-2.3834 -2.4659 -1.9800 0.9843
-1.9116 -2.8531 -1.9828 0.9843
-1.6516 -3.0141 -1.9843 0.9843
-1.0934 -3.2644 -1.9876 0.9842
-0.7995 -3.3516 -1.9893 0.9842
-0.4987 -3.4124 -1.9911 0.9842
0.7250 -3.3844 -1.9983 0.9841
2.3586 -2.5560 -2.0080 0.9841
