ply
format ascii 1.0
element vertex 1011
property float32 x
property float32 y
property float32 z
property float32 I
end_header
12.2467 -13.7010 3.2403 0.9281
-14.5475 9.8687 3.0996 0.9311
12.2468 -13.7011 2.8152 0.9283
4.7575 9.8152 1.6710 0.9568
-14.5279 9.8554 2.6894 0.9314
12.2469 -13.7012 2.3931 0.9286
4.7518 9.8035 1.4187 0.9570
-1.5194 18.1678 2.3741 0.9291
12.2470 -13.7013 1.9733 0.9287
-1.5162 18.1295 1.9536 0.9294
-14.4892 9.8291 1.8801 0.9320
4.7416 9.7823 0.9202 0.9573
-1.5180 18.1509 1.5419 0.9295
-14.4700 9.8162 1.4803 0.9322
-6.8484 -13.3689 1.2716 0.9415
4.7429 9.7851 0.6743 0.9574
-6.8497 -13.3716 0.9316 0.9416
12.2472 -13.7015 0.7246 0.9291
-14.4322 9.7905 0.6877 0.9326
-6.8511 -13.3742 0.5925 0.9416
12.2473 -13.7016 0.3104 0.9291
12.2473 -13.7017 -0.1035 0.9291
4.7469 9.7933 -0.0613 0.9574
-14.4017 9.7698 -0.0980 0.9328
19.6798 2.7540 -0.5595 0.9236
8.1427 3.5045 -0.2496 0.9651
6.2631 8.5973 -0.2995 0.9583
-14.4006 9.7691 -0.4900 0.9327
12.2475 -13.7018 -0.9320 0.9290
17.8284 4.1399 -0.9282 0.9293
8.7029 2.8579 -0.4645 0.9640
7.2756 8.3167 -0.5604 0.9567
6.3042 8.6536 -0.5430 0.9580
4.7495 9.7987 -0.5522 0.9573
-14.3995 9.7683 -0.8824 0.9327
-6.8564 -13.3846 -0.7627 0.9415
-19.0281 5.5653 -1.4536 0.9236
11.4344 -12.7922 -1.2580 0.9335
18.3425 2.5668 -1.3580 0.9284
11.3622 2.6384 -0.8553 0.9543
8.3890 2.7549 -0.6474 0.9652
7.9517 3.4223 -0.6347 0.9659
15.4499 8.3513 -1.2877 0.9320
7.2757 8.3168 -0.8102 0.9566
6.3069 8.6574 -0.7854 0.9580
4.7509 9.8015 -0.7986 0.9573
-4.2835 9.0998 -0.7374 0.9605
-8.2668 14.1389 -1.2009 0.9364
-18.0442 6.1540 -1.3979 0.9264
-5.9896 -13.0852 -1.3816 0.9438
-4.9198 -19.1864 -1.9016 0.9235
-1.4099 -19.3446 -1.8621 0.9250
0.1907 -11.6429 -1.1179 0.9543
2.0005 -18.8906 -1.8237 0.9265
5.2129 -17.8749 -1.7876 0.9279
6.7189 -17.1755 -1.7706 0.9286
8.1464 -16.3593 -1.7545 0.9292
11.3344 -12.6804 -1.6328 0.9339
12.9333 -12.1032 -1.7006 0.9313
14.3595 -11.2166 -1.7493 0.9294
15.9122 -10.2892 -1.8192 0.9267
17.3303 -7.2403 -1.8032 0.9273
17.8478 -5.6505 -1.7973 0.9275
18.6150 -0.7305 -1.7885 0.9279
18.6066 0.9293 -1.7886 0.9279
11.2972 2.6233 -1.1134 0.9545
8.1566 2.6785 -0.8242 0.9661
7.8996 3.3999 -0.8257 0.9660
14.6020 9.6648 -1.6811 0.9321
9.3594 15.5972 -1.7463 0.9295
6.5849 17.3777 -1.7841 0.9280
1.1248 6.0456 -0.5904 0.9756
-2.3473 13.4671 -1.3124 0.9465
-4.2103 8.9443 -0.9491 0.9611
-13.5419 11.0677 -1.6791 0.9321
-12.2445 8.3064 -1.4205 0.9423
-17.9260 6.1137 -1.8183 0.9267
-7.9223 -12.5653 -1.4261 0.9421
-5.9621 -14.7438 -1.5268 0.9381
-18.5750 0.3187 -2.2068 0.9279
-18.3136 -2.9762 -2.2039 0.9280
-17.9423 -4.5859 -2.1998 0.9281
-17.4163 -6.1483 -2.1939 0.9283
-16.7422 -7.6478 -2.1864 0.9285
-15.9284 -9.0697 -2.1773 0.9288
-11.7824 -11.7732 -1.9785 0.9351
-10.6170 -12.6908 -1.9655 0.9355
-9.3784 -13.4893 -1.9516 0.9360
-5.3541 -15.1290 -1.9063 0.9374
-3.9533 -15.4171 -1.8906 0.9379
-1.1375 -15.6080 -1.8589 0.9389
1.6205 -15.3026 -1.8279 0.9399
2.9518 -14.9738 -1.8129 0.9404
6.6470 -13.3482 -1.7713 0.9417
7.7538 -12.6142 -1.7588 0.9421
8.7872 -11.7953 -1.7472 0.9425
10.0270 -11.2177 -1.7872 0.9412
12.3360 -9.6360 -1.8594 0.9389
14.7080 -4.6565 -1.8326 0.9397
15.2491 -1.9681 -1.8264 0.9399
11.0674 2.5700 -1.3496 0.9553
8.0471 2.6426 -1.0061 0.9665
7.8778 3.3905 -1.0188 0.9660
12.0069 7.9471 -1.7104 0.9437
11.3036 9.0257 -1.7182 0.9434
10.5095 10.0478 -1.7271 0.9431
7.2757 8.3169 -1.3126 0.9565
6.3125 8.6651 -1.2735 0.9577
5.3633 8.9379 -1.2382 0.9589
4.7535 9.8070 -1.2946 0.9570
0.5741 6.0366 -0.7203 0.9759
0.0356 6.2583 -0.7434 0.9751
-2.7208 15.6099 -1.8822 0.9382
-4.2078 8.9390 -1.1736 0.9610
-10.7563 12.5817 -1.9662 0.9355
-11.9119 11.6510 -1.9793 0.9351
-12.9802 10.6086 -1.9913 0.9347
-12.1726 8.2576 -1.7472 0.9425
-16.7956 7.4564 -2.1828 0.9287
-17.9926 4.3945 -2.2001 0.9281
-18.3458 2.7806 -2.2041 0.9280
-18.5703 -0.5171 -2.2067 0.9279
-17.6957 -5.3815 -2.1971 0.9282
-17.0941 -6.9140 -2.1903 0.9284
-14.4339 -11.0124 -2.1566 0.9295
-11.2041 -12.2509 -1.9720 0.9353
-7.9223 -12.5654 -1.7645 0.9419
-14.6485 4.2844 -2.1625 0.9402
-14.9993 2.9690 -2.1665 0.9401
-15.2219 1.6240 -2.1690 0.9400
-15.3136 0.2627 -2.1701 0.9400
-14.3730 -5.0740 -2.1597 0.9403
-11.5256 -9.6270 -2.1278 0.9411
-10.5694 -10.5612 -2.1171 0.9414
-7.8097 -11.2329 -1.9385 0.9462
-4.4649 -12.6165 -1.8963 0.9474
-3.3013 -12.8744 -1.8832 0.9477
0.1907 -11.6447 -1.6502 0.9540
8.0408 -10.7933 -1.9070 0.9471
8.9261 -9.9860 -1.8978 0.9473
12.4977 -3.9567 -1.8574 0.9484
12.7783 -2.8237 -1.8542 0.9485
8.0126 2.6313 -1.1949 0.9665
11.0224 7.2955 -1.8729 0.9480
5.3772 8.9609 -1.4807 0.9587
3.1118 6.4200 -1.0109 0.9716
0.5701 5.9943 -0.8532 0.9760
0.0344 6.0481 -0.8570 0.9759
-4.2053 8.9337 -1.3990 0.9609
-8.9233 10.4377 -1.9457 0.9460
-10.7449 8.7818 -1.9662 0.9455
-14.8414 3.6249 -2.1647 0.9401
-15.1279 2.2929 -2.1679 0.9401
-15.3098 -0.4263 -2.1701 0.9400
-15.2029 -1.7864 -2.1689 0.9400
-14.9654 -3.1287 -2.1663 0.9401
-14.6000 -4.4400 -2.1622 0.9402
-14.1111 -5.7075 -2.1568 0.9404
-11.9670 -9.1303 -2.1327 0.9410
-11.0534 -10.1104 -2.1225 0.9413
-10.0384 -10.9763 -2.1076 0.9417
-8.5627 -11.2248 -2.0004 0.9446
-7.2558 -11.5081 -1.9276 0.9465
-6.1631 -12.0312 -1.9153 0.9469
-12.7501 2.5238 -2.1412 0.9487
-12.9370 1.3802 -2.1433 0.9486
-13.0140 0.2233 -2.1442 0.9486
-12.9801 -0.9358 -2.1439 0.9486
-12.5826 -3.2160 -2.1395 0.9487
-12.2235 -4.3151 -2.1355 0.9488
-10.5559 -7.3268 -2.1168 0.9492
-9.8236 -8.2053 -2.1086 0.9494
-6.2130 -10.8915 -2.0657 0.9504
-1.8331 -11.2242 -1.8736 0.9549
0.1838 -11.2260 -1.8496 0.9555
2.2107 -11.2144 -1.8830 0.9547
3.2678 -11.2051 -1.9228 0.9538
4.3026 -10.9985 -1.9456 0.9533
5.2471 -10.5370 -1.9392 0.9534
7.7314 -8.6495 -1.9112 0.9541
9.0703 -7.0851 -1.8961 0.9544
10.1192 -5.3310 -1.8842 0.9547
10.5276 -4.3983 -1.8796 0.9548
11.1020 -2.4533 -1.8731 0.9550
11.2651 -1.4539 -1.8712 0.9550
11.3442 -0.4452 -1.8703 0.9550
11.3390 0.5664 -1.8703 0.9550
11.2495 1.5742 -1.8713 0.9550
11.0760 2.5720 -1.8732 0.9550
7.8593 2.5809 -1.3628 0.9670
7.7444 4.1862 -1.4503 0.9649
9.5672 6.3324 -1.8901 0.9546
8.9959 7.1830 -1.8965 0.9544
8.0645 7.7101 -1.8380 0.9558
7.0584 8.0684 -1.7660 0.9575
6.3409 8.7041 -1.7741 0.9573
3.4782 5.7963 -1.1136 0.9730
2.8122 5.8018 -1.0621 0.9742
2.2057 5.8210 -1.0255 0.9751
1.6352 5.8384 -0.9988 0.9757
1.0895 5.8560 -0.9813 0.9761
0.0336 5.8983 -0.9717 0.9764
-0.5436 6.5000 -1.0745 0.9739
-4.2028 8.9284 -1.6257 0.9608
-6.7598 9.5045 -1.9214 0.9538
-7.6170 8.9097 -1.9310 0.9536
-9.4275 7.7050 -2.0058 0.9518
-10.6359 7.2151 -2.1173 0.9492
-11.8210 5.2479 -2.1307 0.9489
-12.2704 4.1848 -2.1357 0.9488
-12.6174 3.0817 -2.1397 0.9487
-12.8581 1.9488 -2.1424 0.9486
-13.0107 -0.3623 -2.1442 0.9486
-12.4143 -3.7754 -2.1376 0.9488
-11.4925 -5.8883 -2.1273 0.9490
-10.1962 -7.7793 -2.1128 0.9493
-9.4246 -8.6205 -2.1041 0.9495
-7.6744 -10.0603 -2.0845 0.9500
-6.7135 -10.6480 -2.0737 0.9503
-5.6904 -11.1083 -2.0561 0.9507
-4.5319 -11.2069 -1.9914 0.9522
-10.8228 3.1655 -2.1195 0.9551
-11.3039 0.1940 -2.1250 0.9550
-10.9323 -2.7942 -2.1209 0.9551
-10.6229 -3.7501 -2.1175 0.9552
-9.1842 -6.3747 -2.1014 0.9555
-8.5514 -7.1427 -2.0943 0.9557
-2.6804 -10.4531 -2.0283 0.9570
-1.7301 -10.5941 -2.0176 0.9573
-0.7761 -10.6491 -2.0069 0.9575
0.1739 -10.6190 -1.9962 0.9577
3.7903 -9.6889 -1.9555 0.9585
4.6156 -9.2688 -1.9462 0.9587
6.1317 -8.2306 -1.9291 0.9591
6.8127 -7.6217 -1.9215 0.9592
8.0000 -6.2491 -1.9081 0.9595
9.2950 -3.8833 -1.8934 0.9598
9.5870 -3.0352 -1.8901 0.9599
10.0218 -0.3933 -1.8852 0.9600
8.2255 2.7012 -1.6273 0.9654
9.2540 3.9828 -1.8937 0.9598
8.8823 4.8012 -1.8978 0.9597
8.4415 5.5873 -1.9027 0.9596
5.6266 7.7235 -1.7961 0.9619
2.7899 5.7558 -1.2023 0.9743
2.1803 5.7539 -1.1566 0.9753
1.0741 5.7729 -1.1037 0.9764
0.0332 5.8295 -1.0957 0.9766
-0.5467 6.5377 -1.2331 0.9737
-1.7033 9.7723 -1.8645 0.9604
-2.5800 9.6326 -1.8744 0.9602
-3.4449 9.4134 -1.8841 0.9600
-4.2007 8.9239 -1.8539 0.9607
-5.8947 8.2883 -1.9117 0.9594
-6.6380 7.7646 -1.9201 0.9593
-7.8687 7.6964 -2.0689 0.9562
-9.2535 6.2774 -2.1017 0.9555
-10.6635 3.6368 -2.1177 0.9552
-11.3011 -0.3147 -2.1250 0.9550
-11.2238 -1.3188 -2.1241 0.9550
-11.0519 -2.3106 -2.1222 0.9551
-8.8735 -6.7701 -2.0979 0.9556
-6.6904 -8.7704 -2.0734 0.9561
-5.8566 -9.2890 -2.0640 0.9563
-4.9827 -9.7269 -2.0542 0.9565
-4.0768 -10.0816 -2.0440 0.9567
-9.7819 1.9362 -2.1078 0.9601
-9.9555 -0.7178 -2.1099 0.9600
-9.8465 -1.6002 -2.1087 0.9600
-9.6552 -2.4678 -2.1065 0.9601
-9.3838 -3.3126 -2.1035 0.9601
-8.1201 -5.6361 -2.0894 0.9604
-5.5650 -8.0043 -2.0607 0.9609
-4.0234 -8.7898 -2.0434 0.9612
-3.2107 -9.0723 -2.0343 0.9614
-1.5368 -9.4100 -2.0154 0.9618
0.1546 -9.4434 -1.9964 0.9621
0.9899 -9.3479 -1.9870 0.9623
1.8096 -9.1799 -1.9778 0.9625
3.3783 -8.6357 -1.9601 0.9628
5.4732 -7.3467 -1.9365 0.9632
6.0837 -6.8061 -1.9296 0.9634
7.5979 -4.9130 -1.9126 0.9637
7.9866 -4.2075 -1.9082 0.9638
8.5760 -2.7151 -1.9015 0.9639
8.7733 -1.9387 -1.8992 0.9639
8.9675 -0.3519 -1.8970 0.9640
8.9633 0.4477 -1.8970 0.9640
8.7526 2.0324 -1.8994 0.9639
8.2766 3.5621 -1.9047 0.9638
7.5461 4.9946 -1.9128 0.9637
7.0904 5.6615 -1.9179 0.9636
6.5780 6.2890 -1.9237 0.9635
6.0118 6.8721 -1.9300 0.9634
3.4481 5.7461 -1.4165 0.9730
1.6071 5.7380 -1.2596 0.9759
1.0715 5.7591 -1.2382 0.9763
-0.5242 6.2677 -1.3295 0.9746
-2.2902 8.5507 -1.8711 0.9645
-3.0562 8.3512 -1.8798 0.9643
-3.8044 8.0821 -1.8882 0.9641
-6.3513 7.4292 -2.0660 0.9608
-7.0233 6.8694 -2.0766 0.9606
-7.6320 6.2376 -2.0835 0.9605
-8.6653 4.8123 -2.0952 0.9603
-9.4195 3.2125 -2.1037 0.9601
-9.9628 0.6114 -2.1099 0.9600
-9.9109 -1.1646 -2.1094 0.9600
-9.7601 -2.0405 -2.1077 0.9601
-9.5281 -2.8976 -2.1051 0.9601
-7.8469 -5.9868 -2.0863 0.9605
-5.9243 -7.7662 -2.0647 0.9609
-3.6159 -8.9418 -2.0388 0.9613
-8.5514 2.5011 -2.0940 0.9641
-8.8749 0.9468 -2.0977 0.9640
-8.9266 0.1532 -2.0983 0.9640
-8.3951 -2.9636 -2.0924 0.9641
-7.7082 -4.3891 -2.0847 0.9642
-7.2697 -5.0458 -2.0798 0.9643
-6.7736 -5.6577 -2.0742 0.9644
-6.2245 -6.2197 -2.0681 0.9645
-4.9894 -7.1764 -2.0542 0.9647
-4.3148 -7.5640 -2.0466 0.9649
-3.6104 -7.8875 -2.0387 0.9650
-2.8824 -8.1447 -2.0305 0.9651
0.1391 -8.4940 -1.9966 0.9657
0.8908 -8.4121 -1.9881 0.9658
1.6292 -8.2648 -1.9798 0.9660
2.3488 -8.0538 -1.9717 0.9661
3.0442 -7.7818 -1.9639 0.9662
3.7105 -7.4513 -1.9564 0.9664
4.9378 -6.6281 -1.9425 0.9666
5.9977 -5.6128 -1.9306 0.9668
7.2158 -3.8014 -1.9168 0.9670
7.5123 -3.1385 -1.9135 0.9671
8.0489 -1.0388 -1.9074 0.9672
8.1028 0.4047 -1.9067 0.9672
8.0376 1.1248 -1.9074 0.9672
7.9114 1.8371 -1.9088 0.9672
7.7248 2.5367 -1.9109 0.9671
5.9384 5.6775 -1.9309 0.9668
2.7897 5.7554 -1.5032 0.9741
1.6119 5.7551 -1.4046 0.9757
1.0704 5.7532 -1.3753 0.9762
-3.6278 7.7068 -2.0019 0.9656
-5.0668 7.1242 -2.0546 0.9647
-5.7006 6.6680 -2.0618 0.9646
-6.2918 6.1540 -2.0684 0.9645
-8.6603 2.1152 -2.0952 0.9640
-8.8220 1.3371 -2.0970 0.9640
-8.9103 0.5468 -2.0981 0.9640
-8.8641 -1.0416 -2.0976 0.9640
-8.7300 -1.8251 -2.0961 0.9640
-8.5235 -2.5921 -2.0938 0.9641
-8.2468 -3.3356 -2.0907 0.9641
-7.4943 -4.7259 -2.0823 0.9642
-7.0262 -5.3607 -2.0771 0.9643
-5.9290 -6.4829 -2.0647 0.9645
-4.6530 -7.3800 -2.0504 0.9648
-3.9626 -7.7355 -2.0427 0.9649
-3.2454 -8.0257 -2.0346 0.9651
-7.7279 2.2602 -2.0847 0.9673
-7.9061 1.5649 -2.0867 0.9672
-8.0189 0.8555 -2.0880 0.9672
-8.0653 0.1384 -2.0886 0.9672
-8.0448 -0.5800 -2.0884 0.9672
-7.9576 -1.2932 -2.0874 0.9672
-7.3077 -3.3381 -2.0802 0.9673
-4.5172 -6.4972 -2.0489 0.9678
-3.9078 -6.8506 -2.0420 0.9679
-1.9377 -7.5568 -2.0199 0.9683
-1.2526 -7.6699 -2.0122 0.9684
-0.5627 -7.7211 -2.0044 0.9685
0.1263 -7.7106 -1.9967 0.9686
0.8090 -7.6392 -1.9890 0.9688
1.4801 -7.5083 -1.9814 0.9689
2.1346 -7.3194 -1.9741 0.9690
2.7676 -7.0747 -1.9670 0.9691
5.8800 -4.5931 -1.9319 0.9696
6.2519 -4.0426 -1.9277 0.9697
7.2280 -1.5972 -1.9166 0.9699
7.3367 -0.9469 -1.9154 0.9699
7.3895 -0.2900 -1.9148 0.9699
7.2109 1.6744 -1.9167 0.9699
6.8154 2.9332 -1.9211 0.9698
6.5378 3.5339 -1.9242 0.9698
6.2091 4.1097 -1.9279 0.9697
5.4071 5.1695 -1.9369 0.9696
4.9388 5.6456 -1.9421 0.9695
2.7985 5.7736 -1.6612 0.9738
2.1784 5.7488 -1.5917 0.9749
1.6062 5.7347 -1.5420 0.9757
0.5486 5.7680 -1.5002 0.9763
-1.3304 7.6330 -2.0061 0.9685
-5.1593 6.0348 -2.0557 0.9677
-5.6926 5.5679 -2.0617 0.9676
-6.1821 5.0526 -2.0672 0.9675
-6.6232 4.4930 -2.0722 0.9675
-7.0116 3.8939 -2.0766 0.9674
-7.8259 1.9114 -2.0858 0.9673
-7.9713 1.2082 -2.0875 0.9672
-8.0091 -0.9411 -2.0880 0.9672
-7.4537 -3.0148 -2.0818 0.9673
-7.1439 -3.6602 -2.0783 0.9674
-6.7763 -4.2731 -2.0742 0.9674
-5.8827 -5.3808 -2.0642 0.9676
-4.2133 -6.6827 -2.0455 0.9679
-2.9409 -7.2727 -2.0312 0.9681
-7.0418 2.0596 -2.0770 0.9700
-7.3060 0.7795 -2.0800 0.9699
-7.3295 -0.5284 -2.0803 0.9699
-6.9140 -2.4408 -2.0757 0.9700
-6.6602 -3.0424 -2.0729 0.9700
-6.3524 -3.6171 -2.0694 0.9701
-5.9936 -4.1601 -2.0654 0.9701
-5.5871 -4.6668 -2.0608 0.9702
-4.1224 -5.9294 -2.0444 0.9704
-3.5674 -6.2537 -2.0382 0.9705
-2.9870 -6.5255 -2.0317 0.9706
-2.3863 -6.7430 -2.0249 0.9707
-0.5145 -7.0598 -2.0039 0.9710
0.7402 -6.9895 -1.9898 0.9712
1.3547 -6.8719 -1.9828 0.9713
1.9543 -6.7012 -1.9761 0.9714
2.5346 -6.4791 -1.9696 0.9715
4.5822 -5.1263 -1.9465 0.9718
5.0079 -4.6865 -1.9417 0.9719
5.3931 -4.2127 -1.9373 0.9720
6.0321 -3.1778 -1.9301 0.9721
6.2818 -2.6244 -1.9273 0.9721
6.4828 -2.0524 -1.9250 0.9721
6.6338 -1.4659 -1.9233 0.9722
6.7340 -0.8691 -1.9221 0.9722
6.7826 -0.2662 -1.9216 0.9722
6.7794 0.3386 -1.9216 0.9722
6.7245 0.9410 -1.9222 0.9722
6.4609 2.1217 -1.9251 0.9721
5.9984 3.2424 -1.9303 0.9721
5.6959 3.7700 -1.9337 0.9720
4.9583 4.7404 -1.9419 0.9719
4.5279 5.1758 -1.9468 0.9718
4.0601 5.5733 -1.9520 0.9717
3.4302 5.7164 -1.8873 0.9727
1.0739 5.7718 -1.6620 0.9759
0.5617 5.9059 -1.6795 0.9756
0.0328 5.7550 -1.6292 0.9764
-1.2200 6.9994 -2.0114 0.9709
-3.6346 6.2164 -2.0385 0.9705
-4.1863 5.8861 -2.0448 0.9704
-5.1923 5.0785 -2.0561 0.9703
-6.0384 4.0963 -2.0657 0.9701
-6.3914 3.5494 -2.0696 0.9701
-6.9402 2.3670 -2.0758 0.9700
-7.1308 1.7416 -2.0780 0.9699
-7.2627 1.1008 -2.0795 0.9699
-7.2971 -0.8574 -2.0800 0.9699
-7.1876 -1.5027 -2.0787 0.9699
-7.0190 -2.1345 -2.0769 0.9700
-6.5114 -3.3362 -2.0712 0.9700
-5.7941 -4.4207 -2.0632 0.9702
-4.8944 -5.3517 -2.0531 0.9703
-4.3864 -5.7501 -2.0474 0.9704
-3.8457 -6.0996 -2.0413 0.9705
-3.2772 -6.3976 -2.0349 0.9706
-2.6860 -6.6422 -2.0283 0.9707
-6.4608 1.8897 -2.0705 0.9722
-6.6088 1.3081 -2.0722 0.9722
-6.7024 0.7151 -2.0732 0.9722
-6.7409 0.1157 -2.0737 0.9722
-6.7239 -0.4848 -2.0735 0.9722
-6.5245 -1.6676 -2.0713 0.9722
-6.1118 -2.7918 -2.0667 0.9723
-5.8301 -3.3197 -2.0635 0.9723
-5.5016 -3.8186 -2.0599 0.9724
-5.1295 -4.2845 -2.0557 0.9724
-4.7171 -4.7134 -2.0511 0.9725
-3.7872 -5.4473 -2.0406 0.9726
-2.7455 -5.9979 -2.0289 0.9728
-2.1940 -6.1995 -2.0227 0.9729
-1.6283 -6.3502 -2.0164 0.9729
-1.0532 -6.4492 -2.0099 0.9730
1.2476 -6.3287 -1.9840 0.9734
2.8492 -5.7217 -1.9660 0.9736
3.7979 -5.0979 -1.9553 0.9737
4.2261 -4.7279 -1.9505 0.9738
4.6196 -4.3231 -1.9460 0.9739
4.9758 -3.8867 -1.9420 0.9739
5.2922 -3.4221 -1.9384 0.9740
5.7980 -2.4223 -1.9327 0.9740
5.9841 -1.8945 -1.9306 0.9741
6.2617 -0.2457 -1.9274 0.9741
6.2079 0.8687 -1.9280 0.9741
5.9638 1.9585 -1.9307 0.9741
5.5357 2.9923 -1.9355 0.9740
5.2559 3.4788 -1.9386 0.9740
4.9345 3.9401 -1.9422 0.9739
4.5737 4.3728 -1.9463 0.9739
3.2802 5.4663 -1.9608 0.9737
2.7884 5.7528 -1.9663 0.9736
0.5487 5.7694 -1.7826 0.9760
-1.6964 6.3336 -2.0167 0.9729
-2.2605 6.1769 -2.0231 0.9728
-3.8458 5.4074 -2.0409 0.9726
-4.3232 5.0569 -2.0463 0.9725
-4.7679 4.6634 -2.0513 0.9725
-5.1756 4.2300 -2.0559 0.9724
-5.5427 3.7601 -2.0601 0.9724
-5.8658 3.2576 -2.0637 0.9723
-6.1417 2.7266 -2.0669 0.9723
-6.6629 1.0099 -2.0728 0.9722
-6.7393 -0.1876 -2.0737 0.9722
-6.6943 -0.7866 -2.0732 0.9722
-5.6700 -3.5754 -2.0617 0.9723
-5.3190 -4.0582 -2.0578 0.9724
-4.9261 -4.5059 -2.0534 0.9724
-4.0293 -5.2819 -2.0433 0.9726
-3.5335 -5.6043 -2.0378 0.9727
-3.0119 -5.8796 -2.0319 0.9727
-2.4692 -6.1060 -2.0258 0.9728
-6.0982 1.2071 -2.0664 0.9741
-6.2042 -0.4473 -2.0677 0.9741
-6.1376 -0.9974 -2.0669 0.9741
-4.3561 -4.3527 -2.0470 0.9744
-3.4988 -5.0324 -2.0374 0.9745
-3.0291 -5.3101 -2.0321 0.9746
-2.0282 -5.7312 -2.0208 0.9747
-1.5057 -5.8718 -2.0150 0.9748
-0.9741 -5.9648 -2.0090 0.9748
-0.4380 -6.0097 -2.0030 0.9749
0.6308 -5.9562 -1.9909 0.9751
1.1550 -5.8590 -1.9851 0.9751
3.0928 -5.0315 -1.9632 0.9754
3.5198 -4.7247 -1.9584 0.9755
4.2829 -4.0080 -1.9498 0.9756
4.6138 -3.6039 -1.9461 0.9756
4.9079 -3.1736 -1.9428 0.9757
5.5511 -1.7574 -1.9355 0.9758
5.6811 -1.2554 -1.9340 0.9758
5.7674 -0.7444 -1.9330 0.9758
5.8093 -0.2280 -1.9325 0.9758
5.7592 0.8060 -1.9331 0.9758
5.6676 1.3161 -1.9341 0.9758
5.5323 1.8168 -1.9356 0.9758
4.8741 3.2261 -1.9429 0.9757
4.2403 4.0540 -1.9500 0.9756
3.8708 4.4248 -1.9542 0.9755
3.0394 5.0651 -1.9635 0.9754
2.1043 5.5533 -1.9740 0.9753
1.6062 5.7348 -1.9796 0.9752
1.0925 5.8720 -1.9854 0.9751
0.5471 5.7524 -1.9208 0.9759
0.0342 6.0085 -1.9973 0.9750
-1.0380 5.9551 -2.0094 0.9748
-1.5686 5.8564 -2.0153 0.9748
-2.0897 5.7101 -2.0212 0.9747
-3.0861 5.2783 -2.0324 0.9746
-3.9931 4.6708 -2.0426 0.9744
-4.4029 4.3065 -2.0472 0.9744
-5.4143 3.0068 -2.0587 0.9742
-5.8766 2.0042 -2.0639 0.9742
-6.0370 1.4745 -2.0657 0.9741
-6.1769 -0.7258 -2.0674 0.9741
-5.7524 -2.3267 -2.0626 0.9742
-4.9107 -3.7467 -2.0532 0.9743
-4.1513 -4.5392 -2.0447 0.9744
-3.2647 -5.1780 -2.0347 0.9745
-2.2824 -5.6441 -2.0237 0.9747
-5.5289 1.6171 -2.0600 0.9758
-5.7345 0.6118 -2.0623 0.9758
-5.6912 -0.9249 -2.0619 0.9758
-5.5830 -1.4270 -2.0607 0.9758
-5.4293 -1.9167 -2.0590 0.9758
-4.7115 -3.2702 -2.0510 0.9759
-4.0421 -4.0390 -2.0434 0.9760
-2.8122 -4.9299 -2.0296 0.9762
-2.3563 -5.1476 -2.0245 0.9762
-1.3987 -5.4547 -2.0138 0.9764
0.0914 -5.5836 -1.9970 0.9766
0.5864 -5.5378 -1.9914 0.9766
2.0124 -5.1443 -1.9754 0.9768
2.4561 -4.9322 -1.9704 0.9769
2.8784 -4.6827 -1.9656 0.9769
3.2763 -4.3978 -1.9611 0.9770
3.6470 -4.0800 -1.9570 0.9770
3.9878 -3.7319 -1.9531 0.9771
4.5709 -2.9556 -1.9465 0.9771
4.8092 -2.5335 -1.9438 0.9772
5.1713 -1.6372 -1.9397 0.9772
5.4098 0.2702 -1.9370 0.9773
5.3656 0.7509 -1.9375 0.9772
5.2801 1.2261 -1.9384 0.9772
5.1537 1.6924 -1.9398 0.9772
4.9874 2.1465 -1.9417 0.9772
4.7822 2.5850 -1.9440 0.9772
3.9481 3.7747 -1.9533 0.9771
3.6036 4.1193 -1.9572 0.9770
2.8286 4.7138 -1.9659 0.9769
2.4036 4.9589 -1.9707 0.9769
1.9576 5.1663 -1.9757 0.9768
0.5273 5.5447 -1.9918 0.9766
0.0318 5.5852 -1.9973 0.9766
-0.4668 5.5815 -2.0029 0.9765
-0.9644 5.5332 -2.0085 0.9764
-1.4571 5.4404 -2.0141 0.9764
-2.4115 5.1230 -2.0248 0.9762
-2.8651 4.9003 -2.0299 0.9762
-3.2978 4.6369 -2.0348 0.9761
-4.4335 3.6235 -2.0476 0.9760
-5.2571 2.3339 -2.0569 0.9759
-5.5981 1.3673 -2.0608 0.9758
-5.7009 0.8641 -2.0620 0.9758
-5.7659 -0.1605 -2.0627 0.9758
-5.6423 -1.1796 -2.0614 0.9758
-5.3349 -2.1578 -2.0579 0.9758
-4.8550 -3.0616 -2.0526 0.9759
-4.2205 -3.8605 -2.0455 0.9760
-3.8524 -4.2123 -2.0413 0.9760
-3.0307 -4.8068 -2.0321 0.9761
-2.1196 -5.2415 -2.0219 0.9763
-5.1487 1.5059 -2.0557 0.9773
-2.3029 0.2457 -0.8875 0.9901
-5.1989 -1.3288 -2.0564 0.9773
-4.0936 -3.4193 -2.0440 0.9774
-3.7663 -3.7633 -2.0403 0.9775
-3.4096 -4.0756 -2.0363 0.9775
-1.3045 -5.0875 -2.0127 0.9778
-0.3798 -5.2111 -2.0023 0.9779
0.0853 -5.2106 -1.9971 0.9779
0.5474 -5.1688 -1.9919 0.9780
1.4478 -4.9645 -1.9817 0.9781
1.8793 -4.8041 -1.9769 0.9781
2.2941 -4.6068 -1.9722 0.9782
3.4079 -3.8126 -1.9596 0.9783
4.2727 -2.7629 -1.9499 0.9784
4.8351 -1.5308 -1.9435 0.9785
4.9488 -1.0936 -1.9422 0.9785
5.0243 -0.6484 -1.9414 0.9785
5.0172 0.7021 -1.9414 0.9785
4.6628 2.0068 -1.9454 0.9785
3.6898 3.5277 -1.9563 0.9784
3.3674 3.8492 -1.9599 0.9783
1.8282 4.8246 -1.9771 0.9781
1.3949 4.9804 -1.9820 0.9781
0.9484 5.0977 -1.9870 0.9780
-1.3590 5.0740 -2.0130 0.9777
-2.2483 4.7763 -2.0230 0.9776
-2.6708 4.5679 -2.0278 0.9776
-3.4534 4.0395 -2.0366 0.9775
-4.6776 2.5977 -2.0504 0.9773
-2.2962 -0.0639 -0.8803 0.9902
-5.1321 -1.5607 -2.0556 0.9773
-4.9683 -2.0095 -2.0538 0.9773
-4.5223 -2.8517 -2.0488 0.9774
-3.5897 -3.9251 -2.0384 0.9775
-3.2195 -4.2204 -2.0342 0.9775
-2.0183 0.2153 -0.8307 0.9913
-1.9947 0.0342 -0.8165 0.9914
-4.7256 -1.6682 -2.0511 0.9786
-4.5541 -2.0803 -2.0491 0.9786
-4.1030 -2.8478 -2.0441 0.9786
-3.8274 -3.1969 -2.0410 0.9787
-3.5217 -3.5190 -2.0376 0.9787
-3.1886 -3.8115 -2.0338 0.9788
-2.0553 -4.4902 -2.0211 0.9789
-1.2209 -4.7613 -2.0117 0.9790
-0.3556 -4.8787 -2.0020 0.9791
0.0799 -4.8790 -1.9971 0.9791
0.5126 -4.8407 -1.9922 0.9792
2.5202 -4.0999 -1.9696 0.9794
2.8693 -3.8516 -1.9657 0.9795
3.7656 -2.9414 -1.9556 0.9796
4.0068 -2.5909 -1.9529 0.9796
4.7474 -0.1863 -1.9445 0.9797
4.7451 0.2370 -1.9445 0.9797
4.6309 1.0753 -1.9457 0.9797
3.9792 2.6338 -1.9530 0.9796
3.7342 2.9817 -1.9558 0.9796
3.4595 3.3075 -1.9588 0.9795
3.1568 3.6085 -1.9622 0.9795
2.8284 3.8825 -1.9659 0.9795
2.1038 4.3403 -1.9741 0.9794
1.3067 4.6657 -1.9830 0.9793
0.8884 4.7748 -1.9877 0.9792
0.4609 4.8465 -1.9925 0.9792
0.0278 4.8802 -1.9974 0.9791
-0.4077 4.8753 -2.0023 0.9791
-3.2295 3.7776 -2.0341 0.9787
-3.8617 3.1561 -2.0412 0.9787
-4.1335 2.8041 -2.0443 0.9786
-4.5764 2.0317 -2.0493 0.9786
-4.7434 1.6178 -2.0512 0.9786
-2.1014 0.5132 -0.8853 0.9907
-2.0266 0.3072 -0.8389 0.9912
-1.9971 -0.0556 -0.8177 0.9914
-2.0195 -0.2373 -0.8322 0.9912
-2.0811 -0.4351 -0.8702 0.9909
-4.7965 -1.4587 -2.0519 0.9786
-4.4535 -2.2818 -2.0480 0.9786
-4.2275 -2.6658 -2.0455 0.9786
-3.9678 -3.0272 -2.0426 0.9787
-3.6767 -3.3630 -2.0393 0.9787
-3.3568 -3.6705 -2.0357 0.9787
-3.0110 -3.9471 -2.0318 0.9788
-2.2540 -4.4000 -2.0233 0.9789
-1.4342 0.0246 -0.6252 0.9938
-1.4728 -0.2394 -0.6503 0.9935
-1.4891 -0.5257 -0.6882 0.9931
-4.2701 -1.9506 -2.0459 0.9797
-3.8477 -2.6706 -2.0412 0.9798
-2.6561 -3.8204 -2.0279 0.9799
-2.3010 -4.0337 -2.0239 0.9799
-1.9288 -4.2138 -2.0197 0.9800
-1.5428 -4.3594 -2.0153 0.9800
-0.7420 -4.5435 -2.0063 0.9801
-0.3339 -4.5810 -2.0018 0.9802
0.8823 -4.4756 -1.9881 0.9803
3.0035 -3.3602 -1.9642 0.9805
3.2854 -3.0745 -1.9610 0.9806
3.5408 -2.7658 -1.9581 0.9806
4.2655 -1.3504 -1.9499 0.9807
4.3662 -0.9648 -1.9488 0.9807
4.4634 0.2229 -1.9477 0.9807
4.4268 0.6195 -1.9481 0.9807
4.3558 1.0115 -1.9488 0.9807
3.9431 2.1314 -1.9534 0.9806
3.7420 2.4768 -1.9557 0.9806
3.5113 2.8037 -1.9583 0.9806
2.3277 3.8790 -1.9716 0.9805
1.9771 4.0790 -1.9755 0.9804
1.2277 4.3835 -1.9839 0.9803
0.8345 4.4854 -1.9883 0.9803
0.4329 4.5521 -1.9928 0.9802
-0.3828 4.5777 -2.0020 0.9802
-1.1939 4.4576 -2.0112 0.9801
-1.5894 4.3432 -2.0156 0.9800
-2.3442 4.0094 -2.0241 0.9799
-2.6971 3.7922 -2.0281 0.9799
-3.0295 3.5436 -2.0318 0.9799
-3.3386 3.2655 -2.0353 0.9798
-4.1000 2.2769 -2.0439 0.9797
-4.2909 1.9050 -2.0461 0.9797
-1.4913 0.5086 -0.6867 0.9931
-1.4736 0.2233 -0.6496 0.9935
-1.4407 -0.0401 -0.6281 0.9937
-1.4721 -0.1730 -0.6460 0.9936
-1.4774 -0.3089 -0.6578 0.9934
-1.4939 -0.4543 -0.6805 0.9932
-4.3540 -1.7611 -2.0469 0.9797
-4.1759 -2.1395 -2.0449 0.9797
-3.9643 -2.4998 -2.0425 0.9798
-3.7211 -2.8390 -2.0398 0.9798
-3.1488 -3.4430 -2.0334 0.9798
-2.1150 -4.1288 -2.0218 0.9800
-1.2747 0.1360 -0.5934 0.9944
-1.2704 -0.3247 -0.6070 0.9942
-1.2636 -0.4461 -0.6203 0.9941
-3.3757 -2.8196 -2.0359 0.9808
-2.4986 -3.5938 -2.0261 0.9809
-2.1648 -3.7949 -2.0223 0.9809
-1.4518 -4.1023 -2.0143 0.9810
-0.6984 -4.2767 -2.0058 0.9811
0.0707 -4.3141 -1.9972 0.9812
0.4534 -4.2814 -1.9929 0.9812
1.2003 -4.1158 -1.9845 0.9813
1.9034 -3.8224 -1.9766 0.9814
2.5418 -3.4119 -1.9694 0.9814
2.8307 -3.1668 -1.9661 0.9815
3.0966 -2.8979 -1.9631 0.9815
3.3376 -2.6071 -1.9604 0.9815
3.5520 -2.2968 -1.9580 0.9815
3.7384 -1.9694 -1.9559 0.9815
3.8953 -1.6274 -1.9541 0.9816
4.1168 -0.9097 -1.9516 0.9816
4.2106 -0.1652 -1.9505 0.9816
4.2086 0.2102 -1.9505 0.9816
4.1740 0.5841 -1.9509 0.9816
4.1070 0.9537 -1.9516 0.9816
4.0080 1.3162 -1.9527 0.9816
3.8779 1.6690 -1.9542 0.9816
3.7173 2.0094 -1.9560 0.9815
3.5275 2.3348 -1.9581 0.9815
3.0657 2.9310 -1.9633 0.9815
2.5054 3.4392 -1.9696 0.9814
2.1933 3.6550 -1.9731 0.9814
1.1564 4.1289 -1.9847 0.9813
0.7859 4.2242 -1.9889 0.9812
-1.1236 4.1953 -2.0104 0.9810
-1.8573 3.9457 -2.0186 0.9810
-2.5371 3.5673 -2.0263 0.9809
-3.1399 3.0712 -2.0331 0.9808
-1.2699 0.3102 -0.6051 0.9943
-1.2745 0.1932 -0.5967 0.9943
-1.2699 0.0779 -0.5889 0.9944
-1.2644 -0.0352 -0.5855 0.9944
-1.2751 -0.1498 -0.5943 0.9944
-1.2696 -0.3861 -0.6142 0.9942
-1.2521 -0.5064 -0.6252 0.9941
-3.2431 -2.9664 -2.0344 0.9808
-2.9615 -3.2382 -2.0313 0.9808
-2.6571 -3.4831 -2.0279 0.9809
-2.3323 -3.6992 -2.0242 0.9809
-1.9900 -3.8847 -2.0204 0.9809
-1.6330 -4.0384 -2.0164 0.9810
-1.1383 0.2253 -0.5692 0.9948
-1.1433 -0.0824 -0.5623 0.9949
-1.1425 -0.1857 -0.5678 0.9949
-1.1330 -0.2896 -0.5736 0.9948
-1.1237 -0.3967 -0.5845 0.9947
-1.0969 -0.5011 -0.5915 0.9946
-3.6114 -2.0564 -2.0385 0.9817
-2.6526 -3.1707 -2.0278 0.9818
-2.3559 -3.3886 -2.0245 0.9818
-2.0414 -3.5786 -2.0209 0.9818
-1.7116 -3.7393 -2.0172 0.9818
-1.3694 -3.8694 -2.0134 0.9819
-1.0175 -3.9681 -2.0094 0.9819
0.4279 -4.0408 -1.9932 0.9821
0.7843 -3.9786 -1.9892 0.9821
1.4716 -3.7618 -1.9814 0.9822
1.7973 -3.6092 -1.9778 0.9822
2.1077 -3.4288 -1.9743 0.9822
2.6736 -2.9911 -1.9679 0.9823
2.9250 -2.7373 -1.9650 0.9823
3.1529 -2.4628 -1.9625 0.9823
3.9768 0.1986 -1.9531 0.9824
3.9440 0.5519 -1.9535 0.9824
3.6639 1.5769 -1.9566 0.9824
3.5120 1.8984 -1.9583 0.9824
2.8958 2.7686 -1.9652 0.9823
2.6417 3.0197 -1.9681 0.9823
2.0711 3.4515 -1.9745 0.9822
0.0232 4.0721 -1.9975 0.9820
-0.3401 4.0663 -2.0016 0.9820
-1.0600 3.9575 -2.0097 0.9819
-1.4108 3.8550 -2.0136 0.9819
-1.7517 3.7212 -2.0174 0.9818
-2.0797 3.5570 -2.0211 0.9818
-2.3922 3.3636 -2.0247 0.9818
-2.6865 3.1425 -2.0280 0.9817
-3.2105 2.6239 -2.0339 0.9817
-3.4356 2.3306 -2.0364 0.9817
-1.1156 0.6195 -0.6259 0.9943
-1.1011 0.4888 -0.5909 0.9946
-1.1433 0.1733 -0.5672 0.9949
-1.1386 -0.0317 -0.5587 0.9949
-1.1443 -0.1344 -0.5652 0.9949
-1.1365 -0.2376 -0.5695 0.9948
-1.1305 -0.3438 -0.5796 0.9947
-3.0572 -2.7964 -2.0323 0.9817
-2.1992 -3.4881 -2.0227 0.9818
-1.0180 0.2977 -0.5502 0.9952
-1.0376 0.1107 -0.5413 0.9953
-1.0371 -0.0748 -0.5394 0.9953
-1.0341 -0.1681 -0.5435 0.9953
-1.0201 -0.2607 -0.5462 0.9953
-0.9843 -0.4496 -0.5614 0.9951
-3.2212 -2.2358 -2.0342 0.9825
-2.7667 -2.7646 -2.0291 0.9825
-2.5061 -2.9955 -2.0261 0.9826
-1.9290 -3.3816 -2.0197 0.9826
-1.6175 -3.5337 -2.0162 0.9826
-1.2942 -3.6571 -2.0125 0.9827
0.0630 -3.8494 -1.9973 0.9828
0.4047 -3.8212 -1.9934 0.9828
1.7003 -3.4145 -1.9788 0.9830
1.9941 -3.2441 -1.9755 0.9830
2.5300 -2.8305 -1.9695 0.9830
2.7682 -2.5905 -1.9668 0.9831
3.1762 -2.0538 -1.9622 0.9831
3.3432 -1.7612 -1.9603 0.9831
3.7665 -0.1478 -1.9555 0.9832
3.7337 0.5225 -1.9558 0.9832
3.6736 0.8531 -1.9565 0.9831
3.4682 1.4927 -1.9588 0.9831
3.3243 1.7969 -1.9604 0.9831
3.1542 2.0877 -1.9623 0.9831
2.9592 2.3629 -1.9645 0.9831
2.7405 2.6201 -1.9670 0.9831
2.2389 3.0733 -1.9726 0.9830
1.9596 3.2656 -1.9757 0.9830
1.6639 3.4328 -1.9790 0.9830
1.3541 3.5736 -1.9825 0.9829
0.7016 3.7709 -1.9899 0.9829
0.3638 3.8257 -1.9936 0.9828
0.0219 3.8503 -1.9975 0.9828
-1.0019 3.7407 -2.0090 0.9827
-1.6554 3.5166 -2.0164 0.9826
-1.9652 3.3611 -2.0199 0.9826
-2.5381 2.9689 -2.0263 0.9826
-2.7963 2.7351 -2.0292 0.9825
-3.0327 2.4786 -2.0319 0.9825
-1.0212 0.2494 -0.5454 0.9953
-1.0365 0.0636 -0.5387 0.9953
-1.0373 -0.1219 -0.5419 0.9953
-1.0279 -0.2149 -0.5448 0.9953
-1.0169 -0.3092 -0.5514 0.9952
-2.3670 -3.1028 -2.0246 0.9826
-0.9232 0.2700 -0.5268 0.9956
-0.9472 0.1011 -0.5217 0.9957
-0.9430 0.0162 -0.5166 0.9957
-0.9471 -0.0683 -0.5201 0.9957
-0.9278 -0.2371 -0.5245 0.9956
-0.8978 -0.4101 -0.5406 0.9955
-0.8722 -0.4967 -0.5497 0.9954
-2.8445 -2.3759 -2.0299 0.9832
-2.6185 -2.6164 -2.0274 0.9833
-2.3719 -2.8352 -2.0246 0.9833
-1.8261 -3.2012 -2.0185 0.9833
-0.9107 -3.5517 -2.0082 0.9834
-0.2656 -3.6437 -2.0010 0.9835
0.0597 -3.6462 -1.9973 0.9835
1.6113 -3.2358 -1.9798 0.9836
2.3982 -2.6830 -1.9710 0.9837
2.6241 -2.4557 -1.9684 0.9837
2.8290 -2.2098 -1.9661 0.9838
1.8752 -0.5937 -1.0773 0.9911
1.8888 -0.2438 -1.0431 0.9914
1.8820 -0.0738 -1.0316 0.9914
1.8885 0.2643 -1.0444 0.9913
1.8865 0.4381 -1.0607 0.9912
3.2885 1.4153 -1.9608 0.9838
3.1519 1.7037 -1.9624 0.9838
2.9905 1.9794 -1.9642 0.9838
2.8054 2.2400 -1.9662 0.9838
2.5979 2.4838 -1.9686 0.9837
2.3696 2.7087 -1.9711 0.9837
0.9783 3.4930 -1.9867 0.9836
0.6647 3.5725 -1.9903 0.9836
0.3447 3.6241 -1.9939 0.9835
0.0208 3.6470 -1.9975 0.9835
-0.6285 3.6060 -2.0048 0.9834
-1.2625 3.4497 -2.0120 0.9834
-1.5672 3.3293 -2.0154 0.9834
-1.8603 3.1818 -2.0187 0.9833
-2.1395 3.0082 -2.0218 0.9833
-2.4023 2.8100 -2.0248 0.9833
-2.8699 2.3456 -2.0301 0.9832
-0.9003 0.3997 -0.5395 0.9955
-0.9170 0.3127 -0.5307 0.9956
-0.9447 0.1432 -0.5233 0.9957
-0.9466 0.0581 -0.5194 0.9957
-0.9442 -0.0263 -0.5173 0.9957
-0.9469 -0.1113 -0.5222 0.9957
-0.9372 -0.1959 -0.5244 0.9956
-0.9220 -0.2804 -0.5278 0.9956
-0.8861 -0.4540 -0.5453 0.9955
-0.8657 -0.5459 -0.5606 0.9953
-2.9483 -2.2494 -2.0311 0.9832
-2.4964 -2.7297 -2.0260 0.9833
-2.2404 -2.9369 -2.0231 0.9833
-1.9671 -3.1199 -2.0201 0.9833
-1.6789 -3.2774 -2.0168 0.9833
-1.3782 -3.4081 -2.0135 0.9834
-0.8657 0.2532 -0.5208 0.9958
-0.8774 0.1737 -0.5164 0.9959
-0.8822 0.0941 -0.5122 0.9959
-0.8793 0.0151 -0.5077 0.9959
-0.8801 -0.1430 -0.5148 0.9959
-0.8705 -0.2225 -0.5187 0.9959
-0.7986 -0.5543 -0.5613 0.9955
-2.4821 -2.4802 -2.0259 0.9839
-2.2486 -2.6878 -2.0232 0.9839
-1.7314 -3.0352 -2.0174 0.9840
-1.4521 -3.1723 -2.0143 0.9840
-0.2519 -3.4563 -2.0008 0.9841
0.0566 -3.4590 -1.9973 0.9841
0.3637 -3.4343 -1.9939 0.9842
0.6668 -3.3825 -1.9905 0.9842
0.9636 -3.3042 -1.9871 0.9842
1.2518 -3.2000 -1.9839 0.9843
1.5293 -3.0710 -1.9808 0.9843
1.7939 -2.9183 -1.9778 0.9843
2.6859 -2.0980 -1.9677 0.9844
3.0097 -1.5856 -1.9641 0.9844
1.8264 -0.7630 -1.1428 0.9909
1.7328 -0.3829 -1.0245 0.9918
1.7362 0.0867 -1.0037 0.9920
1.7153 0.5633 -1.0424 0.9917
3.1226 1.3439 -1.9627 0.9844
2.8394 1.8793 -1.9659 0.9844
2.4664 2.3580 -1.9700 0.9844
2.2495 2.5714 -1.9725 0.9843
2.0144 2.7651 -1.9751 0.9843
1.4965 3.0875 -1.9809 0.9843
0.9283 3.3146 -1.9873 0.9842
0.6307 3.3898 -1.9907 0.9842
0.3270 3.4383 -1.9941 0.9842
0.0197 3.4598 -1.9975 0.9841
-0.2888 3.4538 -2.0010 0.9841
-0.5962 3.4203 -2.0045 0.9841
-1.4860 3.1569 -2.0145 0.9840
-1.7639 3.0168 -2.0176 0.9840
-2.2774 2.6638 -2.0234 0.9839
-2.5087 2.4537 -2.0260 0.9839
-0.7969 0.5406 -0.5560 0.9956
-0.8462 0.3757 -0.5345 0.9957
-0.8615 0.2938 -0.5255 0.9958
-0.8721 0.2130 -0.5183 0.9959
-0.8808 0.1335 -0.5143 0.9959
-0.8817 0.0541 -0.5100 0.9959
-0.8800 -0.0245 -0.5083 0.9959
-0.8820 -0.1036 -0.5127 0.9959
-0.8763 -0.1832 -0.5168 0.9959
-0.8650 -0.2631 -0.5220 0.9958
-0.8529 -0.3450 -0.5312 0.9958
-0.8323 -0.4264 -0.5399 0.9957
-0.8031 -0.5064 -0.5482 0.9956
-0.8052 -0.6143 -0.5847 0.9953
-2.5907 -2.3697 -2.0271 0.9839
-2.1240 -2.7843 -2.0218 0.9840
-1.5919 -3.1076 -2.0159 0.9840
