ply
format ascii 1.0
element vertex 1432
property float32 x
property float32 y
property float32 z
property float32 I
end_header
-6.1578 18.2619 2.0695 0.9254
-16.8884 5.9236 -0.5039 0.9309
-4.1693 -13.6888 -0.4029 0.9443
11.4333 3.3315 -0.3353 0.9535
-16.2839 5.9395 -0.4881 0.9330
11.4339 3.1783 -0.3342 0.9536
-15.0034 6.8251 -0.8359 0.9361
-4.1454 -13.6103 -0.7215 0.9446
9.7675 8.7665 -0.6656 0.9488
-11.3772 9.7411 -0.7596 0.9418
-14.9926 7.0460 -0.8401 0.9358
17.5350 8.4766 -0.9877 0.9250
9.7651 8.5481 -0.6582 0.9493
-15.9476 5.5936 -1.2392 0.9345
14.8568 -12.5614 -1.4265 0.9249
17.4850 8.7217 -1.4327 0.9246
9.7659 8.7651 -0.9622 0.9487
13.0793 14.0462 -1.4073 0.9259
4.7317 6.0944 -0.5657 0.9695
4.2234 6.5803 -0.5733 0.9691
-5.9337 13.4748 -1.0796 0.9427
-11.4088 14.0062 -1.3245 0.9301
-11.3644 9.7301 -1.0970 0.9418
-14.5554 6.8405 -1.1792 0.9375
-15.3191 5.5876 -1.1956 0.9367
3.9025 -11.8150 -0.9123 0.9513
14.9051 -12.9228 -1.4464 0.9239
14.4601 2.6543 -1.0780 0.9427
17.4821 8.4511 -1.4237 0.9251
9.7635 8.5467 -0.9514 0.9493
4.8656 6.1088 -0.5726 0.9692
7.6579 14.2393 -1.1855 0.9372
-15.9260 9.0449 -1.7584 0.9290
-14.4548 6.5756 -1.5246 0.9382
-15.9560 5.5966 -1.6234 0.9343
-19.1182 4.8361 -1.8933 0.9238
-19.4543 3.1032 -1.8913 0.9239
-19.3087 -3.9171 -1.8915 0.9239
-18.9009 -5.6348 -1.8935 0.9238
-18.3481 -7.3139 -1.8963 0.9237
-17.6532 -8.9428 -1.8998 0.9236
-13.6339 -12.3903 -1.7687 0.9286
-12.5120 -13.6051 -1.7745 0.9284
-11.2853 -14.7230 -1.7810 0.9282
-9.9616 -15.7347 -1.7879 0.9279
-8.5493 -16.6315 -1.7953 0.9276
-3.8236 -12.5538 -1.2599 0.9486
-2.6204 -12.5353 -1.2295 0.9498
-2.2139 -18.9194 -1.8287 0.9263
-0.5150 -19.1352 -1.8377 0.9260
1.2049 -19.1995 -1.8469 0.9256
2.9324 -19.1094 -1.8560 0.9253
4.6529 -18.8627 -1.8652 0.9249
9.6296 -17.1916 -1.8918 0.9239
12.6463 -15.3303 -1.9079 0.9232
14.7618 -12.4811 -1.8559 0.9253
13.3846 2.6290 -1.3095 0.9467
11.1325 3.2438 -1.1132 0.9545
11.2380 8.3997 -1.3470 0.9452
9.7643 8.7636 -1.2596 0.9486
5.5417 5.9514 -0.7807 0.9679
4.6573 5.9985 -0.7291 0.9699
7.5515 18.2960 -1.9002 0.9235
2.3929 19.4049 -1.8771 0.9244
0.4422 13.3504 -1.2824 0.9477
-1.0925 19.3248 -1.8582 0.9252
-2.8016 19.0450 -1.8481 0.9256
-6.0800 18.0313 -1.8269 0.9264
-9.0857 16.4593 -1.8049 0.9272
-10.4886 8.9803 -1.3256 0.9460
-14.9667 10.6510 -1.7636 0.9288
-19.4166 3.3447 -1.8915 0.9239
-19.3536 -3.6768 -1.8913 0.9239
-18.9662 -5.3990 -1.8932 0.9238
-17.7577 -8.7206 -1.8993 0.9236
-15.1869 -11.2051 -1.8119 0.9270
-13.7806 -12.2149 -1.7679 0.9287
-11.4612 -14.5743 -1.7800 0.9282
-10.1504 -15.6012 -1.7869 0.9279
-8.7499 -16.5144 -1.7943 0.9277
-2.7837 -12.5378 -1.2330 0.9497
-0.7518 -19.1143 -1.8365 0.9260
0.9660 -19.1997 -1.8456 0.9257
2.6931 -19.1309 -1.8548 0.9253
7.7885 -17.9886 -1.8819 0.9243
10.9678 -16.4601 -1.8989 0.9236
14.1620 2.5996 -1.3823 0.9438
11.1368 3.0957 -1.1097 0.9546
10.8694 4.1000 -1.1153 0.9544
9.7620 8.5453 -1.2455 0.9492
4.7693 5.9879 -0.7349 0.9697
3.9990 6.0638 -0.6974 0.9712
3.5498 6.6006 -0.7195 0.9703
-12.2990 8.5246 -1.7776 0.9415
-13.5681 7.7058 -1.8535 0.9391
-15.2054 5.3333 -1.9141 0.9372
-15.6033 3.9470 -1.9118 0.9372
-15.8806 2.5331 -1.9102 0.9373
-16.0356 1.1017 -1.9093 0.9373
-16.0674 -0.3372 -1.9090 0.9373
-15.7615 -3.1975 -1.9104 0.9373
-15.4256 -4.5988 -1.9120 0.9372
-14.9704 -5.9675 -1.9143 0.9371
-13.7133 -8.5686 -1.9208 0.9369
-10.3433 -11.2469 -1.8150 0.9403
-9.1795 -11.9756 -1.7924 0.9410
-8.0968 -12.7892 -1.7980 0.9408
-3.8236 -12.5538 -1.5588 0.9485
-2.6204 -12.5353 -1.5212 0.9497
-1.7918 -15.3122 -1.8313 0.9398
-0.4164 -15.4725 -1.8386 0.9396
0.9734 -15.5097 -1.8460 0.9393
2.3665 -15.4220 -1.8534 0.9391
3.7515 -15.2087 -1.8607 0.9389
5.1170 -14.8700 -1.8680 0.9386
7.7428 -13.8231 -1.8820 0.9382
8.9799 -13.1210 -1.8887 0.9380
10.1514 -12.3059 -1.8949 0.9378
13.2196 -11.1772 -2.0564 0.9326
15.1276 -8.7160 -2.0739 0.9321
15.8780 -7.3422 -2.0780 0.9320
16.4983 -5.9020 -2.0814 0.9319
16.9821 -4.4080 -2.0841 0.9318
17.3246 -2.8738 -2.0860 0.9317
17.5221 -1.3131 -2.0872 0.9317
17.4758 1.8306 -2.0872 0.9317
13.2559 2.6037 -1.6047 0.9470
10.9978 3.2046 -1.3607 0.9549
11.0199 4.3137 -1.4057 0.9534
15.4334 7.6983 -2.0487 0.9329
9.7627 8.7622 -1.5583 0.9485
3.8637 6.0200 -0.8497 0.9716
6.0322 14.6150 -1.8781 0.9383
4.6868 15.0521 -1.8726 0.9385
1.9161 15.5389 -1.8598 0.9389
0.4533 13.6867 -1.6267 0.9463
-2.2504 15.2980 -1.8367 0.9396
-3.5935 14.9667 -1.8284 0.9399
-4.8949 14.5165 -1.8198 0.9402
-6.1442 13.9530 -1.8110 0.9404
-7.3406 13.2979 -1.8043 0.9406
-12.1961 8.6793 -1.7781 0.9415
-13.1899 7.7090 -1.8148 0.9403
-15.8495 2.7302 -1.9104 0.9373
-16.0215 1.3006 -1.9094 0.9373
-16.0704 -0.1379 -1.9090 0.9373
-15.7985 -3.0014 -1.9102 0.9373
-13.0356 -9.6179 -1.9243 0.9368
-10.6003 -11.2431 -1.8355 0.9397
-9.3234 -11.8559 -1.7916 0.9411
-8.2512 -12.6821 -1.7972 0.9409
-3.9953 -12.5564 -1.5652 0.9483
-2.7837 -12.5378 -1.5256 0.9496
-0.6080 -15.4576 -1.8376 0.9396
0.7804 -15.5119 -1.8449 0.9394
3.5606 -15.2457 -1.8597 0.9389
8.8122 -13.2252 -1.8878 0.9380
11.0998 -11.5175 -1.9001 0.9376
12.9268 -11.2076 -2.0323 0.9334
14.1243 -10.1841 -2.0684 0.9323
15.0138 -8.9004 -2.0733 0.9321
16.4204 -6.1050 -2.0810 0.9319
16.9235 -4.6177 -2.0838 0.9318
17.2857 -3.0882 -2.0858 0.9317
17.5035 -1.5303 -2.0871 0.9317
17.4980 1.6136 -2.0873 0.9317
14.0655 2.5819 -1.6987 0.9440
15.7078 7.5933 -2.0724 0.9321
13.8378 8.2924 -1.9163 0.9371
13.0113 9.4758 -1.9120 0.9372
9.7604 8.5439 -1.5408 0.9491
5.6208 5.8881 -0.9669 0.9677
4.7267 5.9344 -0.9012 0.9699
3.9615 6.0070 -0.8547 0.9714
3.3193 6.1719 -0.8324 0.9722
-11.8565 6.7337 -1.9320 0.9464
-12.3925 5.6374 -1.9290 0.9465
-13.1692 3.3313 -1.9247 0.9466
-13.4049 2.1382 -1.9233 0.9466
-13.5368 0.9300 -1.9225 0.9467
-13.5640 -0.2847 -1.9223 0.9467
-13.3042 -2.6990 -1.9235 0.9466
-13.0190 -3.8813 -1.9249 0.9466
-12.6324 -5.0355 -1.9268 0.9465
-12.1468 -6.1534 -1.9293 0.9465
-11.5655 -7.2266 -1.9323 0.9464
-9.2881 -10.0996 -1.9442 0.9461
-5.8406 -11.3621 -1.8101 0.9497
-4.8150 -11.8744 -1.8155 0.9496
-3.7450 -12.2957 -1.8212 0.9494
-2.5956 -12.4170 -1.7974 0.9500
-1.5036 -12.8493 -1.8330 0.9491
-0.3492 -12.9755 -1.8392 0.9489
0.8158 -12.9982 -1.8453 0.9487
1.9820 -12.9164 -1.8515 0.9486
3.1400 -12.7295 -1.8577 0.9484
5.3929 -12.0436 -1.8697 0.9481
6.4685 -11.5482 -1.8755 0.9479
7.6786 -11.2196 -1.9264 0.9466
10.1552 -10.2791 -2.0473 0.9433
11.0604 -9.3516 -2.0522 0.9432
12.6010 -7.2603 -2.0606 0.9429
13.2218 -6.1139 -2.0640 0.9428
13.7345 -4.9133 -2.0668 0.9428
14.4170 -2.3915 -2.0706 0.9427
14.5800 -1.0926 -2.0716 0.9426
14.6216 0.2162 -2.0720 0.9426
14.3403 2.8167 -2.0707 0.9427
3.1407 6.0177 -0.9618 0.9729
2.9709 7.1981 -1.1034 0.9690
3.9110 12.5604 -1.8640 0.9482
1.5994 12.9706 -1.8517 0.9486
0.4312 13.0180 -1.8455 0.9487
-0.7327 12.9608 -1.8393 0.9489
-1.8830 12.8006 -1.8332 0.9491
-5.1645 11.7280 -1.8157 0.9495
-9.6062 8.2248 -1.7918 0.9502
-11.7747 6.8819 -1.9324 0.9464
-12.3240 5.7918 -1.9294 0.9465
-13.1284 3.4948 -1.9249 0.9466
-13.3785 2.3046 -1.9235 0.9466
-13.5033 -1.3298 -1.9225 0.9467
-12.6919 -4.8776 -1.9265 0.9466
-10.9909 -8.1092 -1.9353 0.9463
-10.2419 -9.0782 -1.9392 0.9462
-9.4097 -9.9803 -1.9435 0.9461
-7.3046 -11.2271 -1.8978 0.9473
-5.9788 -11.2843 -1.8094 0.9497
-3.8956 -12.2429 -1.8204 0.9494
-2.7574 -12.4195 -1.8026 0.9499
2.9804 -12.7616 -1.8568 0.9484
6.3221 -11.6227 -1.8747 0.9480
7.4776 -11.2222 -1.9107 0.9470
10.0234 -10.4007 -2.0466 0.9433
10.9401 -9.4851 -2.0516 0.9432
11.7705 -8.4869 -2.0561 0.9431
12.5069 -7.4143 -2.0601 0.9430
13.1421 -6.2762 -2.0635 0.9429
14.3849 -2.5699 -2.0705 0.9427
14.6231 0.0347 -2.0719 0.9426
14.5598 1.3427 -2.0717 0.9426
14.0713 3.9114 -2.0693 0.9427
11.4526 4.3200 -1.7343 0.9518
13.1182 6.3415 -2.0645 0.9428
12.4552 7.4639 -2.0574 0.9430
10.8416 7.8957 -1.9003 0.9473
5.5169 5.7793 -1.1321 0.9682
4.6298 5.8128 -1.0529 0.9704
3.8658 5.8619 -0.9949 0.9720
-9.6957 6.7203 -1.9434 0.9533
-10.7076 4.8709 -1.9379 0.9534
-11.0884 3.8893 -1.9358 0.9535
-11.5871 1.8483 -1.9330 0.9535
-11.7017 0.8040 -1.9323 0.9536
-11.7254 -0.2461 -1.9321 0.9536
-11.6580 -1.2943 -1.9323 0.9536
-11.4999 -2.3330 -1.9331 0.9535
-10.4951 -5.3167 -1.9382 0.9534
-9.9908 -6.2426 -1.9408 0.9534
-9.4069 -7.1225 -1.9438 0.9533
-8.0168 -8.7172 -1.9510 0.9531
-7.2202 -9.4195 -1.9552 0.9530
-5.4517 -10.6056 -1.9645 0.9528
-4.4812 -11.0512 -1.9645 0.9528
-1.3128 -11.2187 -1.8608 0.9552
-0.3020 -11.2223 -1.8494 0.9555
2.7668 -11.2168 -1.9032 0.9542
3.8573 -11.2092 -1.9529 0.9531
6.0079 -10.7259 -2.0253 0.9514
6.9609 -10.1710 -2.0304 0.9513
7.8616 -9.5301 -2.0352 0.9512
8.7020 -8.8081 -2.0398 0.9510
9.4744 -8.0106 -2.0439 0.9509
10.1718 -7.1441 -2.0477 0.9509
12.3337 -2.0459 -2.0596 0.9506
12.5077 0.1849 -2.0607 0.9506
12.4394 1.3030 -2.0605 0.9506
12.2681 2.4097 -2.0596 0.9506
11.9954 3.4952 -2.0583 0.9506
11.6240 4.5502 -2.0564 0.9507
11.1573 5.5654 -2.0540 0.9507
9.9412 7.4305 -2.0446 0.9509
4.4732 5.7615 -1.2016 0.9709
2.9395 7.1219 -1.2693 0.9692
1.3746 11.1477 -1.8504 0.9555
-0.6303 11.1497 -1.8397 0.9557
-2.5924 10.7973 -1.8293 0.9560
-3.5382 10.4930 -1.8242 0.9561
-4.4508 10.1073 -1.8194 0.9562
-5.3235 9.6438 -1.8147 0.9563
-6.1498 9.1066 -1.8103 0.9564
-8.9461 7.6596 -1.9402 0.9534
-9.6138 6.8416 -1.9439 0.9533
-11.7276 -0.1006 -1.9321 0.9536
-11.6727 -1.1495 -1.9323 0.9536
-11.2918 -3.2144 -1.9341 0.9535
-10.5585 -5.1851 -1.9378 0.9534
-8.8431 -7.8383 -1.9467 0.9532
-8.1220 -8.6146 -1.9505 0.9531
-5.5810 -10.5335 -1.9638 0.9528
-4.6185 -10.9960 -1.9648 0.9528
-0.4414 -11.2219 -1.8501 0.9555
0.5647 -11.2236 -1.8513 0.9555
1.5797 -11.2218 -1.8669 0.9551
4.8492 -11.1999 -2.0106 0.9517
6.8319 -10.2531 -2.0297 0.9513
7.7403 -9.6238 -2.0346 0.9512
8.5895 -8.9128 -2.0392 0.9511
11.2487 -5.3719 -2.0536 0.9507
11.6982 -4.3493 -2.0560 0.9507
12.3065 -2.1986 -2.0595 0.9506
12.4593 -1.0893 -2.0604 0.9506
12.5090 0.0297 -2.0607 0.9506
12.4550 1.1486 -2.0605 0.9506
11.6812 4.4063 -2.0567 0.9506
10.6823 6.4014 -2.0516 0.9508
4.5867 5.7587 -1.2128 0.9706
3.8086 5.7752 -1.1397 0.9723
-9.0070 5.1154 -1.9469 0.9587
-9.7538 3.4212 -1.9428 0.9588
-10.0133 2.5330 -1.9414 0.9588
-10.2571 -1.1388 -1.9398 0.9589
-9.8989 -2.9511 -1.9415 0.9588
-9.6026 -3.8278 -1.9430 0.9588
-9.2306 -4.6761 -1.9449 0.9588
-8.2706 -6.2621 -1.9499 0.9587
-7.6891 -6.9877 -1.9529 0.9586
-7.0452 -7.6608 -1.9563 0.9585
-5.5890 -8.8280 -1.9639 0.9584
-2.1576 -10.3215 -1.9820 0.9580
-1.2286 -10.4992 -1.9869 0.9579
-0.2851 -10.5936 -1.9919 0.9578
0.6655 -10.6034 -1.9969 0.9577
1.6155 -10.5279 -2.0020 0.9576
3.4830 -10.1215 -2.0119 0.9574
4.3850 -9.7927 -2.0168 0.9573
8.8858 -6.2408 -2.0410 0.9568
9.8819 -4.5695 -2.0464 0.9567
10.5573 -2.7404 -2.0501 0.9566
10.7664 -1.7859 -2.0513 0.9566
10.8581 1.1373 -2.0521 0.9565
10.1489 3.9728 -2.0485 0.9566
9.2577 5.7050 -2.0440 0.9567
8.6978 6.5011 -2.0410 0.9568
6.4070 5.7504 -1.6182 0.9656
4.4663 5.7526 -1.3689 0.9708
3.7194 5.7950 -1.2943 0.9724
2.9396 9.4408 -1.8585 0.9606
2.0781 9.6422 -1.8540 0.9606
0.3249 9.8088 -1.8447 0.9608
-1.4211 9.6609 -1.8354 0.9610
-3.1048 9.2077 -1.8264 0.9612
-3.9069 8.8721 -1.8221 0.9613
-4.6744 8.4679 -1.8180 0.9614
-7.2564 7.4366 -1.9530 0.9586
-9.7118 3.5423 -1.9431 0.9588
-10.2863 0.8350 -1.9398 0.9589
-9.9338 -2.8278 -1.9413 0.9588
-9.6482 -3.7079 -1.9428 0.9588
-8.8515 -5.3792 -1.9469 0.9587
-8.3460 -6.1578 -1.9495 0.9587
-6.4440 -8.1943 -1.9594 0.9585
-5.6964 -8.7554 -1.9633 0.9584
-3.1885 -10.0206 -1.9765 0.9581
-1.3583 -10.4795 -1.9862 0.9579
-0.4164 -10.5855 -1.9912 0.9578
0.5337 -10.6071 -1.9962 0.9577
2.4276 -10.3944 -2.0063 0.9575
5.1372 -9.4443 -2.0208 0.9572
5.9747 -8.9667 -2.0253 0.9571
6.7671 -8.4139 -2.0295 0.9570
7.5074 -7.7900 -2.0335 0.9569
8.1890 -7.0999 -2.0372 0.9568
8.8058 -6.3492 -2.0405 0.9568
9.8229 -4.6911 -2.0461 0.9567
10.7427 -1.9192 -2.0512 0.9566
10.9186 0.0260 -2.0523 0.9565
10.8716 1.0026 -2.0521 0.9565
10.7350 1.9705 -2.0515 0.9566
10.1986 3.8470 -2.0488 0.9566
9.8039 4.7393 -2.0468 0.9566
9.3294 5.5907 -2.0443 0.9567
5.5000 5.7615 -1.4971 0.9681
3.7965 5.7567 -1.2962 0.9723
3.1624 5.8802 -1.2550 0.9732
-8.3974 3.8200 -1.9501 0.9630
-8.6981 3.0508 -1.9484 0.9630
-8.9302 2.2590 -1.9471 0.9630
-9.0921 1.4503 -1.9462 0.9631
-9.1828 0.6309 -1.9456 0.9631
-9.1484 -1.0157 -1.9457 0.9631
-8.2306 -4.1694 -1.9503 0.9630
-7.8328 -4.8942 -1.9523 0.9629
-7.3725 -5.5821 -1.9547 0.9629
-4.9782 -7.8632 -1.9672 0.9627
-3.5109 -8.6583 -1.9749 0.9625
-2.7280 -8.9564 -1.9791 0.9624
-1.9199 -9.1843 -1.9833 0.9624
-1.0929 -9.3398 -1.9877 0.9623
0.5916 -9.4273 -1.9967 0.9621
2.2723 -9.2120 -2.0056 0.9620
3.0941 -8.9913 -2.0100 0.9619
4.6663 -8.3307 -2.0184 0.9617
5.4034 -7.8953 -2.0223 0.9616
6.0993 -7.3938 -2.0261 0.9616
6.7480 -6.8303 -2.0296 0.9615
7.8809 -5.5350 -2.0357 0.9614
8.3550 -4.8139 -2.0383 0.9613
8.7617 -4.0515 -2.0405 0.9613
9.6497 -0.7231 -2.0455 0.9612
9.6768 0.1431 -2.0457 0.9612
9.6242 1.0081 -2.0455 0.9612
9.4925 1.8645 -2.0449 0.9612
7.7141 5.7659 -2.0358 0.9614
3.7851 5.8975 -1.4813 0.9718
2.9428 7.1299 -1.6304 0.9690
2.6113 8.3866 -1.8567 0.9647
1.8466 8.5679 -1.8527 0.9648
0.2889 8.7207 -1.8444 0.9650
-0.4914 8.6920 -1.8403 0.9650
-4.2591 7.7155 -1.8629 0.9646
-5.1892 7.6841 -1.9600 0.9628
-7.0344 6.0229 -1.9575 0.9628
-8.3505 3.9244 -1.9503 0.9630
-9.1745 0.7448 -1.9457 0.9631
-9.2033 -0.0790 -1.9455 0.9631
-9.1601 -0.9021 -1.9456 0.9631
-9.0451 -1.7184 -1.9462 0.9631
-8.6039 -3.3066 -1.9484 0.9630
-7.8917 -4.7959 -1.9520 0.9629
-6.9283 -6.1412 -1.9570 0.9629
-5.7412 -7.3006 -1.9632 0.9627
-5.0741 -7.7988 -1.9667 0.9627
-4.3643 -8.2371 -1.9704 0.9626
-2.0331 -9.1570 -1.9827 0.9624
-1.2084 -9.3227 -1.9871 0.9623
-0.3703 -9.4144 -1.9915 0.9622
0.4745 -9.4309 -1.9960 0.9621
1.3193 -9.3717 -2.0005 0.9620
4.5613 -8.3856 -2.0178 0.9617
5.3037 -7.9596 -2.0218 0.9617
6.6612 -6.9119 -2.0291 0.9615
7.2645 -6.2983 -2.0323 0.9615
7.8101 -5.6313 -2.0353 0.9614
8.2933 -4.9164 -2.0379 0.9614
8.7096 -4.1594 -2.0402 0.9613
9.5224 -1.7012 -2.0447 0.9612
9.6778 0.0230 -2.0457 0.9612
9.5154 1.7467 -2.0450 0.9612
9.3165 2.5897 -2.0440 0.9612
9.0414 3.4105 -2.0426 0.9613
8.6924 4.2020 -2.0408 0.9613
8.2728 4.9575 -2.0387 0.9613
7.7865 5.6708 -2.0361 0.9614
5.5005 5.7620 -1.6838 0.9680
3.8885 5.8963 -1.4930 0.9715
3.1597 5.8753 -1.4101 0.9731
-6.8485 4.7468 -1.9584 0.9663
-7.2378 4.1106 -1.9563 0.9664
-7.8412 2.7503 -1.9529 0.9664
-8.0510 2.0366 -1.9518 0.9665
-8.1973 1.3076 -1.9509 0.9665
-8.2793 0.5688 -1.9504 0.9665
-8.2964 -0.1741 -1.9503 0.9665
-7.4191 -3.7584 -1.9546 0.9664
-7.0597 -4.4112 -1.9565 0.9664
-6.6441 -5.0306 -1.9586 0.9663
-6.1751 -5.6118 -1.9611 0.9663
-3.1608 -7.7949 -1.9769 0.9660
-2.4554 -8.0616 -1.9806 0.9660
-0.9833 -8.4030 -1.9884 0.9658
0.5321 -8.4779 -1.9964 0.9657
1.2910 -8.4132 -2.0005 0.9656
2.0426 -8.2805 -2.0045 0.9656
3.4990 -7.8142 -2.0122 0.9654
4.1918 -7.4836 -2.0159 0.9654
5.4770 -6.6394 -2.0228 0.9653
6.5920 -5.5736 -2.0288 0.9652
7.4979 -4.3200 -2.0338 0.9651
8.3962 -2.1794 -2.0387 0.9650
8.6566 -0.6487 -2.0402 0.9650
8.6337 0.9044 -2.0402 0.9650
8.5159 1.6727 -2.0397 0.9650
8.3283 2.4267 -2.0387 0.9650
8.0727 3.1600 -2.0374 0.9650
6.4247 5.7663 -2.0289 0.9651
5.8747 6.3090 -2.0260 0.9652
3.0886 5.9179 -1.5689 0.9729
3.1816 7.7085 -1.9599 0.9663
2.4035 7.7192 -1.9001 0.9673
1.6655 7.7277 -1.8579 0.9680
0.9623 7.8035 -1.8479 0.9682
0.2598 7.8425 -1.8442 0.9683
-0.4420 7.8184 -1.8404 0.9683
-1.1378 7.7346 -1.8374 0.9684
-2.6007 7.7128 -1.9130 0.9671
-3.3779 7.6710 -1.9699 0.9661
-4.0545 7.3450 -1.9718 0.9661
-4.6911 6.9466 -1.9700 0.9661
-5.8357 5.9806 -1.9639 0.9662
-6.3385 5.4271 -1.9611 0.9663
-6.7902 4.8322 -1.9587 0.9663
-7.1873 4.2007 -1.9565 0.9664
-8.0257 2.1364 -1.9519 0.9664
-8.2718 0.6715 -1.9505 0.9665
-8.2589 -0.8133 -1.9504 0.9665
-7.4642 -3.6656 -1.9544 0.9664
-6.7049 -4.9470 -1.9583 0.9663
-6.2431 -5.5338 -1.9607 0.9663
-4.5700 -7.0240 -1.9695 0.9662
-3.2565 -7.7531 -1.9764 0.9660
-1.8296 -8.2406 -1.9839 0.9659
-0.3331 -8.4685 -1.9918 0.9658
1.9391 -8.3030 -2.0039 0.9656
4.0976 -7.5331 -2.0154 0.9654
4.7635 -7.1490 -2.0190 0.9653
5.3930 -6.7053 -2.0224 0.9653
7.0099 -5.0544 -2.0311 0.9651
7.4426 -4.4121 -2.0334 0.9651
8.1247 -3.0207 -2.0372 0.9650
8.5428 -1.5262 -2.0395 0.9650
8.5364 1.5670 -2.0398 0.9650
8.3584 2.3234 -2.0389 0.9650
7.4240 4.4489 -2.0341 0.9651
6.9885 5.0895 -2.0319 0.9651
5.9537 6.2369 -2.0265 0.9652
-6.5815 3.7378 -1.9597 0.9692
-7.2386 -2.1580 -1.9557 0.9693
-7.0205 -2.7985 -1.9568 0.9693
-6.7468 -3.4178 -1.9582 0.9692
-5.6138 -5.1018 -1.9641 0.9691
-4.6269 -6.0364 -1.9692 0.9691
-2.8714 -7.0813 -1.9785 0.9689
-1.5690 -7.5056 -1.9853 0.9688
-0.2070 -7.6929 -1.9926 0.9687
0.4829 -7.6947 -1.9962 0.9686
1.8532 -7.5128 -2.0035 0.9685
2.5224 -7.3300 -2.0071 0.9685
3.8011 -6.7862 -2.0139 0.9684
4.9650 -6.0187 -2.0202 0.9683
5.9741 -5.0511 -2.0256 0.9682
6.4095 -4.5017 -2.0280 0.9682
6.7935 -3.9142 -2.0300 0.9681
7.7551 -1.2864 -2.0354 0.9680
7.8203 0.8192 -2.0359 0.9680
7.3131 2.8627 -2.0334 0.9681
7.0225 3.5029 -2.0319 0.9681
6.6751 4.1135 -2.0301 0.9681
6.2739 4.6893 -2.0280 0.9682
5.3247 5.7183 -2.0231 0.9682
4.7851 6.1632 -2.0202 0.9683
3.7851 5.8974 -1.8144 0.9715
3.1053 5.9498 -1.7377 0.9727
2.3019 7.3928 -2.0048 0.9685
0.9422 7.6410 -1.9934 0.9687
-1.1149 7.5792 -1.9835 0.9688
-1.7874 7.4442 -1.9822 0.9689
-3.0797 6.9937 -1.9786 0.9689
-5.3046 5.4364 -1.9666 0.9691
-5.7624 4.9338 -1.9642 0.9691
-6.5354 3.8197 -1.9600 0.9692
-6.8450 3.2169 -1.9583 0.9692
-7.1003 2.5898 -1.9569 0.9693
-7.5475 -0.0647 -1.9543 0.9693
-7.5119 -0.7398 -1.9544 0.9693
-7.2643 -2.0679 -1.9556 0.9693
-7.0540 -2.7109 -1.9566 0.9693
-6.7879 -3.3334 -1.9580 0.9692
-6.4679 -3.9307 -1.9597 0.9692
-5.6758 -5.0309 -1.9638 0.9691
-5.2094 -5.5253 -1.9662 0.9691
-2.9584 -7.0435 -1.9780 0.9689
-2.3203 -7.2923 -1.9814 0.9689
-1.6616 -7.4837 -1.9849 0.9688
-0.9872 -7.6160 -1.9884 0.9688
-0.3024 -7.6878 -1.9921 0.9687
1.7594 -7.5334 -2.0030 0.9685
2.4306 -7.3589 -2.0066 0.9685
3.0846 -7.1243 -2.0101 0.9684
4.8889 -6.0786 -2.0198 0.9683
5.4208 -5.6248 -2.0226 0.9682
6.3522 -4.5801 -2.0276 0.9682
6.7436 -3.9977 -2.0298 0.9681
7.0806 -3.3814 -2.0316 0.9681
7.3603 -2.7365 -2.0332 0.9681
7.5801 -2.0683 -2.0344 0.9681
7.5714 2.1046 -2.0347 0.9681
7.3487 2.7720 -2.0336 0.9681
6.3325 4.6118 -2.0283 0.9681
-5.7030 3.9529 -1.9644 0.9716
-6.0284 3.4237 -1.9626 0.9716
-6.5328 2.2914 -1.9598 0.9716
-6.8307 1.0896 -1.9582 0.9717
-6.6314 -1.9770 -1.9590 0.9716
-6.1802 -3.1308 -1.9612 0.9716
-5.8799 -3.6740 -1.9628 0.9716
-4.2364 -5.5268 -1.9714 0.9715
-2.0409 -6.7006 -1.9829 0.9713
-1.4355 -6.8673 -1.9861 0.9713
-0.8168 -6.9797 -1.9894 0.9712
-0.1894 -7.0365 -1.9927 0.9712
0.4416 -7.0371 -1.9961 0.9711
1.0712 -6.9810 -1.9994 0.9711
1.6943 -6.8686 -2.0027 0.9710
2.3057 -6.7003 -2.0060 0.9710
2.9005 -6.4774 -2.0092 0.9709
4.5360 -5.4986 -2.0179 0.9708
5.0161 -5.0773 -2.0205 0.9708
5.4567 -4.6136 -2.0229 0.9707
5.8537 -4.1113 -2.0250 0.9707
6.5041 -3.0076 -2.0286 0.9706
6.7516 -2.4153 -2.0300 0.9706
6.9443 -1.8025 -2.0310 0.9706
7.1587 -0.5365 -2.0323 0.9706
7.1786 0.1061 -2.0324 0.9706
7.0427 1.3833 -2.0318 0.9706
6.8881 2.0071 -2.0311 0.9706
6.0957 3.7565 -2.0270 0.9707
5.3181 4.7731 -2.0230 0.9707
4.8640 5.2236 -2.0206 0.9708
4.3716 5.6306 -2.0180 0.9708
3.2889 6.3017 -2.0123 0.9709
2.1067 6.7659 -2.0061 0.9710
0.2334 7.0474 -1.9962 0.9711
-0.3973 7.0282 -1.9928 0.9712
-1.0228 6.9529 -1.9895 0.9712
-2.2382 6.6376 -1.9830 0.9713
-2.8186 6.4007 -1.9799 0.9713
-3.3748 6.1137 -1.9769 0.9714
-3.9027 5.7790 -1.9741 0.9714
-4.3981 5.3994 -1.9714 0.9715
-4.8574 4.9780 -1.9690 0.9715
-5.6543 4.0239 -1.9647 0.9716
-6.2702 2.9468 -1.9613 0.9716
-6.6870 1.7801 -1.9590 0.9716
-6.8169 1.1743 -1.9582 0.9717
-6.9148 -0.0593 -1.9576 0.9717
-6.7954 -1.2910 -1.9581 0.9717
-6.6550 -1.8944 -1.9588 0.9716
-6.4621 -2.4834 -1.9598 0.9716
-5.5835 -4.1196 -1.9643 0.9716
-4.7703 -5.0596 -1.9686 0.9715
-4.3038 -5.4728 -1.9710 0.9715
-2.7076 -6.4465 -1.9794 0.9714
-1.5203 -6.8474 -1.9857 0.9713
-0.9031 -6.9674 -1.9889 0.9712
1.6086 -6.8875 -2.0023 0.9710
2.2219 -6.7269 -2.0055 0.9710
4.4666 -5.5535 -2.0176 0.9708
4.9519 -5.1383 -2.0202 0.9708
5.3982 -4.6802 -2.0226 0.9707
5.8015 -4.1830 -2.0248 0.9707
6.1583 -3.6507 -2.0267 0.9707
6.7206 -2.4986 -2.0298 0.9706
6.9209 -1.8884 -2.0309 0.9706
7.1487 0.6592 -2.0323 0.9706
6.9129 1.9216 -2.0312 0.9706
6.7098 2.5310 -2.0302 0.9706
5.7833 4.2119 -2.0254 0.9707
4.9293 5.1637 -2.0209 0.9708
4.4419 5.5769 -2.0184 0.9708
3.3676 6.2617 -2.0127 0.9709
-5.2553 3.6426 -1.9667 0.9736
-5.5555 3.1552 -1.9651 0.9736
-6.1829 1.5640 -1.9616 0.9737
-6.3725 -0.1337 -1.9605 0.9737
-6.1121 -1.8222 -1.9617 0.9737
-5.9274 -2.3628 -1.9627 0.9736
-5.6957 -2.8853 -1.9638 0.9736
-5.4187 -3.3858 -1.9653 0.9736
-5.0983 -3.8602 -1.9669 0.9736
-4.3375 -4.7165 -1.9709 0.9735
-3.9027 -5.0915 -1.9732 0.9735
-3.4358 -5.4270 -1.9756 0.9735
-2.9404 -5.7201 -1.9782 0.9734
-2.4202 -5.9685 -1.9810 0.9734
-1.8792 -6.1699 -1.9838 0.9734
-1.3217 -6.3227 -1.9868 0.9733
-0.7519 -6.4253 -1.9898 0.9733
-0.1743 -6.4768 -1.9928 0.9732
0.4065 -6.4764 -1.9959 0.9732
0.9857 -6.4240 -1.9990 0.9732
1.5589 -6.3196 -2.0021 0.9731
3.1948 -5.7037 -2.0108 0.9730
3.6972 -5.4022 -2.0135 0.9730
4.1710 -5.0562 -2.0160 0.9729
4.6120 -4.6682 -2.0184 0.9729
5.0165 -4.2415 -2.0206 0.9729
5.3811 -3.7794 -2.0226 0.9729
6.3821 -1.6566 -2.0281 0.9728
6.5971 0.0975 -2.0293 0.9728
6.5615 0.6873 -2.0292 0.9728
6.4723 1.2713 -2.0288 0.9728
6.3304 1.8446 -2.0281 0.9728
5.8939 2.9400 -2.0259 0.9728
4.8891 4.3881 -2.0206 0.9729
4.4721 4.8027 -2.0185 0.9729
4.0198 5.1775 -2.0161 0.9729
3.5360 5.5094 -2.0136 0.9730
3.0249 5.7959 -2.0109 0.9730
1.9381 6.2244 -2.0051 0.9731
0.7954 6.4506 -1.9991 0.9732
0.2148 6.4859 -1.9960 0.9732
-0.9415 6.4006 -1.9899 0.9733
-1.5081 6.2812 -1.9869 0.9733
-2.0609 6.1120 -1.9839 0.9734
-2.5957 5.8946 -1.9810 0.9734
-3.1083 5.6309 -1.9783 0.9734
-3.5949 5.3232 -1.9757 0.9735
-4.4752 4.5864 -1.9710 0.9735
-5.2104 3.7079 -1.9670 0.9736
-5.5165 3.2242 -1.9653 0.9736
-5.7786 2.7158 -1.9639 0.9736
-5.9948 2.1866 -1.9627 0.9736
-6.1634 1.6407 -1.9617 0.9737
-6.2833 1.0823 -1.9611 0.9737
-6.3737 -0.0547 -1.9605 0.9737
-5.7305 -2.8142 -1.9637 0.9736
-5.1452 -3.7962 -1.9667 0.9736
-4.3950 -4.6616 -1.9706 0.9735
-3.0106 -5.6821 -1.9779 0.9734
-2.4936 -5.9368 -1.9806 0.9734
-1.9553 -6.1449 -1.9834 0.9734
-1.3997 -6.3045 -1.9863 0.9733
-0.8314 -6.4141 -1.9894 0.9733
1.4800 -6.3372 -2.0016 0.9731
2.0441 -6.1887 -2.0046 0.9731
2.5933 -5.9897 -2.0076 0.9731
5.3331 -3.8454 -2.0223 0.9729
6.1768 -2.2965 -2.0269 0.9728
6.4878 1.1909 -2.0289 0.9728
6.3532 1.7660 -2.0282 0.9728
6.1669 2.3262 -2.0273 0.9728
5.6462 3.3835 -2.0246 0.9728
5.3163 3.8718 -2.0229 0.9729
3.6048 5.4660 -2.0139 0.9730
-5.1462 2.9227 -1.9673 0.9754
-5.7281 1.4490 -1.9640 0.9754
-5.8330 0.9304 -1.9634 0.9754
-5.9040 -0.1239 -1.9630 0.9754
-5.8697 -0.6517 -1.9631 0.9754
-5.6625 -1.6881 -1.9641 0.9754
-5.4912 -2.1889 -1.9650 0.9754
-4.7224 -3.5756 -1.9689 0.9753
-2.2406 -5.5255 -1.9820 0.9752
-1.2233 -5.8521 -1.9873 0.9751
-0.1613 -5.9934 -1.9930 0.9750
0.3761 -5.9923 -1.9958 0.9750
1.4420 -5.8460 -2.0015 0.9749
1.9619 -5.7014 -2.0042 0.9749
2.4675 -5.5104 -2.0069 0.9749
3.4186 -4.9951 -2.0120 0.9748
3.8563 -4.6747 -2.0144 0.9748
4.6373 -3.9208 -2.0186 0.9747
5.7348 -2.0515 -2.0246 0.9747
6.0133 -0.9975 -2.0262 0.9746
6.0964 0.0901 -2.0267 0.9746
5.9812 1.1748 -2.0262 0.9746
5.6717 2.2202 -2.0246 0.9747
5.1788 3.1914 -2.0221 0.9747
4.8687 3.6390 -2.0205 0.9747
4.1344 4.4400 -2.0166 0.9748
3.7165 4.7869 -2.0145 0.9748
1.7926 5.7571 -2.0043 0.9749
0.7359 5.9678 -1.9987 0.9750
0.1988 6.0011 -1.9959 0.9750
-1.3958 5.8136 -1.9874 0.9751
-1.9077 5.6577 -1.9847 0.9751
-2.4030 5.4570 -1.9820 0.9752
-2.8779 5.2135 -1.9795 0.9752
-4.5035 3.8559 -1.9707 0.9753
-4.8262 3.4345 -1.9690 0.9753
-5.3531 2.5158 -1.9661 0.9754
-5.5536 2.0257 -1.9650 0.9754
-5.7100 1.5200 -1.9641 0.9754
-5.8212 1.0028 -1.9635 0.9754
-5.9051 -0.0506 -1.9630 0.9754
-5.8772 -0.5788 -1.9631 0.9754
-5.8029 -1.1025 -1.9634 0.9754
-5.6827 -1.6177 -1.9640 0.9754
-5.3086 -2.6070 -1.9659 0.9754
-5.0574 -3.0735 -1.9672 0.9754
-4.0704 -4.3173 -1.9723 0.9753
-3.2430 -4.9845 -1.9767 0.9752
-2.3085 -5.4962 -1.9816 0.9752
-1.2956 -5.8354 -1.9869 0.9751
0.3016 -5.9953 -1.9954 0.9750
1.3691 -5.8623 -2.0011 0.9749
1.8907 -5.7242 -2.0039 0.9749
2.3985 -5.5396 -2.0066 0.9749
2.8882 -5.3097 -2.0092 0.9748
3.3558 -5.0363 -2.0117 0.9748
3.7974 -4.7215 -2.0141 0.9748
5.4925 -2.6230 -2.0233 0.9747
5.7085 -2.1224 -2.0244 0.9747
6.0002 -1.0720 -2.0261 0.9746
6.0710 0.5599 -2.0266 0.9746
5.9955 1.1005 -2.0262 0.9746
4.1897 4.3890 -2.0169 0.9747
3.7762 4.7411 -2.0148 0.9748
-4.5289 3.1391 -1.9705 0.9769
-5.0091 2.2787 -1.9679 0.9769
-5.1902 1.8205 -1.9669 0.9769
-5.4279 0.8658 -1.9656 0.9769
-5.2691 -1.5708 -1.9662 0.9769
-4.6701 -2.9181 -1.9693 0.9769
-4.0817 -3.7094 -1.9723 0.9768
-3.7369 -4.0633 -1.9741 0.9768
1.8230 -5.2977 -2.0035 0.9765
3.5820 -4.3422 -2.0130 0.9764
3.9601 -4.0084 -2.0150 0.9763
4.3068 -3.6414 -2.0169 0.9763
5.1305 -2.3724 -2.0214 0.9763
5.4763 -1.4215 -2.0233 0.9763
5.6603 0.0837 -2.0244 0.9762
5.4320 1.5828 -2.0233 0.9763
5.2664 2.0615 -2.0225 0.9763
4.8091 2.9636 -2.0201 0.9763
4.5214 3.3795 -2.0186 0.9763
3.8400 4.1238 -2.0151 0.9763
3.0372 4.7322 -2.0108 0.9764
2.5987 4.9792 -2.0085 0.9764
2.1403 5.1855 -2.0061 0.9765
0.6839 5.5463 -1.9984 0.9765
-0.3146 5.5646 -1.9931 0.9766
-0.8101 5.5069 -1.9905 0.9766
-1.2978 5.4053 -1.9879 0.9767
-1.7739 5.2608 -1.9854 0.9767
-2.6765 4.8486 -1.9805 0.9767
-3.0960 4.5845 -1.9783 0.9768
-4.1896 3.5872 -1.9724 0.9768
-4.4901 3.1953 -1.9708 0.9769
-4.7544 2.7788 -1.9693 0.9769
-5.4169 0.9331 -1.9656 0.9769
-5.4951 -0.0472 -1.9651 0.9769
-5.3999 -1.0259 -1.9656 0.9769
-5.2879 -1.5053 -1.9661 0.9769
-5.1341 -1.9731 -1.9669 0.9769
-4.7055 -2.8596 -1.9691 0.9769
-3.7865 -4.0162 -1.9739 0.9768
-3.0163 -4.6361 -1.9779 0.9768
-2.1468 -5.1112 -1.9825 0.9767
-0.7153 -5.5187 -1.9900 0.9766
-0.2190 -5.5679 -1.9927 0.9766
0.7788 -5.5325 -1.9980 0.9765
1.2723 -5.4478 -2.0006 0.9765
2.2285 -5.1470 -2.0057 0.9765
3.1174 -4.6785 -2.0105 0.9764
3.9095 -4.0567 -2.0147 0.9764
4.8587 -2.8803 -2.0199 0.9763
5.3006 -1.9707 -2.0223 0.9763
5.4580 -1.4892 -2.0232 0.9763
5.5711 -0.9953 -2.0238 0.9762
5.6389 -0.4930 -2.0242 0.9762
5.6609 0.0135 -2.0244 0.9762
5.4514 1.5153 -2.0234 0.9763
5.0895 2.4603 -2.0215 0.9763
4.5634 3.3235 -2.0188 0.9763
4.2443 3.7153 -2.0172 0.9763
3.8914 4.0764 -2.0153 0.9763
3.0962 4.6949 -2.0112 0.9764
-4.2296 2.9316 -1.9721 0.9782
-4.4719 2.5398 -1.9708 0.9782
-4.8478 1.7004 -1.9687 0.9782
-4.9786 1.2594 -1.9680 0.9782
-2.2942 -0.0482 -0.8794 0.9902
-2.3023 -0.2556 -0.8877 0.9901
-5.0317 -1.0208 -1.9675 0.9782
-4.3617 -2.7253 -1.9709 0.9782
-3.1389 -4.0951 -1.9773 0.9781
-1.9451 -4.7968 -1.9836 0.9781
-1.5099 -4.9573 -1.9859 0.9780
-1.0616 -5.0785 -1.9882 0.9780
-0.1399 -5.1992 -1.9931 0.9780
0.7908 -5.1536 -1.9981 0.9779
2.1385 -4.7758 -2.0053 0.9778
2.9618 -4.3277 -2.0097 0.9778
3.3405 -4.0495 -2.0117 0.9778
3.6929 -3.7379 -2.0136 0.9777
4.5635 -2.6293 -2.0183 0.9777
4.9644 -1.7759 -2.0205 0.9777
5.2767 0.0780 -2.0223 0.9776
5.2482 0.5498 -2.0222 0.9776
5.1772 1.0169 -2.0219 0.9777
4.9098 1.9220 -2.0205 0.9777
4.7159 2.3523 -2.0196 0.9777
4.2158 3.1510 -2.0170 0.9777
3.9139 3.5128 -2.0154 0.9777
3.2194 4.1466 -2.0118 0.9778
2.4239 4.6443 -2.0076 0.9778
1.5539 4.9904 -2.0030 0.9779
0.1724 5.2048 -1.9957 0.9779
-0.2936 5.1929 -1.9932 0.9780
-0.7560 5.1395 -1.9907 0.9780
-1.6558 4.9107 -1.9860 0.9780
-2.4988 4.5267 -1.9814 0.9781
-3.2587 4.0007 -1.9774 0.9781
-3.9125 3.3499 -1.9738 0.9782
-4.4404 2.5953 -1.9710 0.9782
-4.6521 2.1863 -1.9698 0.9782
-4.8266 1.7605 -1.9689 0.9782
-5.0597 0.8716 -1.9675 0.9782
-5.0438 -0.9582 -1.9675 0.9782
-4.9392 -1.4060 -1.9680 0.9782
-4.7954 -1.8429 -1.9687 0.9782
-4.6134 -2.2656 -1.9696 0.9782
-4.3948 -2.6708 -1.9708 0.9782
-4.1410 -3.0553 -1.9721 0.9782
-3.1891 -4.0553 -1.9770 0.9781
-2.8163 -4.3286 -1.9790 0.9781
-2.4203 -4.5680 -1.9811 0.9781
-2.0041 -4.7715 -1.9833 0.9781
-1.5710 -4.9373 -1.9856 0.9780
-1.1244 -5.0641 -1.9879 0.9780
-0.6676 -5.1506 -1.9903 0.9780
0.2616 -5.2000 -1.9953 0.9779
0.7267 -5.1622 -1.9977 0.9779
1.1870 -5.0827 -2.0002 0.9779
1.6390 -4.9621 -2.0026 0.9779
3.6458 -3.7830 -2.0133 0.9777
3.9730 -3.4447 -2.0151 0.9777
4.5301 -2.6855 -2.0181 0.9777
4.7551 -2.2708 -2.0194 0.9777
4.9417 -1.8373 -2.0204 0.9777
5.1936 -0.9279 -2.0218 0.9777
5.2772 0.0125 -2.0223 0.9776
5.1895 0.9526 -2.0219 0.9777
5.0822 1.4127 -2.0214 0.9777
4.9336 1.8610 -2.0207 0.9777
4.5182 2.7076 -2.0185 0.9777
4.2550 3.0988 -2.0172 0.9777
3.6287 3.8013 -2.0139 0.9777
3.2711 4.1069 -2.0120 0.9778
2.8877 4.3787 -2.0100 0.9778
-4.1903 2.3798 -1.9723 0.9794
-4.3841 1.9943 -1.9712 0.9794
-2.1206 0.5364 -0.8953 0.9906
-2.0104 0.1381 -0.8248 0.9913
-2.0188 -0.2241 -0.8313 0.9913
-2.0770 -0.4214 -0.8674 0.9909
-4.2968 -2.1767 -1.9713 0.9794
-4.0870 -2.5537 -1.9724 0.9794
-3.2693 -3.5549 -1.9767 0.9793
-2.9407 -3.8365 -1.9784 0.9793
-0.9942 -4.7561 -1.9886 0.9792
-0.5654 -4.8315 -1.9909 0.9792
1.1704 -4.7448 -2.0001 0.9791
1.5920 -4.6262 -2.0024 0.9791
2.0016 -4.4701 -2.0046 0.9791
3.1261 -3.7896 -2.0106 0.9790
3.7577 -3.1772 -2.0140 0.9790
4.4751 -2.0693 -2.0179 0.9789
4.6445 -1.6615 -2.0188 0.9789
4.7762 -1.2397 -2.0196 0.9789
4.8693 -0.8077 -2.0201 0.9789
4.7375 1.3804 -2.0196 0.9789
4.5934 1.7981 -2.0189 0.9789
4.4121 2.2008 -2.0179 0.9789
3.6623 3.2870 -2.0140 0.9790
3.0128 3.8804 -2.0106 0.9790
2.6510 4.1305 -2.0087 0.9790
1.8687 4.5275 -2.0046 0.9791
1.0297 4.7775 -2.0002 0.9791
0.5974 4.8449 -1.9979 0.9791
0.1614 4.8733 -1.9956 0.9791
-0.7080 4.8128 -1.9910 0.9792
-1.1344 4.7248 -1.9887 0.9792
-1.5508 4.5992 -1.9865 0.9792
-2.3406 4.2402 -1.9823 0.9793
-2.7079 4.0098 -1.9803 0.9793
-3.0529 3.7480 -1.9784 0.9793
-3.3730 3.4568 -1.9767 0.9793
-3.6658 3.1387 -1.9751 0.9794
-4.1608 2.4318 -1.9724 0.9794
-4.3593 2.0487 -1.9714 0.9794
-4.5230 1.6498 -1.9705 0.9794
-2.0136 0.1635 -0.8268 0.9913
-1.9924 -0.0171 -0.8155 0.9914
-4.4937 -1.7270 -1.9703 0.9794
-3.8801 -2.8628 -1.9735 0.9794
-3.3128 -3.5137 -1.9764 0.9793
-2.9877 -3.7992 -1.9781 0.9793
-1.8772 -4.4693 -1.9840 0.9793
-1.4714 -4.6243 -1.9861 0.9792
-1.0530 -4.7427 -1.9883 0.9792
0.2450 -4.8688 -1.9952 0.9792
0.6803 -4.8330 -1.9975 0.9791
1.1113 -4.7582 -1.9998 0.9791
1.5342 -4.6449 -2.0021 0.9791
1.9457 -4.4940 -2.0043 0.9791
2.3425 -4.3064 -2.0064 0.9790
2.7211 -4.0837 -2.0084 0.9790
3.0784 -3.8276 -2.0103 0.9790
3.4116 -3.5400 -2.0121 0.9790
3.7176 -3.2232 -2.0138 0.9790
4.2385 -2.5126 -2.0166 0.9789
4.8587 -0.8680 -2.0200 0.9789
4.9177 -0.4300 -2.0204 0.9789
4.9368 0.0117 -2.0205 0.9789
4.9158 0.4533 -2.0205 0.9789
4.8548 0.8912 -2.0202 0.9789
4.7545 1.3216 -2.0197 0.9789
4.2273 2.5332 -2.0170 0.9789
3.9812 2.8994 -2.0157 0.9789
3.7032 3.2416 -2.0143 0.9790
2.7025 4.0978 -2.0090 0.9790
-1.4896 0.5225 -0.6879 0.9931
-1.4908 0.3771 -0.6702 0.9933
-1.4366 -0.0302 -0.6262 0.9937
-1.4713 -0.1633 -0.6451 0.9936
-1.4746 -0.2991 -0.6557 0.9935
-4.2029 -1.6754 -1.9719 0.9805
-4.0379 -2.0455 -1.9727 0.9804
-3.6128 -2.7354 -1.9749 0.9804
-3.3558 -3.0497 -1.9762 0.9804
-3.0718 -3.3402 -1.9777 0.9804
-2.4315 -3.8407 -1.9811 0.9804
-1.7114 -4.2206 -1.9849 0.9803
-0.9338 -4.4672 -1.9890 0.9803
0.2868 -4.5697 -1.9955 0.9802
1.8792 -4.1966 -2.0039 0.9801
2.6020 -3.8019 -2.0078 0.9801
2.9343 -3.5570 -2.0096 0.9801
4.1996 -1.9419 -2.0164 0.9800
4.3583 -1.5591 -2.0173 0.9800
4.6071 0.4826 -2.0188 0.9800
3.9370 2.4261 -2.0154 0.9800
2.8279 3.6423 -2.0096 0.9801
2.4885 3.8772 -2.0079 0.9801
2.1296 4.0805 -2.0060 0.9801
1.7543 4.2504 -2.0040 0.9801
0.5610 4.5493 -1.9977 0.9802
0.1516 4.5763 -1.9955 0.9802
-0.2582 4.5665 -1.9933 0.9802
-1.0655 4.4378 -1.9890 0.9803
-1.4567 4.3202 -1.9870 0.9803
-2.5441 3.7672 -1.9811 0.9804
-3.9100 2.2853 -1.9738 0.9804
-4.0967 1.9253 -1.9727 0.9804
-1.4862 0.5421 -0.6895 0.9931
-1.4716 0.2535 -0.6508 0.9935
-1.4644 0.1189 -0.6403 0.9936
-1.4690 -0.1446 -0.6433 0.9936
-1.4936 -0.4252 -0.6768 0.9932
-1.5375 -0.5909 -0.7178 0.9928
-3.6461 -2.6902 -1.9747 0.9804
-3.1127 -3.3015 -1.9775 0.9804
-2.8071 -3.5696 -1.9791 0.9804
-2.4787 -3.8098 -1.9808 0.9804
-2.1299 -4.0199 -1.9827 0.9803
-1.7634 -4.1984 -1.9846 0.9803
-0.5872 -4.5301 -1.9908 0.9803
-0.1797 -4.5694 -1.9930 0.9802
0.6388 -4.5382 -1.9973 0.9802
2.1990 -4.0427 -2.0056 0.9801
3.2021 -3.3226 -2.0110 0.9801
4.1749 -1.9938 -2.0163 0.9800
4.3384 -1.6130 -2.0172 0.9800
4.4669 -1.2188 -2.0179 0.9800
4.5592 -0.8145 -2.0185 0.9800
4.6146 -0.4035 -2.0188 0.9800
4.6325 0.0110 -2.0189 0.9800
4.5556 0.8362 -2.0186 0.9800
4.4615 1.2402 -2.0181 0.9800
4.3312 1.6338 -2.0175 0.9800
4.1660 2.0139 -2.0166 0.9800
3.9671 2.3773 -2.0156 0.9800
3.7363 2.7211 -2.0144 0.9800
3.4755 3.0424 -2.0130 0.9800
2.8732 3.6073 -2.0099 0.9801
2.5367 3.8466 -2.0081 0.9801
2.1804 4.0543 -2.0062 0.9801
-3.7098 2.1069 -1.9748 0.9814
-1.2580 0.5723 -0.6397 0.9939
-1.2740 0.2032 -0.5972 0.9943
-1.2710 0.0873 -0.5897 0.9944
-1.2630 -0.0265 -0.5848 0.9944
-1.2749 -0.1415 -0.5937 0.9944
-1.2699 -0.3786 -0.6134 0.9942
-3.8042 -1.9271 -1.9740 0.9814
-3.4034 -2.5769 -1.9760 0.9814
-2.8936 -3.1464 -1.9787 0.9813
-2.6025 -3.3953 -1.9802 0.9813
-1.9591 -3.8112 -1.9836 0.9813
-1.2509 -4.1071 -1.9873 0.9813
-0.8794 -4.2067 -1.9893 0.9812
-0.5000 -4.2728 -1.9913 0.9812
-0.1159 -4.3048 -1.9933 0.9812
1.0345 -4.1938 -1.9995 0.9811
1.4069 -4.0885 -2.0014 0.9811
2.1170 -3.7795 -2.0052 0.9811
2.7614 -3.3475 -2.0087 0.9811
3.0522 -3.0894 -2.0103 0.9810
3.3187 -2.8060 -2.0117 0.9810
3.5588 -2.4995 -2.0130 0.9810
4.1007 -1.4670 -2.0160 0.9810
4.2169 -1.0946 -2.0166 0.9810
4.3580 0.0644 -2.0175 0.9810
4.2759 0.8399 -2.0171 0.9810
4.1827 1.2188 -2.0166 0.9810
3.4834 2.6036 -2.0130 0.9810
3.2344 2.9029 -2.0117 0.9810
2.6613 3.4278 -2.0087 0.9811
0.9101 4.2227 -1.9995 0.9811
0.5281 4.2829 -1.9975 0.9812
0.1427 4.3085 -1.9954 0.9812
-0.6261 4.2563 -1.9914 0.9812
-1.0034 4.1790 -1.9894 0.9812
-1.3718 4.0684 -1.9874 0.9813
-1.7287 3.9256 -1.9855 0.9813
-2.0710 3.7517 -1.9836 0.9813
-2.7018 3.3170 -1.9803 0.9813
-2.9854 3.0596 -1.9787 0.9813
-3.4782 2.4752 -1.9761 0.9814
-1.2661 0.5950 -0.6476 0.9939
-1.2726 0.1033 -0.5910 0.9944
-1.2603 -0.0108 -0.5834 0.9945
-1.2707 -0.2414 -0.5987 0.9943
-3.8276 -1.8797 -1.9738 0.9814
-3.6458 -2.2156 -1.9748 0.9814
-2.3347 -3.5884 -1.9816 0.9813
-1.6608 -3.9541 -1.9852 0.9813
-1.3016 -4.0907 -1.9871 0.9813
-0.1692 -4.3024 -1.9931 0.9812
0.2166 -4.3047 -1.9951 0.9812
1.3559 -4.1051 -2.0012 0.9811
1.7194 -3.9712 -2.0031 0.9811
2.7194 -3.3811 -2.0085 0.9811
3.0133 -3.1267 -2.0100 0.9810
3.2834 -2.8467 -2.0115 0.9810
3.5272 -2.5432 -2.0128 0.9810
4.2028 -1.1468 -2.0165 0.9810
4.2896 -0.7663 -2.0170 0.9810
4.3416 -0.3796 -2.0173 0.9810
4.3399 0.4002 -2.0174 0.9810
4.2861 0.7868 -2.0171 0.9810
4.1977 1.1668 -2.0167 0.9810
4.0752 1.5372 -2.0161 0.9810
3.7328 2.2369 -2.0143 0.9810
3.5157 2.5604 -2.0132 0.9810
2.9991 3.1417 -2.0105 0.9810
2.3874 3.6201 -2.0073 0.9811
-3.3124 2.2959 -1.9769 0.9822
-3.5027 1.9893 -1.9759 0.9822
-1.1241 0.3943 -0.5843 0.9947
-1.1428 0.1823 -0.5676 0.9949
-1.1442 -0.1270 -0.5647 0.9949
-1.1375 -0.2308 -0.5694 0.9948
-3.4163 -2.1346 -1.9760 0.9822
-3.2133 -2.4330 -1.9771 0.9822
-2.9846 -2.7123 -1.9782 0.9822
-2.7318 -2.9705 -1.9796 0.9822
-2.1620 -3.4149 -1.9826 0.9822
-1.8493 -3.5976 -1.9842 0.9821
-1.1807 -3.8764 -1.9877 0.9821
-0.8299 -3.9702 -1.9896 0.9821
-0.1093 -4.0623 -1.9934 0.9821
0.2548 -4.0598 -1.9953 0.9820
0.6176 -4.0246 -1.9973 0.9820
0.9761 -3.9570 -1.9992 0.9820
1.3274 -3.8574 -2.0010 0.9820
1.6687 -3.7266 -2.0029 0.9820
2.3100 -3.3753 -2.0063 0.9819
2.8789 -2.9141 -2.0094 0.9819
3.3565 -2.3574 -2.0119 0.9819
3.5558 -2.0487 -2.0130 0.9819
3.7266 -1.7232 -2.0140 0.9819
3.9768 -1.0322 -2.0153 0.9819
4.1097 0.0608 -2.0161 0.9819
4.0876 0.4282 -2.0161 0.9819
3.9445 1.1494 -2.0154 0.9819
3.8248 1.4972 -2.0148 0.9819
3.2854 2.4556 -2.0120 0.9819
3.0507 2.7380 -2.0107 0.9819
2.7916 2.9980 -2.0094 0.9819
2.5104 3.2333 -2.0079 0.9819
1.8909 3.6230 -2.0047 0.9820
1.5578 3.7744 -2.0029 0.9820
1.2128 3.8951 -2.0011 0.9820
0.8587 3.9842 -1.9992 0.9820
0.4983 4.0412 -1.9973 0.9820
0.1347 4.0656 -1.9954 0.9820
-0.5909 4.0168 -1.9915 0.9821
-2.5506 3.1313 -1.9810 0.9822
-3.2839 2.3370 -1.9771 0.9822
-1.0924 0.5134 -0.5921 0.9946
-1.1215 0.4091 -0.5856 0.9947
-1.1328 0.3016 -0.5750 0.9948
-1.1416 0.1967 -0.5682 0.9949
-1.1438 0.0929 -0.5629 0.9949
-1.1353 -0.0097 -0.5569 0.9950
-1.1443 -0.1127 -0.5640 0.9949
-1.1173 -0.4294 -0.5871 0.9947
-3.4423 -2.0919 -1.9759 0.9822
-3.2430 -2.3927 -1.9769 0.9822
-2.7682 -2.9360 -1.9794 0.9822
-1.8936 -3.5739 -1.9840 0.9821
-1.2285 -3.8610 -1.9875 0.9821
-0.8790 -3.9591 -1.9893 0.9821
-0.5218 -4.0257 -1.9912 0.9821
0.2044 -4.0621 -1.9951 0.9820
1.6221 -3.7465 -2.0026 0.9820
2.2677 -3.4033 -2.0061 0.9819
2.5651 -3.1893 -2.0077 0.9819
3.5299 -2.0926 -2.0129 0.9819
3.9635 -1.0815 -2.0153 0.9819
4.0453 -0.7227 -2.0157 0.9819
4.0943 -0.3580 -2.0160 0.9819
4.0927 0.3774 -2.0161 0.9819
4.0420 0.7420 -2.0158 0.9819
3.9586 1.1004 -2.0154 0.9819
3.8432 1.4497 -2.0148 0.9819
3.6967 1.7870 -2.0141 0.9819
3.3159 2.4149 -2.0121 0.9819
2.8289 2.9634 -2.0096 0.9819
2.5505 3.2023 -2.0081 0.9819
1.9359 3.5997 -2.0049 0.9820
-3.1335 2.1719 -1.9779 0.9830
-0.9513 0.5403 -0.5675 0.9951
-0.9849 0.4480 -0.5613 0.9951
-1.0103 0.3544 -0.5554 0.9952
-1.0202 0.2581 -0.5459 0.9953
-1.0369 0.0712 -0.5392 0.9953
-1.0288 -0.2087 -0.5446 0.9953
-0.9696 -0.6058 -0.5931 0.9949
-2.8233 -2.5657 -1.9791 0.9830
-2.5840 -2.8098 -1.9804 0.9829
-0.4462 -3.8130 -1.9916 0.9828
-0.1034 -3.8412 -1.9934 0.9828
0.2409 -3.8385 -1.9953 0.9828
1.5774 -3.5228 -2.0024 0.9828
2.1835 -3.1904 -2.0056 0.9827
2.9584 -2.5013 -2.0098 0.9827
3.5217 -1.6285 -2.0129 0.9827
3.7580 -0.9755 -2.0142 0.9827
3.8310 -0.6355 -2.0146 0.9827
3.8730 -0.2902 -2.0149 0.9827
3.8836 0.0574 -2.0149 0.9827
3.8106 0.7485 -2.0146 0.9827
3.7276 1.0861 -2.0142 0.9827
3.6144 1.4149 -2.0136 0.9827
3.3018 2.0347 -2.0120 0.9827
2.6385 2.8335 -2.0086 0.9827
0.1273 3.8441 -1.9953 0.9828
-0.5587 3.7983 -1.9917 0.9828
-0.8955 3.7297 -1.9899 0.9829
-2.1395 3.1681 -1.9832 0.9829
-2.6660 2.7322 -1.9804 0.9829
-2.8979 2.4812 -1.9792 0.9830
-0.9801 0.4606 -0.5618 0.9951
-1.0077 0.3676 -0.5565 0.9952
-1.0198 0.2715 -0.5475 0.9953
-1.0329 0.1779 -0.5437 0.9953
-1.0307 -0.0088 -0.5348 0.9954
-1.0377 -0.1022 -0.5409 0.9953
-1.0186 -0.2900 -0.5494 0.9952
-1.0036 -0.3857 -0.5578 0.9952
-0.9645 -0.5862 -0.5855 0.9949
-3.0678 -2.2635 -1.9778 0.9830
-2.0846 -3.2040 -1.9830 0.9829
-1.4826 -3.5298 -1.9861 0.9829
-1.1618 -3.6514 -1.9878 0.9829
-0.4934 -3.8067 -1.9914 0.9829
0.8762 -3.7516 -1.9986 0.9828
1.2094 -3.6615 -2.0004 0.9828
1.5334 -3.5417 -2.0022 0.9828
2.1435 -3.2169 -2.0054 0.9827
2.9269 -2.5376 -2.0096 0.9827
3.1440 -2.2669 -2.0108 0.9827
3.3359 -1.9776 -2.0119 0.9827
3.6380 -1.3526 -2.0135 0.9827
3.8690 -0.3383 -2.0148 0.9827
3.8675 0.3567 -2.0149 0.9827
3.8196 0.7011 -2.0147 0.9827
3.7409 1.0398 -2.0143 0.9827
3.4935 1.6888 -2.0130 0.9827
3.3270 1.9937 -2.0122 0.9827
3.1337 2.2822 -2.0112 0.9827
2.6737 2.8008 -2.0088 0.9827
1.8300 3.4027 -2.0043 0.9827
-0.8776 0.6083 -0.5848 0.9951
-0.8726 0.4956 -0.5496 0.9954
-0.8982 0.4086 -0.5404 0.9955
-0.9284 0.2349 -0.5245 0.9956
-0.9440 0.1506 -0.5236 0.9956
-0.9469 0.0651 -0.5199 0.9957
-0.9226 -0.2751 -0.5273 0.9956
-0.8874 -0.4495 -0.5448 0.9955
-0.8645 -0.5402 -0.5583 0.9954
-2.8805 -2.1810 -1.9788 0.9837
-2.6752 -2.4312 -1.9799 0.9836
-2.4485 -2.6624 -1.9811 0.9836
-2.2019 -2.8726 -1.9824 0.9836
-1.9374 -3.0602 -1.9838 0.9836
-1.6571 -3.2237 -1.9852 0.9836
-1.3631 -3.3616 -1.9868 0.9836
-1.0578 -3.4729 -1.9884 0.9836
-0.0979 -3.6384 -1.9935 0.9835
0.5530 -3.6038 -1.9969 0.9835
0.8739 -3.5430 -1.9987 0.9835
1.4938 -3.3360 -2.0020 0.9835
2.0676 -3.0210 -2.0050 0.9834
2.3312 -2.8259 -2.0065 0.9834
2.5764 -2.6078 -2.0078 0.9834
2.8010 -2.3683 -2.0090 0.9834
3.1815 -1.8331 -2.0111 0.9834
3.3341 -1.5417 -2.0119 0.9834
3.4599 -1.2377 -2.0126 0.9834
1.8875 -0.1414 -1.0367 0.9914
1.8762 0.0277 -1.0277 0.9915
1.8891 0.1979 -1.0404 0.9914
1.8850 0.3703 -1.0521 0.9913
1.8811 0.5481 -1.0731 0.9911
3.4218 1.3395 -2.0126 0.9834
3.1260 1.9264 -2.0111 0.9834
2.2467 2.8937 -2.0065 0.9834
1.9774 3.0809 -2.0051 0.9834
1.6926 3.2430 -2.0036 0.9835
1.0858 3.4872 -2.0004 0.9835
0.7688 3.5673 -1.9987 0.9835
0.4462 3.6187 -1.9970 0.9835
0.1206 3.6410 -1.9953 0.9835
-0.2054 3.6340 -1.9935 0.9835
-1.4620 3.3200 -1.9868 0.9836
-2.0271 3.0017 -1.9838 0.9836
-2.5262 2.5889 -1.9811 0.9836
-2.7460 2.3511 -1.9799 0.9836
-0.9129 0.3330 -0.5322 0.9956
-0.9254 0.2463 -0.5245 0.9956
-0.9426 0.1624 -0.5239 0.9956
-0.9474 -0.0933 -0.5214 0.9957
-0.9402 -0.1786 -0.5242 0.9956
-2.9071 -2.1449 -1.9787 0.9837
-2.7050 -2.3976 -1.9798 0.9836
-2.4811 -2.6316 -1.9809 0.9836
-2.2372 -2.8448 -1.9822 0.9836
-1.9751 -3.0356 -1.9836 0.9836
-1.6968 -3.2026 -1.9850 0.9836
-1.1007 -3.4591 -1.9882 0.9836
-0.4674 -3.6060 -1.9915 0.9836
-0.1430 -3.6365 -1.9932 0.9835
0.8298 -3.5531 -1.9984 0.9835
1.1453 -3.4675 -2.0001 0.9835
1.7477 -3.2131 -2.0033 0.9835
2.0297 -3.0462 -2.0048 0.9834
2.2957 -2.8544 -2.0063 0.9834
2.5436 -2.6393 -2.0076 0.9834
2.7712 -2.4026 -2.0088 0.9834
2.9767 -2.1463 -2.0099 0.9834
3.1583 -1.8723 -2.0109 0.9834
3.3145 -1.5829 -2.0118 0.9834
1.8838 -0.5140 -1.0695 0.9911
1.8850 -0.3368 -1.0488 0.9913
1.8885 -0.1651 -1.0383 0.9914
1.8726 0.0044 -1.0256 0.9915
1.8832 0.5235 -1.0705 0.9911
3.4383 1.2970 -2.0127 0.9834
3.1498 1.8875 -2.0112 0.9834
2.9669 2.1607 -2.0103 0.9834
2.7602 2.4162 -2.0092 0.9834
2.0157 3.0565 -2.0053 0.9834
-0.8193 0.4653 -0.5440 0.9957
-0.8819 0.0606 -0.5104 0.9959
-0.8796 -0.0185 -0.5079 0.9959
-0.8821 -0.0979 -0.5124 0.9959
-0.8654 -0.2580 -0.5214 0.9958
-0.8539 -0.3404 -0.5307 0.9958
-0.8046 -0.5028 -0.5478 0.9956
-2.5388 -2.3072 -1.9806 0.9843
-2.3235 -2.5265 -1.9818 0.9843
-2.0895 -2.7260 -1.9830 0.9843
-1.5724 -3.0589 -1.9857 0.9842
-1.2934 -3.1896 -1.9872 0.9842
-1.0036 -3.2951 -1.9887 0.9842
-0.7054 -3.3743 -1.9903 0.9842
-0.4010 -3.4267 -1.9919 0.9842
0.5246 -3.4186 -1.9968 0.9842
0.8290 -3.3606 -1.9984 0.9841
1.1272 -3.2756 -2.0000 0.9841
1.6955 -3.0269 -2.0031 0.9841
1.9609 -2.8651 -2.0045 0.9841
2.2108 -2.6800 -2.0058 0.9841
2.4432 -2.4730 -2.0071 0.9841
3.1615 -1.4619 -2.0110 0.9840
1.7297 0.0256 -0.9988 0.9920
1.7416 0.1824 -1.0110 0.9919
1.7345 0.3407 -1.0206 0.9919
1.7436 0.6825 -1.0810 0.9914
3.1169 1.5547 -2.0110 0.9840
2.7876 2.0836 -2.0093 0.9841
2.3691 2.5442 -2.0071 0.9841
1.8753 2.9219 -2.0045 0.9841
1.0299 3.3076 -2.0001 0.9841
0.7293 3.3838 -1.9985 0.9841
-0.1949 3.4475 -1.9936 0.9842
-1.1006 3.2641 -1.9888 0.9842
-1.3872 3.1501 -1.9872 0.9842
-1.6622 3.0111 -1.9858 0.9842
-2.1692 2.6631 -1.9830 0.9843
-2.3973 2.4568 -1.9818 0.9843
-0.8004 0.5696 -0.5672 0.9955
-0.8152 0.4764 -0.5451 0.9956
-0.8412 0.3954 -0.5366 0.9957
-0.8690 0.2313 -0.5192 0.9959
-0.8795 0.1515 -0.5153 0.9959
-0.8821 0.0716 -0.5110 0.9959
-0.8369 -0.4110 -0.5383 0.9957
-0.8092 -0.4917 -0.5467 0.9956
-0.8027 -0.5922 -0.5759 0.9954
-2.3545 -2.4973 -1.9816 0.9843
-2.1230 -2.6996 -1.9828 0.9843
-1.8742 -2.8806 -1.9841 0.9843
-1.3327 -3.1730 -1.9870 0.9842
-1.0443 -3.2820 -1.9885 0.9842
-0.7471 -3.3650 -1.9901 0.9842
0.7871 -3.3703 -1.9982 0.9841
1.0864 -3.2890 -1.9998 0.9841
1.9250 -2.8889 -2.0043 0.9841
2.1772 -2.7070 -2.0056 0.9841
2.8227 -2.0352 -2.0091 0.9841
2.9948 -1.7754 -2.0101 0.9840
1.7002 -0.6321 -1.0473 0.9917
1.7375 -0.3104 -1.0190 0.9919
1.7405 -0.1522 -1.0087 0.9920
1.7266 0.0041 -0.9969 0.9921
1.7409 0.1605 -1.0093 0.9920
1.7277 0.4802 -1.0353 0.9918
2.9868 1.7898 -2.0103 0.9840
2.8134 2.0489 -2.0094 0.9841
2.4007 2.5148 -2.0073 0.9841
2.1647 2.7178 -2.0060 0.9841
1.9116 2.8987 -2.0047 0.9841
