ply
format ascii 1.0
element vertex 1185
property float32 x
property float32 y
property float32 z
property float32 I
end_header
0.2667 -13.3424 2.3531 0.9472
0.3732 -13.3372 2.0440 0.9474
0.2667 -13.3389 2.0439 0.9474
0.3731 -13.3338 1.7370 0.9476
0.2666 -13.3355 1.7369 0.9476
0.2665 -13.3320 1.4319 0.9478
0.3729 -13.3269 1.1286 0.9479
-17.0038 8.6602 1.6154 0.9263
0.2665 -13.3286 1.1285 0.9479
0.3728 -13.3235 0.8265 0.9480
-15.8582 9.9580 1.1612 0.9277
-17.0047 8.6606 1.1834 0.9264
0.2664 -13.3252 0.8265 0.9480
-17.6671 8.9980 0.3349 0.9237
0.2663 -13.3184 0.2250 0.9481
0.3725 -13.3134 -0.0750 0.9481
0.2662 -13.3151 -0.0750 0.9481
0.3725 -13.3100 -0.3749 0.9481
0.3724 -13.3066 -0.6751 0.9481
7.5754 -11.9273 -0.7166 0.9450
14.5697 8.3233 -0.8510 0.9350
9.1085 6.3482 -0.5631 0.9565
8.4142 7.0631 -0.5571 0.9570
-12.1561 7.6333 -0.7280 0.9441
-11.9364 6.0793 -0.6793 0.9478
0.2661 -13.3083 -0.6751 0.9481
16.1314 2.6107 -1.1982 0.9366
14.5698 8.3233 -1.2303 0.9349
8.5992 5.9932 -0.7685 0.9588
7.6006 6.3801 -0.7276 0.9610
11.1060 13.3695 -1.2744 0.9327
-11.1857 5.6970 -0.9204 0.9509
-13.9951 5.6129 -1.1056 0.9413
0.2660 -13.3049 -0.9757 0.9480
-15.8780 -11.1606 -1.8633 0.9250
-14.3789 -12.1682 -1.8084 0.9271
-10.6865 -15.6356 -1.8182 0.9267
-9.2627 -16.5634 -1.8219 0.9266
-4.5589 -18.5518 -1.8341 0.9261
-2.8864 -18.9293 -1.8383 0.9259
0.3722 -13.2999 -1.2774 0.9479
1.4781 -12.5082 -1.2092 0.9506
4.8899 -12.0133 -1.2452 0.9492
7.5159 -11.8337 -1.3459 0.9452
11.9046 -15.4824 -1.8750 0.9245
15.6645 -11.8185 -1.8839 0.9242
17.8655 8.1802 -1.8864 0.9241
8.4565 5.8937 -0.9896 0.9594
7.2590 6.0934 -0.9099 0.9626
6.9675 7.0034 -0.9484 0.9611
11.3717 13.6893 -1.7085 0.9310
11.0930 16.0921 -1.8764 0.9245
8.0387 17.7975 -1.8749 0.9245
3.1569 9.0799 -0.9229 0.9621
4.7249 18.9013 -1.8705 0.9247
1.2736 19.3681 -1.8634 0.9250
-0.4644 19.3584 -1.8590 0.9251
-1.5260 13.3717 -1.2921 0.9474
-3.8874 18.8598 -1.8487 0.9255
-7.1411 17.7467 -1.8365 0.9260
-10.1164 16.0695 -1.8230 0.9265
-11.4694 15.0404 -1.8159 0.9268
-12.7188 13.8974 -1.8086 0.9271
-13.8909 12.6838 -1.8059 0.9272
-14.9502 11.3736 -1.8034 0.9273
-10.5055 6.5968 -1.1909 0.9514
-10.9531 5.5785 -1.1801 0.9518
-13.9754 5.6050 -1.4456 0.9413
-10.8091 -15.5470 -1.8179 0.9267
-9.3929 -16.4858 -1.8216 0.9266
-7.8961 -17.2973 -1.8255 0.9264
-3.0368 -18.9017 -1.8379 0.9260
2.1095 -19.1636 -1.8509 0.9255
5.5183 -18.5649 -1.8594 0.9251
7.1739 -18.0358 -1.8635 0.9250
10.3176 -16.5352 -1.8712 0.9247
11.7786 -15.5744 -1.8747 0.9245
13.1487 -14.4827 -1.8780 0.9244
15.5677 -11.9419 -1.8837 0.9242
-15.7960 4.6071 -1.9545 0.9359
-16.1397 3.1733 -1.9539 0.9359
-16.3563 1.7154 -1.9536 0.9359
-16.2322 -2.6936 -1.9545 0.9359
-15.9338 -4.1380 -1.9555 0.9358
-15.5095 -5.5515 -1.9568 0.9358
-14.9623 -6.9233 -1.9584 0.9357
-14.2960 -8.2429 -1.9602 0.9357
-12.6262 -10.6850 -1.9648 0.9355
-9.7433 -11.8247 -1.8200 0.9401
-6.2822 -14.0580 -1.8290 0.9399
-5.0074 -14.5901 -1.8323 0.9398
0.3513 -12.5536 -1.4918 0.9507
1.4778 -12.5062 -1.4959 0.9505
3.2103 -15.2664 -1.8531 0.9391
4.8717 -11.9688 -1.5350 0.9493
9.5893 -12.4713 -1.8687 0.9386
10.6822 -11.5789 -1.8713 0.9385
13.6475 -10.2968 -2.0308 0.9335
14.5291 -9.0427 -2.0328 0.9334
15.2932 -7.7122 -2.0345 0.9333
15.9332 -6.3164 -2.0359 0.9333
16.4433 -4.8672 -2.0370 0.9333
16.8189 -3.3767 -2.0377 0.9332
17.0568 -1.8578 -2.0381 0.9332
17.1548 -0.3233 -2.0381 0.9332
15.8465 2.5646 -1.9068 0.9374
16.1499 5.7081 -2.0347 0.9333
7.1066 5.9655 -1.1022 0.9633
7.6974 13.6362 -1.8600 0.9389
6.4391 14.2561 -1.8582 0.9389
1.0214 15.5331 -1.8491 0.9392
-0.3726 15.5328 -1.8456 0.9393
-6.9811 13.6684 -1.8231 0.9400
-6.0510 9.6118 -1.3492 0.9553
-6.8450 8.9761 -1.3409 0.9555
-8.2187 8.9803 -1.4460 0.9521
-11.2701 10.2907 -1.8129 0.9404
-10.4422 6.5571 -1.4647 0.9515
-16.3422 1.8460 -1.9536 0.9359
-16.2526 -2.5637 -1.9545 0.9359
-15.5523 -5.4271 -1.9566 0.9358
-14.3601 -8.1277 -1.9600 0.9357
-9.8361 -11.7450 -1.8198 0.9402
-7.6083 -13.3535 -1.8256 0.9400
1.3801 -12.5372 -1.4982 0.9505
4.4522 -14.9785 -1.8562 0.9390
9.4882 -12.5458 -1.8685 0.9386
10.5882 -11.6624 -1.8711 0.9385
12.1746 -11.2061 -1.9655 0.9355
13.5636 -10.4045 -2.0306 0.9335
14.4552 -9.1577 -2.0326 0.9334
15.2301 -7.8335 -2.0344 0.9333
15.8814 -6.4431 -2.0358 0.9333
16.4032 -4.9982 -2.0369 0.9333
17.0413 -1.9939 -2.0381 0.9332
-13.2862 3.8750 -1.9609 0.9456
-13.5760 2.6693 -1.9604 0.9456
-13.8324 0.2054 -1.9601 0.9456
-13.7972 -1.0339 -1.9604 0.9456
-10.6112 -8.9798 -1.9696 0.9454
-9.7758 -9.9049 -1.9718 0.9453
-7.6779 -11.2337 -1.9279 0.9465
-4.2018 -12.2429 -1.8340 0.9491
-3.0937 -12.5893 -1.8368 0.9490
-1.9572 -12.8359 -1.8397 0.9489
0.3480 -12.4356 -1.7627 0.9510
2.6889 -12.7870 -1.8514 0.9486
3.8287 -12.5140 -1.8542 0.9485
4.8436 -11.8996 -1.8204 0.9494
7.1258 -11.2195 -1.8832 0.9477
8.6103 -11.1981 -2.0015 0.9445
11.4083 -8.6074 -2.0249 0.9439
12.7801 -6.4449 -2.0280 0.9438
13.3134 -5.2779 -2.0292 0.9438
14.0515 -2.8211 -2.0307 0.9437
14.3317 -0.2701 -2.0310 0.9437
14.1441 2.2891 -2.0301 0.9438
13.8765 3.5447 -2.0293 0.9438
13.0056 5.9550 -2.0267 0.9439
8.2400 5.7429 -1.4231 0.9602
7.1000 5.9599 -1.3134 0.9632
6.9318 6.9675 -1.3926 0.9611
3.0621 8.8073 -1.3212 0.9630
3.1643 12.6587 -1.8488 0.9487
2.0152 12.8707 -1.8459 0.9487
-0.3114 12.9824 -1.8400 0.9489
-1.4701 12.8821 -1.8371 0.9490
-2.6134 12.6791 -1.8343 0.9490
-4.8183 11.9742 -1.8288 0.9492
-6.0516 9.6128 -1.6095 0.9551
-8.1343 8.8880 -1.7071 0.9525
-9.4732 8.6499 -1.8176 0.9495
-10.2000 7.7598 -1.8159 0.9495
-13.5545 2.7777 -1.9604 0.9456
-13.7466 1.5528 -1.9601 0.9456
-13.8048 -0.9237 -1.9604 0.9456
-13.6703 -2.1564 -1.9609 0.9456
-13.4278 -3.3729 -1.9617 0.9456
-13.0789 -4.5640 -1.9627 0.9456
-9.8535 -9.8255 -1.9716 0.9453
-8.9452 -10.6812 -1.9740 0.9453
-7.8083 -11.2309 -1.9381 0.9462
-5.3664 -11.7557 -1.8310 0.9491
-2.0594 -12.8181 -1.8395 0.9489
-0.8690 -12.4550 -1.7690 0.9508
0.2486 -12.4372 -1.7626 0.9510
1.3671 -12.4194 -1.7703 0.9508
2.5864 -12.8063 -1.8512 0.9486
4.8432 -12.1764 -1.8567 0.9484
7.0017 -11.2211 -1.8740 0.9480
9.5859 -10.5585 -2.0206 0.9440
10.5040 -9.6683 -2.0228 0.9440
12.7275 -6.5464 -2.0279 0.9438
13.2703 -5.3838 -2.0291 0.9438
14.0283 -2.9332 -2.0306 0.9437
-11.7708 -1.9532 -1.9656 0.9528
-11.5528 -3.0003 -1.9663 0.9528
-10.8441 -5.0177 -1.9684 0.9527
-10.3585 -5.9725 -1.9698 0.9527
-9.1427 -7.7371 -1.9731 0.9526
-5.8715 -10.4993 -1.9817 0.9524
-3.8539 -11.2293 -1.9558 0.9530
-1.7134 -11.2369 -1.8726 0.9550
-0.6936 -11.2323 -1.8539 0.9554
0.3142 -11.2298 -1.8507 0.9555
1.3262 -11.2228 -1.8617 0.9552
3.4295 -11.2092 -1.9311 0.9536
9.0834 -8.2277 -2.0190 0.9515
9.7915 -7.3875 -2.0207 0.9515
10.4210 -6.4859 -2.0221 0.9515
10.9665 -5.5303 -2.0233 0.9514
11.4232 -4.5285 -2.0243 0.9514
11.7872 -3.4890 -2.0251 0.9514
12.2652 0.8698 -2.0256 0.9514
11.9062 3.0414 -2.0244 0.9514
11.5806 4.0931 -2.0234 0.9514
10.6511 6.0847 -2.0208 0.9515
7.2128 8.6828 -1.8596 0.9553
6.3992 9.2830 -1.8574 0.9553
4.6297 10.2500 -1.8528 0.9554
0.7340 11.1627 -1.8429 0.9557
-3.2129 10.6531 -1.8331 0.9559
-5.9067 9.3826 -1.8265 0.9560
-6.7158 8.8067 -1.8245 0.9561
-9.5166 7.2400 -1.9699 0.9527
-11.0787 4.4432 -1.9664 0.9528
-11.4278 3.4323 -1.9657 0.9528
-11.6862 2.3948 -1.9652 0.9528
-11.9243 0.2724 -1.9649 0.9528
-11.9021 -0.7963 -1.9651 0.9528
-10.4052 -5.8892 -1.9697 0.9527
-9.2035 -7.6632 -1.9729 0.9526
-7.7049 -9.2002 -1.9769 0.9525
-6.8581 -9.8642 -1.9792 0.9525
-5.9545 -10.4510 -1.9815 0.9524
-4.9943 -10.9407 -1.9813 0.9524
-3.9543 -11.2288 -1.9612 0.9529
-0.7837 -11.2329 -1.8550 0.9554
2.2655 -11.2175 -1.8853 0.9547
4.4547 -11.1995 -1.9856 0.9523
6.4678 -10.3654 -2.0127 0.9517
9.7315 -7.4650 -2.0205 0.9515
11.7586 -3.5829 -2.0250 0.9514
12.2140 -1.4291 -2.0259 0.9514
-10.0576 2.9334 -1.9692 0.9583
-10.4162 1.0924 -1.9686 0.9583
-10.4452 -0.7827 -1.9688 0.9583
-10.3353 -1.7151 -1.9692 0.9583
-10.1435 -2.6343 -1.9698 0.9582
-9.8710 -3.5332 -1.9706 0.9582
-9.5200 -4.4050 -1.9717 0.9582
-8.5930 -6.0400 -1.9742 0.9582
-7.3903 -7.4879 -1.9775 0.9581
-6.6964 -8.1270 -1.9793 0.9580
-5.9479 -8.7025 -1.9813 0.9580
-4.3098 -9.6444 -1.9855 0.9579
-2.5267 -10.2820 -1.9901 0.9578
-1.5979 -10.4794 -1.9925 0.9578
-0.6541 -10.5931 -1.9949 0.9577
0.2972 -10.6218 -1.9973 0.9577
1.2485 -10.5652 -1.9997 0.9576
4.0246 -9.8875 -2.0065 0.9575
4.8989 -9.4977 -2.0087 0.9574
5.7353 -9.0301 -2.0107 0.9574
7.9493 -7.2005 -2.0160 0.9573
8.5682 -6.4645 -2.0174 0.9573
9.1182 -5.6751 -2.0187 0.9572
9.5948 -4.8385 -2.0198 0.9572
10.6943 -1.1648 -2.0220 0.9572
10.7557 -0.2027 -2.0220 0.9572
10.7295 0.7609 -2.0218 0.9572
10.6160 1.7181 -2.0214 0.9572
9.7656 4.4714 -2.0188 0.9572
9.3203 5.3245 -2.0176 0.9573
7.1310 5.9859 -1.7500 0.9628
7.5322 7.5710 -2.0073 0.9575
6.4163 7.7239 -1.8874 0.9600
4.8478 8.5880 -1.8536 0.9607
4.0549 8.9776 -1.8516 0.9607
2.3834 9.5347 -1.8473 0.9608
0.6433 9.7835 -1.8429 0.9609
-0.2348 9.7900 -1.8407 0.9609
-2.8178 9.3430 -1.8342 0.9611
-5.1826 8.2324 -1.8285 0.9612
-7.7570 7.0828 -1.9744 0.9581
-8.8840 5.5786 -1.9718 0.9582
-9.3428 4.7584 -1.9707 0.9582
-10.0341 3.0137 -1.9693 0.9583
-10.4072 1.1756 -1.9686 0.9583
-10.1639 -2.5531 -1.9698 0.9582
-9.8985 -3.4542 -1.9706 0.9582
-8.6404 -5.9708 -1.9741 0.9582
-8.0774 -6.7256 -1.9756 0.9581
-7.4492 -7.4281 -1.9773 0.9581
-4.3863 -9.6087 -1.9853 0.9579
-3.5124 -9.9741 -1.9876 0.9579
-2.6084 -10.2605 -1.9899 0.9578
1.1639 -10.5737 -1.9994 0.9576
8.5158 -6.5324 -2.0173 0.9573
9.9614 -4.0414 -2.0206 0.9572
10.2867 -3.1344 -2.0213 0.9572
-9.1523 1.7995 -1.9716 0.9626
-9.3014 -0.6970 -1.9716 0.9626
-9.0323 -2.3457 -1.9726 0.9626
-6.5779 -6.6648 -1.9794 0.9624
-5.9597 -7.2329 -1.9810 0.9624
-5.2929 -7.7442 -1.9828 0.9624
-4.5826 -8.1946 -1.9846 0.9623
-3.0539 -8.8982 -1.9886 0.9623
-2.2473 -9.1453 -1.9907 0.9622
1.9483 -9.2648 -2.0012 0.9620
2.7727 -9.0624 -2.0033 0.9620
5.7980 -7.5406 -2.0106 0.9619
6.4549 -6.9967 -2.0122 0.9618
7.6094 -5.7412 -2.0149 0.9618
8.5200 -4.2965 -2.0170 0.9617
9.1558 -2.7101 -2.0184 0.9617
9.4952 -1.0342 -2.0190 0.9617
9.5497 -0.1800 -2.0190 0.9617
9.5265 0.6756 -2.0188 0.9617
9.2490 2.3626 -2.0178 0.9617
8.6721 3.9708 -2.0161 0.9618
8.2773 4.7286 -2.0150 0.9618
7.8158 5.4472 -2.0138 0.9618
5.3124 7.7064 -1.9785 0.9625
4.3606 7.7250 -1.8751 0.9644
3.6038 7.9787 -1.8506 0.9648
2.8721 8.2609 -1.8487 0.9649
2.1188 8.4760 -1.8468 0.9649
1.3500 8.6225 -1.8448 0.9649
-0.2088 8.7064 -1.8409 0.9650
-0.9864 8.6436 -1.8390 0.9651
-3.2378 8.0464 -1.8334 0.9652
-3.9414 7.7170 -1.8317 0.9652
-4.8364 7.6825 -1.9189 0.9636
-5.6686 7.4335 -1.9760 0.9625
-6.3176 6.9031 -1.9780 0.9625
-8.3189 4.2369 -1.9734 0.9626
-8.6615 3.4738 -1.9726 0.9626
-9.1377 1.8726 -1.9717 0.9626
-9.3066 -0.6227 -1.9716 0.9626
-9.2151 -1.4536 -1.9720 0.9626
-9.0505 -2.2734 -1.9725 0.9626
-8.8138 -3.0756 -1.9732 0.9626
-8.5069 -3.8541 -1.9741 0.9625
-8.1320 -4.6026 -1.9752 0.9625
-7.6920 -5.3154 -1.9764 0.9625
-6.6304 -6.6116 -1.9793 0.9624
-6.0168 -7.1845 -1.9809 0.9624
-5.3542 -7.7011 -1.9826 0.9624
-4.6476 -8.1571 -1.9845 0.9623
-2.3201 -9.1262 -1.9905 0.9622
-0.6568 -9.4136 -1.9947 0.9622
1.0347 -9.3999 -1.9989 0.9621
3.5058 -8.8140 -2.0051 0.9620
4.2849 -8.4728 -2.0070 0.9619
5.0307 -8.0624 -2.0088 0.9619
7.0086 -6.4510 -2.0135 0.9618
7.5629 -5.8014 -2.0148 0.9618
8.0564 -5.1039 -2.0160 0.9618
8.4851 -4.3643 -2.0169 0.9617
9.3481 -1.9546 -2.0187 0.9617
9.4866 -1.1100 -2.0189 0.9617
-8.0645 2.3521 -1.9743 0.9661
-8.3974 0.1247 -1.9738 0.9661
-8.3756 -0.6276 -1.9740 0.9661
-8.1328 -2.1121 -1.9748 0.9661
-7.9137 -2.8326 -1.9755 0.9661
-6.8866 -4.8406 -1.9783 0.9660
-6.4296 -5.4411 -1.9796 0.9660
-5.9208 -5.9990 -1.9809 0.9660
-3.4501 -7.7204 -1.9874 0.9659
-2.7475 -8.0056 -1.9892 0.9658
-1.2782 -8.3830 -1.9930 0.9658
-0.5231 -8.4719 -1.9949 0.9657
0.2377 -8.4929 -1.9968 0.9657
2.4927 -8.1473 -2.0024 0.9656
3.9125 -7.5853 -2.0059 0.9655
5.8005 -6.2873 -2.0105 0.9655
6.8370 -5.1584 -2.0129 0.9654
7.6544 -3.8600 -2.0148 0.9654
7.9719 -3.1603 -2.0154 0.9654
8.4114 -1.6887 -2.0163 0.9654
8.5296 -0.9290 -2.0165 0.9654
8.5786 -0.1617 -2.0165 0.9654
8.5579 0.6069 -2.0164 0.9654
8.4678 1.3704 -2.0160 0.9654
8.3090 2.1225 -2.0155 0.9654
8.0829 2.8568 -2.0148 0.9654
7.0229 4.8946 -2.0119 0.9654
6.5523 5.5002 -2.0106 0.9655
5.4585 6.5710 -2.0077 0.9655
4.1864 7.4165 -2.0016 0.9656
2.6826 7.7158 -1.9199 0.9670
1.9307 7.7237 -1.8711 0.9678
1.2141 7.7542 -1.8446 0.9683
0.5145 7.8242 -1.8428 0.9683
-2.3223 7.6999 -1.8902 0.9675
-3.8311 7.5009 -1.9795 0.9660
-4.4941 7.1388 -1.9826 0.9659
-5.6869 6.2139 -1.9797 0.9660
-6.6959 5.0940 -1.9773 0.9660
-7.1216 4.4719 -1.9764 0.9660
-7.4902 3.8148 -1.9755 0.9661
-7.7990 3.1278 -1.9749 0.9661
-8.2281 1.6862 -1.9740 0.9661
-8.3453 0.9427 -1.9738 0.9661
-8.3961 0.1918 -1.9738 0.9661
-8.3802 -0.5607 -1.9739 0.9661
-8.1492 -2.0470 -1.9747 0.9661
-7.9358 -2.7693 -1.9754 0.9661
-7.3212 -4.1437 -1.9771 0.9660
-6.4725 -5.3893 -1.9795 0.9660
-5.9681 -5.9511 -1.9808 0.9660
-5.4154 -6.4663 -1.9823 0.9659
-4.1822 -7.3404 -1.9855 0.9659
-2.8112 -7.9827 -1.9891 0.9658
-2.0872 -8.2100 -1.9909 0.9658
-0.5907 -8.4667 -1.9947 0.9657
0.9304 -8.4525 -1.9985 0.9657
3.1515 -7.9232 -2.0040 0.9656
5.1560 -6.8176 -2.0089 0.9655
5.7497 -6.3331 -2.0103 0.9655
6.2977 -5.7966 -2.0116 0.9654
6.7953 -5.2126 -2.0128 0.9654
7.2383 -4.5856 -2.0138 0.9654
7.6230 -3.9209 -2.0147 0.9654
8.2051 -2.5002 -2.0159 0.9654
8.3976 -1.7559 -2.0163 0.9654
-7.3272 2.1370 -1.9762 0.9690
-7.6299 0.1133 -1.9757 0.9690
-7.3891 -1.9190 -1.9766 0.9689
-6.2559 -4.3973 -1.9799 0.9689
-5.8404 -4.9425 -1.9810 0.9689
-4.8717 -5.9125 -1.9836 0.9688
-4.3260 -6.3294 -1.9850 0.9688
-2.4946 -7.2687 -1.9897 0.9687
0.2157 -7.7084 -1.9966 0.9686
1.5896 -7.5594 -2.0001 0.9686
2.9170 -7.1664 -2.0033 0.9685
4.1545 -6.5412 -2.0064 0.9685
4.7267 -6.1472 -2.0077 0.9685
5.2614 -5.7030 -2.0090 0.9684
6.2009 -4.6784 -2.0112 0.9684
6.9416 -3.5006 -2.0129 0.9684
7.2294 -2.8660 -2.0135 0.9684
7.4587 -2.2078 -2.0140 0.9684
7.6276 -1.5314 -2.0143 0.9684
7.7604 0.5504 -2.0144 0.9684
7.6788 1.2427 -2.0140 0.9684
7.5350 1.9247 -2.0136 0.9684
7.3302 2.5908 -2.0130 0.9684
6.7451 3.8533 -2.0113 0.9684
5.4694 5.4975 -2.0079 0.9685
4.9518 5.9610 -2.0065 0.9685
4.3951 6.3758 -2.0050 0.9685
3.8037 6.7385 -2.0035 0.9685
3.1826 7.0463 -2.0019 0.9686
0.5038 7.6617 -1.9880 0.9688
-0.8694 7.6179 -1.9852 0.9688
-2.2152 7.3451 -1.9864 0.9688
-2.8643 7.1183 -1.9867 0.9688
-4.0817 6.4837 -1.9837 0.9688
-5.6471 5.1563 -1.9800 0.9689
-6.4699 4.0627 -1.9781 0.9689
-6.8050 3.4658 -1.9773 0.9689
-7.3100 2.1955 -1.9762 0.9690
-7.4760 1.5321 -1.9759 0.9690
-5.8794 -4.8954 -1.9809 0.9689
-3.7979 -6.6658 -1.9864 0.9688
-2.5524 -7.2480 -1.9896 0.9687
-1.2210 -7.6000 -1.9930 0.9687
0.8444 -7.6712 -1.9982 0.9686
1.5291 -7.5712 -1.9999 0.9686
3.4943 -6.9095 -2.0048 0.9685
4.6771 -6.1844 -2.0076 0.9685
5.2154 -5.7445 -2.0089 0.9684
6.1630 -4.7276 -2.0111 0.9684
6.9132 -3.5558 -2.0128 0.9684
7.4407 -2.2672 -2.0140 0.9684
-6.8541 1.3476 -1.9775 0.9714
-6.9467 0.7286 -1.9774 0.9714
-6.9841 0.1037 -1.9774 0.9714
-6.9658 -0.5220 -1.9775 0.9714
-6.8921 -1.1437 -1.9778 0.9714
-5.7253 -4.0243 -1.9811 0.9713
-4.9213 -4.9863 -1.9833 0.9713
-4.4579 -5.4102 -1.9845 0.9713
-3.9582 -5.7914 -1.9858 0.9713
-3.4262 -6.1268 -1.9872 0.9712
-2.8661 -6.4136 -1.9887 0.9712
-2.2821 -6.6495 -1.9902 0.9712
-1.6790 -6.8323 -1.9917 0.9712
-1.0614 -6.9607 -1.9933 0.9712
-0.4343 -7.0334 -1.9949 0.9711
0.1973 -7.0496 -1.9965 0.9711
1.4536 -6.9123 -1.9996 0.9711
2.6669 -6.5521 -2.0026 0.9710
3.7979 -5.9797 -2.0054 0.9710
4.3207 -5.6192 -2.0066 0.9710
5.2593 -4.7639 -2.0089 0.9709
5.6674 -4.2759 -2.0098 0.9709
6.0299 -3.7530 -2.0107 0.9709
6.8162 -2.0176 -2.0124 0.9709
7.0683 -0.7699 -2.0128 0.9709
7.1088 -0.1340 -2.0128 0.9709
7.0173 1.1357 -2.0124 0.9709
6.8860 1.7590 -2.0120 0.9709
6.6990 2.3677 -2.0114 0.9709
6.4579 2.9569 -2.0107 0.9709
6.1647 3.5218 -2.0099 0.9709
5.4325 4.5602 -2.0079 0.9709
4.0180 5.8288 -2.0042 0.9710
2.9100 6.4426 -2.0013 0.9710
2.3197 6.6722 -1.9998 0.9711
1.7118 6.8478 -1.9982 0.9711
-0.1689 7.0397 -1.9934 0.9712
-1.4193 6.8859 -1.9903 0.9712
-2.0286 6.7261 -1.9888 0.9712
-3.1909 6.2475 -1.9860 0.9713
-4.2484 5.5712 -1.9834 0.9713
-4.7275 5.1655 -1.9823 0.9713
-5.5673 4.2354 -1.9803 0.9713
-6.6911 2.0097 -1.9778 0.9714
-6.9407 0.7840 -1.9774 0.9714
-6.9009 -1.0886 -1.9777 0.9714
-6.7771 -1.7024 -1.9781 0.9714
-6.5993 -2.3029 -1.9787 0.9714
-6.0873 -3.4453 -1.9801 0.9713
-5.7570 -3.9783 -1.9811 0.9713
-4.5007 -5.3741 -1.9844 0.9713
-4.0041 -5.7592 -1.9857 0.9713
-2.3350 -6.6306 -1.9901 0.9712
-1.7333 -6.8182 -1.9916 0.9712
-0.4904 -7.0292 -1.9948 0.9711
0.1410 -7.0505 -1.9963 0.9711
2.0139 -6.7754 -2.0010 0.9710
3.1946 -6.3168 -2.0039 0.9710
3.7498 -6.0095 -2.0053 0.9710
4.7672 -5.2508 -2.0077 0.9709
5.2209 -4.8055 -2.0088 0.9709
5.6328 -4.3209 -2.0097 0.9709
6.3180 -3.2497 -2.0113 0.9709
-6.4326 0.0955 -1.9787 0.9734
-6.0609 -2.1694 -1.9800 0.9734
-4.5316 -4.5915 -1.9842 0.9734
-3.6444 -5.3323 -1.9866 0.9733
-2.1008 -6.1212 -1.9906 0.9733
-1.5455 -6.2892 -1.9920 0.9733
-0.9769 -6.4070 -1.9934 0.9732
0.1816 -6.4880 -1.9964 0.9732
0.7622 -6.4504 -1.9978 0.9732
1.3376 -6.3608 -1.9992 0.9732
3.9748 -5.1694 -2.0057 0.9731
4.4241 -4.7954 -2.0068 0.9731
4.8380 -4.3822 -2.0078 0.9731
5.2131 -3.9332 -2.0086 0.9730
5.5464 -3.4520 -2.0094 0.9730
6.0767 -2.4090 -2.0106 0.9730
6.4110 -1.2871 -2.0112 0.9730
6.5383 -0.1232 -2.0114 0.9730
6.5226 0.4626 -2.0113 0.9730
6.3335 1.6179 -2.0106 0.9730
5.9401 2.7198 -2.0095 0.9730
5.6706 3.2395 -2.0087 0.9730
4.9974 4.1950 -2.0069 0.9731
4.5994 4.6231 -2.0058 0.9731
3.6968 5.3628 -2.0034 0.9731
1.5753 6.3018 -1.9979 0.9732
1.0041 6.4129 -1.9965 0.9732
0.4256 6.4723 -1.9950 0.9732
-0.1554 6.4796 -1.9936 0.9732
-3.9120 5.1300 -1.9843 0.9734
-4.3533 4.7567 -1.9833 0.9734
-5.9734 2.3957 -1.9796 0.9734
-6.3028 1.2916 -1.9789 0.9734
-6.3927 0.7221 -1.9787 0.9734
-6.4316 0.1469 -1.9787 0.9734
-6.3559 -1.0026 -1.9791 0.9734
-5.8654 -2.6573 -1.9806 0.9734
-5.3017 -3.6636 -1.9822 0.9734
-4.5679 -4.5549 -1.9841 0.9734
-2.6855 -5.8829 -1.9891 0.9733
-2.1495 -6.1039 -1.9904 0.9733
-1.5956 -6.2763 -1.9919 0.9733
-1.0280 -6.3986 -1.9933 0.9732
0.1297 -6.4888 -1.9962 0.9732
0.7106 -6.4559 -1.9977 0.9732
1.2867 -6.3709 -1.9991 0.9732
2.4055 -6.0477 -2.0019 0.9731
3.9332 -5.2008 -2.0056 0.9731
4.8026 -4.4205 -2.0077 0.9731
5.5185 -3.4961 -2.0093 0.9730
5.8112 -2.9890 -2.0100 0.9730
6.0571 -2.4574 -2.0105 0.9730
6.2541 -1.9057 -2.0109 0.9730
6.4005 -1.3383 -2.0112 0.9730
6.4951 -0.7600 -2.0114 0.9730
-5.8449 1.1492 -1.9801 0.9752
-5.9558 0.0885 -1.9799 0.9752
-5.9401 -0.4451 -1.9801 0.9752
-5.7672 -1.4977 -1.9807 0.9752
-5.6113 -2.0085 -1.9811 0.9752
-4.8810 -3.4308 -1.9832 0.9752
-4.5563 -3.8558 -1.9841 0.9752
-4.1948 -4.2502 -1.9850 0.9751
-3.7995 -4.6111 -1.9861 0.9751
-2.4420 -5.4647 -1.9896 0.9751
-1.9442 -5.6650 -1.9909 0.9751
-0.9040 -5.9288 -1.9935 0.9750
-0.3699 -5.9900 -1.9949 0.9750
0.7052 -5.9680 -1.9976 0.9750
1.2375 -5.8848 -1.9989 0.9750
2.2700 -5.5769 -2.0015 0.9749
3.2319 -5.0886 -2.0038 0.9749
4.4745 -4.0530 -2.0068 0.9749
5.1294 -3.1925 -2.0083 0.9749
5.6195 -2.2278 -2.0094 0.9748
5.7975 -1.7160 -2.0098 0.9748
5.9286 -1.1903 -2.0100 0.9748
6.0117 -0.6548 -2.0101 0.9748
6.0318 0.4278 -2.0100 0.9748
5.4934 2.5153 -2.0084 0.9749
4.9531 3.4521 -2.0069 0.9749
4.6221 3.8799 -2.0060 0.9749
4.2541 4.2760 -2.0050 0.9749
3.4196 4.9607 -2.0028 0.9749
2.9600 5.2438 -2.0016 0.9749
1.9749 5.6804 -1.9990 0.9750
0.9290 5.9336 -1.9964 0.9750
0.3938 5.9888 -1.9950 0.9750
-0.6796 5.9550 -1.9923 0.9751
-2.2331 5.5497 -1.9885 0.9751
-2.7194 5.3243 -1.9873 0.9751
-3.1833 5.0566 -1.9862 0.9751
-4.0299 4.4033 -1.9841 0.9752
-4.4060 4.0231 -1.9832 0.9752
-4.7465 3.6110 -1.9825 0.9752
-5.0490 3.1705 -1.9818 0.9752
-5.8355 1.1959 -1.9801 0.9752
-5.9188 0.6686 -1.9799 0.9752
-5.9434 -0.3977 -1.9800 0.9752
-5.8846 -0.9283 -1.9803 0.9752
-5.7789 -1.4516 -1.9806 0.9752
-5.6271 -1.9636 -1.9811 0.9752
-5.4302 -2.4602 -1.9816 0.9752
-4.5867 -3.8191 -1.9840 0.9752
-4.2284 -4.2164 -1.9849 0.9751
-3.8360 -4.5804 -1.9860 0.9751
-1.9893 -5.6490 -1.9908 0.9751
-1.4766 -5.8082 -1.9921 0.9751
-0.9513 -5.9210 -1.9934 0.9750
0.1200 -6.0039 -1.9961 0.9750
0.6575 -5.9731 -1.9975 0.9750
1.1904 -5.8942 -1.9988 0.9750
3.6380 -4.8104 -2.0048 0.9749
4.0561 -4.4676 -2.0058 0.9749
5.6015 -2.2725 -2.0094 0.9748
5.9188 -1.2376 -2.0100 0.9748
6.0063 -0.7028 -2.0101 0.9748
-5.3189 1.5513 -1.9813 0.9767
-5.5094 0.5778 -1.9810 0.9767
-5.5390 0.0823 -1.9810 0.9767
-5.4658 -0.9070 -1.9813 0.9767
-4.5389 -3.1904 -1.9840 0.9767
-4.2368 -3.5854 -1.9848 0.9767
-3.9006 -3.9521 -1.9857 0.9767
-3.1364 -4.5890 -1.9877 0.9767
-2.7145 -4.8541 -1.9888 0.9767
-2.2704 -5.0805 -1.9900 0.9766
-1.3296 -5.4105 -1.9924 0.9766
0.1561 -5.5798 -1.9962 0.9766
0.6555 -5.5469 -1.9974 0.9766
2.5665 -4.9758 -2.0021 0.9765
4.1574 -3.7658 -2.0059 0.9765
5.0135 -2.5282 -2.0079 0.9764
5.3861 -1.5943 -2.0087 0.9764
5.5850 -0.6083 -2.0091 0.9764
5.6171 -0.1059 -2.0091 0.9764
5.6037 0.3974 -2.0090 0.9764
5.5450 0.8974 -2.0087 0.9764
5.4415 1.3900 -2.0084 0.9764
5.1039 2.3369 -2.0074 0.9764
4.2947 3.6051 -2.0052 0.9765
3.9529 3.9733 -2.0043 0.9765
3.5796 4.3091 -2.0033 0.9765
3.1777 4.6098 -2.0022 0.9765
2.7507 4.8731 -2.0011 0.9765
1.8355 5.2793 -1.9988 0.9765
0.8635 5.5151 -1.9963 0.9766
0.3661 5.5668 -1.9950 0.9766
-0.6317 5.5359 -1.9925 0.9766
-1.1241 5.4537 -1.9913 0.9766
-1.6069 5.3280 -1.9901 0.9766
-2.0762 5.1597 -1.9889 0.9767
-2.5284 4.9504 -1.9878 0.9767
-2.9599 4.7017 -1.9868 0.9767
-3.7473 4.0946 -1.9849 0.9767
-4.0971 3.7411 -1.9841 0.9767
-4.4140 3.3580 -1.9833 0.9767
-4.6953 2.9484 -1.9827 0.9767
-5.3064 1.5938 -1.9813 0.9767
-5.5046 0.6218 -1.9810 0.9767
-5.5381 0.1265 -1.9810 0.9767
-5.4728 -0.8633 -1.9813 0.9767
-5.2331 -1.8261 -1.9820 0.9767
-4.8263 -2.7317 -1.9832 0.9767
-4.5641 -3.1539 -1.9839 0.9767
-4.2651 -3.5513 -1.9847 0.9767
-3.9318 -3.9206 -1.9856 0.9767
-3.5668 -4.2590 -1.9866 0.9767
-2.7531 -4.8320 -1.9887 0.9767
-1.8494 -5.2516 -1.9911 0.9766
2.0680 -5.1991 -2.0009 0.9765
2.5265 -4.9959 -2.0020 0.9765
2.9652 -4.7522 -2.0031 0.9765
4.9930 -2.5681 -2.0079 0.9764
5.2041 -2.1113 -2.0083 0.9764
5.3731 -1.6372 -2.0087 0.9764
5.5800 -0.6529 -2.0091 0.9764
-5.0749 0.9978 -1.9820 0.9781
-2.2921 0.0340 -0.8785 0.9902
-2.3040 -0.1726 -0.8854 0.9902
-4.6973 -2.1735 -1.9834 0.9781
-4.2371 -2.9783 -1.9847 0.9781
-3.6410 -3.6891 -1.9863 0.9780
-2.9275 -4.2833 -1.9882 0.9780
-2.5336 -4.5306 -1.9892 0.9780
-2.1190 -4.7418 -1.9903 0.9780
-0.7842 -5.1432 -1.9937 0.9780
0.6116 -5.1758 -1.9972 0.9779
1.0731 -5.1032 -1.9984 0.9779
1.5265 -4.9894 -1.9995 0.9779
1.9682 -4.8353 -2.0006 0.9779
3.5467 -3.8444 -2.0044 0.9778
3.8781 -3.5128 -2.0052 0.9778
4.4453 -2.7667 -2.0065 0.9778
4.6764 -2.3582 -2.0070 0.9778
4.8697 -1.9305 -2.0075 0.9778
5.0238 -1.4870 -2.0078 0.9778
5.1373 -1.0314 -2.0080 0.9778
5.2093 -0.5674 -2.0081 0.9778
4.5451 2.5965 -2.0060 0.9778
4.2930 2.9920 -2.0053 0.9778
3.3394 4.0200 -2.0027 0.9779
2.9646 4.3007 -2.0017 0.9779
0.8058 5.1463 -1.9962 0.9779
0.3416 5.1947 -1.9950 0.9779
-0.1248 5.2014 -1.9938 0.9780
-0.5896 5.1663 -1.9927 0.9780
-1.0491 5.0899 -1.9915 0.9780
-1.9378 4.8158 -1.9893 0.9780
-2.7628 4.3887 -1.9873 0.9780
-3.1432 4.1218 -1.9864 0.9780
-3.8247 3.4923 -1.9848 0.9781
-4.1206 3.1348 -1.9841 0.9781
-4.3833 2.7525 -1.9835 0.9781
-4.6110 2.3484 -1.9830 0.9781
-4.8017 1.9258 -1.9826 0.9781
-4.9540 1.4879 -1.9823 0.9781
-5.0668 1.0383 -1.9820 0.9781
-2.3021 0.2600 -0.8878 0.9901
-2.3034 -0.1541 -0.8847 0.9902
-5.0174 -1.2603 -1.9825 0.9781
-4.7144 -2.1359 -1.9834 0.9781
-4.2606 -2.9442 -1.9847 0.9781
-3.9814 -3.3151 -1.9854 0.9781
-3.6702 -3.6598 -1.9863 0.9780
-2.9615 -4.2596 -1.9881 0.9780
-2.5696 -4.5100 -1.9891 0.9780
-1.7260 -4.9013 -1.9913 0.9780
-1.2810 -5.0390 -1.9925 0.9780
-0.8252 -5.1365 -1.9936 0.9780
0.5702 -5.1802 -1.9971 0.9779
1.4866 -5.0012 -1.9994 0.9779
1.9294 -4.8507 -2.0005 0.9779
2.3571 -4.6609 -2.0016 0.9779
2.7663 -4.4333 -2.0025 0.9779
3.5157 -3.8724 -2.0043 0.9778
3.8498 -3.5435 -2.0051 0.9778
4.1531 -3.1858 -2.0058 0.9778
4.4230 -2.8021 -2.0065 0.9778
4.6573 -2.3955 -2.0070 0.9778
4.8541 -1.9693 -2.0074 0.9778
5.0117 -1.5271 -2.0078 0.9778
-2.0180 0.2117 -0.8305 0.9913
-4.5633 -1.6334 -1.9837 0.9793
-4.3998 -2.0359 -1.9842 0.9793
-4.2011 -2.4223 -1.9847 0.9793
-3.9686 -2.7896 -1.9854 0.9793
-3.4101 -3.4552 -1.9869 0.9792
-3.0884 -3.7482 -1.9877 0.9792
-2.7417 -4.0115 -1.9886 0.9792
-2.3727 -4.2429 -1.9896 0.9792
-0.7343 -4.8159 -1.9938 0.9792
-0.3004 -4.8650 -1.9949 0.9792
0.5726 -4.8459 -1.9971 0.9791
1.8425 -4.5267 -2.0002 0.9791
2.2415 -4.3456 -2.0012 0.9791
2.6227 -4.1294 -2.0021 0.9791
2.9832 -3.8797 -2.0030 0.9791
4.5579 -1.8069 -2.0067 0.9790
4.7020 -1.3918 -2.0070 0.9790
4.8408 0.7834 -2.0070 0.9790
4.6219 1.6336 -2.0063 0.9790
4.0183 2.8006 -2.0046 0.9791
3.4518 3.4696 -2.0031 0.9791
3.1260 3.7631 -2.0022 0.9791
2.4025 4.2562 -2.0003 0.9791
2.0108 4.4520 -1.9993 0.9791
1.1834 4.7341 -1.9972 0.9791
-0.1168 4.8704 -1.9939 0.9792
-0.5521 4.8377 -1.9928 0.9792
-0.9824 4.7663 -1.9917 0.9792
-1.4045 4.6568 -1.9907 0.9792
-2.2102 4.3274 -1.9887 0.9792
-2.9439 3.8604 -1.9869 0.9792
-3.2763 3.5799 -1.9862 0.9792
-3.8596 2.9362 -1.9848 0.9793
-4.6405 1.3937 -1.9831 0.9793
-2.0784 0.4259 -0.8683 0.9909
-2.0191 0.2281 -0.8316 0.9913
-1.9960 0.0456 -0.8171 0.9914
-2.0099 -0.1345 -0.8245 0.9913
-2.0334 -0.3208 -0.8425 0.9911
-2.1139 -0.5310 -0.8920 0.9906
-4.4159 -2.0006 -1.9841 0.9793
-4.2202 -2.3886 -1.9847 0.9793
-3.7291 -3.1050 -1.9860 0.9792
-3.4375 -3.4277 -1.9868 0.9792
-2.4064 -4.2236 -1.9895 0.9792
-1.6163 -4.5898 -1.9916 0.9792
-1.1996 -4.7186 -1.9926 0.9792
-0.3392 -4.8622 -1.9948 0.9792
0.0975 -4.8757 -1.9959 0.9791
1.8062 -4.5410 -2.0002 0.9791
2.2066 -4.3632 -2.0011 0.9791
2.9520 -3.9033 -2.0029 0.9791
3.2909 -3.6248 -2.0037 0.9791
3.6035 -3.3169 -2.0045 0.9791
4.1398 -2.6227 -2.0057 0.9790
4.8712 -0.5700 -2.0073 0.9790
-1.4935 0.4356 -0.6780 0.9932
-1.4725 -0.2443 -0.6505 0.9935
-1.4918 -0.3874 -0.6717 0.9933
-4.1332 -1.9125 -1.9848 0.9803
-3.4683 -2.9351 -1.9801 0.9804
-3.2032 -3.2455 -1.9874 0.9803
-2.9010 -3.5207 -1.9882 0.9803
-2.5752 -3.7679 -1.9890 0.9803
-2.2286 -3.9851 -1.9899 0.9803
-1.4836 -4.3229 -1.9918 0.9803
-0.2821 -4.5687 -1.9949 0.9802
0.1281 -4.5780 -1.9959 0.9802
0.5377 -4.5505 -1.9970 0.9802
1.3419 -4.3860 -1.9990 0.9802
2.4625 -3.8771 -2.0017 0.9802
2.8008 -3.6426 -2.0025 0.9802
3.1168 -3.3785 -2.0033 0.9801
3.4080 -3.0869 -2.0040 0.9801
3.6718 -2.7703 -2.0046 0.9801
3.9061 -2.4311 -2.0051 0.9801
4.1090 -2.0721 -2.0056 0.9801
4.5137 -0.9062 -2.0064 0.9801
4.5770 -0.4985 -2.0065 0.9801
4.6032 -0.0868 -2.0065 0.9801
4.5443 0.7354 -2.0062 0.9801
4.1833 1.9154 -2.0052 0.9801
3.9939 2.2816 -2.0046 0.9801
3.5208 2.9554 -2.0033 0.9801
2.6058 3.7801 -2.0009 0.9802
0.3004 4.5677 -1.9950 0.9802
-0.1097 4.5739 -1.9940 0.9802
-0.9227 4.4765 -1.9919 0.9803
-1.7045 4.2361 -1.9900 0.9803
-2.4305 3.8608 -1.9882 0.9803
-3.8570 2.4220 -1.9849 0.9803
-4.0574 2.0665 -1.9844 0.9803
-4.2253 1.6946 -1.9841 0.9803
-1.4938 0.4487 -0.6798 0.9932
-1.4755 0.3024 -0.6564 0.9934
-1.4716 0.1662 -0.6454 0.9936
-1.4377 0.0328 -0.6268 0.9937
-1.4595 -0.0977 -0.6375 0.9936
-1.4732 -0.2324 -0.6500 0.9935
-1.4904 -0.3744 -0.6697 0.9933
-1.4899 -0.5199 -0.6877 0.9931
-4.1483 -1.8794 -1.9848 0.9803
-3.9644 -2.2438 -1.9853 0.9803
-3.7487 -2.5905 -1.9859 0.9803
-2.6052 -3.7471 -1.9889 0.9803
-2.2603 -3.9670 -1.9898 0.9803
-1.1266 -4.4315 -1.9928 0.9802
-0.7257 -4.5169 -1.9938 0.9802
-0.3186 -4.5661 -1.9948 0.9802
2.4313 -3.8965 -2.0016 0.9802
3.3831 -3.1140 -2.0039 0.9801
3.8864 -2.4622 -2.0051 0.9801
4.5063 -0.9422 -2.0064 0.9801
-1.2697 0.2496 -0.5990 0.9943
-1.2735 -0.2113 -0.5975 0.9943
-3.5109 -2.4679 -1.9865 0.9813
-3.2770 -2.7731 -1.9871 0.9813
-2.7319 -3.3155 -1.9886 0.9812
-2.4251 -3.5482 -1.9894 0.9812
-1.7550 -3.9272 -1.9911 0.9812
-1.3970 -4.0704 -1.9920 0.9812
-1.0275 -4.1812 -1.9930 0.9812
-0.2656 -4.3015 -1.9949 0.9812
1.2633 -4.1290 -1.9987 0.9811
1.6286 -4.0011 -1.9996 0.9811
2.6364 -3.4288 -2.0021 0.9811
3.4561 -2.6075 -2.0040 0.9811
4.2483 -0.8529 -2.0057 0.9811
4.3078 -0.4692 -2.0058 0.9811
4.2771 0.6922 -2.0056 0.9811
4.0839 1.4434 -2.0050 0.9811
3.9375 1.8029 -2.0046 0.9811
3.7593 2.1476 -2.0041 0.9811
3.5509 2.4748 -2.0035 0.9811
1.0462 4.1853 -1.9969 0.9812
0.6670 4.2601 -1.9960 0.9812
-0.1033 4.3066 -1.9940 0.9812
-0.4882 4.2780 -1.9931 0.9812
-1.2421 4.1185 -1.9912 0.9812
-2.2888 3.6357 -1.9886 0.9812
-2.8984 3.1669 -1.9872 0.9813
-1.2683 0.2599 -0.5993 0.9943
-1.2749 0.1440 -0.5939 0.9944
-1.2742 -0.2010 -0.5971 0.9943
-1.2643 -0.4412 -0.6198 0.9941
-1.2570 -0.5695 -0.6388 0.9939
-3.7336 -2.1132 -1.9859 0.9813
-3.2989 -2.7468 -1.9870 0.9813
-3.0408 -3.0322 -1.9877 0.9813
-2.7582 -3.2934 -1.9885 0.9812
-1.7862 -3.9129 -1.9910 0.9812
-1.4294 -4.0590 -1.9919 0.9812
-1.0608 -4.1726 -1.9929 0.9812
-0.2999 -4.2991 -1.9948 0.9812
1.2302 -4.1388 -1.9986 0.9811
2.2887 -3.6679 -2.0012 0.9811
2.9083 -3.2034 -2.0027 0.9811
3.4350 -2.6350 -2.0040 0.9811
4.3040 -0.5036 -2.0058 0.9811
-1.1316 0.3300 -0.5782 0.9948
-1.1385 0.2239 -0.5692 0.9948
-1.1443 0.1200 -0.5644 0.9949
-1.1364 0.0169 -0.5575 0.9949
-1.1435 -0.0857 -0.5625 0.9949
-1.1228 -0.4019 -0.5850 0.9947
-3.5082 -2.0228 -1.9864 0.9821
-3.3139 -2.3294 -1.9869 0.9821
-3.0930 -2.6175 -1.9875 0.9821
-2.2888 -3.3488 -1.9897 0.9821
-0.9696 -3.9458 -1.9931 0.9821
-0.6128 -4.0186 -1.9940 0.9821
0.4777 -4.0425 -1.9967 0.9820
1.5367 -3.7752 -1.9994 0.9820
3.9193 -1.1601 -2.0050 0.9820
4.0078 -0.8046 -2.0051 0.9820
4.0639 -0.4426 -2.0052 0.9820
4.0872 -0.0770 -2.0052 0.9820
4.0349 0.6530 -2.0050 0.9820
3.9598 1.0115 -2.0047 0.9820
3.7146 1.7008 -2.0040 0.9820
2.6067 3.1379 -2.0010 0.9820
2.3144 3.3574 -2.0002 0.9820
1.6772 3.7132 -1.9986 0.9820
1.3374 3.8468 -1.9977 0.9820
0.6294 4.0200 -1.9959 0.9820
0.2669 4.0583 -1.9950 0.9820
-0.0975 4.0640 -1.9941 0.9821
-0.4607 4.0371 -1.9932 0.9821
-0.8199 3.9779 -1.9923 0.9821
-1.5149 3.7647 -1.9906 0.9821
-1.8451 3.6125 -1.9897 0.9821
-2.7356 2.9892 -1.9876 0.9821
-2.9914 2.7314 -1.9870 0.9821
-3.2230 2.4520 -1.9865 0.9821
-3.4288 2.1531 -1.9860 0.9821
-1.0906 0.5554 -0.6003 0.9946
-1.1309 0.3396 -0.5792 0.9948
-1.1372 0.2331 -0.5694 0.9948
-1.1442 0.1293 -0.5648 0.9949
-1.1378 0.0260 -0.5583 0.9949
-1.1244 -0.3924 -0.5842 0.9947
-3.5242 -1.9946 -1.9864 0.9821
-2.8701 -2.8619 -1.9881 0.9821
-2.6032 -3.1085 -1.9889 0.9821
-1.0011 -3.9377 -1.9930 0.9821
-0.2830 -4.0569 -1.9948 0.9820
0.0813 -4.0678 -1.9957 0.9820
0.4454 -4.0460 -1.9967 0.9820
1.1608 -3.9052 -1.9984 0.9820
2.1594 -3.4606 -2.0009 0.9820
3.2407 -2.4859 -2.0034 0.9820
3.4510 -2.1863 -2.0039 0.9820
3.6337 -1.8690 -2.0043 0.9820
3.9099 -1.1914 -2.0049 0.9820
4.0012 -0.8366 -2.0051 0.9820
4.0602 -0.4751 -2.0052 0.9820
-1.0181 0.2969 -0.5502 0.9952
-1.0376 0.1088 -0.5413 0.9953
-1.0317 0.0153 -0.5353 0.9954
-1.0200 -0.2649 -0.5467 0.9953
-0.9824 -0.4546 -0.5616 0.9951
-0.9543 -0.5502 -0.5715 0.9950
-3.1341 -2.2030 -1.9874 0.9829
-2.6926 -2.7282 -1.9886 0.9829
-2.4384 -2.9593 -1.9892 0.9829
-1.8730 -3.3492 -1.9907 0.9829
-1.2467 -3.6325 -1.9923 0.9828
-0.9169 -3.7311 -1.9932 0.9828
-0.2370 -3.8381 -1.9949 0.9828
0.1076 -3.8456 -1.9958 0.9828
0.4516 -3.8221 -1.9966 0.9828
0.7924 -3.7679 -1.9975 0.9828
1.4528 -3.5692 -1.9991 0.9828
1.7672 -3.4261 -1.9999 0.9828
2.8609 -2.5914 -2.0025 0.9828
3.0822 -2.3255 -2.0030 0.9828
3.2787 -2.0406 -2.0035 0.9827
3.4489 -1.7393 -2.0039 0.9827
3.5913 -1.4237 -2.0042 0.9827
3.7048 -1.0966 -2.0044 0.9827
3.7884 -0.7606 -2.0046 0.9827
3.8635 -0.0728 -2.0047 0.9827
3.8543 0.2733 -2.0046 0.9827
3.3526 1.9153 -2.0031 0.9828
2.1880 3.1740 -2.0000 0.9828
1.2645 3.6370 -1.9976 0.9828
0.9334 3.7340 -1.9967 0.9828
0.5951 3.8009 -1.9959 0.9828
-0.4356 3.8174 -1.9933 0.9828
-1.1085 3.6755 -1.9916 0.9828
-1.7448 3.4162 -1.9900 0.9829
-2.0429 3.2451 -1.9893 0.9829
-2.3244 3.0481 -1.9886 0.9829
-2.5872 2.8269 -1.9880 0.9829
-2.8290 2.5832 -1.9874 0.9829
-0.9705 0.6094 -0.5945 0.9948
-0.9667 0.4923 -0.5628 0.9951
-1.0173 0.3055 -0.5510 0.9952
-1.0328 0.0236 -0.5359 0.9954
-1.0346 -0.1632 -0.5434 0.9953
-1.0203 -0.2563 -0.5457 0.9953
-1.0106 -0.3527 -0.5553 0.9952
-0.9854 -0.4465 -0.5612 0.9951
-0.9506 -0.5380 -0.5667 0.9951
-3.1515 -2.1778 -1.9873 0.9829
-2.9447 -2.4519 -1.9879 0.9829
-2.4619 -2.9396 -1.9892 0.9829
-2.1896 -3.1494 -1.9899 0.9829
0.4211 -3.8255 -1.9966 0.9828
0.7622 -3.7740 -1.9974 0.9828
1.0975 -3.6922 -1.9982 0.9828
1.7397 -3.4400 -1.9998 0.9828
2.3269 -3.0768 -2.0012 0.9828
2.5938 -2.8570 -2.0019 0.9828
3.2623 -2.0667 -2.0034 0.9827
3.5798 -1.4523 -2.0041 0.9827
-0.9233 0.2693 -0.5268 0.9956
-0.9393 0.1847 -0.5243 0.9956
-0.9427 0.0140 -0.5164 0.9957
-0.9471 -0.0710 -0.5202 0.9957
-0.9433 -0.1565 -0.5237 0.9956
-0.9141 -0.3272 -0.5318 0.9956
-0.8794 -0.6182 -0.5888 0.9951
-2.3100 -2.8034 -1.9895 0.9836
-2.0504 -3.0000 -1.9902 0.9836
-1.7742 -3.1727 -1.9909 0.9836
-1.4836 -3.3200 -1.9917 0.9836
-0.5488 -3.5992 -1.9941 0.9835
0.7505 -3.5687 -1.9974 0.9835
1.6736 -3.2447 -1.9996 0.9835
1.9581 -3.0829 -2.0003 0.9835
2.4780 -2.6860 -2.0016 0.9835
2.9188 -2.2022 -2.0026 0.9835
3.1049 -1.9324 -2.0030 0.9835
3.4008 -1.3482 -2.0037 0.9835
1.8803 -0.5566 -1.0740 0.9911
1.8854 -0.3785 -1.0532 0.9913
1.8892 -0.2058 -1.0408 0.9914
1.8773 -0.0354 -1.0284 0.9915
1.8870 0.1338 -1.0361 0.9914
1.8855 0.4816 -1.0659 0.9912
3.1749 1.8137 -2.0026 0.9835
2.7991 2.3496 -2.0016 0.9835
2.5767 2.5900 -2.0010 0.9835
2.3338 2.8094 -2.0004 0.9835
2.0722 3.0060 -1.9997 0.9835
0.2390 3.6346 -1.9950 0.9835
-0.0873 3.6399 -1.9942 0.9835
-0.7344 3.5631 -1.9925 0.9835
-1.9353 3.0742 -1.9896 0.9836
-2.2020 2.8876 -1.9890 0.9836
-2.4510 2.6781 -1.9884 0.9836
-0.8652 0.5433 -0.5595 0.9954
-0.9076 0.3640 -0.5356 0.9956
-0.9224 0.2770 -0.5275 0.9956
-0.9469 -0.0634 -0.5198 0.9957
-0.9442 -0.1489 -0.5235 0.9957
-0.9288 -0.2333 -0.5245 0.9956
-0.9157 -0.3195 -0.5312 0.9956
-0.8985 -0.4071 -0.5403 0.9955
-0.8731 -0.4942 -0.5495 0.9954
-0.8772 -0.6062 -0.5840 0.9951
-2.3322 -2.7848 -1.9895 0.9836
-1.5101 -3.3079 -1.9916 0.9836
-0.2535 -3.6333 -1.9948 0.9835
0.0728 -3.6429 -1.9957 0.9835
0.3988 -3.6233 -1.9965 0.9835
1.0394 -3.4969 -1.9981 0.9835
1.6476 -3.2579 -1.9996 0.9835
1.9333 -3.0984 -2.0003 0.9835
2.2037 -2.9138 -2.0009 0.9835
2.4564 -2.7056 -2.0015 0.9835
2.9011 -2.2254 -2.0026 0.9835
3.0893 -1.9571 -2.0030 0.9835
3.2527 -1.6730 -2.0034 0.9835
1.8783 -0.5723 -1.0755 0.9911
-0.8658 0.2525 -0.5207 0.9958
-0.8775 0.1725 -0.5163 0.9959
-0.8822 0.0925 -0.5121 0.9959
-0.8799 -0.1460 -0.5150 0.9959
-0.8699 -0.2259 -0.5189 0.9959
-0.7996 -0.5620 -0.5642 0.9955
-2.6293 -2.2251 -1.9887 0.9842
-2.4202 -2.4522 -1.9892 0.9842
-2.1916 -2.6599 -1.9898 0.9842
-1.9454 -2.8463 -1.9905 0.9842
-1.6833 -3.0101 -1.9911 0.9842
-1.4076 -3.1498 -1.9919 0.9842
-1.1203 -3.2644 -1.9926 0.9842
-0.5206 -3.4145 -1.9941 0.9842
0.0967 -3.4553 -1.9957 0.9842
0.7119 -3.3853 -1.9972 0.9841
1.0125 -3.3092 -1.9980 0.9841
1.5875 -3.0777 -1.9994 0.9841
2.3504 -2.5477 -2.0012 0.9841
2.5697 -2.3276 -2.0017 0.9841
2.9448 -1.8328 -2.0026 0.9841
1.7337 -0.3481 -1.0209 0.9919
1.7387 0.1233 -1.0064 0.9920
1.7397 0.2815 -1.0175 0.9919
1.7071 0.6033 -1.0453 0.9917
3.1538 1.4440 -2.0026 0.9841
3.0113 1.7203 -2.0022 0.9841
2.6549 2.2286 -2.0013 0.9841
1.9655 2.8513 -1.9994 0.9841
1.7018 3.0148 -1.9988 0.9841
0.2267 3.4480 -1.9950 0.9842
-0.0828 3.4531 -1.9942 0.9842
-0.3915 3.4305 -1.9934 0.9842
-0.6968 3.3803 -1.9927 0.9842
-0.9962 3.3032 -1.9919 0.9842
-1.2875 3.1996 -1.9912 0.9842
-1.5682 3.0704 -1.9905 0.9842
-2.0893 2.7398 -1.9893 0.9842
-2.3255 2.5410 -1.9887 0.9842
-0.8038 0.5048 -0.5480 0.9956
-0.8535 0.3423 -0.5309 0.9958
-0.8653 0.2599 -0.5216 0.9958
-0.8767 0.1797 -0.5167 0.9959
-0.8821 0.0996 -0.5125 0.9959
-0.8804 -0.1389 -0.5146 0.9959
-0.8711 -0.2188 -0.5186 0.9959
-0.8606 -0.3003 -0.5263 0.9958
-0.8445 -0.3826 -0.5353 0.9957
-2.6469 -2.2039 -1.9886 0.9842
-2.2128 -2.6422 -1.9898 0.9842
-1.7072 -2.9964 -1.9911 0.9842
-1.4326 -3.1384 -1.9918 0.9842
-0.8506 -3.3460 -1.9933 0.9842
-0.5479 -3.4101 -1.9941 0.9842
0.6848 -3.3907 -1.9972 0.9841
0.9860 -3.3170 -1.9979 0.9841
1.5628 -3.0902 -1.9993 0.9841
2.0902 -2.7638 -2.0006 0.9841
2.3299 -2.5663 -2.0012 0.9841
2.5509 -2.3480 -2.0017 0.9841
1.7878 -0.7253 -1.1139 0.9911
1.7219 -0.5246 -1.0392 0.9917
1.7419 -0.2038 -1.0125 0.9919
