ply
format ascii 1.0
element vertex 1240
property float32 x
property float32 y
property float32 z
property float32 I
end_header
1.7590 -13.2442 2.3558 0.9472
-5.2231 9.8698 1.9690 0.9557
1.7605 -13.2555 2.0485 0.9473
-0.6882 17.8700 2.7396 0.9302
-5.2028 9.8315 1.4485 0.9561
1.6647 -13.3296 1.7493 0.9473
8.8374 16.2000 1.9816 0.9284
7.7593 17.8649 2.0915 0.9246
1.6661 -13.3409 1.4437 0.9473
-5.1830 9.7939 0.9380 0.9565
1.7664 -13.3002 0.8320 0.9476
1.6689 -13.3634 0.8351 0.9475
-5.1672 9.7641 0.4356 0.9567
1.7694 -13.3225 0.2270 0.9477
1.6717 -13.3858 0.2279 0.9475
1.7708 -13.3336 -0.0757 0.9476
5.0977 3.0109 -0.0333 0.9766
4.6157 3.3172 -0.0320 0.9775
5.1899 3.0111 -0.0338 0.9763
1.7723 -13.3448 -0.3791 0.9476
6.1692 2.9335 -0.1923 0.9730
5.0160 2.9626 -0.1640 0.9770
4.1183 2.9597 -0.1428 0.9799
1.6745 -13.4083 -0.3805 0.9474
5.1143 2.9672 -0.1665 0.9766
4.0757 3.4680 -0.1507 0.9788
1.7738 -13.3559 -0.6833 0.9475
6.0608 2.8819 -0.3403 0.9735
4.9326 2.9134 -0.2905 0.9773
4.0687 2.9241 -0.2541 0.9801
4.0271 3.4811 -0.2700 0.9789
-3.4943 8.3324 -0.4582 0.9645
-5.1685 9.7665 -0.5604 0.9567
1.6759 -13.4196 -0.6859 0.9473
6.1761 2.8780 -0.3456 0.9731
5.0323 2.9196 -0.2950 0.9770
4.1361 2.9240 -0.2569 0.9799
1.7753 -13.3672 -0.9887 0.9474
13.5255 -14.2426 -1.4402 0.9242
18.4161 -6.9945 -1.4444 0.9240
18.8112 -5.2737 -1.4325 0.9246
19.2640 -1.8168 -1.4187 0.9253
19.1146 3.3779 -1.4232 0.9251
18.8434 5.1049 -1.4314 0.9247
7.4180 2.7432 -0.5799 0.9688
4.8452 2.8617 -0.4126 0.9777
4.0193 2.8886 -0.3629 0.9803
-3.4886 8.3188 -0.6614 0.9645
-14.8130 9.0040 -1.2710 0.9328
1.6774 -13.4309 -0.9924 0.9472
18.3763 -7.1438 -1.4456 0.9240
18.7814 -5.4235 -1.4334 0.9246
19.0732 -3.6973 -1.4245 0.9250
19.2535 -1.9673 -1.4191 0.9253
19.3234 -0.2353 -1.4169 0.9254
19.2833 1.4970 -1.4181 0.9254
19.1329 3.2277 -1.4227 0.9251
7.6108 2.7473 -0.5933 0.9681
4.0870 2.8893 -0.3670 0.9801
3.9807 3.3871 -0.3832 0.9793
4.7035 8.4644 -0.7100 0.9619
-0.9238 -19.5334 -1.8774 0.9244
0.8056 -18.9930 -1.8251 0.9265
1.6648 -12.5352 -1.2140 0.9505
2.8116 -12.4744 -1.2276 0.9499
5.3815 -16.7232 -1.6866 0.9318
6.6955 -15.7930 -1.6468 0.9334
10.0037 -12.6287 -1.5467 0.9373
12.6581 -11.1373 -1.6187 0.9345
13.4125 -9.8188 -1.5958 0.9354
14.0622 -8.4729 -1.5762 0.9362
15.6493 -2.9073 -1.5281 0.9380
15.8527 -0.0695 -1.5220 0.9383
15.8090 1.3512 -1.5233 0.9382
15.4298 4.1801 -1.5347 0.9378
7.2094 2.6661 -0.7380 0.9696
5.7393 2.7290 -0.6101 0.9748
4.7373 2.7980 -0.5282 0.9781
4.6841 8.5865 -0.9390 0.9615
5.5462 16.7304 -1.6922 0.9316
4.1356 17.6266 -1.7382 0.9298
2.6127 18.4324 -1.7873 0.9279
-0.5143 13.3546 -1.2831 0.9477
-8.1138 7.1952 -1.0411 0.9574
-8.2818 6.1125 -0.9882 0.9595
0.6592 -19.0448 -1.8295 0.9263
2.7108 -12.4798 -1.2261 0.9500
5.2623 -16.8005 -1.6902 0.9317
6.5855 -15.8767 -1.6502 0.9333
8.9138 -13.8308 -1.5797 0.9360
10.8258 -11.5792 -1.5218 0.9383
12.5875 -11.2504 -1.6208 0.9344
13.3511 -9.9346 -1.5977 0.9353
15.0204 -5.8391 -1.5472 0.9373
15.6317 -3.0302 -1.5287 0.9380
7.3375 2.6487 -0.7489 0.9691
4.8115 2.7915 -0.5340 0.9779
4.0237 2.8445 -0.4731 0.9804
3.9299 3.3440 -0.4954 0.9795
4.2627 17.5521 -1.7341 0.9300
2.7494 18.3664 -1.7829 0.9281
-3.7095 -16.0923 -1.9617 0.9356
-2.2015 -15.9792 -1.9160 0.9371
0.6527 -15.3893 -1.8297 0.9398
1.6649 -12.5356 -1.5021 0.9503
5.5275 -13.0380 -1.6822 0.9446
6.5498 -12.2610 -1.6512 0.9455
8.8757 -11.2048 -1.6980 0.9440
9.8722 -10.3957 -1.7030 0.9439
10.6202 -9.3442 -1.6803 0.9446
11.2787 -8.2568 -1.6604 0.9453
13.0295 -3.6528 -1.6074 0.9470
13.2492 -2.4614 -1.6007 0.9472
13.3908 1.1446 -1.5964 0.9473
13.2659 2.3444 -1.6002 0.9472
7.0224 2.5969 -0.8894 0.9703
3.8673 3.3430 -0.6072 0.9796
7.5771 11.3399 -1.6200 0.9465
4.6557 8.5343 -1.1548 0.9616
4.5353 13.6810 -1.7121 0.9436
3.3637 14.3366 -1.7492 0.9424
2.1139 14.9133 -1.7892 0.9411
-0.5241 13.6087 -1.6177 0.9466
-3.5762 16.1600 -1.9660 0.9355
-5.1282 16.1514 -2.0129 0.9340
-3.4887 8.3189 -1.0715 0.9643
-11.4313 14.5471 -2.1977 0.9282
-12.9365 13.7291 -2.2407 0.9268
-7.6128 6.7510 -1.2086 0.9598
-7.9931 5.8994 -1.1801 0.9608
-15.9963 -11.4020 -2.3334 0.9239
-14.6512 -12.5653 -2.2927 0.9252
-13.2115 -13.5639 -2.2492 0.9266
-11.7015 -14.3938 -2.2035 0.9280
-10.1442 -15.0546 -2.1564 0.9295
-8.5612 -15.5491 -2.1085 0.9310
-5.3941 -16.0619 -2.0126 0.9340
-2.3306 -15.9942 -1.9199 0.9370
0.5338 -15.4242 -1.8333 0.9397
1.5662 -12.5409 -1.5013 0.9504
2.7109 -12.4802 -1.5170 0.9499
5.4348 -13.1025 -1.6850 0.9445
6.4642 -12.3310 -1.6538 0.9455
8.7365 -11.2074 -1.6880 0.9444
11.2250 -8.3526 -1.6620 0.9452
11.8024 -7.2372 -1.6445 0.9458
12.2913 -6.0961 -1.6297 0.9462
13.2335 -2.5653 -1.6012 0.9471
13.4290 -0.1635 -1.5953 0.9473
13.3976 1.0400 -1.5962 0.9473
13.2802 2.2403 -1.5998 0.9472
13.0764 3.4334 -1.6059 0.9470
7.6798 2.7722 -0.9699 0.9676
4.7142 2.7351 -0.6474 0.9783
3.9591 2.7988 -0.5759 0.9807
3.8701 3.2930 -0.6036 0.9797
3.5384 3.6046 -0.6000 0.9799
4.6619 8.3897 -1.1401 0.9621
-3.0797 -13.3599 -1.9426 0.9461
-0.6229 -13.1709 -1.8683 0.9481
0.5482 -12.9239 -1.8328 0.9491
4.7578 -11.2225 -1.7271 0.9519
5.9842 -11.2022 -1.7995 0.9500
6.9336 -10.5764 -1.7919 0.9502
7.7450 -9.7773 -1.7673 0.9509
8.4810 -8.9307 -1.7450 0.9515
9.7236 -7.1183 -1.7074 0.9525
11.0088 -4.1812 -1.6685 0.9535
11.6409 -0.0510 -1.6494 0.9541
11.6061 0.9920 -1.6504 0.9540
11.4941 2.0312 -1.6538 0.9539
3.8254 3.3067 -0.7164 0.9798
3.5384 3.6612 -0.7214 0.9796
4.6626 8.5470 -1.3795 0.9614
3.8484 11.6089 -1.7329 0.9518
2.8426 12.1159 -1.7633 0.9510
1.7784 12.5467 -1.7955 0.9501
0.6602 12.8940 -1.8293 0.9492
-1.7147 13.3081 -1.9012 0.9472
-2.9566 13.3601 -1.9388 0.9462
-4.7236 8.9259 -1.4309 0.9600
-9.2902 11.8224 -2.1304 0.9411
-6.8047 7.2217 -1.4059 0.9607
-7.8338 5.7818 -1.3795 0.9614
-16.4698 6.3289 -2.5000 0.9312
-17.0997 4.8658 -2.5190 0.9307
-17.5642 3.3338 -2.5331 0.9303
-17.8876 -1.4587 -2.5429 0.9301
-17.6312 -3.0450 -2.5351 0.9303
-17.1986 -4.5875 -2.5221 0.9306
-16.5985 -6.0648 -2.5039 0.9311
-12.7758 -10.9570 -2.3847 0.9343
-10.9280 -11.2194 -2.2191 0.9387
-8.2822 -12.2913 -2.1000 0.9419
-7.0183 -12.7470 -2.0618 0.9429
-5.7391 -13.0740 -2.0231 0.9439
-0.7267 -13.1878 -1.8714 0.9480
0.4482 -12.9492 -1.8359 0.9490
1.5517 -12.4242 -1.7740 0.9507
4.6556 -11.2240 -1.7217 0.9521
5.8735 -11.2041 -1.7924 0.9502
6.8595 -10.6434 -1.7941 0.9501
8.4200 -9.0060 -1.7469 0.9514
9.6759 -7.1999 -1.7089 0.9524
11.4651 -2.2225 -1.6547 0.9539
11.5912 -1.1844 -1.6509 0.9540
11.5069 1.9412 -1.6534 0.9539
7.1259 2.5723 -1.0734 0.9699
5.7305 2.6703 -0.8958 0.9748
4.6242 2.6829 -0.7575 0.9786
3.9186 2.7702 -0.6800 0.9808
3.8268 3.2562 -0.7119 0.9799
7.2864 8.8919 -1.6289 0.9546
4.6650 8.3952 -1.3608 0.9619
3.7157 8.3758 -1.2983 0.9637
3.9329 11.5614 -1.7303 0.9519
-2.6302 -11.4102 -1.9290 0.9536
-1.5716 -11.4072 -1.8970 0.9544
-0.5350 -11.3119 -1.8656 0.9551
0.4760 -11.2236 -1.8506 0.9555
3.5183 -10.9333 -1.8921 0.9545
4.4254 -10.4384 -1.8678 0.9551
5.2691 -9.8636 -1.8422 0.9557
6.7723 -8.5494 -1.7967 0.9567
7.4276 -7.8214 -1.7769 0.9572
8.5386 -6.2508 -1.7433 0.9580
9.6942 -3.6819 -1.7083 0.9588
9.9412 -2.7870 -1.7008 0.9590
10.1187 -1.8798 -1.6955 0.9591
10.2648 -0.0450 -1.6910 0.9592
10.1322 1.7906 -1.6950 0.9591
6.3187 7.8347 -1.6581 0.9600
5.6592 8.4697 -1.6781 0.9595
4.6696 8.5599 -1.6063 0.9612
3.6383 8.3766 -1.5045 0.9637
2.4609 10.4889 -1.7749 0.9573
1.5358 10.8354 -1.8029 0.9566
0.5687 11.1067 -1.8321 0.9559
-0.4351 11.2973 -1.8625 0.9552
-2.5258 11.4135 -1.9257 0.9537
-2.7207 8.5689 -1.4811 0.9642
-3.4887 8.3191 -1.4861 0.9641
-5.8379 8.9812 -1.7647 0.9575
-6.6900 5.9326 -1.4730 0.9644
-7.7966 5.7544 -1.5964 0.9615
-13.0588 6.4135 -2.3967 0.9427
-13.6886 5.2601 -2.4158 0.9423
-14.7969 1.4537 -2.4494 0.9415
-14.8835 0.1232 -2.4520 0.9414
-14.8239 -1.2089 -2.4502 0.9415
-14.2730 -3.8071 -2.4335 0.9419
-12.4612 -7.2947 -2.3787 0.9431
-11.6344 -8.2929 -2.3537 0.9437
-10.7174 -9.1916 -2.3260 0.9444
-9.7242 -9.9835 -2.2959 0.9451
-7.5384 -11.1874 -2.2224 0.9468
-4.9265 -11.2228 -2.0191 0.9515
-3.7959 -11.3031 -1.9643 0.9528
-1.6628 -11.4112 -1.8997 0.9543
-0.6240 -11.3237 -1.8683 0.9551
2.4340 -11.2055 -1.8890 0.9546
4.3493 -10.4855 -1.8701 0.9550
5.1982 -9.9159 -1.8444 0.9556
5.9866 -9.2889 -1.8205 0.9562
6.7122 -8.6106 -1.7986 0.9567
7.3732 -7.8863 -1.7786 0.9572
7.9682 -7.1222 -1.7606 0.9576
8.4960 -6.3219 -1.7446 0.9580
8.9558 -5.4917 -1.7307 0.9583
9.3471 -4.6359 -1.7188 0.9586
9.6694 -3.7590 -1.7091 0.9588
10.1060 -1.9590 -1.6958 0.9591
10.2200 -1.0443 -1.6924 0.9592
10.2643 -0.1250 -1.6911 0.9592
10.1438 1.7112 -1.6947 0.9592
5.6869 2.6500 -1.0336 0.9749
5.7189 8.4162 -1.6763 0.9596
4.6688 8.4020 -1.5835 0.9618
2.5392 10.4555 -1.7725 0.9573
-2.4816 -10.7652 -2.0765 0.9560
-1.4857 -10.7837 -2.0461 0.9567
-0.5070 -10.7191 -2.0170 0.9573
1.3729 -10.3376 -1.9601 0.9584
3.1089 -9.6610 -1.9076 0.9595
4.6640 -8.7309 -1.8605 0.9605
5.3651 -8.1839 -1.8393 0.9610
6.0116 -7.5891 -1.8198 0.9614
8.0162 -4.8300 -1.7591 0.9626
8.3658 -4.0683 -1.7485 0.9628
8.8778 -2.4889 -1.7330 0.9632
9.0394 -1.6793 -1.7281 0.9633
9.1377 -0.8618 -1.7251 0.9633
9.0518 1.5996 -1.7277 0.9633
8.8963 2.4101 -1.7324 0.9632
6.9743 2.5791 -1.3977 0.9702
5.5487 2.6384 -1.1548 0.9753
4.4000 2.5988 -0.9605 0.9794
3.8007 2.7315 -0.8797 0.9811
6.0582 7.5116 -1.8139 0.9615
4.3746 8.0191 -1.7170 0.9635
3.6328 8.3640 -1.7140 0.9636
2.1677 9.2391 -1.7837 0.9621
1.3503 9.5263 -1.8085 0.9616
-2.2025 9.9527 -1.9160 0.9594
-4.6758 8.8357 -1.8790 0.9601
-5.7664 8.8712 -1.9887 0.9579
-6.4252 6.8189 -1.7610 0.9626
-7.7970 5.7547 -1.8215 0.9613
-10.5513 6.4136 -2.3209 0.9510
-11.1730 5.4873 -2.3397 0.9506
-11.6984 4.4953 -2.3556 0.9503
-12.1190 3.4485 -2.3683 0.9500
-12.4280 2.3589 -2.3777 0.9498
-12.6200 1.2398 -2.3835 0.9497
-12.6425 -1.0310 -2.3842 0.9497
-12.1848 -3.2501 -2.3703 0.9500
-11.2778 -5.3088 -2.3429 0.9505
-9.2090 -7.8979 -2.2803 0.9518
-8.3708 -8.5940 -2.2550 0.9523
-7.4770 -9.1973 -2.2279 0.9529
-6.5392 -9.7045 -2.1995 0.9535
-4.5767 -10.4259 -2.1402 0.9547
-3.5735 -10.6407 -2.1098 0.9553
-2.5687 -10.7597 -2.0792 0.9560
-1.5716 -10.7854 -2.0486 0.9566
-0.5912 -10.7283 -2.0196 0.9572
0.3663 -10.5841 -1.9906 0.9578
1.2939 -10.3606 -1.9625 0.9584
3.0370 -9.6960 -1.9098 0.9595
5.9576 -7.6426 -1.8214 0.9613
6.5525 -7.0085 -1.8034 0.9617
7.5664 -5.6302 -1.7727 0.9623
9.0279 -1.7500 -1.7285 0.9633
9.1316 -0.9330 -1.7253 0.9633
9.1720 -0.1117 -1.7241 0.9634
9.0623 1.5288 -1.7274 0.9633
5.6660 2.6403 -1.1749 0.9749
4.4659 2.5910 -0.9705 0.9792
3.7907 2.6798 -0.8726 0.9813
3.8029 3.2359 -0.9386 0.9799
5.2422 7.7148 -1.7532 0.9627
3.0124 8.8556 -1.7582 0.9626
1.4227 9.5040 -1.8063 0.9616
-1.3182 -9.5679 -2.0416 0.9613
-0.4504 -9.5234 -2.0153 0.9618
0.3989 -9.4040 -1.9896 0.9622
2.0186 -8.9559 -1.9406 0.9632
2.7789 -8.6356 -1.9176 0.9636
4.1799 -7.8247 -1.8752 0.9644
7.5446 -3.6689 -1.7734 0.9663
7.8076 -2.9654 -1.7654 0.9664
4.8840 2.8847 -1.1990 0.9771
3.7906 2.7243 -0.9867 0.9811
5.4544 6.7630 -1.8366 0.9651
4.8716 7.2908 -1.8535 0.9648
1.2036 8.4917 -1.8129 0.9655
0.4441 8.6739 -1.8359 0.9651
-1.1389 8.8388 -1.8838 0.9642
-1.9507 8.8148 -1.9084 0.9638
-2.6581 8.3718 -1.8567 0.9647
-6.0652 7.7184 -2.0750 0.9607
-9.7526 4.7897 -2.2967 0.9566
-10.2024 3.9205 -2.3103 0.9563
-10.5619 3.0054 -2.3212 0.9561
-10.8257 2.0548 -2.3292 0.9559
-10.8637 -1.8762 -2.3304 0.9559
-10.6181 -2.8322 -2.3229 0.9561
-10.2759 -3.7547 -2.3126 0.9563
-9.8424 -4.6332 -2.2995 0.9565
-9.3240 -5.4582 -2.2838 0.9568
-8.7285 -6.2216 -2.2658 0.9571
-8.0643 -6.9162 -2.2457 0.9575
-6.5664 -8.0771 -2.2004 0.9583
-5.7517 -8.5359 -2.1757 0.9588
-4.0387 -9.2003 -2.1239 0.9598
-2.2745 -9.5274 -2.0705 0.9607
-0.5252 -9.5303 -2.0176 0.9617
1.1531 -9.2327 -1.9668 0.9627
1.9508 -8.9808 -1.9426 0.9631
4.7607 -7.3868 -1.8576 0.9647
5.8912 -6.3012 -1.8234 0.9653
6.8144 -5.0706 -1.7955 0.9659
7.7870 -3.0272 -1.7660 0.9664
8.1509 -1.5800 -1.7550 0.9666
8.2831 -0.1009 -1.7510 0.9667
8.1824 1.3804 -1.7540 0.9666
8.0450 2.1124 -1.7582 0.9666
7.0606 2.5487 -1.5867 0.9698
3.7885 2.6783 -0.9807 0.9812
3.7910 3.2257 -1.0522 0.9799
3.5381 3.6043 -1.0676 0.9796
2.6934 7.9177 -1.7678 0.9664
1.9972 8.2239 -1.7889 0.9660
1.2684 8.4729 -1.8110 0.9656
-1.9701 -8.5464 -2.0613 0.9646
-1.1832 -8.5881 -2.0375 0.9650
-0.4048 -8.5594 -2.0139 0.9654
0.3590 -8.4631 -1.9908 0.9658
1.1026 -8.3021 -1.9683 0.9662
3.1653 -7.4661 -1.9059 0.9672
3.7835 -7.0825 -1.8872 0.9675
5.3872 -5.6729 -1.8386 0.9684
5.8306 -5.1301 -1.8252 0.9686
6.2254 -4.5574 -1.8133 0.9688
6.8644 -3.3381 -1.7939 0.9691
7.2962 -2.0454 -1.7809 0.9693
7.4327 -1.3808 -1.7767 0.9694
7.5453 -0.0331 -1.7733 0.9695
7.5210 0.6428 -1.7741 0.9695
3.5381 3.6608 -1.1965 0.9793
4.9468 6.1336 -1.8519 0.9681
3.8417 7.0423 -1.8854 0.9676
1.8098 7.7138 -1.8621 0.9680
0.3997 7.8070 -1.8372 0.9684
-0.3043 7.9020 -1.8585 0.9680
-1.7489 7.9027 -1.9023 0.9673
-2.4778 7.8038 -1.9243 0.9669
-3.2385 7.7224 -1.9681 0.9662
-4.0811 7.7118 -2.0506 0.9648
-4.9747 7.6533 -2.1453 0.9632
-5.7158 7.2737 -2.1742 0.9627
-6.4062 6.7987 -2.1954 0.9623
-7.0513 6.2530 -2.2150 0.9620
-7.6442 5.6419 -2.2329 0.9617
-8.1773 4.9706 -2.2490 0.9614
-9.7216 0.9551 -2.2958 0.9607
-9.7382 -0.7941 -2.2963 0.9606
-9.6120 -1.6600 -2.2925 0.9607
-8.2688 -4.8405 -2.2519 0.9614
-7.7476 -5.5224 -2.2361 0.9617
-7.1651 -6.1451 -2.2185 0.9620
-6.5291 -6.7032 -2.1992 0.9623
-5.8474 -7.1927 -2.1786 0.9626
-2.8273 -8.4188 -2.0872 0.9642
-2.0387 -8.5394 -2.0634 0.9646
-1.2513 -8.5873 -2.0395 0.9650
-0.4720 -8.5647 -2.0159 0.9654
0.2933 -8.4741 -1.9928 0.9658
1.0389 -8.3185 -1.9702 0.9661
1.7598 -8.1014 -1.9484 0.9665
3.1097 -7.4972 -1.9076 0.9672
6.1931 -4.6083 -1.8143 0.9688
6.5424 -4.0118 -1.8037 0.9690
6.8409 -3.3929 -1.7947 0.9691
7.0876 -2.7553 -1.7872 0.9692
7.5107 -0.7674 -1.7744 0.9695
7.4520 1.2571 -1.7761 0.9694
7.3253 1.9234 -1.7800 0.9694
5.5545 2.5883 -1.4402 0.9751
4.4227 2.5660 -1.2017 0.9792
3.7864 2.6767 -1.0898 0.9811
3.7803 3.2166 -1.1666 0.9798
4.4636 6.5689 -1.8665 0.9679
3.8933 7.0064 -1.8838 0.9676
3.2784 7.3899 -1.9000 0.9673
-1.7834 -7.7364 -2.0556 0.9677
-1.0722 -7.7827 -2.0341 0.9681
-0.3672 -7.7651 -2.0128 0.9684
1.0024 -7.5475 -1.9713 0.9690
2.2863 -7.1049 -1.9325 0.9696
3.9833 -6.0761 -1.8811 0.9704
4.4755 -5.6500 -1.8662 0.9707
5.7004 -4.1731 -1.8292 0.9712
6.5153 -2.4746 -1.8045 0.9716
6.8174 -1.2665 -1.7954 0.9718
6.9218 -0.0303 -1.7922 0.9718
6.8271 1.2065 -1.7951 0.9718
6.7054 1.8166 -1.7987 0.9717
6.5346 2.4165 -1.8039 0.9716
5.3827 2.5595 -1.5432 0.9757
4.3444 2.5660 -1.3064 0.9794
3.7296 2.6804 -1.1892 0.9812
3.6745 3.8020 -1.3690 0.9784
3.5060 6.4269 -1.8955 0.9702
2.3463 7.0777 -1.9306 0.9697
1.0650 7.5138 -1.9649 0.9691
0.3916 7.6487 -1.9830 0.9689
-0.2966 7.7009 -1.9954 0.9687
-1.7040 7.7001 -2.0419 0.9679
-2.4177 7.6147 -2.0686 0.9675
-3.1258 7.4537 -2.0927 0.9672
-4.4998 6.9226 -2.1378 0.9665
-5.1483 6.5516 -2.1574 0.9662
-5.7635 6.1166 -2.1760 0.9659
-6.3382 5.6207 -2.1934 0.9656
-7.3389 4.4610 -2.2237 0.9651
-7.7522 3.8073 -2.2362 0.9649
-8.0999 3.1125 -2.2467 0.9648
-8.5803 1.6286 -2.2613 0.9646
-8.7063 0.8553 -2.2651 0.9645
-8.7534 0.0725 -2.2665 0.9645
-6.4395 -5.5227 -2.1965 0.9656
-4.6219 -6.8591 -2.1415 0.9664
-3.9514 -7.1768 -2.1212 0.9667
-3.2606 -7.4278 -2.1003 0.9670
-1.8453 -7.7293 -2.0575 0.9677
-1.1339 -7.7812 -2.0360 0.9680
0.2663 -7.6951 -1.9936 0.9687
0.9444 -7.5618 -1.9731 0.9690
1.6013 -7.3718 -1.9532 0.9693
3.4047 -6.4947 -1.8986 0.9702
3.9387 -6.1113 -1.8825 0.9704
4.4344 -5.6885 -1.8675 0.9706
4.8895 -5.2298 -1.8537 0.9709
6.4977 -2.5260 -1.8050 0.9716
6.8084 -1.3198 -1.7956 0.9718
6.9032 0.5359 -1.7928 0.9718
6.8354 1.1531 -1.7948 0.9718
6.7179 1.7639 -1.7984 0.9717
6.5513 2.3649 -1.8034 0.9716
3.7465 2.6485 -1.1880 0.9812
3.6757 3.1276 -1.2496 0.9803
4.0771 6.0001 -1.8782 0.9705
2.3993 7.0533 -1.9290 0.9697
-1.6273 -7.0595 -2.0509 0.9703
-0.3357 -7.0986 -2.0118 0.9709
0.2983 -7.0325 -1.9926 0.9712
0.9180 -6.9119 -1.9739 0.9714
3.1718 -5.9376 -1.9057 0.9724
4.5352 -4.7756 -1.8644 0.9730
4.9141 -4.3237 -1.8530 0.9732
5.5483 -3.3430 -1.8338 0.9734
5.8010 -2.8210 -1.8261 0.9735
6.1728 -1.7305 -1.8149 0.9737
6.3623 -0.6000 -1.8091 0.9738
6.3878 -0.0280 -1.8084 0.9738
6.2996 1.1133 -1.8110 0.9738
6.1863 1.6760 -1.8144 0.9737
3.7089 2.6655 -1.2930 0.9812
3.6741 3.1760 -1.3748 0.9800
4.1596 5.1576 -1.8758 0.9728
3.7080 5.5494 -1.8894 0.9726
2.7017 6.2203 -1.9199 0.9722
1.5765 6.7195 -1.9539 0.9717
0.9776 6.8971 -1.9720 0.9715
0.3596 7.0229 -1.9907 0.9712
-0.2732 7.0944 -2.0099 0.9709
-0.9161 7.1096 -2.0293 0.9706
-1.5639 7.0667 -2.0489 0.9704
-2.2112 6.9642 -2.0685 0.9701
-2.8523 6.8015 -2.0879 0.9698
-3.4812 6.5783 -2.1069 0.9695
-4.6776 5.9525 -2.1431 0.9690
-5.7499 5.0989 -2.1756 0.9686
-6.2241 4.5938 -2.1899 0.9684
-7.0199 3.4477 -2.2140 0.9680
-7.5798 2.1569 -2.2310 0.9678
-7.8743 0.7736 -2.2399 0.9676
-7.9165 0.0656 -2.2412 0.9676
-7.7877 -1.3450 -2.2373 0.9677
-7.6186 -2.0321 -2.2322 0.9678
-7.3823 -2.6974 -2.2250 0.9679
-7.0822 -3.3338 -2.2159 0.9680
-6.7220 -3.9350 -2.2050 0.9681
-6.3066 -4.4953 -2.1925 0.9683
-4.7827 -5.8831 -2.1464 0.9690
-4.2021 -6.2362 -2.1288 0.9692
-3.5956 -6.5306 -2.1105 0.9695
-1.6837 -7.0525 -2.0526 0.9703
0.2437 -7.0404 -1.9943 0.9711
2.0480 -6.5385 -1.9397 0.9719
2.6025 -6.2742 -1.9229 0.9722
4.0790 -5.2326 -1.8782 0.9728
5.5243 -3.3875 -1.8345 0.9734
5.9931 -2.3298 -1.8203 0.9736
6.1605 -1.7789 -1.8152 0.9737
6.2822 -1.2178 -1.8115 0.9737
6.3874 -0.0778 -1.8084 0.9738
6.3705 0.4945 -1.8089 0.9738
4.4227 2.5659 -1.4475 0.9790
3.6742 3.1263 -1.3657 0.9801
3.7486 5.5167 -1.8882 0.9727
2.7481 6.1946 -1.9185 0.9722
1.6276 6.7017 -1.9524 0.9717
1.0305 6.8836 -1.9704 0.9715
-0.3089 -6.5309 -2.0110 0.9730
0.8458 -6.3687 -1.9761 0.9735
2.4462 -5.7700 -1.9276 0.9741
2.9305 -5.4858 -1.9130 0.9743
4.1970 -4.4196 -1.8747 0.9748
4.5498 -4.0031 -1.8640 0.9750
5.1409 -3.0975 -1.8461 0.9752
5.5714 -2.1160 -1.8331 0.9754
5.7240 -1.6047 -1.8284 0.9754
5.8340 -1.0838 -1.8251 0.9755
5.9010 -0.5565 -1.8231 0.9755
5.9052 0.5047 -1.8229 0.9755
5.7366 1.5541 -1.8280 0.9754
5.5881 2.0665 -1.8325 0.9754
4.5822 3.9610 -1.8630 0.9750
3.8477 4.7709 -1.8852 0.9747
2.4947 5.7438 -1.9261 0.9741
1.9862 5.9916 -1.9415 0.9739
0.9009 6.3555 -1.9744 0.9735
-0.2514 6.5275 -2.0092 0.9730
-0.8422 6.5365 -2.0271 0.9728
-1.4367 6.4919 -2.0451 0.9726
-2.0298 6.3928 -2.0630 0.9723
-3.1907 6.0293 -2.0982 0.9719
-3.7476 5.7654 -2.1150 0.9716
-4.2811 5.4480 -2.1312 0.9714
-4.7857 5.0790 -2.1464 0.9712
-5.6860 4.1967 -2.1737 0.9709
-6.0713 3.6904 -2.1853 0.9707
-6.6889 2.5703 -2.2040 0.9705
-7.0776 1.3434 -2.2158 0.9703
-7.2175 0.0598 -2.2200 0.9702
-7.1913 -0.5864 -2.2192 0.9703
-7.1012 -1.2264 -2.2165 0.9703
-6.9484 -1.8534 -2.2119 0.9704
-6.7348 -2.4608 -2.2054 0.9704
-5.3385 -4.5785 -2.1632 0.9710
-4.8754 -5.0054 -2.1492 0.9712
-3.8481 -5.7109 -2.1181 0.9716
-2.7235 -6.2043 -2.0841 0.9720
-2.1388 -6.3687 -2.0664 0.9723
-0.9519 -6.5325 -2.0305 0.9728
-0.3600 -6.5333 -2.0126 0.9730
5.5561 -2.1599 -1.8335 0.9754
5.8261 -1.1294 -1.8253 0.9755
5.8969 -0.6025 -1.8232 0.9755
5.9087 0.4587 -1.8228 0.9755
5.8496 0.9868 -1.8246 0.9755
5.6027 2.0224 -1.8321 0.9754
4.4227 2.5659 -1.5727 0.9788
3.0168 5.4290 -1.9103 0.9743
2.5377 5.7204 -1.9248 0.9742
2.0314 5.9717 -1.9401 0.9739
1.5009 6.1803 -1.9562 0.9737
-0.8322 -6.0404 -2.0268 0.9746
-0.2857 -6.0410 -2.0103 0.9748
0.7834 -5.8986 -1.9780 0.9752
2.7206 -5.0929 -1.9193 0.9760
4.5264 -3.3136 -1.8647 0.9766
5.0056 -2.4342 -1.8502 0.9768
5.4340 -1.0095 -1.8372 0.9770
5.5192 -0.0242 -1.8346 0.9770
5.5009 0.4702 -1.8352 0.9770
5.4420 0.9617 -1.8370 0.9770
5.2036 1.9243 -1.8442 0.9769
4.5532 3.2723 -1.8638 0.9766
4.2620 3.6842 -1.8727 0.9765
3.9357 4.0723 -1.8825 0.9764
2.7633 5.0654 -1.9180 0.9760
2.3149 5.3299 -1.9316 0.9758
1.8420 5.5566 -1.9459 0.9756
1.3474 5.7430 -1.9608 0.9754
0.8344 5.8868 -1.9764 0.9752
0.3065 5.9858 -1.9923 0.9751
-0.7786 6.0425 -2.0252 0.9746
-1.8739 5.9018 -2.0583 0.9742
-2.9418 5.5590 -2.0906 0.9738
-3.4531 5.3123 -2.1061 0.9736
-3.9423 5.0168 -2.1209 0.9735
-4.4045 4.6744 -2.1349 0.9733
-5.8859 2.8907 -2.1797 0.9727
-6.3475 1.8062 -2.1937 0.9726
-6.6006 -0.5383 -2.2014 0.9725
-6.5185 -1.1258 -2.1989 0.9725
-6.1848 -2.2598 -2.1888 0.9726
-5.2961 -3.7750 -2.1619 0.9730
-4.4866 -4.6062 -2.1374 0.9733
-4.0299 -4.9571 -2.1236 0.9734
-3.0377 -5.5173 -2.0936 0.9738
-2.5124 -5.7233 -2.0777 0.9740
-1.9743 -5.8788 -2.0614 0.9742
0.2076 -5.9992 -1.9954 0.9750
0.7379 -5.9087 -1.9793 0.9752
1.2540 -5.7730 -1.9637 0.9754
1.7522 -5.5942 -1.9486 0.9756
2.2294 -5.3748 -1.9342 0.9758
2.6825 -5.1171 -1.9205 0.9759
3.5060 -4.4975 -1.8956 0.9762
4.7638 -2.9211 -1.8575 0.9767
4.9879 -2.4738 -1.8507 0.9768
5.4267 -1.0519 -1.8374 0.9770
5.5041 0.4273 -1.8351 0.9770
5.3529 1.4055 -1.8397 0.9769
5.2172 1.8833 -1.8438 0.9769
5.0421 2.3495 -1.8491 0.9768
4.4227 2.5659 -1.6996 0.9787
4.5768 3.2355 -1.8631 0.9767
3.9654 4.0396 -1.8816 0.9764
3.6084 4.4035 -1.8924 0.9763
3.2196 4.7382 -1.9042 0.9761
2.3549 5.3083 -1.9304 0.9758
1.8840 5.5384 -1.9446 0.9756
1.3912 5.7285 -1.9595 0.9755
0.8796 5.8760 -1.9750 0.9753
-1.2817 -5.5600 -2.0404 0.9761
-0.2655 -5.6135 -2.0097 0.9764
0.7288 -5.4875 -1.9796 0.9768
1.2082 -5.3607 -1.9651 0.9769
2.1149 -4.9886 -1.9377 0.9772
2.9327 -4.4736 -1.9129 0.9775
3.3021 -4.1686 -1.9017 0.9777
3.6422 -3.8353 -1.8914 0.9778
4.9835 -1.3971 -1.8508 0.9783
5.1606 -0.0226 -1.8455 0.9783
4.9946 1.3531 -1.8505 0.9783
4.8638 1.7987 -1.8545 0.9782
4.6961 2.2330 -1.8595 0.9782
4.3444 2.5660 -1.8043 0.9788
4.2530 3.0566 -1.8729 0.9780
2.9700 4.4450 -1.9117 0.9775
1.7156 5.1751 -1.9497 0.9771
1.2543 5.3460 -1.9637 0.9769
0.7763 5.4768 -1.9781 0.9768
-0.2161 5.6114 -2.0082 0.9764
-2.2379 5.3363 -2.0693 0.9757
-3.1979 4.9198 -2.0984 0.9754
-4.0750 4.3247 -2.1249 0.9751
-4.8325 3.5667 -2.1478 0.9748
-5.1558 3.1339 -2.1576 0.9747
-5.4370 2.6702 -2.1661 0.9746
-5.9977 1.1384 -2.1831 0.9744
-6.0827 0.5976 -2.1857 0.9744
-6.1145 0.0506 -2.1866 0.9744
-6.0926 -0.4968 -2.1860 0.9744
-5.8897 -1.5710 -2.1799 0.9744
-5.4841 -2.5816 -2.1676 0.9746
-5.2110 -3.0505 -2.1593 0.9747
-4.8952 -3.4893 -2.1498 0.9748
-3.2831 -4.8722 -2.1010 0.9754
-0.3094 -5.6150 -2.0110 0.9764
0.6865 -5.4966 -1.9809 0.9767
1.1672 -5.3733 -1.9663 0.9769
1.6318 -5.2097 -1.9523 0.9771
3.2711 -4.1962 -1.9027 0.9777
3.6138 -3.8653 -1.8923 0.9778
4.4506 -2.7291 -1.8670 0.9781
4.6611 -2.3118 -1.8606 0.9781
4.8356 -1.8798 -1.8553 0.9782
5.0736 -0.9835 -1.8481 0.9783
5.1360 -0.5248 -1.8462 0.9783
5.1464 0.3995 -1.8459 0.9783
5.0943 0.8594 -1.8475 0.9783
5.0042 1.3139 -1.8502 0.9783
4.8767 1.7604 -1.8541 0.9782
4.7121 2.1958 -1.8590 0.9782
4.4227 2.5659 -1.8285 0.9785
3.3671 4.1090 -1.8997 0.9777
3.0030 4.4194 -1.9108 0.9776
2.6114 4.6995 -1.9226 0.9774
2.1945 4.9466 -1.9352 0.9773
1.2951 5.3327 -1.9624 0.9770
0.8184 5.4671 -1.9768 0.9768
0.2206 -5.2012 -1.9950 0.9779
1.1289 -5.0085 -1.9675 0.9782
1.5623 -4.8547 -1.9544 0.9784
1.9778 -4.6652 -1.9418 0.9785
2.3728 -4.4419 -1.9299 0.9787
2.7449 -4.1870 -1.9186 0.9788
3.0917 -3.9030 -1.9081 0.9789
3.7020 -3.2572 -1.8896 0.9791
4.1905 -2.5249 -1.8748 0.9793
4.3858 -2.1328 -1.8689 0.9793
4.5473 -1.7271 -1.8640 0.9794
4.8212 -0.4547 -1.8558 0.9795
4.8247 0.4124 -1.8556 0.9795
4.7724 0.8434 -1.8572 0.9795
4.6845 1.2691 -1.8599 0.9794
4.5612 1.6868 -1.8636 0.9794
4.2110 2.4872 -1.8742 0.9793
0.7250 5.1148 -1.9797 0.9781
-0.2016 5.2352 -2.0077 0.9778
-1.1482 5.1883 -2.0364 0.9775
-2.0836 4.9685 -2.0647 0.9772
-3.3928 4.3175 -2.1043 0.9768
-3.7870 4.0191 -2.1162 0.9766
-4.1533 3.6831 -2.1273 0.9765
-5.0459 2.4782 -2.1543 0.9762
-5.4367 1.5470 -2.1661 0.9761
-2.2898 0.0189 -0.8775 0.9902
-2.3042 -0.1879 -0.8859 0.9901
-5.5813 -0.9639 -2.1705 0.9760
-4.8373 -2.8317 -2.1480 0.9763
-4.5456 -3.2401 -2.1392 0.9764
-3.4676 -4.2654 -2.1066 0.9767
-2.6190 -4.7567 -2.0809 0.9770
-1.7057 -5.0792 -2.0533 0.9773
-1.2355 -5.1754 -2.0390 0.9775
-0.7618 -5.2282 -2.0247 0.9776
1.0905 -5.0201 -1.9687 0.9782
1.9425 -4.6830 -1.9429 0.9785
3.0626 -3.9288 -1.9090 0.9789
3.3847 -3.6202 -1.8992 0.9790
3.6779 -3.2872 -1.8904 0.9791
4.1719 -2.5582 -1.8754 0.9793
4.3702 -2.1675 -1.8694 0.9793
4.7589 -0.9225 -1.8576 0.9794
4.8177 -0.4923 -1.8559 0.9795
4.8275 0.3748 -1.8556 0.9795
4.7784 0.8061 -1.8570 0.9795
4.6935 1.2324 -1.8596 0.9794
4.2291 2.4536 -1.8737 0.9793
4.0067 2.8325 -1.8804 0.9792
3.7524 3.1929 -1.8881 0.9791
2.8108 4.1366 -1.9166 0.9788
2.4433 4.3970 -1.9277 0.9787
1.6404 4.8223 -1.9520 0.9784
0.7644 5.1059 -1.9785 0.9781
-1.1171 -4.8462 -2.0355 0.9787
-0.6743 -4.8944 -2.0221 0.9789
-0.2319 -4.9024 -2.0087 0.9790
0.2066 -4.8711 -1.9954 0.9791
0.6377 -4.8014 -1.9824 0.9793
1.0581 -4.6947 -1.9696 0.9794
2.5769 -3.9308 -1.9237 0.9799
3.4787 -3.0608 -1.8964 0.9802
3.7241 -2.7263 -1.8890 0.9802
4.1240 -2.0055 -1.8769 0.9804
4.4826 -0.8328 -1.8660 0.9805
4.5353 -0.4277 -1.8644 0.9805
4.5386 0.3879 -1.8643 0.9805
4.4892 0.7933 -1.8658 0.9805
4.4061 1.1937 -1.8683 0.9805
4.2896 1.5863 -1.8718 0.9804
4.1403 1.9687 -1.8763 0.9804
3.9590 2.3383 -1.8818 0.9803
3.7465 2.6925 -1.8883 0.9803
3.5039 3.0289 -1.8956 0.9802
3.2327 3.3448 -1.9038 0.9801
2.2620 4.1465 -1.9332 0.9798
1.8926 4.3575 -1.9444 0.9797
1.5039 4.5367 -1.9561 0.9796
0.2491 4.8658 -1.9941 0.9792
-0.1887 4.9010 -2.0073 0.9790
-0.6309 4.8968 -2.0207 0.9789
-1.0739 4.8526 -2.0341 0.9787
-1.9470 4.6429 -2.0605 0.9785
-2.3695 4.4775 -2.0733 0.9783
-3.1664 4.0295 -2.0974 0.9781
-3.8734 3.4349 -2.1188 0.9779
-4.1838 3.0879 -2.1282 0.9778
-4.7018 2.3092 -2.1439 0.9776
-5.0640 1.4410 -2.1549 0.9775
-2.0170 0.1982 -0.8295 0.9913
-1.9923 0.0165 -0.8154 0.9914
-2.0137 -0.1642 -0.8269 0.9913
-5.0890 -1.3574 -2.1556 0.9775
-4.7422 -2.2323 -2.1451 0.9776
-3.9331 -3.3732 -2.1207 0.9779
-3.2360 -3.9805 -2.0996 0.9781
-2.8507 -4.2307 -2.0879 0.9782
-1.5945 -4.7480 -2.0499 0.9786
-1.1555 -4.8401 -2.0366 0.9787
-0.7128 -4.8918 -2.0232 0.9789
-0.2702 -4.9033 -2.0098 0.9790
0.6006 -4.8090 -1.9835 0.9793
1.8222 -4.3931 -1.9465 0.9797
2.1954 -4.1879 -1.9352 0.9798
2.5474 -3.9526 -1.9246 0.9799
2.8761 -3.6895 -1.9146 0.9800
3.1795 -3.4008 -1.9054 0.9801
3.7040 -2.7561 -1.8896 0.9802
3.9221 -2.4050 -1.8830 0.9803
4.2645 -1.6578 -1.8726 0.9804
4.3871 -1.2669 -1.8689 0.9805
4.4764 -0.8677 -1.8662 0.9805
4.4949 0.7583 -1.8656 0.9805
4.3010 1.5526 -1.8715 0.9804
4.1546 1.9360 -1.8759 0.9804
3.7662 2.6624 -1.8877 0.9803
3.2573 3.3182 -1.9031 0.9801
2.9611 3.6135 -1.9120 0.9800
2.6390 3.8838 -1.9218 0.9799
2.2932 4.1268 -1.9322 0.9798
1.1344 4.6710 -1.9673 0.9794
0.7162 4.7844 -1.9799 0.9793
-1.0480 -4.5464 -2.0334 0.9798
-0.2177 -4.6028 -2.0082 0.9801
0.1941 -4.5753 -1.9958 0.9802
0.5992 -4.5117 -1.9835 0.9803
1.7454 -4.1170 -1.9488 0.9807
2.0955 -3.9228 -1.9382 0.9808
2.4257 -3.7002 -1.9282 0.9809
2.7340 -3.4514 -1.9189 0.9810
3.2773 -2.8836 -1.9025 0.9811
3.5093 -2.5691 -1.8955 0.9812
3.7131 -2.2373 -1.8893 0.9813
3.8876 -1.8905 -1.8840 0.9813
4.0319 -1.5313 -1.8796 0.9814
4.2769 -0.4034 -1.8722 0.9814
4.2801 0.3658 -1.8721 0.9814
4.2333 0.7481 -1.8735 0.9814
4.1546 1.1255 -1.8759 0.9814
3.7315 2.2040 -1.8887 0.9813
3.5305 2.5373 -1.8948 0.9812
2.7628 3.4257 -1.9180 0.9810
2.4569 3.6769 -1.9273 0.9809
1.7804 4.0992 -1.9477 0.9807
1.4143 4.2663 -1.9588 0.9806
0.6383 4.5035 -1.9823 0.9803
0.2340 4.5706 -1.9945 0.9802
-1.4197 4.4714 -2.0446 0.9797
-2.6015 4.0022 -2.0803 0.9794
-3.9139 2.8887 -2.1201 0.9790
-4.1722 2.5361 -2.1279 0.9789
-1.4936 0.4250 -0.6768 0.9932
-1.4682 0.2787 -0.6513 0.9935
-1.4689 0.1443 -0.6433 0.9936
-1.4285 0.0118 -0.6226 0.9938
-1.4645 -0.1194 -0.6404 0.9936
-1.4927 -0.3982 -0.6733 0.9933
-1.4864 -0.5431 -0.6897 0.9931
-4.4340 -2.0872 -2.1358 0.9788
-4.2163 -2.4682 -2.1292 0.9789
-3.6803 -3.1563 -2.1130 0.9791
-2.6701 -3.9626 -2.0824 0.9794
-2.2919 -4.1627 -2.0710 0.9795
-1.8991 -4.3263 -2.0591 0.9796
-1.4952 -4.4523 -2.0469 0.9797
-1.0840 -4.5405 -2.0345 0.9798
-0.6690 -4.5908 -2.0219 0.9800
-0.2537 -4.6035 -2.0093 0.9801
0.1585 -4.5791 -1.9969 0.9802
0.9608 -4.4230 -1.9726 0.9804
1.3449 -4.2938 -1.9610 0.9806
1.7141 -4.1325 -1.9498 0.9807
2.0659 -3.9408 -1.9391 0.9808
2.3979 -3.7206 -1.9291 0.9809
2.7081 -3.4740 -1.9197 0.9810
2.9947 -3.2031 -1.9110 0.9810
4.0206 -1.5630 -1.8800 0.9814
4.1366 -1.1945 -1.8765 0.9814
4.2212 -0.8183 -1.8739 0.9814
4.2826 0.3325 -1.8720 0.9814
4.1627 1.0930 -1.8757 0.9814
4.0552 1.4638 -1.8789 0.9814
3.5491 2.5090 -1.8942 0.9812
3.3222 2.8269 -1.9011 0.9811
2.7883 3.4027 -1.9173 0.9810
2.1580 3.8837 -1.9363 0.9808
1.0664 4.3911 -1.9693 0.9805
0.6730 4.4960 -1.9813 0.9804
-0.9858 -4.2766 -2.0315 0.9808
-0.5955 -4.3224 -2.0197 0.9810
-0.2049 -4.3328 -2.0079 0.9811
0.1827 -4.3085 -1.9961 0.9812
1.2987 -4.0356 -1.9624 0.9815
1.6459 -3.8822 -1.9518 0.9816
1.9767 -3.7002 -1.9418 0.9817
2.2888 -3.4913 -1.9324 0.9818
2.5803 -3.2574 -1.9236 0.9818
3.0947 -2.7228 -1.9080 0.9820
3.3144 -2.4264 -1.9014 0.9821
3.5075 -2.1134 -1.8955 0.9821
3.6729 -1.7861 -1.8905 0.9822
3.9948 -0.7421 -1.8808 0.9823
4.0451 0.3457 -1.8792 0.9823
3.9261 1.0636 -1.8828 0.9822
3.8215 1.4132 -1.8860 0.9822
3.5249 2.0819 -1.8950 0.9821
3.3345 2.3964 -1.9007 0.9821
3.1173 2.6946 -1.9073 0.9820
2.8745 2.9743 -1.9146 0.9819
2.6076 3.2333 -1.9227 0.9819
2.0080 3.6809 -1.9409 0.9817
1.3333 4.0219 -1.9613 0.9815
0.9732 4.1480 -1.9722 0.9814
0.6013 4.2425 -1.9834 0.9813
0.2204 4.3042 -1.9949 0.9812
-0.5572 4.3249 -2.0185 0.9810
-1.3350 4.2047 -2.0420 0.9807
-2.0864 3.9426 -2.0648 0.9805
-2.7843 3.5432 -2.0859 0.9803
-3.1047 3.2949 -2.0956 0.9802
-3.6724 2.7104 -2.1127 0.9801
-1.2572 0.4831 -0.6234 0.9941
-1.2705 0.3615 -0.6114 0.9942
-1.2707 0.2412 -0.5987 0.9943
-1.2741 0.1252 -0.5926 0.9944
-1.2602 0.0104 -0.5834 0.9945
-1.2726 -0.1038 -0.5910 0.9944
-1.2706 -0.3389 -0.6087 0.9942
-1.2665 -0.5962 -0.6480 0.9938
-3.9550 -2.3152 -2.1213 0.9800
-3.4538 -2.9621 -2.1062 0.9801
-3.1614 -3.2457 -2.0973 0.9802
-2.8451 -3.4997 -2.0877 0.9803
-2.1536 -3.9114 -2.0668 0.9805
-1.4059 -4.1864 -2.0442 0.9807
-0.6295 -4.3198 -2.0207 0.9809
-0.2388 -4.3333 -2.0089 0.9811
0.5316 -4.2565 -1.9856 0.9813
1.9486 -3.7171 -1.9427 0.9817
2.2625 -3.5105 -1.9332 0.9818
3.9090 -1.1288 -1.8834 0.9822
4.0587 -0.0494 -1.8788 0.9823
3.9338 1.0329 -1.8826 0.9822
3.7003 1.7243 -1.8897 0.9822
3.5402 2.0539 -1.8945 0.9821
3.3521 2.3697 -1.9002 0.9821
3.1372 2.6694 -1.9067 0.9820
2.8966 2.9508 -1.9140 0.9819
2.6318 3.2116 -1.9220 0.9819
2.3442 3.4499 -1.9307 0.9818
1.7083 3.8507 -1.9499 0.9816
1.3639 4.0094 -1.9603 0.9815
-0.5617 -4.0768 -2.0186 0.9818
-0.1933 -4.0880 -2.0075 0.9819
0.1725 -4.0663 -1.9964 0.9820
1.2268 -3.8124 -1.9645 0.9823
1.5553 -3.6686 -1.9546 0.9824
1.8684 -3.4976 -1.9451 0.9825
2.1641 -3.3010 -1.9362 0.9826
2.4403 -3.0807 -1.9278 0.9826
2.6955 -2.8384 -1.9201 0.9827
2.9280 -2.5762 -1.9130 0.9828
3.1365 -2.2961 -1.9067 0.9828
3.6068 -1.3699 -1.8925 0.9830
3.8435 -0.0169 -1.8853 0.9830
3.1555 2.2678 -1.9061 0.9828
2.9494 2.5496 -1.9124 0.9828
2.4662 3.0579 -1.9270 0.9826
2.1919 3.2805 -1.9353 0.9826
1.8981 3.4794 -1.9442 0.9825
1.5866 3.6530 -1.9536 0.9824
0.5678 4.0055 -1.9844 0.9821
0.2080 4.0624 -1.9953 0.9820
-0.8936 4.0380 -2.0287 0.9817
-1.2583 3.9632 -2.0397 0.9816
-3.4546 2.5498 -2.1062 0.9811
-1.1173 0.4293 -0.5871 0.9947
-1.1320 0.3221 -0.5773 0.9948
-1.1443 0.1124 -0.5640 0.9949
-1.1416 -0.1971 -0.5682 0.9949
-1.1328 -0.3022 -0.5751 0.9948
-3.7196 -2.1774 -2.1142 0.9810
-1.6819 -3.8315 -2.0525 0.9815
-1.3251 -3.9458 -2.0417 0.9816
-0.9613 -4.0268 -2.0307 0.9817
-0.5937 -4.0742 -2.0196 0.9818
0.1409 -4.0695 -1.9974 0.9820
0.8550 -3.9361 -1.9758 0.9822
1.1976 -3.8236 -1.9654 0.9823
1.8419 -3.5135 -1.9459 0.9825
2.6742 -2.8603 -1.9207 0.9827
3.1194 -2.3211 -1.9073 0.9828
3.3049 -2.0266 -1.9016 0.9829
3.4643 -1.7182 -1.8968 0.9829
3.8248 -0.3908 -1.8859 0.9830
3.8433 -0.0468 -1.8853 0.9830
3.8327 0.2975 -1.8857 0.9830
3.3508 1.9440 -1.9002 0.9829
2.7401 2.7914 -1.9187 0.9827
2.2166 3.2620 -1.9346 0.9826
1.9244 3.4631 -1.9434 0.9825
1.6144 3.6390 -1.9528 0.9824
1.2886 3.7879 -1.9626 0.9823
0.9492 3.9084 -1.9729 0.9822
-0.5308 -3.8530 -2.0177 0.9826
-0.1828 -3.8647 -2.0072 0.9827
0.1631 -3.8454 -1.9967 0.9828
0.5041 -3.7956 -1.9864 0.9829
1.7694 -3.3122 -1.9481 0.9832
2.0498 -3.1268 -1.9396 0.9833
2.5543 -2.6898 -1.9244 0.9834
2.7752 -2.4418 -1.9177 0.9835
2.9734 -2.1767 -1.9117 0.9835
3.1476 -1.8965 -1.9064 0.9836
3.2969 -1.6033 -1.9019 0.9836
3.4205 -1.2991 -1.8981 0.9836
3.5176 -0.9861 -1.8952 0.9837
3.6305 -0.3424 -1.8918 0.9837
3.6457 -0.0160 -1.8913 0.9837
3.6332 0.3105 -1.8917 0.9837
3.5256 0.9551 -1.8950 0.9837
3.1633 1.8683 -1.9059 0.9836
2.9914 2.1499 -1.9111 0.9835
2.7956 2.4166 -1.9170 0.9835
2.5769 2.6663 -1.9237 0.9834
1.1922 3.5963 -1.9655 0.9831
0.8697 3.7069 -1.9753 0.9830
0.5371 3.7891 -1.9854 0.9829
0.1967 3.8418 -1.9957 0.9828
-0.1488 3.8641 -2.0061 0.9827
-1.5266 3.6402 -2.0478 0.9824
-2.1718 3.3412 -2.0673 0.9822
-2.4731 3.1471 -2.0765 0.9821
-2.7562 2.9251 -2.0850 0.9821
-0.9646 0.5863 -0.5856 0.9949
-1.0186 0.2899 -0.5494 0.9952
-1.0377 0.1019 -0.5409 0.9953
-1.0307 0.0085 -0.5347 0.9954
-1.0374 -0.0846 -0.5400 0.9953
-1.0329 -0.1784 -0.5438 0.9953
-1.0197 -0.2720 -0.5475 0.9953
-1.0076 -0.3681 -0.5565 0.9952
-0.9799 -0.4613 -0.5618 0.9951
-0.9573 -0.5604 -0.5755 0.9950
-3.0645 -2.6282 -2.0944 0.9820
-2.8063 -2.8812 -2.0866 0.9820
-2.2287 -3.3076 -2.0691 0.9822
-1.5881 -3.6178 -2.0497 0.9824
-0.9083 -3.8045 -2.0291 0.9825
-0.5611 -3.8504 -2.0186 0.9826
-0.2130 -3.8649 -2.0081 0.9827
0.1332 -3.8483 -1.9976 0.9828
0.8090 -3.7243 -1.9772 0.9830
1.1335 -3.6189 -1.9673 0.9831
1.4460 -3.4860 -1.9579 0.9831
1.7442 -3.3272 -1.9489 0.9832
2.0262 -3.1438 -1.9403 0.9833
2.7569 -2.4640 -1.9182 0.9835
2.9571 -2.2004 -1.9122 0.9835
3.1334 -1.9214 -1.9068 0.9836
3.5102 -1.0136 -1.8954 0.9837
3.6279 -0.3707 -1.8919 0.9837
3.6354 0.2822 -1.8916 0.9837
3.4404 1.2419 -1.8975 0.9837
3.3217 1.5479 -1.9011 0.9836
3.0073 2.1260 -1.9106 0.9835
2.5968 2.6453 -1.9230 0.9834
2.3583 2.8779 -1.9303 0.9834
1.8225 3.2797 -1.9465 0.9832
1.5285 3.4454 -1.9554 0.9832
1.2197 3.5854 -1.9647 0.9831
0.5663 3.7831 -1.9845 0.9829
-0.5026 -3.6479 -2.0169 0.9833
-0.1731 -3.6601 -2.0069 0.9834
0.1545 -3.6428 -1.9970 0.9835
0.7939 -3.5224 -1.9776 0.9837
1.3964 -3.2937 -1.9594 0.9838
1.6783 -3.1417 -1.9509 0.9839
2.1940 -2.7697 -1.9353 0.9840
2.4244 -2.5529 -1.9283 0.9841
2.8230 -2.0666 -1.9162 0.9842
2.9889 -1.8009 -1.9112 0.9842
3.2487 -1.2339 -1.9033 0.9843
1.8828 -0.5278 -1.0710 0.9911
1.8839 -0.3500 -1.0495 0.9913
1.8889 -0.1781 -1.0391 0.9914
1.8884 0.1614 -1.0380 0.9914
1.8853 0.3332 -1.0486 0.9913
1.8840 0.5104 -1.0691 0.9911
3.1436 1.4948 -1.9065 0.9843
3.0038 1.7742 -1.9107 0.9842
2.2174 2.7493 -1.9345 0.9840
1.9699 2.9482 -1.9420 0.9840
1.7051 3.1256 -1.9500 0.9839
1.1303 3.4097 -1.9674 0.9838
0.8244 3.5136 -1.9767 0.9837
0.1863 3.6395 -1.9960 0.9835
-0.7992 3.6114 -2.0258 0.9833
-1.1247 3.5425 -2.0357 0.9832
-1.4442 3.4438 -2.0453 0.9831
-1.7547 3.3158 -2.0547 0.9830
-2.6049 2.7646 -2.0804 0.9828
-0.8621 0.5240 -0.5525 0.9954
-0.9101 0.3497 -0.5340 0.9956
-0.9239 0.2629 -0.5261 0.9956
-0.9403 0.1785 -0.5242 0.9956
-0.9474 0.0931 -0.5214 0.9957
-0.9473 -0.0772 -0.5206 0.9957
-0.9425 -0.1628 -0.5239 0.9956
-0.9128 -0.3335 -0.5323 0.9956
-0.8681 -0.5082 -0.5509 0.9954
-2.8955 -2.4833 -2.0893 0.9828
-2.6522 -2.7229 -2.0819 0.9828
-2.1073 -3.1273 -2.0654 0.9829
-1.5023 -3.4224 -2.0471 0.9831
-0.8597 -3.6009 -2.0277 0.9833
-0.5312 -3.6455 -2.0177 0.9833
0.1262 -3.6455 -1.9978 0.9835
0.7668 -3.5299 -1.9784 0.9837
1.3712 -3.3058 -1.9602 0.9838
1.6544 -3.1559 -1.9516 0.9839
1.9223 -2.9826 -1.9435 0.9839
2.1731 -2.7876 -1.9359 0.9840
2.6171 -2.3391 -1.9225 0.9841
2.9754 -1.8245 -1.9116 0.9842
3.1196 -1.5472 -1.9072 0.9842
1.8816 -0.5433 -1.0726 0.9911
1.8863 0.3182 -1.0477 0.9913
1.8849 0.4949 -1.0674 0.9912
3.2677 1.1795 -1.9028 0.9843
3.1546 1.4700 -1.9062 0.9843
2.6710 2.2727 -1.9208 0.9841
1.4495 3.2674 -1.9578 0.9838
1.1564 3.3994 -1.9666 0.9838
0.8514 3.5056 -1.9759 0.9837
0.5367 3.5850 -1.9854 0.9836
-0.7880 -3.4186 -2.0255 0.9839
-0.4766 -3.4593 -2.0161 0.9840
-0.1642 -3.4717 -2.0066 0.9841
1.3261 -3.1280 -1.9615 0.9844
1.8477 -2.8185 -1.9457 0.9846
2.8420 -1.7124 -1.9156 0.9848
2.9775 -1.4480 -1.9115 0.9848
1.7364 -0.3226 -1.0197 0.9919
1.7410 -0.1642 -1.0096 0.9920
1.7272 -0.0076 -0.9972 0.9921
1.7403 0.1487 -1.0084 0.9920
1.7290 0.4684 -1.0342 0.9918
2.9895 1.4215 -1.9112 0.9848
2.7004 1.9407 -1.9199 0.9848
2.3247 2.4053 -1.9313 0.9847
1.3529 3.1149 -1.9607 0.9844
1.0732 3.2374 -1.9691 0.9844
0.7825 3.3353 -1.9779 0.9843
0.1768 3.4531 -1.9963 0.9842
-0.1337 3.4713 -2.0057 0.9841
-1.0661 3.3576 -2.0339 0.9839
-1.3685 3.2633 -2.0430 0.9838
-1.6624 3.1413 -2.0519 0.9837
-2.2138 2.8172 -2.0686 0.9836
-2.4662 2.6173 -2.0762 0.9835
-2.6998 2.3941 -2.0833 0.9835
-0.8560 0.3289 -0.5294 0.9958
-0.8785 0.0073 -0.5072 0.9960
-0.8821 -0.0719 -0.5110 0.9959
-0.8689 -0.2318 -0.5192 0.9959
-0.8586 -0.3137 -0.5278 0.9958
-0.8149 -0.4770 -0.5452 0.9956
-0.8005 -0.5706 -0.5676 0.9955
-1.7155 -3.1158 -2.0536 0.9837
-0.5037 -3.4568 -2.0169 0.9840
-0.1913 -3.4717 -2.0074 0.9841
0.1197 -3.4586 -1.9980 0.9841
0.4269 -3.4180 -1.9887 0.9842
1.0203 -3.2574 -1.9708 0.9844
1.3022 -3.1394 -1.9622 0.9844
1.5714 -2.9977 -1.9541 0.9845
2.0650 -2.6490 -1.9392 0.9846
2.2859 -2.4450 -1.9325 0.9847
2.6692 -1.9861 -1.9209 0.9848
2.8291 -1.7348 -1.9160 0.9848
1.7353 -0.6746 -1.0749 0.9914
1.7256 -0.4983 -1.0370 0.9917
1.7350 -0.3363 -1.0204 0.9919
1.7414 -0.1779 -1.0107 0.9919
1.7043 0.6152 -1.0461 0.9917
2.7148 1.9192 -1.9195 0.9848
2.1268 2.5954 -1.9373 0.9846
1.8928 2.7855 -1.9444 0.9846
1.3766 3.1031 -1.9600 0.9844
1.0980 3.2277 -1.9684 0.9844
0.8082 3.3278 -1.9772 0.9843
