ply
format ascii 1.0
element vertex 1406
property float32 x
property float32 y
property float32 z
property float32 I
end_header
11.8153 10.0211 2.7321 0.9390
-12.7854 9.8400 2.8448 0.9366
-12.8437 9.6803 2.4639 0.9370
7.0423 -13.8017 2.3737 0.9392
1.1673 16.4315 2.5236 0.9355
11.1235 16.3103 2.5709 0.9235
1.0657 17.4944 2.2824 0.9317
11.5890 9.8291 1.6318 0.9407
-12.8517 9.6863 1.7281 0.9373
1.1481 16.1607 1.7397 0.9369
-8.8202 17.5035 2.1047 0.9242
11.5435 9.7905 1.2813 0.9410
11.1111 16.2921 1.6694 0.9239
-12.8557 9.6893 1.3628 0.9374
7.0069 -13.7323 0.9560 0.9401
-12.7477 9.8110 0.9975 0.9376
11.5194 9.7700 0.5956 0.9413
7.0069 -13.7323 0.6079 0.9402
-12.7403 9.8053 0.6339 0.9377
-12.8676 9.6983 0.2722 0.9376
-8.8183 17.4996 0.3310 0.9246
-12.7329 9.7996 0.2714 0.9377
11.5402 3.0123 -0.0671 0.9534
-12.8715 9.7012 -0.0907 0.9376
12.0047 3.0047 -0.0697 0.9517
10.2754 3.5756 -0.0613 0.9574
-12.7255 9.7939 -0.0904 0.9378
-12.8755 9.7042 -0.4540 0.9375
11.7387 9.7543 -0.4298 0.9408
1.2383 17.4304 -0.4920 0.9325
-8.8194 17.5017 -0.5518 0.9246
10.7089 2.7954 -0.5613 0.9566
9.9508 3.5754 -0.5362 0.9585
-11.0350 8.3171 -0.7008 0.9462
11.1453 2.7896 -0.5827 0.9550
9.9519 3.4630 -0.5344 0.9587
11.6653 9.6933 -0.7692 0.9411
1.2375 17.4202 -0.8857 0.9324
-8.8201 17.5032 -0.9940 0.9245
-10.8035 8.3147 -0.6914 0.9469
-15.8577 6.4646 -0.8685 0.9337
11.4596 9.7194 -1.1018 0.9415
-11.0350 8.3171 -1.0132 0.9461
-15.1565 6.0013 -1.1953 0.9367
9.8612 3.4315 -0.7656 0.9590
11.5926 9.6329 -1.1051 0.9413
-8.8209 17.5047 -1.4372 0.9244
-8.6131 13.8489 -1.1958 0.9367
-10.8036 8.3147 -0.9996 0.9468
18.6381 3.1173 -1.8142 0.9269
16.6240 7.7161 -1.7595 0.9290
15.2844 8.8363 -1.6949 0.9315
12.6035 8.8803 -1.4802 0.9399
10.2625 15.0479 -1.7487 0.9294
7.5586 16.9575 -1.7824 0.9281
4.5021 18.3915 -1.8178 0.9267
1.0622 17.4369 -1.6771 0.9322
-0.5609 19.4872 -1.8716 0.9247
-2.6100 8.5092 -0.8545 0.9649
-3.5347 8.6670 -0.8986 0.9631
-8.9685 17.3600 -1.8759 0.9245
-11.9447 10.8080 -1.5465 0.9373
-11.0351 8.3171 -1.3266 0.9460
-14.4776 5.7325 -1.4949 0.9393
-5.6566 -12.5203 -1.3190 0.9463
-3.0245 -19.2934 -1.8749 0.9245
-0.7905 -11.9815 -1.1528 0.9529
0.4550 -19.1674 -1.8407 0.9258
6.9496 -13.6200 -1.4680 0.9404
10.5040 -16.7011 -1.8941 0.9238
11.8717 -15.5826 -1.8807 0.9243
13.1316 -14.3625 -1.8683 0.9248
16.2083 -10.1909 -1.8381 0.9259
18.1432 -5.4625 -1.8191 0.9267
18.7633 -2.1333 -1.8130 0.9269
18.8682 -0.4453 -1.8119 0.9270
10.8070 2.7049 -1.0695 0.9562
9.8158 3.4156 -0.9978 0.9591
17.0556 7.7085 -1.7969 0.9275
15.3654 8.6777 -1.6941 0.9315
10.8202 8.9911 -1.3506 0.9450
10.5355 10.4840 -1.4269 0.9420
11.5925 13.8126 -1.7312 0.9301
9.1104 15.9487 -1.7634 0.9289
3.0533 18.8553 -1.8338 0.9261
-3.9004 19.4483 -1.9043 0.9234
-11.9551 11.0386 -1.5622 0.9367
-14.1684 7.3171 -1.5309 0.9379
-14.3237 5.8392 -1.4850 0.9397
-4.9803 -19.0902 -1.8941 0.9238
-1.4699 -19.3140 -1.8596 0.9251
0.2621 -19.1908 -1.8426 0.9258
9.7048 3.4871 -1.2249 0.9593
14.1873 6.5851 -1.8579 0.9389
13.3336 7.7085 -1.8295 0.9398
10.5171 8.9200 -1.6381 0.9460
9.3729 11.3993 -1.7530 0.9423
8.3622 12.2615 -1.7630 0.9420
6.1179 13.7254 -1.7850 0.9413
3.6291 14.8250 -1.8130 0.9404
0.9428 15.4768 -1.8418 0.9395
-0.4495 15.6186 -1.8560 0.9390
-1.6178 13.6015 -1.6271 0.9463
-2.5702 8.3792 -1.0411 0.9653
-3.5137 8.6157 -1.1053 0.9632
-7.4180 14.3589 -1.9198 0.9370
-8.7233 13.7158 -1.9308 0.9366
-11.8540 10.7259 -1.8989 0.9376
-11.0351 8.3172 -1.6414 0.9459
-14.1883 8.8213 -1.9846 0.9349
-14.4848 5.7353 -1.8506 0.9392
-17.5144 5.1770 -2.1694 0.9291
-17.9421 3.5957 -2.1737 0.9289
-18.2143 1.9779 -2.1763 0.9289
-18.3276 0.3401 -2.1774 0.9288
-17.7102 -4.5277 -2.1714 0.9290
-16.5306 -7.5718 -2.1598 0.9294
-13.3539 -11.2107 -2.0711 0.9322
-10.4797 -12.6153 -1.9481 0.9361
-9.2510 -13.4189 -1.9361 0.9365
-5.6567 -12.5205 -1.6320 0.9462
-3.8467 -15.3779 -1.8830 0.9381
-0.7752 -11.7501 -1.3988 0.9537
0.3679 -15.4986 -1.8415 0.9395
1.7407 -15.2907 -1.8281 0.9399
3.0798 -14.9651 -1.8149 0.9403
5.6200 -13.9813 -1.7899 0.9411
10.7464 -11.7536 -1.8918 0.9379
11.6971 -10.6917 -1.8824 0.9382
12.5508 -9.5591 -1.8740 0.9384
14.4902 -5.8222 -1.8550 0.9390
14.9191 -4.4918 -1.8508 0.9392
15.3565 2.4096 -1.8465 0.9393
10.2615 2.5684 -1.2565 0.9583
9.7050 3.3771 -1.2206 0.9595
14.2483 6.4397 -1.8573 0.9390
10.7194 8.9074 -1.6556 0.9454
9.4816 11.2974 -1.7520 0.9423
8.4798 12.1686 -1.7618 0.9420
7.4010 12.9562 -1.7724 0.9417
6.2514 13.6530 -1.7837 0.9413
4.9400 13.9755 -1.7607 0.9420
2.4570 15.1730 -1.8258 0.9400
1.0978 15.4530 -1.8402 0.9395
-1.4811 13.6210 -1.6275 0.9463
-2.4779 8.3788 -1.0379 0.9654
-3.4809 8.7875 -1.1227 0.9626
-7.2683 14.4237 -1.9186 0.9370
-8.5782 13.7929 -1.9294 0.9367
-11.0362 12.1934 -1.9536 0.9359
-11.8469 10.9387 -1.9154 0.9371
-10.8037 8.3148 -1.6194 0.9466
-14.1475 7.3063 -1.8914 0.9379
-17.4568 5.3519 -2.1689 0.9291
-17.9017 3.7757 -2.1733 0.9290
-18.1916 2.1612 -2.1761 0.9289
-18.3229 0.5248 -2.1774 0.9288
-18.1052 -2.7474 -2.1753 0.9289
-17.7588 -4.3499 -2.1719 0.9290
-16.6122 -7.4075 -2.1606 0.9294
-15.8258 -8.8328 -2.1529 0.9296
-14.9092 -10.1710 -2.1439 0.9299
-11.7587 -11.5839 -1.9607 0.9357
-9.3925 -13.3345 -1.9374 0.9364
-8.1083 -14.0296 -1.9248 0.9368
-4.4742 -12.4575 -1.5723 0.9481
-4.0048 -15.3509 -1.8845 0.9381
12.0297 5.5837 -1.8791 0.9478
10.8679 7.6573 -1.8837 0.9477
8.7137 8.8477 -1.7595 0.9511
7.9217 9.6344 -1.7673 0.9509
7.0613 10.3540 -1.7757 0.9506
5.1562 11.5677 -1.7945 0.9501
4.1234 12.0505 -1.8046 0.9498
3.0462 12.4437 -1.8152 0.9496
-0.3754 13.0430 -1.8488 0.9487
-3.4817 8.5371 -1.3063 0.9634
-6.1736 11.9500 -1.9058 0.9471
-7.2587 11.4131 -1.9165 0.9468
-10.1797 9.2110 -1.9452 0.9460
-14.0100 5.5474 -2.1350 0.9409
-15.0521 1.6345 -2.1453 0.9407
-15.1444 0.2810 -2.1462 0.9406
-15.1061 -1.0753 -2.1458 0.9407
-14.9377 -2.4211 -2.1441 0.9407
-14.6412 -3.7431 -2.1412 0.9408
-13.6787 -6.2655 -2.1318 0.9410
-9.3073 -11.2039 -2.0638 0.9429
-7.7386 -11.2252 -1.9318 0.9464
-4.2885 -12.3299 -1.8497 0.9486
-2.0387 -13.0051 -1.8652 0.9482
-0.7736 -11.7247 -1.6649 0.9536
2.5888 -12.5794 -1.8197 0.9494
3.6824 -12.2246 -1.8090 0.9497
4.7984 -11.9374 -1.8229 0.9494
6.2108 -12.1721 -1.9362 0.9463
7.2378 -11.5079 -1.9262 0.9466
8.1983 -10.7610 -1.9168 0.9468
9.0869 -9.9386 -1.9081 0.9470
9.8984 -9.0475 -1.9001 0.9473
10.6281 -8.0947 -1.8929 0.9475
11.2721 -7.0873 -1.8866 0.9476
12.2895 -4.9379 -1.8766 0.9479
13.1791 -0.3110 -1.8678 0.9481
13.0333 2.0450 -1.8693 0.9481
10.2614 2.5683 -1.4988 0.9582
12.4952 4.3480 -1.8746 0.9480
11.5755 6.5373 -1.8836 0.9477
10.9502 7.5514 -1.8847 0.9477
9.5086 7.9012 -1.7517 0.9513
8.7983 8.7553 -1.7587 0.9511
8.0143 9.5492 -1.7664 0.9509
6.2445 10.9315 -1.7838 0.9504
4.2419 12.0005 -1.8035 0.9499
2.0588 12.7140 -1.8249 0.9493
-1.4183 13.0438 -1.8591 0.9484
-3.4789 8.7823 -1.3384 0.9626
-6.0489 12.0039 -1.9046 0.9471
-7.1389 11.4786 -1.9153 0.9469
-9.1652 10.1262 -1.9352 0.9463
-10.0813 9.3085 -1.9442 0.9461
-12.1286 7.7114 -2.0364 0.9436
-13.3474 6.8931 -2.1285 0.9411
-13.9495 5.6867 -2.1344 0.9410
-14.4346 4.4253 -2.1392 0.9408
-14.7973 3.1209 -2.1428 0.9407
-15.0335 1.7860 -2.1451 0.9407
-15.1169 -0.9230 -2.1459 0.9406
-14.9631 -2.2706 -2.1444 0.9407
-14.2734 -4.8863 -2.1376 0.9409
-13.7454 -6.1292 -2.1324 0.9410
-12.3527 -8.4270 -2.1187 0.9414
-11.5035 -9.4613 -2.1104 0.9416
-9.4974 -11.2012 -2.0808 0.9424
-7.9053 -11.2231 -1.9451 0.9461
-6.7505 -11.6803 -1.9115 0.9470
-4.4311 -12.3375 -1.8574 0.9484
-2.1712 -12.9929 -1.8665 0.9482
11.2938 1.8889 -1.8864 0.9546
10.8036 3.8819 -1.8912 0.9545
9.9810 5.7703 -1.8993 0.9543
6.1055 8.9524 -1.7851 0.9570
4.4518 9.9875 -1.8014 0.9566
3.5574 10.3963 -1.8102 0.9564
2.6259 10.7270 -1.8193 0.9562
0.6786 11.1392 -1.8385 0.9558
-0.3228 11.2149 -1.8483 0.9555
-1.3323 11.2008 -1.8582 0.9553
-2.3418 11.0956 -1.8681 0.9551
-3.4797 8.5321 -1.5180 0.9633
-5.2855 10.2310 -1.8971 0.9544
-6.2095 9.7634 -1.9062 0.9542
-7.9198 8.5749 -1.9230 0.9538
-8.6895 7.8625 -1.9305 0.9536
-10.1329 7.6372 -2.0903 0.9499
-10.8458 6.7432 -2.1039 0.9495
-11.9346 4.7256 -2.1146 0.9493
-12.6264 2.5304 -2.1214 0.9491
-12.8910 0.2392 -2.1240 0.9491
-12.4670 -3.1873 -2.1199 0.9492
-12.1117 -4.2831 -2.1164 0.9493
-11.6551 -5.3386 -2.1119 0.9494
-10.4581 -7.2900 -2.1001 0.9496
-8.0544 -9.6957 -2.0765 0.9502
-7.1228 -10.3319 -2.0673 0.9504
-6.1347 -10.8662 -2.0557 0.9507
-2.8066 -11.2201 -1.9053 0.9542
-0.7409 -11.2303 -1.8541 0.9554
1.2773 -11.2202 -1.8603 0.9553
3.4266 -11.3754 -1.9572 0.9530
5.3651 -10.5147 -1.9446 0.9533
7.0912 -9.3079 -1.9277 0.9537
7.8647 -8.6018 -1.9201 0.9538
8.5718 -7.8350 -1.9131 0.9540
10.2556 -5.2311 -1.8966 0.9544
11.3727 -1.2931 -1.8856 0.9547
11.4388 -0.2699 -1.8849 0.9547
11.4183 0.7550 -1.8851 0.9547
10.2613 2.5683 -1.7426 0.9580
10.8402 3.7721 -1.8908 0.9545
10.0358 5.6678 -1.8987 0.9544
9.5139 6.5609 -1.9039 0.9542
8.9049 7.3996 -1.9074 0.9541
7.7603 7.7223 -1.8035 0.9566
5.3959 9.4460 -1.7921 0.9569
4.5498 9.9369 -1.8004 0.9567
2.7323 10.6938 -1.8183 0.9562
1.7734 10.9519 -1.8277 0.9560
-0.2096 11.2109 -1.8472 0.9556
-2.2285 11.1120 -1.8670 0.9551
-2.4697 8.3511 -1.4347 0.9653
-5.1792 10.2781 -1.8960 0.9544
-6.1076 9.8203 -1.9051 0.9542
-10.7737 6.8499 -2.1032 0.9496
-11.8836 4.8445 -2.1141 0.9493
-12.7977 1.5204 -2.1231 0.9491
-12.5004 -3.0619 -2.1202 0.9492
-12.1568 -4.1617 -2.1168 0.9492
-10.5348 -7.1868 -2.1009 0.9496
-9.8162 -8.0736 -2.0938 0.9498
-7.2303 -10.2648 -2.0684 0.9504
-6.2501 -10.8144 -2.0577 0.9506
-5.1971 -11.2011 -2.0342 0.9512
-4.0268 -11.2120 -1.9626 0.9529
-0.8547 -11.2301 -1.8554 0.9554
0.1533 -11.2259 -1.8495 0.9555
1.1629 -11.2208 -1.8584 0.9553
9.5315 3.4248 -1.9037 0.9596
8.8013 5.0883 -1.9109 0.9595
8.3307 5.8697 -1.9155 0.9594
7.1897 7.3002 -1.9259 0.9592
6.3404 7.7111 -1.8764 0.9602
5.3728 7.8780 -1.7923 0.9619
4.6642 8.3596 -1.7993 0.9618
3.1252 9.1333 -1.8144 0.9615
2.3055 9.4180 -1.8225 0.9613
1.4600 9.6302 -1.8308 0.9611
0.5950 9.7674 -1.8393 0.9610
-0.2829 9.8273 -1.8479 0.9608
-2.5619 8.3521 -1.6421 0.9651
-4.6164 8.9359 -1.8905 0.9599
-5.4202 8.5224 -1.8984 0.9597
-6.1856 8.0348 -1.9059 0.9596
-7.1254 7.7149 -1.9740 0.9582
-8.1863 7.4073 -2.0751 0.9561
-9.4436 5.8714 -2.0901 0.9557
-9.9551 5.0148 -2.0952 0.9556
-11.1435 1.2101 -2.1068 0.9554
-11.0603 -1.7926 -2.1060 0.9554
-9.6651 -5.5228 -2.0923 0.9557
-7.0249 -8.4565 -2.0664 0.9562
-5.3621 -9.4977 -2.0500 0.9566
-3.5519 -10.2121 -2.0323 0.9569
-2.6118 -10.4413 -2.0230 0.9571
-0.7020 -10.6400 -2.0043 0.9575
0.2519 -10.6103 -1.9949 0.9577
1.1949 -10.4962 -1.9856 0.9579
3.8874 -9.6712 -1.9592 0.9585
4.7177 -9.2458 -1.9510 0.9586
5.5043 -8.7517 -1.9433 0.9588
6.9261 -7.5753 -1.9293 0.9591
8.1162 -6.1815 -1.9176 0.9593
8.6148 -5.4165 -1.9127 0.9594
9.9016 -2.0363 -1.9001 0.9597
9.9824 1.5663 -1.8993 0.9597
9.8109 2.4556 -1.9009 0.9597
9.2430 4.1775 -1.9065 0.9596
8.8499 4.9980 -1.9104 0.9595
8.3870 5.7838 -1.9149 0.9594
7.8570 6.5289 -1.9201 0.9593
7.2632 7.2277 -1.9260 0.9592
5.4496 7.8202 -1.7916 0.9619
3.9997 8.7353 -1.8058 0.9617
3.2155 9.0969 -1.8135 0.9615
2.3991 9.3895 -1.8216 0.9613
0.6930 9.7558 -1.8383 0.9610
-1.0672 9.8145 -1.8556 0.9606
-1.9504 9.7249 -1.8643 0.9604
-4.5240 8.9777 -1.8896 0.9599
-5.3316 8.5726 -1.8975 0.9597
-6.1016 8.0932 -1.9051 0.9596
-6.9854 7.7178 -1.9566 0.9585
-8.1031 7.4819 -2.0730 0.9561
-8.7851 6.7612 -2.0837 0.9559
-9.3812 5.9646 -2.0895 0.9558
-10.6942 3.2786 -2.1024 0.9555
-11.1300 1.3223 -2.1067 0.9554
-11.0788 -1.6812 -2.1062 0.9554
-10.8734 -2.6634 -2.1042 0.9555
-10.5768 -3.6208 -2.1013 0.9555
-9.1745 -6.2588 -2.0875 0.9558
-7.8629 -7.7460 -2.0746 0.9561
-4.5732 -9.8563 -2.0423 0.9567
-3.6565 -10.1809 -2.0333 0.9569
-2.7183 -10.4198 -2.0241 0.9571
-0.8096 -10.6380 -2.0053 0.9575
0.1450 -10.6179 -1.9959 0.9577
1.0896 -10.5132 -1.9867 0.9579
8.9111 1.4904 -1.9098 0.9637
6.4209 6.5196 -1.9343 0.9633
4.3051 7.7160 -1.8677 0.9645
3.4878 7.8247 -1.8109 0.9656
2.7841 8.1364 -1.8178 0.9655
2.0528 8.3860 -1.8250 0.9653
1.2993 8.5707 -1.8324 0.9652
-1.8201 8.6236 -1.8630 0.9646
-2.5579 8.3393 -1.8438 0.9650
-3.3552 8.2271 -1.8781 0.9643
-4.0938 7.9243 -1.8854 0.9642
-4.9091 7.7187 -1.9336 0.9633
-5.9108 7.6778 -2.0482 0.9612
-6.6199 7.1675 -2.0624 0.9609
-7.8368 5.9066 -2.0744 0.9607
-8.3544 5.1942 -2.0794 0.9606
-9.1823 3.6358 -2.0876 0.9604
-9.9080 0.1838 -2.0947 0.9603
-9.8835 -0.7035 -2.0945 0.9603
-9.5864 -2.4508 -2.0916 0.9604
-9.3168 -3.2947 -2.0889 0.9604
-8.9699 -4.1086 -2.0855 0.9605
-8.5492 -4.8852 -2.0814 0.9605
-7.5042 -6.2998 -2.0711 0.9607
-6.8901 -6.9259 -2.0651 0.9608
-3.1523 -9.0631 -2.0283 0.9615
-2.3191 -9.2713 -2.0201 0.9617
-1.4740 -9.4028 -2.0118 0.9618
1.0632 -9.3394 -1.9869 0.9623
1.8870 -9.1693 -1.9788 0.9625
4.9092 -7.8055 -1.9491 0.9630
5.5694 -7.3104 -1.9426 0.9631
6.7432 -6.1636 -1.9311 0.9633
7.2490 -5.5211 -1.9261 0.9634
7.6965 -4.8391 -1.9217 0.9635
8.0827 -4.1227 -1.9179 0.9636
8.4053 -3.3772 -1.9148 0.9636
8.6624 -2.6080 -1.9122 0.9637
8.9741 -1.0203 -1.9092 0.9637
9.0106 0.5958 -1.9088 0.9638
8.9250 1.4004 -1.9096 0.9637
8.7708 2.1953 -1.9112 0.9637
8.5489 2.9748 -1.9133 0.9637
8.2606 3.7335 -1.9162 0.9636
6.4842 6.4525 -1.9336 0.9633
4.4065 7.7140 -1.8779 0.9643
3.5650 7.7859 -1.8101 0.9656
2.8647 8.1044 -1.8170 0.9655
2.1363 8.3611 -1.8241 0.9653
0.6165 8.6784 -1.8391 0.9651
-0.1633 8.7351 -1.8467 0.9649
-0.9484 8.7217 -1.8545 0.9648
-3.2707 8.2568 -1.8773 0.9643
-4.8018 7.7207 -1.9219 0.9635
-5.8057 7.7008 -2.0386 0.9613
-6.5449 7.2312 -2.0617 0.9609
-7.1878 6.6368 -2.0680 0.9608
-7.7745 5.9835 -2.0737 0.9607
-8.7573 4.5226 -2.0834 0.9605
-9.1435 3.7275 -2.0872 0.9604
-9.6863 2.0429 -2.0925 0.9603
-9.8372 1.1687 -2.0940 0.9603
-9.9055 0.2837 -2.0947 0.9603
-9.7922 -1.4860 -2.0936 0.9603
-9.3510 -3.2012 -2.0892 0.9604
-8.6001 -4.7999 -2.0819 0.9605
-8.1175 -5.5377 -2.0771 0.9606
-6.9619 -6.8585 -2.0658 0.9608
-5.5910 -7.9376 -2.0523 0.9611
-4.8408 -8.3759 -2.0449 0.9612
-4.0564 -8.7425 -2.0372 0.9614
-3.2449 -9.0349 -2.0292 0.9615
-2.4136 -9.2517 -2.0211 0.9617
-1.5694 -9.3919 -2.0128 0.9618
-0.7196 -9.4552 -2.0044 0.9620
0.1289 -9.4423 -1.9961 0.9621
8.0501 1.3464 -1.9182 0.9670
7.4270 3.4473 -1.9244 0.9669
7.1004 4.1050 -1.9276 0.9669
2.6382 7.7099 -1.9152 0.9671
1.8898 7.7199 -1.8679 0.9679
0.4761 7.8165 -1.8405 0.9683
-0.2261 7.8571 -1.8474 0.9682
-3.9628 7.6707 -2.0292 0.9651
-7.0212 5.2918 -2.0663 0.9645
-7.8843 3.9716 -2.0748 0.9644
-8.2212 3.2552 -2.0781 0.9643
-8.8678 0.1646 -2.0845 0.9642
-8.7502 -1.4182 -2.0833 0.9642
-8.0319 -3.6790 -2.0763 0.9644
-6.7243 -5.6451 -2.0634 0.9646
-6.1759 -6.2080 -2.0580 0.9647
-5.5796 -6.7166 -2.0522 0.9648
-4.2658 -7.5559 -2.0393 0.9650
-3.5603 -7.8805 -2.0323 0.9651
-0.5610 -8.5035 -2.0029 0.9656
1.6988 -8.2546 -1.9807 0.9660
3.1210 -7.7643 -1.9667 0.9662
4.4261 -7.0373 -1.9539 0.9664
5.0230 -6.5931 -1.9480 0.9665
6.0851 -5.5621 -1.9376 0.9667
6.5433 -4.9836 -1.9331 0.9668
6.9487 -4.3689 -1.9291 0.9668
7.5913 -3.0502 -1.9228 0.9669
7.9968 -1.6446 -1.9188 0.9670
8.1073 -0.9218 -1.9177 0.9670
8.1553 -0.1924 -1.9172 0.9670
8.1404 0.5382 -1.9174 0.9670
7.9229 1.9830 -1.9195 0.9670
7.4601 3.3717 -1.9240 0.9669
6.3327 5.2622 -1.9351 0.9667
5.3204 6.3393 -1.9451 0.9666
4.7454 6.8097 -1.9507 0.9665
4.1297 7.2295 -1.9568 0.9664
1.9722 7.7189 -1.8724 0.9678
1.2512 7.7268 -1.8396 0.9683
0.5547 7.8080 -1.8397 0.9683
-0.1469 7.8556 -1.8466 0.9682
-1.5566 7.7614 -1.8604 0.9680
-2.2837 7.7221 -1.8926 0.9675
-4.5849 7.3719 -2.0403 0.9650
-5.8675 6.4828 -2.0550 0.9647
-6.4418 5.9479 -2.0606 0.9646
-7.4340 4.7265 -2.0704 0.9644
-7.8423 4.0501 -2.0744 0.9644
-8.1867 3.3374 -2.0778 0.9643
-8.4636 2.5947 -2.0805 0.9643
-8.8047 1.0460 -2.0839 0.9642
-8.8656 0.2539 -2.0845 0.9642
-8.7646 -1.3300 -2.0835 0.9642
-8.6039 -2.1075 -2.0819 0.9643
-8.3716 -2.8659 -2.0796 0.9643
-7.2716 -4.9607 -2.0688 0.9645
-6.7827 -5.5786 -2.0640 0.9646
-6.2401 -6.1473 -2.0587 0.9646
-4.3434 -7.5153 -2.0400 0.9650
-2.9138 -8.1130 -2.0260 0.9652
-2.1682 -8.3111 -2.0187 0.9653
-1.4105 -8.4405 -2.0112 0.9654
0.1160 -8.4929 -1.9962 0.9657
7.0095 2.5186 -1.9285 0.9697
6.4660 3.7382 -1.9338 0.9696
6.1164 4.3095 -1.9372 0.9696
5.2726 5.3536 -1.9455 0.9694
4.7841 5.8184 -1.9503 0.9694
3.0929 6.9387 -1.9670 0.9691
2.4672 7.2101 -1.9731 0.9690
1.8153 7.4156 -1.9767 0.9689
1.1467 7.5638 -1.9808 0.9689
0.4664 7.6558 -1.9859 0.9688
-0.2214 7.6906 -1.9921 0.9687
-0.9120 7.6675 -1.9992 0.9686
-2.9555 7.2469 -2.0264 0.9682
-5.3723 5.8167 -2.0501 0.9678
-6.3529 4.7882 -2.0598 0.9677
-6.7694 4.2088 -2.0639 0.9676
-7.1312 3.5922 -2.0674 0.9675
-7.8562 1.5744 -2.0745 0.9674
-7.9698 0.8655 -2.0757 0.9674
-8.0171 0.1488 -2.0761 0.9674
-7.9975 -0.5693 -2.0759 0.9674
-7.9112 -1.2822 -2.0751 0.9674
-7.5427 -2.6674 -2.0715 0.9675
-7.2641 -3.3273 -2.0687 0.9675
-6.9261 -3.9577 -2.0654 0.9676
-5.5903 -5.6193 -2.0523 0.9678
-5.0519 -6.0813 -2.0470 0.9679
-4.4749 -6.4910 -2.0413 0.9679
-2.5662 -7.3781 -2.0226 0.9682
-1.8894 -7.5532 -2.0159 0.9683
-1.2018 -7.6662 -2.0092 0.9684
2.2009 -7.3064 -1.9757 0.9690
3.4467 -6.7549 -1.9635 0.9692
4.5699 -5.9983 -1.9524 0.9693
5.0754 -5.5511 -1.9475 0.9694
5.5389 -5.0628 -1.9429 0.9695
5.9571 -4.5371 -1.9388 0.9695
7.1277 -2.1460 -1.9273 0.9697
7.2853 -1.4982 -1.9258 0.9697
7.3863 -0.8398 -1.9248 0.9698
7.4302 -0.1753 -1.9243 0.9698
7.2177 1.8065 -1.9264 0.9697
7.0336 2.4475 -1.9282 0.9697
6.7946 3.0709 -1.9306 0.9697
6.1582 4.2467 -1.9368 0.9696
5.7649 4.7904 -1.9407 0.9695
5.3249 5.2989 -1.9450 0.9694
3.1616 6.9048 -1.9663 0.9691
2.5388 7.1823 -1.9724 0.9690
1.8896 7.3955 -1.9763 0.9690
1.2226 7.5499 -1.9803 0.9689
0.5433 7.6483 -1.9853 0.9688
-1.5238 7.5980 -2.0064 0.9685
-2.2075 7.4644 -2.0154 0.9683
-4.1574 6.6846 -2.0382 0.9680
-5.3119 5.8689 -2.0495 0.9678
-5.8303 5.3833 -2.0546 0.9677
-6.3029 4.8508 -2.0593 0.9677
-7.9603 0.9457 -2.0756 0.9674
-8.0151 0.2295 -2.0761 0.9674
-7.9242 -1.2025 -2.0752 0.9674
-7.7795 -1.9056 -2.0738 0.9674
-7.5702 -2.5915 -2.0717 0.9675
-7.2985 -3.2545 -2.0691 0.9675
-6.5788 -4.4881 -2.0620 0.9676
-6.1379 -5.0482 -2.0577 0.9677
-5.6482 -5.5642 -2.0529 0.9678
-5.1145 -6.0319 -2.0476 0.9679
-4.5416 -6.4477 -2.0420 0.9679
-3.9348 -6.8083 -2.0360 0.9680
-3.2995 -7.1113 -2.0298 0.9681
-1.9662 -7.5366 -2.0167 0.9683
0.1053 -7.7095 -1.9963 0.9686
0.7921 -7.6433 -1.9896 0.9687
5.9300 3.4283 -1.9391 0.9719
5.6085 3.9516 -1.9422 0.9719
5.2420 4.4459 -1.9458 0.9718
4.8330 4.9074 -1.9499 0.9718
4.3843 5.3322 -1.9543 0.9717
3.8990 5.7171 -1.9590 0.9716
3.3805 6.0588 -1.9641 0.9716
2.8324 6.3544 -1.9695 0.9715
0.4281 7.0275 -1.9931 0.9712
-0.2032 7.0596 -1.9993 0.9711
-1.4675 6.9532 -2.0118 0.9709
-2.0903 6.8146 -2.0179 0.9708
-2.6997 6.6198 -2.0239 0.9707
-3.8582 6.0664 -2.0353 0.9706
-4.3971 5.7116 -2.0406 0.9705
-4.9025 5.3080 -2.0455 0.9704
-5.3699 4.8588 -2.0501 0.9703
-6.1738 3.8384 -2.0580 0.9702
-6.5027 3.2757 -2.0612 0.9702
-6.7787 2.6841 -2.0640 0.9701
-6.9990 2.0688 -2.0661 0.9701
-7.2649 0.7889 -2.0687 0.9701
-6.3162 -3.6092 -2.0594 0.9702
-5.9577 -4.1529 -2.0559 0.9703
-4.6107 -5.5503 -2.0427 0.9704
-4.0851 -5.9256 -2.0375 0.9705
-3.5289 -6.2506 -2.0320 0.9706
-2.9470 -6.5229 -2.0263 0.9707
-2.3445 -6.7408 -2.0204 0.9708
-1.7267 -6.9027 -2.0143 0.9709
0.1673 -7.0477 -1.9957 0.9711
0.7949 -6.9828 -1.9895 0.9712
2.5978 -6.4627 -1.9718 0.9715
3.1569 -6.1870 -1.9663 0.9715
3.6882 -5.8641 -1.9611 0.9716
4.6519 -5.0879 -1.9516 0.9717
5.0777 -4.6412 -1.9475 0.9718
5.4621 -4.1601 -1.9437 0.9719
5.8024 -3.6483 -1.9403 0.9719
6.0966 -3.1097 -1.9374 0.9719
6.3425 -2.5484 -1.9350 0.9720
6.5386 -1.9686 -1.9331 0.9720
6.6836 -1.3745 -1.9317 0.9720
6.7766 -0.7705 -1.9308 0.9720
6.8169 -0.1609 -1.9304 0.9721
6.8044 0.4499 -1.9305 0.9720
6.6214 1.6573 -1.9323 0.9720
6.2322 2.8167 -1.9361 0.9720
5.9632 3.3677 -1.9388 0.9719
5.6469 3.8942 -1.9419 0.9719
4.8811 4.8572 -1.9494 0.9718
4.4367 5.2864 -1.9537 0.9717
3.9553 5.6759 -1.9585 0.9716
2.8954 6.3236 -1.9689 0.9715
2.3245 6.5760 -1.9745 0.9714
1.7317 6.7776 -1.9803 0.9713
0.4987 7.0204 -1.9924 0.9712
-0.1320 7.0588 -1.9986 0.9711
-1.3969 6.9652 -2.0111 0.9709
-2.0208 6.8330 -2.0172 0.9708
-2.6320 6.6445 -2.0232 0.9707
-3.2254 6.4006 -2.0290 0.9706
-3.7957 6.1031 -2.0346 0.9706
-6.1336 3.8997 -2.0576 0.9702
-6.7504 2.7519 -2.0637 0.9701
-7.1463 1.5072 -2.0676 0.9701
-7.2563 0.8621 -2.0687 0.9701
-7.3061 0.2092 -2.0691 0.9701
-7.2951 -0.4454 -2.0690 0.9701
-7.2235 -1.0962 -2.0683 0.9701
-7.0920 -1.7371 -2.0670 0.9701
-6.3534 -3.5460 -2.0598 0.9702
-6.0004 -4.0935 -2.0563 0.9703
-5.5993 -4.6052 -2.0524 0.9703
-5.1536 -5.0770 -2.0480 0.9704
-4.6677 -5.5050 -2.0432 0.9704
-4.1458 -5.8858 -2.0381 0.9705
-2.4132 -6.7190 -2.0211 0.9708
-1.1696 -6.9990 -2.0088 0.9709
-0.5368 -7.0537 -2.0026 0.9710
0.0963 -7.0515 -1.9964 0.9711
5.7243 2.6570 -1.9411 0.9739
5.4706 3.1627 -1.9436 0.9739
5.1733 3.6451 -1.9465 0.9739
4.8346 4.1004 -1.9498 0.9738
4.0422 4.9162 -1.9576 0.9737
2.6098 5.8551 -1.9717 0.9735
1.5324 6.2600 -1.9823 0.9734
-0.7699 6.4727 -2.0049 0.9731
-1.3499 6.3960 -2.0106 0.9730
-2.4822 6.0864 -2.0217 0.9729
-3.0249 5.8552 -2.0271 0.9728
-4.9320 4.4627 -2.0458 0.9725
-5.3216 4.0109 -2.0496 0.9725
-5.6686 3.5244 -2.0530 0.9725
-5.9698 3.0072 -2.0560 0.9724
-6.4242 1.8989 -2.0605 0.9724
-6.7069 0.1245 -2.0633 0.9723
-6.4924 -1.6598 -2.0611 0.9723
-6.3124 -2.2323 -2.0594 0.9724
-6.0805 -2.7852 -2.0571 0.9724
-5.7991 -3.3137 -2.0543 0.9724
-5.4706 -3.8134 -2.0511 0.9725
-5.0983 -4.2801 -2.0475 0.9725
-4.6855 -4.7098 -2.0434 0.9726
-2.7093 -5.9967 -2.0240 0.9728
-1.5881 -6.3489 -2.0130 0.9730
-0.4284 -6.4934 -2.0016 0.9731
0.1540 -6.4871 -1.9958 0.9732
2.9092 -5.7016 -1.9688 0.9736
5.0380 -3.8371 -1.9478 0.9738
5.3527 -3.3655 -1.9448 0.9739
5.6247 -2.8690 -1.9421 0.9739
5.8521 -2.3514 -1.9398 0.9740
6.0335 -1.8165 -1.9381 0.9740
6.1677 -1.2684 -1.9367 0.9740
6.2537 -0.7110 -1.9359 0.9740
6.2911 -0.1485 -1.9355 0.9740
6.2190 0.9758 -1.9362 0.9740
5.7501 2.5988 -1.9408 0.9739
5.5013 3.1069 -1.9433 0.9739
5.2089 3.5921 -1.9462 0.9739
4.8747 4.0507 -1.9494 0.9738
4.0906 4.8740 -1.9572 0.9737
2.1414 6.0580 -1.9763 0.9735
1.5949 6.2423 -1.9817 0.9734
-1.2850 6.4072 -2.0100 0.9730
-1.8584 6.2841 -2.0156 0.9729
-2.9649 5.8837 -2.0265 0.9728
-3.4884 5.6089 -2.0316 0.9727
-4.4531 4.9200 -2.0411 0.9726
-5.2798 4.0635 -2.0492 0.9725
-5.9383 3.0668 -2.0557 0.9724
-6.5590 1.3834 -2.0618 0.9723
-6.6952 -0.4088 -2.0631 0.9723
-6.1091 -2.7241 -2.0574 0.9724
-5.5098 -3.7588 -2.0515 0.9725
-3.8096 -5.4085 -2.0348 0.9727
-2.7704 -5.9709 -2.0246 0.9728
-1.6526 -6.3346 -2.0136 0.9730
-1.0760 -6.4389 -2.0079 0.9730
0.6672 -6.4380 -1.9908 0.9733
5.3080 2.4637 -1.9452 0.9756
4.7961 3.3792 -1.9502 0.9756
3.3301 4.8829 -1.9646 0.9754
2.4172 5.4230 -1.9736 0.9753
1.9269 5.6312 -1.9784 0.9752
0.8967 5.9147 -1.9885 0.9751
0.3647 5.9869 -1.9938 0.9750
-0.1730 6.0114 -1.9990 0.9750
-0.7122 5.9876 -2.0043 0.9749
-1.2485 5.9153 -2.0096 0.9748
-1.7775 5.7948 -2.0148 0.9748
-2.7959 5.4119 -2.0248 0.9747
-3.2766 5.1519 -2.0295 0.9746
-3.7328 4.8487 -2.0340 0.9745
-4.1603 4.5045 -2.0382 0.9745
-4.9145 3.7040 -2.0456 0.9744
-5.7446 2.2746 -2.0538 0.9743
-5.9304 1.7529 -2.0556 0.9743
-6.1907 0.1149 -2.0582 0.9742
-5.9932 -1.5322 -2.0562 0.9743
-5.8274 -2.0608 -2.0546 0.9743
-5.6138 -2.5714 -2.0525 0.9743
-5.0519 -3.5215 -2.0470 0.9744
-4.7087 -3.9530 -2.0436 0.9744
-4.3281 -4.3505 -2.0399 0.9745
-2.9977 -5.3096 -2.0268 0.9746
-2.5044 -5.5433 -2.0220 0.9747
-1.9933 -5.7310 -2.0169 0.9747
-0.9349 -5.9636 -2.0065 0.9749
0.1425 -6.0029 -1.9960 0.9750
0.6774 -5.9503 -1.9907 0.9751
1.7184 -5.7048 -1.9805 0.9752
2.2166 -5.5145 -1.9756 0.9753
2.6948 -5.2814 -1.9709 0.9753
3.5773 -4.6956 -1.9622 0.9754
3.9753 -4.3479 -1.9583 0.9755
4.3405 -3.9674 -1.9547 0.9755
4.9627 -3.1203 -1.9486 0.9756
5.2153 -2.6602 -1.9461 0.9756
5.7200 -1.1763 -1.9411 0.9757
5.8000 -0.6594 -1.9404 0.9757
5.7677 0.9050 -1.9407 0.9757
5.6665 1.4183 -1.9417 0.9757
5.5209 1.9211 -1.9431 0.9757
5.1008 2.8807 -1.9472 0.9756
3.7908 4.5168 -1.9601 0.9755
3.3783 4.8479 -1.9641 0.9754
2.4711 5.3969 -1.9731 0.9753
1.9830 5.6100 -1.9779 0.9752
1.4767 5.7794 -1.9828 0.9752
0.9560 5.9036 -1.9880 0.9751
0.4249 5.9811 -1.9932 0.9750
-1.7185 5.8108 -2.0142 0.9748
-3.6828 4.8849 -2.0335 0.9745
-4.1138 4.5451 -2.0378 0.9745
-4.8760 3.7527 -2.0453 0.9744
-5.7208 2.3321 -2.0536 0.9743
-5.9119 1.8125 -2.0554 0.9743
-6.0545 1.2770 -2.0568 0.9743
-6.1473 0.7303 -2.0578 0.9742
-6.1799 -0.3773 -2.0581 0.9742
-6.1196 -0.9286 -2.0575 0.9742
-5.8485 -2.0021 -2.0548 0.9743
-5.6402 -2.5150 -2.0528 0.9743
-5.3859 -3.0060 -2.0503 0.9743
-5.0880 -3.4710 -2.0473 0.9744
-3.9617 -4.6724 -2.0363 0.9745
-3.0518 -5.2806 -2.0273 0.9746
5.3634 0.8970 -1.9446 0.9772
4.9430 2.2943 -1.9488 0.9771
4.4655 3.1463 -1.9535 0.9771
4.1722 3.5386 -1.9563 0.9770
3.4864 4.2402 -1.9631 0.9769
3.0990 4.5440 -1.9669 0.9769
2.6854 4.8130 -1.9710 0.9769
1.3194 5.3899 -1.9844 0.9767
-0.1608 5.5874 -1.9989 0.9765
-0.6618 5.5643 -2.0038 0.9765
-2.1313 5.2260 -2.0183 0.9763
-3.0423 4.7834 -2.0272 0.9762
-3.4652 4.5012 -2.0314 0.9762
-3.8616 4.1810 -2.0353 0.9761
-4.2277 3.8254 -2.0389 0.9761
-5.6280 1.1279 -2.0527 0.9759
-5.7086 0.6199 -2.0534 0.9759
-5.2081 -2.3855 -2.0485 0.9760
-4.9680 -2.8388 -2.0462 0.9760
-4.6876 -3.2676 -2.0434 0.9760
-4.3697 -3.6684 -2.0403 0.9761
-3.6328 -4.3731 -2.0331 0.9761
-2.3259 -5.1482 -2.0202 0.9763
-1.8516 -5.3234 -2.0155 0.9763
-0.8687 -5.5415 -2.0059 0.9765
0.1325 -5.5801 -1.9961 0.9766
0.6298 -5.5323 -1.9912 0.9766
1.5983 -5.3059 -1.9816 0.9767
2.5072 -4.9138 -1.9727 0.9768
3.3294 -4.3701 -1.9646 0.9769
4.6209 -2.9054 -1.9519 0.9771
4.8566 -2.4772 -1.9496 0.9771
5.0538 -2.0306 -1.9477 0.9771
5.2111 -1.5689 -1.9461 0.9771
5.3274 -1.0956 -1.9450 0.9772
5.4021 -0.6142 -1.9443 0.9772
5.4345 -0.1283 -1.9439 0.9772
5.4244 0.3587 -1.9440 0.9772
5.2775 1.3209 -1.9455 0.9772
5.1416 1.7892 -1.9468 0.9771
4.9653 2.2441 -1.9486 0.9771
3.8834 3.8645 -1.9592 0.9770
3.1439 4.5115 -1.9665 0.9769
0.8889 5.4894 -1.9886 0.9767
-0.6056 5.5691 -2.0033 0.9765
-1.5964 5.3980 -2.0130 0.9764
-2.0780 5.2458 -2.0178 0.9763
-2.9932 4.8127 -2.0268 0.9762
-4.8252 3.0679 -2.0448 0.9760
-5.4841 1.6813 -2.0512 0.9759
-5.6161 1.1845 -2.0525 0.9759
-5.7019 0.6774 -2.0534 0.9759
-5.7407 0.1644 -2.0538 0.9759
-5.7321 -0.3500 -2.0537 0.9759
-5.6763 -0.8614 -2.0531 0.9759
-5.4253 -1.8573 -2.0507 0.9759
-5.2325 -2.3332 -2.0488 0.9760
-4.7211 -3.2207 -2.0437 0.9760
-4.0583 -3.9980 -2.0372 0.9761
-3.6775 -4.3372 -2.0335 0.9761
-3.2681 -4.6397 -2.0295 0.9762
-1.9056 -5.3059 -2.0161 0.9763
-0.9248 -5.5340 -2.0064 0.9764
-0.4247 -5.5809 -2.0015 0.9765
0.5742 -5.5399 -1.9917 0.9766
5.0138 0.8386 -1.9481 0.9785
4.7894 1.7209 -1.9503 0.9784
4.6201 2.1445 -1.9519 0.9784
4.4143 2.5520 -1.9540 0.9784
3.8987 3.3066 -1.9590 0.9783
2.5081 4.4954 -1.9727 0.9782
2.1000 4.7113 -1.9767 0.9781
1.6735 4.8907 -1.9809 0.9781
0.7782 5.1334 -1.9897 0.9780
0.3164 5.1943 -1.9942 0.9780
-0.1501 5.2137 -1.9988 0.9779
-0.6175 5.1913 -2.0034 0.9779
-2.4207 4.6857 -2.0211 0.9777
-3.5989 3.8966 -2.0327 0.9775
-3.9397 3.5648 -2.0361 0.9775
-4.5248 2.8132 -2.0418 0.9774
-4.7639 2.3997 -2.0442 0.9774
-4.9643 1.9657 -2.0461 0.9774
-5.1243 1.5147 -2.0477 0.9774
-5.2422 1.0506 -2.0489 0.9774
-2.3027 0.2500 -0.8876 0.9901
-5.1783 -1.3239 -2.0482 0.9774
-5.0356 -1.7808 -2.0468 0.9774
-4.8517 -2.2223 -2.0450 0.9774
-4.6284 -2.6448 -2.0428 0.9774
-4.3676 -3.0446 -2.0403 0.9775
-3.3859 -4.0760 -2.0306 0.9776
-3.0020 -4.3545 -2.0269 0.9776
-2.5951 -4.5966 -2.0229 0.9776
-2.1688 -4.8005 -2.0187 0.9777
-1.2727 -5.0879 -2.0099 0.9778
-0.8104 -5.1697 -2.0053 0.9778
-0.3437 -5.2096 -2.0007 0.9779
0.5878 -5.1636 -1.9916 0.9780
1.0452 -5.0788 -1.9871 0.9780
1.9255 -4.7902 -1.9784 0.9781
2.7375 -4.3526 -1.9705 0.9782
3.1103 -4.0825 -1.9668 0.9783
4.3186 -2.7153 -1.9549 0.9784
4.5393 -2.3154 -1.9527 0.9784
4.7239 -1.8980 -1.9509 0.9784
4.9801 -1.0242 -1.9484 0.9785
5.0709 0.3353 -1.9475 0.9785
4.4392 2.5070 -1.9537 0.9784
4.2020 2.8977 -1.9561 0.9784
3.2963 3.9276 -1.9650 0.9783
2.9368 4.2144 -1.9685 0.9782
1.7223 4.8724 -1.9804 0.9781
1.2821 5.0179 -1.9847 0.9781
0.8297 5.1240 -1.9892 0.9780
0.3687 5.1895 -1.9937 0.9780
-0.0975 5.2136 -1.9983 0.9779
-0.5650 5.1959 -2.0029 0.9779
-1.4889 5.0346 -2.0120 0.9778
-1.9378 4.8919 -2.0164 0.9777
-2.3728 4.7088 -2.0207 0.9777
-2.7904 4.4866 -2.0248 0.9776
-3.1868 4.2270 -2.0287 0.9776
-3.5588 3.9319 -2.0323 0.9775
-3.9028 3.6036 -2.0357 0.9775
-4.2161 3.2448 -2.0388 0.9775
-4.4956 2.8583 -2.0415 0.9774
-4.7389 2.4473 -2.0439 0.9774
-5.2311 1.1033 -2.0488 0.9774
-2.2964 0.0658 -0.8804 0.9902
-4.8744 -2.1735 -2.0452 0.9774
-4.6554 -2.5983 -2.0431 0.9774
-4.3987 -3.0008 -2.0406 0.9774
-4.1068 -3.3777 -2.0377 0.9775
-3.7821 -3.7258 -2.0345 0.9775
-3.4276 -4.0424 -2.0310 0.9776
-3.0464 -4.3250 -2.0273 0.9776
-2.6419 -4.5713 -2.0233 0.9776
-1.7772 -4.9482 -2.0148 0.9777
-1.3243 -5.0761 -2.0104 0.9778
0.5359 -5.1706 -1.9921 0.9780
4.6148 1.2046 -1.9520 0.9796
4.3323 2.0109 -1.9548 0.9796
4.1389 2.3928 -1.9567 0.9795
3.9126 2.7568 -1.9589 0.9795
3.6549 3.0999 -1.9614 0.9795
3.0529 3.7130 -1.9673 0.9794
2.7130 3.9780 -1.9707 0.9794
2.3503 4.2125 -1.9743 0.9794
1.9676 4.4143 -1.9780 0.9793
1.1538 4.7133 -1.9860 0.9792
0.2963 4.8641 -1.9944 0.9792
-0.1405 4.8816 -1.9987 0.9791
-0.5781 4.8598 -2.0030 0.9791
-1.0128 4.7988 -2.0073 0.9790
-2.6532 4.1717 -2.0234 0.9789
-3.6843 3.3337 -2.0336 0.9788
-4.7903 1.4159 -2.0444 0.9786
-2.0185 0.2192 -0.8310 0.9913
-1.9950 0.0370 -0.8167 0.9914
-2.0111 -0.1432 -0.8252 0.9913
-2.0382 -0.3303 -0.8451 0.9911
-4.7076 -1.6648 -2.0436 0.9787
-4.3274 -2.4728 -2.0399 0.9787
-4.0840 -2.8468 -2.0375 0.9787
-3.8077 -3.1966 -2.0348 0.9787
-3.1670 -3.8124 -2.0285 0.9788
-2.4279 -4.3005 -2.0212 0.9789
-0.7586 -4.8393 -2.0048 0.9791
0.9790 -4.7570 -1.9877 0.9792
1.3979 -4.6407 -1.9836 0.9793
2.9151 -3.8263 -1.9687 0.9794
3.2406 -3.5443 -1.9655 0.9795
4.2563 -2.1710 -1.9555 0.9796
4.4297 -1.7798 -1.9538 0.9796
4.6704 -0.9605 -1.9515 0.9796
4.7645 -0.1124 -1.9505 0.9796
4.7557 0.3144 -1.9506 0.9796
4.7095 0.7390 -1.9511 0.9796
4.5069 1.5683 -1.9531 0.9796
4.3519 1.9669 -1.9546 0.9796
4.1624 2.3507 -1.9564 0.9796
3.9397 2.7168 -1.9586 0.9795
3.6854 3.0624 -1.9611 0.9795
3.4014 3.3848 -1.9639 0.9795
2.7524 3.9497 -1.9703 0.9794
1.6135 4.5647 -1.9815 0.9793
0.7771 4.7990 -1.9897 0.9792
0.3452 4.8597 -1.9940 0.9792
-0.5289 4.8642 -2.0025 0.9791
-1.8133 4.5777 -2.0152 0.9789
-2.2201 4.4057 -2.0192 0.9789
-2.6105 4.1973 -2.0230 0.9789
-2.9810 3.9540 -2.0266 0.9788
-3.3285 3.6775 -2.0301 0.9788
-3.6499 3.3701 -2.0332 0.9788
-4.6219 1.8842 -2.0428 0.9787
-2.0823 0.4392 -0.8710 0.9908
-1.9973 0.0572 -0.8178 0.9914
-2.0268 -0.3076 -0.8390 0.9912
-2.1017 -0.5148 -0.8856 0.9907
-4.3527 -2.4294 -2.0401 0.9787
-4.1130 -2.8059 -2.0378 0.9787
-3.8404 -3.1586 -2.0351 0.9787
-3.5371 -3.4845 -2.0321 0.9788
-2.8497 -4.0458 -2.0254 0.9788
-2.0750 -4.4721 -2.0177 0.9789
-0.8076 -4.8326 -2.0053 0.9790
4.4219 0.7396 -1.9539 0.9806
4.2234 1.5175 -1.9558 0.9806
4.0737 1.8908 -1.9573 0.9806
3.8917 2.2499 -1.9591 0.9806
3.4361 2.9143 -1.9636 0.9805
2.8696 3.4900 -1.9691 0.9805
2.2087 3.9587 -1.9756 0.9804
1.8489 4.1479 -1.9792 0.9804
1.4730 4.3047 -1.9829 0.9803
0.6846 4.5160 -1.9906 0.9803
-1.3529 4.4107 -2.0106 0.9801
-2.1255 4.1143 -2.0182 0.9800
-2.4896 3.9145 -2.0218 0.9800
-3.7270 2.8090 -2.0340 0.9798
-4.3524 1.7233 -2.0401 0.9798
-1.4709 0.1597 -0.6448 0.9936
-1.4729 -0.2387 -0.6503 0.9935
-1.4912 -0.3812 -0.6708 0.9933
-1.4889 -0.5265 -0.6883 0.9931
-3.8306 -2.6702 -2.0350 0.9798
-1.9046 -4.2157 -2.0161 0.9800
-1.5168 -4.3610 -2.0123 0.9801
-0.7123 -4.5436 -2.0044 0.9801
0.1087 -4.5793 -1.9963 0.9802
0.5171 -4.5420 -1.9923 0.9803
0.9196 -4.4686 -1.9883 0.9803
1.3133 -4.3599 -1.9844 0.9803
1.6950 -4.2169 -1.9807 0.9804
2.0619 -4.0409 -1.9771 0.9804
2.7400 -3.5964 -1.9704 0.9805
3.3274 -3.0414 -1.9647 0.9805
3.5817 -2.7279 -1.9622 0.9805
4.0022 -2.0414 -1.9580 0.9806
4.4539 -0.5064 -1.9536 0.9806
4.4724 0.2957 -1.9534 0.9806
4.2382 1.4748 -1.9557 0.9806
4.0922 1.8495 -1.9571 0.9806
3.9137 2.2103 -1.9589 0.9806
3.4648 2.8791 -1.9633 0.9805
3.1975 3.1819 -1.9659 0.9805
2.2481 3.9355 -1.9753 0.9804
1.8902 4.1282 -1.9788 0.9804
1.5160 4.2888 -1.9824 0.9803
1.1282 4.4157 -1.9863 0.9803
0.7300 4.5078 -1.9902 0.9803
-0.9052 4.5135 -2.0062 0.9801
-1.3081 4.4231 -2.0102 0.9801
-1.7020 4.2965 -2.0141 0.9800
-2.0835 4.1347 -2.0178 0.9800
-2.7969 3.7098 -2.0248 0.9799
-3.1226 3.4501 -2.0280 0.9799
-3.6980 2.8460 -2.0337 0.9798
-3.9425 2.5066 -2.0361 0.9798
-4.1553 2.1459 -2.0382 0.9798
-4.3344 1.7670 -2.0399 0.9798
-1.4781 0.3118 -0.6584 0.9934
-1.4572 -0.0890 -0.6362 0.9937
-1.4891 -0.3648 -0.6682 0.9933
-4.0823 -2.2784 -2.0375 0.9798
-3.6023 -2.9628 -2.0327 0.9799
-3.0078 -3.5473 -2.0269 0.9799
-1.5610 -4.3464 -2.0127 0.9801
-1.1635 -4.4600 -2.0088 0.9801
-0.7582 -4.5372 -2.0048 0.9801
-0.3484 -4.5776 -2.0008 0.9802
4.0911 1.0679 -1.9571 0.9815
3.9813 1.4305 -1.9582 0.9815
3.6682 2.1207 -1.9613 0.9815
3.4672 2.4429 -1.9633 0.9815
3.2384 2.7466 -1.9655 0.9815
2.9834 3.0292 -1.9680 0.9814
2.4025 3.5227 -1.9737 0.9814
2.0809 3.7296 -1.9769 0.9814
1.3874 4.0547 -1.9837 0.9813
1.0208 4.1702 -1.9873 0.9813
0.6447 4.2527 -1.9910 0.9812
-1.2733 4.1511 -2.0099 0.9810
-1.6426 4.0278 -2.0135 0.9810
-2.6668 3.4640 -2.0236 0.9809
-3.9281 1.9787 -2.0359 0.9808
-1.2701 0.3754 -0.6130 0.9942
-1.2747 0.1384 -0.5935 0.9944
-1.2625 0.0234 -0.5845 0.9944
-1.2738 -0.2065 -0.5973 0.9943
-2.7952 -3.3648 -2.0248 0.9809
-2.4790 -3.5959 -2.0217 0.9809
-1.7923 -3.9670 -2.0150 0.9810
-0.6705 -4.2770 -2.0039 0.9811
1.5967 -3.9722 -1.9817 0.9813
1.9424 -3.8068 -1.9783 0.9813
2.8705 -3.1396 -1.9691 0.9814
3.1359 -2.8663 -1.9665 0.9814
4.1405 -0.8515 -1.9567 0.9815
4.1988 -0.4774 -1.9561 0.9815
4.2163 0.2788 -1.9559 0.9815
3.9952 1.3902 -1.9581 0.9815
3.8574 1.7434 -1.9594 0.9815
3.6890 2.0834 -1.9611 0.9815
2.7366 3.2607 -1.9705 0.9814
2.1180 3.7077 -1.9765 0.9814
1.7806 3.8889 -1.9798 0.9813
1.0626 4.1588 -1.9869 0.9813
0.6874 4.2451 -1.9906 0.9812
-0.8520 4.2485 -2.0057 0.9811
-1.2311 4.1629 -2.0094 0.9810
-1.6016 4.0433 -2.0131 0.9810
-3.2205 2.9736 -2.0290 0.9809
-3.4780 2.6768 -2.0315 0.9808
-3.7077 2.3574 -2.0338 0.9808
-1.2512 0.5101 -0.6254 0.9941
-1.2694 0.3892 -0.6146 0.9942
-1.2672 0.2673 -0.5995 0.9943
-1.2751 0.1515 -0.5944 0.9944
-1.2645 0.0362 -0.5856 0.9944
-1.2699 -0.0775 -0.5889 0.9944
-1.2745 -0.1934 -0.5967 0.9943
-1.2653 -0.4332 -0.6191 0.9941
-3.6282 -2.4751 -2.0330 0.9808
-3.3882 -2.7867 -2.0306 0.9808
-3.1211 -3.0748 -2.0280 0.9809
-2.8294 -3.3370 -2.0252 0.9809
-2.5156 -3.5714 -2.0221 0.9809
-1.8325 -3.9495 -2.0154 0.9810
0.0589 -4.3134 -1.9968 0.9812
0.4439 -4.2827 -1.9930 0.9812
3.8650 1.0089 -1.9594 0.9824
3.6275 1.6837 -1.9617 0.9823
3.2750 2.3075 -1.9652 0.9823
2.8176 2.8609 -1.9697 0.9823
2.5536 3.1057 -1.9723 0.9822
1.9648 3.5215 -1.9780 0.9822
1.3098 3.8277 -1.9845 0.9821
0.9636 3.9363 -1.9879 0.9821
0.2473 4.0594 -1.9949 0.9820
-0.4821 4.0529 -2.0021 0.9820
-0.8444 4.0006 -2.0056 0.9819
-1.2011 3.9158 -2.0091 0.9819
-2.8008 3.0325 -2.0249 0.9818
-3.0648 2.7732 -2.0275 0.9818
-1.1443 0.1243 -0.5646 0.9949
-1.1432 -0.0814 -0.5622 0.9949
-1.1425 -0.1852 -0.5678 0.9949
-3.3962 -2.3674 -2.0307 0.9817
-3.1672 -2.6589 -2.0285 0.9817
-2.9129 -2.9281 -2.0260 0.9818
-2.6356 -3.1727 -2.0233 0.9818
-2.0218 -3.5811 -2.0172 0.9818
-0.6326 -4.0353 -2.0036 0.9820
-0.2684 -4.0684 -2.0000 0.9820
0.0966 -4.0688 -1.9964 0.9820
1.5074 -3.7501 -1.9825 0.9822
1.8340 -3.5943 -1.9793 0.9822
2.7110 -2.9651 -1.9707 0.9823
2.9617 -2.7072 -1.9682 0.9823
3.7094 -1.4904 -1.9609 0.9823
3.9117 -0.8044 -1.9589 0.9824
3.9834 0.2634 -1.9582 0.9824
3.9446 0.6189 -1.9586 0.9824
3.7743 1.3133 -1.9603 0.9824
3.2977 2.2741 -1.9649 0.9823
2.8459 2.8320 -1.9694 0.9823
2.3017 3.3029 -1.9747 0.9822
1.6811 3.6716 -1.9808 0.9822
1.3480 3.8136 -1.9841 0.9821
1.0030 3.9257 -1.9875 0.9821
-0.4411 4.0568 -2.0017 0.9820
-0.8038 4.0082 -2.0052 0.9820
-1.1614 3.9270 -2.0088 0.9819
-1.8490 3.6693 -2.0155 0.9819
-2.1734 3.4947 -2.0187 0.9818
-3.0363 2.8035 -2.0272 0.9818
-1.0923 0.5641 -0.6030 0.9945
-1.1303 0.3465 -0.5799 0.9947
-1.1387 0.0326 -0.5588 0.9949
-1.1425 -0.0698 -0.5615 0.9949
-1.1329 -0.2775 -0.5722 0.9948
-1.1256 -0.3853 -0.5836 0.9947
-3.6189 -2.0198 -2.0329 0.9817
-3.4203 -2.3333 -2.0310 0.9817
-3.1943 -2.6272 -2.0287 0.9817
-2.6679 -3.1465 -2.0236 0.9818
-2.3722 -3.3678 -2.0207 0.9818
-2.0581 -3.5612 -2.0176 0.9818
-0.6734 -4.0295 -2.0040 0.9820
-0.3095 -4.0663 -2.0004 0.9820
3.2794 1.8959 -1.9651 0.9831
2.8944 2.4549 -1.9689 0.9830
2.6661 2.7071 -1.9711 0.9830
2.4162 2.9385 -1.9736 0.9830
2.1464 3.1472 -1.9763 0.9830
1.8588 3.3314 -1.9791 0.9830
1.2389 3.6205 -1.9852 0.9829
0.9113 3.7229 -1.9884 0.9829
0.5755 3.7958 -1.9917 0.9828
0.2338 3.8385 -1.9950 0.9828
-0.1108 3.8506 -1.9984 0.9828
-0.4558 3.8317 -2.0018 0.9828
-0.7982 3.7819 -2.0052 0.9827
-1.1353 3.7014 -2.0085 0.9827
-1.7826 3.4506 -2.0149 0.9827
-2.0874 3.2821 -2.0179 0.9826
-2.3761 3.0864 -2.0207 0.9826
-2.8955 2.6200 -2.0258 0.9826
-3.1218 2.3529 -2.0280 0.9825
-0.9687 0.6023 -0.5918 0.9949
-0.9687 0.4880 -0.5627 0.9951
-1.0376 0.1127 -0.5414 0.9953
-1.0322 0.0191 -0.5356 0.9954
-1.0371 -0.0738 -0.5394 0.9953
-1.0201 -0.2608 -0.5463 0.9953
-1.0098 -0.3571 -0.5556 0.9952
-0.9525 -0.5443 -0.5691 0.9951
-2.9921 -2.5120 -2.0268 0.9825
-2.2090 -3.2043 -2.0191 0.9826
-1.9106 -3.3842 -2.0161 0.9826
-1.2727 -3.6592 -2.0099 0.9827
-0.9386 -3.7523 -2.0066 0.9827
-0.5980 -3.8148 -2.0032 0.9828
-0.2538 -3.8466 -1.9998 0.9828
0.0913 -3.8473 -1.9965 0.9828
0.4345 -3.8172 -1.9931 0.9828
2.0293 -3.2266 -1.9774 0.9830
2.3068 -3.0278 -1.9747 0.9830
3.2079 -2.0170 -1.9658 0.9831
3.7025 -0.7614 -1.9610 0.9831
3.7775 -0.0892 -1.9602 0.9831
3.7705 0.2493 -1.9603 0.9831
3.7337 0.5858 -1.9607 0.9831
3.6675 0.9179 -1.9613 0.9831
3.1208 2.1522 -1.9667 0.9831
2.4453 2.9136 -1.9733 0.9830
2.1776 3.1249 -1.9759 0.9830
1.8919 3.3120 -1.9788 0.9830
1.2751 3.6072 -1.9848 0.9829
0.9487 3.7128 -1.9880 0.9829
-0.0720 3.8508 -1.9981 0.9828
-1.0978 3.7120 -2.0081 0.9827
-1.4279 3.6046 -2.0114 0.9827
-1.7475 3.4678 -2.0145 0.9827
-2.3445 3.1097 -2.0204 0.9826
-2.6169 2.8912 -2.0231 0.9826
-2.8686 2.6487 -2.0255 0.9826
-3.0976 2.3840 -2.0278 0.9825
-0.9726 0.6184 -0.5979 0.9948
-0.9641 0.4979 -0.5629 0.9951
-1.0335 0.0296 -0.5364 0.9954
-1.0352 -0.1571 -0.5432 0.9953
-1.0211 -0.2501 -0.5454 0.9953
-1.0117 -0.3464 -0.5548 0.9952
-0.9876 -0.4404 -0.5610 0.9951
-0.9494 -0.5299 -0.5640 0.9951
-3.0177 -2.4820 -2.0270 0.9825
-2.2416 -3.1823 -2.0194 0.9826
-1.6335 -3.5206 -2.0134 0.9827
-1.3098 -3.6468 -2.0102 0.9827
0.3961 -3.8221 -1.9935 0.9828
3.3750 1.2127 -1.9642 0.9838
3.1089 1.7973 -1.9668 0.9838
2.9380 2.0701 -1.9685 0.9837
2.5271 2.5659 -1.9725 0.9837
1.7614 3.1570 -1.9800 0.9836
0.8634 3.5271 -1.9889 0.9836
-0.1050 3.6471 -1.9984 0.9835
-0.4317 3.6289 -2.0016 0.9835
-0.7559 3.5814 -2.0048 0.9834
-2.2492 2.9216 -2.0194 0.9833
-2.7406 2.4798 -2.0243 0.9833
-2.9546 2.2269 -2.0264 0.9833
-0.8880 0.4473 -0.5446 0.9955
-0.9084 0.3597 -0.5351 0.9956
-0.9386 0.1881 -0.5243 0.9956
-0.9432 0.0175 -0.5167 0.9957
-0.9470 -0.0674 -0.5200 0.9957
-0.8717 -0.4981 -0.5499 0.9954
-0.8783 -0.6122 -0.5864 0.9951
-2.8319 -2.3775 -2.0252 0.9833
-2.6049 -2.6185 -2.0229 0.9833
-2.3573 -2.8377 -2.0205 0.9833
-1.2051 -3.4648 -2.0092 0.9834
-0.8888 -3.5533 -2.0061 0.9834
-0.2404 -3.6432 -1.9997 0.9835
0.0865 -3.6442 -1.9965 0.9835
1.0464 -3.4738 -1.9871 0.9836
1.6441 -3.2221 -1.9812 0.9836
2.1862 -2.8696 -1.9759 0.9837
2.4313 -2.6592 -1.9735 0.9837
2.6566 -2.4282 -1.9712 0.9837
3.0411 -1.9121 -1.9675 0.9838
1.8891 -0.2148 -1.0414 0.9914
1.8785 -0.0443 -1.0291 0.9915
1.8865 0.1247 -1.0355 0.9914
1.8875 0.2961 -1.0464 0.9913
1.9042 0.6626 -1.1042 0.9908
3.1265 1.7657 -1.9666 0.9838
2.5525 2.5400 -1.9723 0.9837
2.0638 2.9616 -1.9771 0.9837
1.7929 3.1386 -1.9797 0.9837
1.5069 3.2911 -1.9825 0.9836
1.2081 3.4178 -1.9855 0.9836
0.8988 3.5176 -1.9885 0.9836
0.5813 3.5896 -1.9916 0.9836
-0.3950 3.6324 -2.0012 0.9835
-1.0395 3.5149 -2.0076 0.9834
-1.3520 3.4130 -2.0106 0.9834
-1.6544 3.2831 -2.0136 0.9834
-2.4770 2.7367 -2.0217 0.9833
-2.7151 2.5069 -2.0240 0.9833
-2.9316 2.2563 -2.0262 0.9833
-0.8668 0.5511 -0.5626 0.9953
-0.9217 0.2826 -0.5280 0.9956
-0.9369 0.1976 -0.5244 0.9956
-0.9466 -0.0578 -0.5194 0.9957
-0.9168 -0.3139 -0.5307 0.9956
-0.8751 -0.4884 -0.5489 0.9954
-0.8757 -0.5974 -0.5806 0.9952
-2.8561 -2.3491 -2.0254 0.9833
-2.3861 -2.8142 -2.0208 0.9833
-1.8413 -3.1860 -2.0154 0.9834
-1.2402 -3.4531 -2.0095 0.9834
-0.9247 -3.5447 -2.0064 0.9834
-0.2771 -3.6412 -2.0001 0.9835
1.7391 0.2909 -1.0180 0.9919
3.0903 1.4344 -1.9670 0.9844
2.6046 2.2090 -1.9718 0.9843
1.6717 2.9962 -1.9809 0.9843
1.1139 3.2552 -1.9864 0.9842
0.8193 3.3467 -1.9893 0.9842
0.5172 3.4117 -1.9923 0.9842
0.2101 3.4495 -1.9953 0.9842
-0.4094 3.4422 -2.0014 0.9841
-0.7169 3.3969 -2.0044 0.9841
-1.0196 3.3240 -2.0074 0.9841
-1.6004 3.0978 -2.0131 0.9840
-1.8737 2.9460 -2.0158 0.9840
-2.1325 2.7700 -2.0183 0.9840
-0.8041 0.6060 -0.5813 0.9954
-0.8342 0.4202 -0.5393 0.9957
-0.8771 0.1758 -0.5165 0.9959
-0.8820 -0.0628 -0.5105 0.9959
-0.8802 -0.1427 -0.5148 0.9959
-0.8705 -0.2226 -0.5187 0.9959
-0.8601 -0.3042 -0.5267 0.9958
-0.7990 -0.5569 -0.5623 0.9955
-2.6846 -2.2538 -2.0237 0.9839
-2.4695 -2.4824 -2.0216 0.9840
-2.2349 -2.6904 -2.0193 0.9840
-1.4344 -3.1749 -2.0114 0.9840
-1.1429 -3.2859 -2.0086 0.9841
-0.8430 -3.3700 -2.0056 0.9841
-0.2280 -3.4559 -1.9996 0.9841
0.3906 -3.4307 -1.9935 0.9842
0.6950 -3.3769 -1.9905 0.9842
0.9929 -3.2963 -1.9876 0.9842
1.2821 -3.1897 -1.9848 0.9842
1.5603 -3.0579 -1.9820 0.9843
1.8253 -2.9022 -1.9794 0.9843
2.5219 -2.3051 -1.9726 0.9843
3.0357 -1.5485 -1.9675 0.9844
1.7756 -0.7134 -1.1048 0.9912
1.7327 -0.3563 -1.0213 0.9919
1.7418 -0.1980 -1.0121 0.9919
1.7314 0.4333 -1.0304 0.9918
1.7090 0.5947 -1.0447 0.9917
3.1044 1.4031 -1.9668 0.9844
2.9683 1.6764 -1.9682 0.9844
2.1999 2.6212 -1.9757 0.9843
1.1464 3.2433 -1.9861 0.9842
0.8528 3.3378 -1.9890 0.9842
0.5515 3.4058 -1.9919 0.9842
-0.0647 3.4600 -1.9980 0.9841
-0.3747 3.4456 -2.0010 0.9841
-0.6825 3.4033 -2.0041 0.9841
-0.9859 3.3336 -2.0070 0.9841
-1.2821 3.2366 -2.0099 0.9840
-1.5688 3.1133 -2.0128 0.9840
-2.1042 2.7910 -2.0180 0.9840
-2.5739 2.3766 -2.0226 0.9839
-0.8060 0.6203 -0.5872 0.9953
-0.8017 0.5097 -0.5485 0.9956
-0.8314 0.4294 -0.5402 0.9957
-0.8524 0.3475 -0.5315 0.9958
-0.8649 0.2651 -0.5223 0.9958
-0.8761 0.1848 -0.5169 0.9959
-0.8820 0.1048 -0.5128 0.9959
-0.8801 0.0252 -0.5083 0.9959
-0.8817 -0.0539 -0.5100 0.9959
-0.8614 -0.2949 -0.5257 0.9958
-0.8217 -0.4586 -0.5433 0.9957
-0.7974 -0.5440 -0.5573 0.9956
-2.4947 -2.4577 -2.0219 0.9840
-2.2622 -2.6681 -2.0196 0.9840
-2.0119 -2.8563 -2.0171 0.9840
-1.7459 -3.0210 -2.0145 0.9840
-1.4666 -3.1608 -2.0118 0.9840
-0.8771 -3.3619 -2.0060 0.9841
-0.5718 -3.4218 -2.0030 0.9841
