ply
format ascii 1.0
element vertex 1222
property float32 x
property float32 y
property float32 z
property float32 I
end_header
8.6020 -13.8119 2.4927 0.9363
12.6582 10.2808 2.4982 0.9361
2.4592 17.5139 2.3031 0.9311
12.6502 10.2743 1.7500 0.9365
12.6463 10.2711 1.3791 0.9367
-11.3151 10.0947 0.5979 0.9411
-9.3466 8.3385 -0.3527 0.9511
8.2682 3.6365 -0.2543 0.9645
-10.3757 8.2930 -0.3740 0.9482
10.3204 2.8666 -0.5432 0.9580
8.1866 3.0832 -0.4436 0.9656
-9.3632 8.3533 -0.6363 0.9510
-14.2774 7.0859 -0.8083 0.9382
-10.4159 8.3252 -0.6762 0.9480
-14.3539 6.1794 -0.7925 0.9393
9.8747 2.7428 -0.7514 0.9597
14.1478 10.2714 -1.2819 0.9323
-7.0639 13.3945 -1.1103 0.9411
-12.6919 13.5400 -1.3607 0.9283
8.3417 2.8116 -0.6454 0.9653
8.0828 3.5549 -0.6474 0.9652
11.6820 13.5870 -1.3138 0.9307
-6.9471 14.3741 -1.1706 0.9380
-13.6341 5.8695 -1.0884 0.9422
8.0066 3.0154 -0.8214 0.9662
7.7110 3.7196 -0.8219 0.9662
16.3394 9.7657 -1.8275 0.9264
12.3709 8.9813 -1.4677 0.9404
13.1954 13.7640 -1.8306 0.9262
11.9494 14.9272 -1.8357 0.9260
10.6016 15.9786 -1.8410 0.9258
2.4499 17.4474 -1.6915 0.9316
0.9747 19.3821 -1.8631 0.9250
-1.0982 8.5142 -0.8242 0.9661
-2.6895 8.4897 -0.8550 0.9648
-9.0603 17.1800 -1.8647 0.9249
-10.5449 16.2874 -1.8628 0.9250
-11.9389 15.2623 -1.8603 0.9251
-9.3626 8.3528 -1.2046 0.9508
-12.0563 8.9615 -1.4422 0.9414
-16.0463 -11.2250 -1.8800 0.9243
-14.8057 -12.4625 -1.8579 0.9252
-10.9584 -15.9034 -1.8542 0.9253
-9.4898 -16.8039 -1.8527 0.9254
-7.9476 -17.5686 -1.8512 0.9254
-4.3686 -12.5260 -1.2736 0.9481
-3.1262 -12.4343 -1.2309 0.9498
5.4609 -18.3507 -1.8381 0.9259
8.6181 -17.0607 -1.8350 0.9261
13.2498 8.9266 -1.5338 0.9378
11.8783 9.6474 -1.4691 0.9404
12.4511 14.4815 -1.8335 0.9261
9.7370 16.5562 -1.8440 0.9257
8.2431 17.4020 -1.8486 0.9255
5.0434 18.6682 -1.8565 0.9252
3.3650 19.0761 -1.8597 0.9251
1.6535 19.3271 -1.8623 0.9250
-0.0522 13.3411 -1.2808 0.9478
-1.8081 19.3494 -1.8657 0.9249
-3.5272 19.1196 -1.8666 0.9248
-2.3691 8.5044 -0.8476 0.9651
-6.5057 13.4607 -1.4353 0.9417
-11.4023 15.6806 -1.8613 0.9250
-12.7354 14.5797 -1.8585 0.9252
-8.9599 8.5768 -1.1908 0.9514
-10.4160 8.3252 -1.2801 0.9478
-16.1455 10.6947 -1.8593 0.9251
-13.2703 5.7129 -1.3871 0.9436
16.6633 0.0526 -1.9794 0.9351
16.5928 1.5378 -1.9794 0.9351
16.3913 3.0111 -1.9796 0.9351
7.9811 3.0058 -1.0130 0.9662
7.7055 3.7169 -1.0162 0.9661
11.6237 10.1379 -1.8321 0.9398
10.6791 11.1392 -1.8330 0.9397
8.5411 12.8732 -1.8351 0.9397
7.3642 13.5918 -1.8363 0.9396
4.8485 14.7284 -1.8419 0.9395
3.5216 15.1249 -1.8447 0.9394
-0.5458 13.9831 -1.6623 0.9452
-1.0809 8.3807 -1.0038 0.9665
-3.3644 15.2218 -1.8518 0.9391
-2.6615 8.4016 -1.0469 0.9651
-6.0120 14.3780 -1.8512 0.9392
-9.6107 12.2860 -1.8529 0.9391
-9.3623 8.3526 -1.4904 0.9507
-11.9298 8.8674 -1.7657 0.9419
-13.3245 8.1683 -1.8565 0.9390
-12.7935 6.3494 -1.6966 0.9441
-15.7760 6.1448 -2.0111 0.9341
-16.6232 3.2471 -2.0119 0.9340
-16.9382 0.2438 -2.0122 0.9340
-16.8921 -1.2670 -2.0122 0.9340
-16.7105 -2.7675 -2.0120 0.9340
-15.3727 -7.0856 -2.0107 0.9341
-14.6749 -8.4249 -2.0100 0.9341
-11.1443 -11.2234 -1.8788 0.9383
-8.8469 -12.8391 -1.8521 0.9391
-7.6624 -13.5681 -1.8510 0.9392
-3.1327 -12.4603 -1.5262 0.9496
-2.4305 -15.3479 -1.8458 0.9393
0.3330 -15.5128 -1.8431 0.9394
4.4160 -14.8396 -1.8391 0.9395
10.0675 -13.3462 -1.9858 0.9349
11.2108 -12.3887 -1.9847 0.9349
14.0694 -8.9683 -1.9819 0.9350
16.6362 0.9546 -1.9794 0.9351
16.4861 2.4339 -1.9795 0.9351
10.9351 2.6278 -1.3359 0.9557
14.0048 7.7166 -1.8994 0.9376
12.7835 8.6125 -1.8310 0.9398
11.0612 10.7554 -1.8327 0.9397
10.0638 11.7048 -1.8336 0.9397
7.8347 13.3217 -1.8358 0.9396
1.3263 15.5028 -1.8482 0.9392
-0.0330 8.4214 -1.0004 0.9666
-1.4498 15.5151 -1.8510 0.9392
-5.5046 14.5822 -1.8515 0.9391
-8.0057 13.3719 -1.8513 0.9392
-9.1715 12.6128 -1.8524 0.9391
-10.2652 11.7518 -1.8535 0.9391
-10.4160 8.3252 -1.5839 0.9477
-13.0277 8.6295 -1.8562 0.9390
-12.6223 6.8266 -1.7046 0.9438
-13.3800 5.7601 -1.7304 0.9430
-16.0879 5.2826 -2.0114 0.9341
-16.7759 2.3427 -2.0121 0.9340
-16.9191 0.8380 -2.0122 0.9340
-16.9265 -0.6735 -2.0122 0.9340
-16.7980 -2.1795 -2.0121 0.9340
-15.6137 -6.5426 -2.0109 0.9341
13.7752 -2.4407 -1.9822 0.9450
9.3818 2.6059 -1.3796 0.9614
7.9526 2.9951 -1.2041 0.9663
12.0188 7.1834 -1.9839 0.9450
10.6382 7.7234 -1.8627 0.9483
9.7545 8.5076 -1.8339 0.9491
8.9611 9.3472 -1.8347 0.9490
8.0959 10.1135 -1.8356 0.9490
7.1658 10.8002 -1.8365 0.9490
5.1396 11.9138 -1.8384 0.9489
4.0595 12.3316 -1.8395 0.9489
1.8074 12.8719 -1.8417 0.9488
0.6532 12.9897 -1.8428 0.9488
-7.0975 10.9627 -1.8504 0.9486
-8.9400 9.5374 -1.8522 0.9486
-10.5002 7.8048 -1.8537 0.9485
-12.0641 7.3956 -2.0050 0.9444
-14.1061 1.4673 -2.0095 0.9443
-14.1812 0.2041 -2.0095 0.9443
-13.7268 -3.5545 -2.0091 0.9443
-12.8721 -5.9330 -2.0082 0.9443
-11.6068 -8.1194 -2.0070 0.9444
-10.8328 -9.1183 -2.0063 0.9444
-9.9727 -10.0434 -2.0054 0.9444
-7.7263 -11.2128 -1.9294 0.9465
-4.2942 -12.3129 -1.8477 0.9487
-2.0372 -12.8643 -1.8455 0.9487
0.2792 -13.0056 -1.8432 0.9488
1.4365 -12.9210 -1.8421 0.9488
2.5810 -12.7338 -1.8409 0.9489
3.7036 -12.4456 -1.8398 0.9489
5.9806 -11.8393 -1.8794 0.9478
8.4469 -11.1978 -1.9874 0.9449
10.2917 -9.5113 -1.9856 0.9450
11.0942 -8.5526 -1.9848 0.9450
11.8083 -7.5270 -1.9841 0.9450
12.4284 -6.4425 -1.9835 0.9450
12.9499 -5.3076 -1.9830 0.9450
13.6816 -2.9227 -1.9823 0.9450
13.9812 -0.4467 -1.9820 0.9451
10.8146 2.5988 -1.5759 0.9561
7.8457 3.4507 -1.2144 0.9660
7.9321 4.3706 -1.2832 0.9641
10.0455 8.1588 -1.8336 0.9491
7.5388 10.5400 -1.8361 0.9490
1.1084 12.9557 -1.8424 0.9488
-0.0330 8.4216 -1.1933 0.9665
-1.2113 12.9625 -1.8447 0.9488
-2.3309 8.3673 -1.2307 0.9655
-5.6786 11.7495 -1.8490 0.9486
-8.9043 8.5236 -1.7465 0.9514
-11.6278 7.7022 -1.9762 0.9452
-12.4646 6.7414 -2.0079 0.9444
-13.0195 5.6049 -2.0084 0.9443
-13.4702 4.4230 -2.0088 0.9443
-14.1652 0.7016 -2.0095 0.9443
-14.0640 -1.8248 -2.0094 0.9443
-13.5128 -4.2919 -2.0089 0.9443
-13.0737 -5.4782 -2.0084 0.9443
11.8590 -2.1012 -1.9841 0.9523
12.0425 0.0380 -1.9839 0.9524
11.8455 2.1760 -1.9841 0.9523
7.8335 2.9502 -1.3790 0.9666
7.8306 3.7773 -1.4322 0.9654
10.3457 6.1834 -1.9856 0.9523
9.7561 7.0830 -1.9861 0.9523
8.8406 7.7105 -1.9325 0.9536
7.7124 8.0447 -1.8359 0.9558
5.3158 9.8111 -1.8383 0.9558
2.5342 10.8841 -1.8410 0.9557
0.5618 11.1728 -1.8429 0.9557
-4.3268 10.3477 -1.8477 0.9555
-5.2345 9.9256 -1.8486 0.9555
-7.6841 8.1975 -1.8510 0.9555
-9.7680 7.2606 -2.0050 0.9519
-10.3805 6.3635 -2.0058 0.9518
-10.9092 5.4142 -2.0063 0.9518
-12.1207 1.2608 -2.0075 0.9518
-12.1852 0.1754 -2.0076 0.9518
-11.7951 -3.0543 -2.0072 0.9518
-11.4740 -4.0929 -2.0069 0.9518
-11.0613 -5.0984 -2.0065 0.9518
-10.5602 -6.0626 -2.0060 0.9518
-5.9744 -10.5791 -2.0015 0.9519
-2.8198 -11.2155 -1.9051 0.9542
-1.7770 -11.2213 -1.8716 0.9550
1.2476 -11.2223 -1.8601 0.9553
2.2736 -11.2173 -1.8855 0.9547
5.4475 -10.7839 -1.9903 0.9522
7.2693 -9.6366 -1.9886 0.9522
8.0960 -8.9466 -1.9877 0.9523
8.8580 -8.1863 -1.9870 0.9523
10.6986 -5.5458 -1.9852 0.9523
11.1479 -4.5690 -1.9848 0.9523
11.5088 -3.5565 -1.9844 0.9523
12.0365 -0.3846 -1.9839 0.9524
11.9142 1.7590 -1.9840 0.9523
7.8724 2.6534 -1.3686 0.9669
7.8614 4.3316 -1.4787 0.9643
9.9975 6.7355 -1.9859 0.9523
9.3341 7.5810 -1.9810 0.9524
7.2673 8.4524 -1.8364 0.9558
6.4877 9.0704 -1.8371 0.9558
5.6558 9.6168 -1.8379 0.9558
4.7783 10.0874 -1.8388 0.9558
2.9140 10.7862 -1.8406 0.9557
-0.0330 8.4219 -1.3874 0.9664
-1.0417 11.1479 -1.8445 0.9556
-1.5472 8.3866 -1.4049 0.9660
-2.3329 8.3742 -1.4321 0.9654
-6.6042 9.0821 -1.8499 0.9555
-9.4804 7.5775 -1.9994 0.9520
-10.7115 5.7932 -2.0061 0.9518
-11.1878 4.8164 -2.0066 0.9518
-12.0686 1.6853 -2.0075 0.9518
-12.1714 0.6028 -2.0076 0.9518
-12.0845 -1.5679 -2.0075 0.9518
-11.2344 -4.7075 -2.0066 0.9518
10.4013 -1.8429 -1.9855 0.9579
10.5236 -0.9083 -1.9854 0.9579
10.5624 0.0334 -1.9853 0.9579
10.3895 1.9086 -1.9855 0.9579
10.1791 2.8274 -1.9857 0.9579
8.5559 6.2116 -1.9873 0.9579
7.9704 6.9516 -1.9879 0.9579
4.6607 8.6020 -1.8389 0.9610
3.8770 8.9870 -1.8397 0.9609
-0.3826 9.8023 -1.8438 0.9609
-1.0771 8.3512 -1.5827 0.9663
-2.6539 8.3775 -1.6518 0.9649
-4.5862 8.6964 -1.8480 0.9608
-5.3453 8.2562 -1.8487 0.9608
-6.0623 7.7498 -1.8494 0.9607
-7.2185 7.7008 -1.9839 0.9580
-7.9537 7.0958 -2.0034 0.9575
-9.9417 3.8723 -2.0054 0.9575
-10.2488 2.9711 -2.0057 0.9575
-10.5288 -1.7437 -2.0060 0.9575
-9.6882 -4.4655 -2.0051 0.9575
-9.2496 -5.3102 -2.0047 0.9575
-8.7373 -6.1121 -2.0042 0.9575
-7.5086 -7.5619 -2.0030 0.9576
-6.0422 -8.7687 -2.0016 0.9576
-5.2344 -9.2688 -2.0008 0.9576
-3.5024 -10.0424 -1.9991 0.9576
-0.7195 -10.5968 -1.9964 0.9577
1.1725 -10.5464 -1.9945 0.9577
3.0238 -10.1613 -1.9927 0.9578
3.9159 -9.8470 -1.9918 0.9578
4.7760 -9.4547 -1.9910 0.9578
5.5975 -8.9877 -1.9902 0.9578
7.7678 -7.1788 -1.9881 0.9579
9.7772 -4.0073 -1.9861 0.9579
10.4854 -1.2771 -1.9854 0.9579
10.5571 -0.3373 -1.9853 0.9579
10.5452 0.6051 -1.9854 0.9579
10.2716 2.4683 -1.9856 0.9579
8.2085 6.6668 -1.9876 0.9579
6.6326 7.7142 -1.9122 0.9594
4.1892 8.8439 -1.8394 0.9610
3.3857 9.1861 -1.8402 0.9609
2.5545 9.4555 -1.8410 0.9609
1.7022 9.6499 -1.8418 0.9609
-1.5472 8.3868 -1.6030 0.9659
-5.0515 8.4374 -1.8484 0.9608
-6.7363 7.7118 -1.9246 0.9592
-7.6914 7.3625 -2.0013 0.9576
-10.3954 2.4121 -2.0058 0.9575
-10.5699 1.4760 -2.0060 0.9575
-10.6645 -0.4243 -2.0061 0.9575
-10.5838 -1.3732 -2.0060 0.9575
-10.1697 -3.2301 -2.0056 0.9575
-9.8397 -4.1231 -2.0053 0.9575
9.2437 1.6981 -1.9866 0.9623
9.0564 2.5155 -1.9868 0.9623
8.7972 3.3132 -1.9871 0.9623
8.4682 4.0849 -1.9874 0.9623
8.0719 4.8244 -1.9878 0.9623
7.6115 5.5260 -1.9882 0.9623
7.0904 6.1841 -1.9887 0.9623
4.1852 7.7244 -1.8570 0.9647
3.4482 7.9931 -1.8401 0.9650
2.7230 8.2718 -1.8408 0.9650
1.2119 8.6308 -1.8423 0.9650
-0.3402 8.7161 -1.8438 0.9650
-1.8841 8.5241 -1.8453 0.9649
-2.6370 8.3240 -1.8457 0.9649
-4.9909 7.7088 -1.9412 0.9632
-7.0694 6.3069 -2.0026 0.9620
-8.4921 4.2146 -2.0040 0.9620
-8.8355 3.4414 -2.0043 0.9620
-9.1083 2.6405 -2.0046 0.9620
-9.3570 -1.5497 -2.0048 0.9620
-9.1808 -2.3774 -2.0046 0.9620
-8.9312 -3.1859 -2.0044 0.9620
-7.7656 -5.4323 -2.0033 0.9620
-6.6740 -6.7214 -2.0022 0.9620
-5.3710 -7.7947 -2.0009 0.9620
-4.6532 -8.2395 -2.0002 0.9621
-3.8987 -8.6183 -1.9995 0.9621
-3.1138 -8.9281 -1.9987 0.9621
1.0427 -9.3785 -1.9946 0.9622
1.8737 -9.2444 -1.9938 0.9622
4.9789 -7.9944 -1.9908 0.9622
5.6698 -7.5162 -1.9901 0.9622
6.3152 -6.9787 -1.9895 0.9623
7.9303 -5.0551 -1.9879 0.9623
8.3476 -4.3271 -1.9875 0.9623
8.9805 -2.7752 -1.9869 0.9623
9.1912 -1.9634 -1.9867 0.9623
9.3929 -0.3001 -1.9865 0.9623
9.3823 0.5384 -1.9865 0.9623
9.2973 1.3726 -1.9866 0.9623
9.1387 2.1961 -1.9867 0.9623
8.6058 3.7849 -1.9873 0.9623
7.8000 5.2550 -1.9880 0.9623
6.1366 7.1373 -1.9897 0.9622
4.5390 7.7178 -1.8926 0.9641
3.0112 8.1699 -1.8405 0.9650
2.2718 8.4091 -1.8412 0.9650
1.5138 8.5816 -1.8420 0.9650
0.7431 8.6859 -1.8427 0.9650
-0.0330 8.4226 -1.7804 0.9662
-1.5432 8.3651 -1.7980 0.9658
-2.3271 8.3533 -1.8330 0.9652
-5.5495 7.6318 -1.9946 0.9622
-6.8430 6.5504 -2.0024 0.9620
-9.0096 2.9583 -2.0045 0.9620
-9.2384 2.1437 -2.0047 0.9620
-9.3934 1.3117 -2.0049 0.9620
-9.4733 0.4692 -2.0049 0.9620
-9.4058 -1.2204 -2.0049 0.9620
-9.0380 -2.8706 -2.0045 0.9620
8.3270 -1.4754 -1.9875 0.9658
8.4202 0.7804 -1.9874 0.9658
8.3176 1.5279 -1.9875 0.9658
8.1489 2.2635 -1.9877 0.9658
7.9156 2.9812 -1.9879 0.9658
7.6195 3.6755 -1.9882 0.9658
7.2628 4.3408 -1.9886 0.9658
6.8484 4.9719 -1.9890 0.9658
0.3939 7.8322 -1.8431 0.9683
-0.3060 7.8391 -1.8438 0.9683
-1.0039 7.7835 -1.8445 0.9683
-1.7072 7.7240 -1.8591 0.9680
-2.4443 7.7160 -1.9023 0.9673
-3.2217 7.7048 -1.9627 0.9663
-3.9600 7.5089 -1.9951 0.9657
-5.2452 6.7054 -2.0008 0.9656
-5.8237 6.2129 -2.0014 0.9656
-6.3560 5.6705 -2.0019 0.9656
-6.8378 5.0825 -2.0024 0.9656
-7.2651 4.4537 -2.0028 0.9656
-7.6346 3.7891 -2.0031 0.9656
-8.5260 0.1227 -2.0040 0.9656
-8.4118 -1.3931 -2.0039 0.9656
-8.2535 -2.1372 -2.0037 0.9656
-7.7409 -3.5679 -2.0032 0.9656
-6.9817 -4.8840 -2.0025 0.9656
-6.5171 -5.4856 -2.0020 0.9656
-6.0006 -6.0432 -2.0015 0.9656
-5.4365 -6.5522 -2.0010 0.9656
-4.1841 -7.4089 -1.9998 0.9656
-1.3290 -8.3923 -1.9970 0.9657
0.1822 -8.4886 -1.9955 0.9657
1.6854 -8.3152 -1.9940 0.9657
2.4190 -8.1290 -1.9933 0.9658
3.1329 -7.8782 -1.9926 0.9658
4.4791 -7.1920 -1.9913 0.9658
5.1008 -6.7620 -1.9907 0.9658
6.2171 -5.7456 -1.9896 0.9658
6.7029 -5.1673 -1.9891 0.9658
7.1353 -4.5483 -1.9887 0.9658
7.8269 -3.2079 -1.9880 0.9658
8.0807 -2.4971 -1.9878 0.9658
8.4519 -0.2701 -1.9874 0.9659
8.4423 0.4844 -1.9874 0.9659
8.3659 1.2351 -1.9875 0.9658
8.2230 1.9760 -1.9876 0.9658
7.4101 4.0830 -1.9884 0.9658
7.0180 4.7282 -1.9888 0.9658
6.0697 5.9020 -1.9897 0.9658
3.6168 7.6353 -1.9856 0.9659
2.8419 7.7107 -1.9313 0.9668
0.6684 7.8125 -1.8428 0.9683
-0.7301 7.8128 -1.8442 0.9683
-6.1525 5.8894 -2.0017 0.9656
-6.6546 5.3189 -2.0022 0.9656
-7.4964 4.0543 -2.0030 0.9656
-7.8293 3.3705 -2.0033 0.9656
-8.0996 2.6596 -2.0036 0.9656
-8.3053 1.9272 -2.0038 0.9656
-8.4446 1.1792 -2.0039 0.9656
-8.5164 0.4218 -2.0040 0.9656
-8.4557 -1.0971 -2.0039 0.9656
-8.3237 -1.8463 -2.0038 0.9656
-8.1252 -2.5807 -2.0036 0.9656
-7.8618 -3.2943 -2.0034 0.9656
7.6461 0.7087 -1.9882 0.9688
6.9187 3.3374 -1.9889 0.9688
5.7923 5.0519 -1.9900 0.9687
5.3201 5.5494 -1.9905 0.9687
4.8055 6.0030 -1.9910 0.9687
2.4061 7.3090 -1.9923 0.9687
1.7429 7.4855 -1.9900 0.9687
0.3857 7.6692 -1.9882 0.9688
-0.2996 7.6752 -1.9888 0.9688
-2.9778 7.1215 -1.9986 0.9686
-3.6018 6.8298 -1.9992 0.9686
-4.1975 6.4834 -1.9998 0.9686
-6.5925 4.0414 -2.0021 0.9686
-6.9276 3.4382 -2.0024 0.9685
-7.2075 2.8073 -2.0027 0.9685
-7.6953 0.8005 -2.0032 0.9685
-7.4890 -1.9393 -2.0030 0.9685
-7.2856 -2.5989 -2.0028 0.9685
-7.0240 -3.2375 -2.0025 0.9685
-5.9139 -4.9779 -2.0014 0.9686
-5.4454 -5.4840 -2.0010 0.9686
-4.9336 -5.9461 -2.0005 0.9686
-3.7972 -6.7239 -1.9994 0.9686
-2.5414 -7.2868 -1.9981 0.9686
-0.5223 -7.6920 -1.9962 0.9686
0.8513 -7.6573 -1.9948 0.9687
1.5300 -7.5484 -1.9942 0.9687
2.8442 -7.1522 -1.9929 0.9687
3.4694 -6.8681 -1.9923 0.9687
5.1586 -5.7006 -1.9906 0.9687
6.0861 -4.6919 -1.9897 0.9687
6.8201 -3.5353 -1.9890 0.9688
7.6226 -0.9284 -1.9882 0.9688
7.6748 -0.2452 -1.9882 0.9688
6.7285 3.7074 -1.9891 0.9688
6.3724 4.2932 -1.9894 0.9688
5.5111 5.3588 -1.9903 0.9687
5.0127 5.8301 -1.9908 0.9687
3.2943 6.9545 -1.9924 0.9687
2.0053 7.4228 -1.9908 0.9687
0.6546 7.6511 -1.9882 0.9688
-0.0301 7.6797 -1.9884 0.9688
-2.0675 7.4217 -1.9948 0.9687
-2.7257 7.2207 -1.9983 0.9686
-5.5831 5.3444 -2.0011 0.9686
-7.3494 2.4132 -2.0029 0.9685
-7.7274 0.3827 -2.0032 0.9685
-7.3726 -2.3417 -2.0029 0.9685
-7.1337 -2.9892 -2.0026 0.9685
6.9993 -0.6041 -1.9888 0.9712
7.0252 0.0222 -1.9888 0.9712
6.9954 0.6483 -1.9888 0.9712
6.9100 1.2694 -1.9889 0.9712
6.7698 1.8804 -1.9890 0.9712
5.6887 4.1300 -1.9901 0.9712
4.3960 5.4915 -1.9914 0.9712
3.8900 5.8630 -1.9919 0.9712
3.3528 6.1880 -1.9924 0.9712
2.2019 6.6888 -1.9935 0.9711
1.5974 6.8605 -1.9941 0.9711
0.3540 7.0394 -1.9953 0.9711
-0.2750 7.0451 -1.9959 0.9711
-0.9022 6.9947 -1.9966 0.9711
-1.5226 6.8885 -1.9972 0.9711
-2.7231 6.5125 -1.9983 0.9711
-3.2937 6.2456 -1.9989 0.9711
-4.3527 5.5644 -1.9999 0.9711
-5.2740 4.7051 -2.0008 0.9710
-6.7933 1.9694 -2.0023 0.9710
-7.0359 0.7319 -2.0025 0.9710
-7.0732 0.1018 -2.0026 0.9710
-5.7928 -4.0523 -2.0013 0.9710
-5.4075 -4.5517 -2.0010 0.9710
-4.9792 -5.0146 -2.0005 0.9710
-4.5114 -5.4372 -2.0001 0.9711
-4.0077 -5.8162 -1.9996 0.9711
-1.7203 -6.8425 -1.9973 0.9711
-1.1032 -6.9665 -1.9967 0.9711
0.1513 -7.0473 -1.9955 0.9711
1.3994 -6.9043 -1.9943 0.9711
2.0087 -6.7500 -1.9937 0.9711
4.2365 -5.6162 -1.9915 0.9712
5.1641 -4.7725 -1.9906 0.9712
6.7131 -2.0745 -1.9891 0.9712
6.8707 -1.4677 -1.9889 0.9712
6.9739 -0.8494 -1.9888 0.9712
7.0217 -0.2244 -1.9888 0.9712
6.9502 1.0261 -1.9889 0.9712
6.6585 2.2442 -1.9892 0.9712
6.4326 2.8292 -1.9894 0.9712
6.1557 3.3917 -1.9896 0.9712
5.8297 3.9276 -1.9900 0.9712
5.0416 4.9023 -1.9907 0.9712
4.0929 5.7223 -1.9917 0.9712
3.0134 6.3615 -1.9927 0.9712
0.6007 7.0218 -1.9951 0.9711
-0.0276 7.0496 -1.9957 0.9711
-1.2797 6.9369 -1.9969 0.9711
-3.0722 6.3566 -1.9987 0.9711
-4.6482 5.3213 -2.0002 0.9711
-5.5216 4.4133 -2.0011 0.9710
-5.8941 3.9042 -2.0014 0.9710
-6.2196 3.3638 -2.0017 0.9710
-7.0653 0.3499 -2.0026 0.9710
-7.0149 -0.9102 -2.0025 0.9710
-6.7409 -2.1411 -2.0023 0.9710
6.4439 -0.5562 -1.9894 0.9733
6.4677 0.0204 -1.9893 0.9733
6.4402 0.5969 -1.9894 0.9733
6.0539 2.2800 -1.9897 0.9733
5.8272 2.8109 -1.9900 0.9733
4.8781 4.2546 -1.9909 0.9733
4.4803 4.6734 -1.9913 0.9733
4.0468 5.0552 -1.9917 0.9733
3.0862 5.6961 -1.9927 0.9733
2.5669 5.9501 -1.9932 0.9732
2.0268 6.1569 -1.9937 0.9732
0.9018 6.4224 -1.9948 0.9732
0.3258 6.4791 -1.9954 0.9732
-0.2531 6.4842 -1.9959 0.9732
-3.0312 5.7477 -1.9986 0.9732
-4.4470 4.7441 -2.0000 0.9732
-6.2508 1.8121 -2.0018 0.9731
-6.3005 -1.6315 -2.0018 0.9731
-5.9096 -2.7239 -2.0014 0.9731
-5.6425 -3.2394 -2.0012 0.9731
-4.9760 -4.1885 -2.0005 0.9731
-4.1515 -5.0035 -1.9997 0.9732
-2.6778 -5.9193 -1.9983 0.9732
-2.1389 -6.1328 -1.9978 0.9732
-1.5833 -6.2974 -1.9972 0.9732
-1.0153 -6.4116 -1.9967 0.9732
-0.4396 -6.4748 -1.9961 0.9732
0.7167 -6.4463 -1.9950 0.9732
1.8489 -6.2131 -1.9939 0.9732
3.4243 -5.4983 -1.9923 0.9733
4.7539 -4.3934 -1.9910 0.9733
5.1257 -3.9515 -1.9907 0.9733
6.1803 -1.9099 -1.9896 0.9733
6.3255 -1.3513 -1.9895 0.9733
6.4205 -0.7820 -1.9894 0.9733
6.4645 -0.2065 -1.9893 0.9733
6.4572 0.3705 -1.9894 0.9733
6.3986 0.9447 -1.9894 0.9733
6.1300 2.0661 -1.9897 0.9733
5.6670 3.1225 -1.9901 0.9733
5.0241 4.0804 -1.9908 0.9733
4.6412 4.5129 -1.9911 0.9733
4.2213 4.9097 -1.9915 0.9733
3.7677 5.2676 -1.9920 0.9733
2.2414 6.0813 -1.9935 0.9732
0.5529 6.4629 -1.9951 0.9732
-1.7427 6.2557 -1.9974 0.9732
-2.2940 6.0770 -1.9979 0.9732
-2.8273 5.8499 -1.9984 0.9732
-3.3384 5.5760 -1.9989 0.9732
-4.6978 4.4970 -2.0003 0.9732
-5.0809 4.0611 -2.0006 0.9731
-5.7231 3.0953 -2.0013 0.9731
-5.9770 2.5731 -2.0015 0.9731
-6.1832 2.0303 -2.0017 0.9731
-6.5010 0.3220 -2.0020 0.9731
-6.5038 -0.2588 -2.0020 0.9731
5.8946 -1.0444 -1.9899 0.9751
5.9861 0.0189 -1.9898 0.9751
5.7683 1.6022 -1.9900 0.9751
5.1404 3.0723 -1.9906 0.9751
4.5146 3.9375 -1.9913 0.9751
4.1464 4.3250 -1.9916 0.9751
3.3138 4.9946 -1.9924 0.9751
2.3754 5.5062 -1.9933 0.9750
1.8756 5.6974 -1.9938 0.9750
1.3606 5.8434 -1.9943 0.9750
-1.8147 5.7285 -1.9974 0.9750
-3.2681 5.0478 -1.9989 0.9750
-3.7058 4.7374 -1.9993 0.9750
-4.1142 4.3891 -1.9997 0.9750
-4.8298 3.5900 -2.0004 0.9750
-5.1314 3.1456 -2.0007 0.9749
-5.9890 0.6230 -2.0015 0.9749
-6.0045 -0.4504 -2.0015 0.9749
-5.8286 -1.5093 -2.0014 0.9749
-5.4670 -2.5199 -2.0010 0.9749
-4.6035 -3.8749 -2.0002 0.9750
-3.4122 -4.9520 -1.9990 0.9750
-2.4775 -5.4767 -1.9981 0.9750
-1.9790 -5.6743 -1.9976 0.9750
-1.4649 -5.8267 -1.9971 0.9750
0.6632 -5.9650 -1.9950 0.9750
1.1919 -5.8806 -1.9945 0.9750
1.7110 -5.7495 -1.9940 0.9750
2.7034 -5.3517 -1.9930 0.9750
4.0204 -4.4428 -1.9917 0.9751
4.7438 -3.6570 -1.9910 0.9751
5.3163 -2.7558 -1.9905 0.9751
5.5401 -2.2706 -1.9902 0.9751
5.7200 -1.7676 -1.9901 0.9751
5.9423 -0.7237 -1.9899 0.9751
5.6734 1.9122 -1.9901 0.9751
5.2448 2.8899 -1.9905 0.9751
4.6497 3.7764 -1.9911 0.9751
4.2953 4.1765 -1.9915 0.9751
3.4868 4.8748 -1.9923 0.9751
3.0390 5.1674 -1.9927 0.9750
2.0741 5.6275 -1.9936 0.9750
1.5646 5.7915 -1.9941 0.9750
1.0424 5.9094 -1.9946 0.9750
0.5116 5.9803 -1.9952 0.9750
-0.0235 6.0037 -1.9957 0.9750
-1.0898 5.9072 -1.9967 0.9750
-1.6124 5.7881 -1.9972 0.9750
-2.6159 5.4124 -1.9982 0.9750
-3.0886 5.1589 -1.9987 0.9750
-4.3462 4.1604 -1.9999 0.9750
-5.0175 3.3236 -2.0006 0.9750
-5.5294 2.3804 -2.0011 0.9749
-5.7201 1.8782 -2.0013 0.9749
-5.9634 0.8328 -2.0015 0.9749
-6.0140 0.2979 -2.0015 0.9749
-6.0166 -0.2394 -2.0015 0.9749
-5.7381 -1.8225 -2.0013 0.9749
-5.5523 -2.3266 -2.0011 0.9749
5.5654 0.0176 -1.9902 0.9766
5.5417 0.5136 -1.9902 0.9766
5.3629 1.4896 -1.9904 0.9766
4.1971 3.6606 -1.9916 0.9766
3.8547 4.0208 -1.9919 0.9766
3.4816 4.3492 -1.9923 0.9766
2.2082 5.1186 -1.9935 0.9766
1.2647 5.4319 -1.9944 0.9766
0.7757 5.5243 -1.9949 0.9766
-0.7141 5.5367 -1.9964 0.9766
-1.2051 5.4523 -1.9968 0.9766
-2.1551 5.1541 -1.9978 0.9765
-3.0374 4.6915 -1.9986 0.9765
-3.4442 4.4030 -1.9990 0.9765
-4.4887 3.3365 -2.0001 0.9765
-5.0111 2.4870 -2.0006 0.9765
-5.3740 1.5579 -2.0009 0.9765
-5.4918 1.0727 -2.0010 0.9765
-5.5802 -0.4186 -2.0011 0.9765
-5.5205 -0.9143 -2.0011 0.9765
-5.0808 -2.3418 -2.0006 0.9765
-4.5831 -3.2060 -2.0001 0.9765
-3.9397 -3.9676 -1.9995 0.9765
-3.5697 -4.3023 -1.9992 0.9765
-3.1714 -4.6025 -1.9988 0.9765
-2.3027 -5.0903 -1.9979 0.9765
-1.8394 -5.2741 -1.9975 0.9766
-1.3616 -5.4158 -1.9970 0.9766
-0.8732 -5.5143 -1.9965 0.9766
-0.3781 -5.5688 -1.9960 0.9766
0.1198 -5.5790 -1.9955 0.9766
2.0601 -5.1804 -1.9936 0.9766
2.5131 -4.9750 -1.9932 0.9766
2.9459 -4.7302 -1.9928 0.9766
3.3552 -4.4479 -1.9924 0.9766
4.6950 -2.9928 -1.9911 0.9766
5.5626 -0.1777 -1.9902 0.9766
5.5563 0.3188 -1.9902 0.9766
5.5059 0.8129 -1.9903 0.9766
4.8761 2.6867 -1.9909 0.9766
4.6178 3.1111 -1.9912 0.9766
4.3227 3.5108 -1.9914 0.9766
3.9932 3.8828 -1.9918 0.9766
2.8251 4.8037 -1.9929 0.9766
2.3862 5.0375 -1.9933 0.9766
1.9281 5.2313 -1.9938 0.9766
-1.9728 5.2261 -1.9976 0.9765
-2.4313 5.0305 -1.9980 0.9765
-2.8707 4.7948 -1.9985 0.9765
-3.6779 4.2105 -1.9993 0.9765
-4.3686 3.4917 -1.9999 0.9765
-4.6631 3.0888 -2.0002 0.9765
-4.9205 2.6612 -2.0005 0.9765
-5.3159 1.7455 -2.0009 0.9765
-5.4507 1.2648 -2.0010 0.9765
-5.5420 0.7739 -2.0011 0.9765
-5.5890 0.2768 -2.0011 0.9765
-5.5915 -0.2225 -2.0011 0.9765
-5.1600 -2.1622 -2.0007 0.9765
5.1149 -0.9063 -1.9907 0.9780
5.1752 -0.4467 -1.9906 0.9780
5.1944 0.0164 -1.9906 0.9780
5.0054 1.3903 -1.9908 0.9780
4.8619 1.8311 -1.9909 0.9780
4.6797 2.2574 -1.9911 0.9780
3.5975 3.7525 -1.9921 0.9780
3.2493 4.0590 -1.9925 0.9780
1.6271 4.9426 -1.9941 0.9780
1.1803 5.0690 -1.9945 0.9780
0.7239 5.1552 -1.9950 0.9779
-1.1245 5.0877 -1.9968 0.9779
-1.5739 4.9683 -1.9972 0.9779
-2.8341 4.3775 -1.9984 0.9779
-3.2136 4.1082 -1.9988 0.9779
-3.5677 3.8061 -1.9992 0.9779
-4.1881 3.1130 -1.9998 0.9779
-4.4495 2.7276 -2.0000 0.9779
-5.1239 1.0009 -2.0007 0.9779
-2.3032 0.2396 -0.8874 0.9901
-2.2920 0.0330 -0.8784 0.9902
-2.3040 -0.1728 -0.8854 0.9902
-5.0539 -1.3087 -2.0006 0.9779
-4.9167 -1.7539 -2.0005 0.9779
-4.7404 -2.1850 -2.0003 0.9779
-4.5263 -2.5986 -2.0001 0.9779
-3.9919 -3.3601 -1.9996 0.9779
-3.6759 -3.7020 -1.9993 0.9779
-3.3307 -4.0143 -1.9989 0.9779
-1.7164 -4.9213 -1.9973 0.9779
-0.8148 -5.1456 -1.9965 0.9779
0.1118 -5.2062 -1.9956 0.9779
1.0340 -5.1013 -1.9947 0.9780
1.4843 -4.9877 -1.9942 0.9780
1.9225 -4.8345 -1.9938 0.9780
2.3453 -4.6429 -1.9934 0.9780
2.7493 -4.4145 -1.9930 0.9780
4.6129 -2.3912 -1.9912 0.9780
4.8073 -1.9703 -1.9910 0.9780
5.0801 -1.0852 -1.9907 0.9780
5.1564 -0.6280 -1.9906 0.9780
4.0344 3.2766 -1.9917 0.9780
3.3895 3.9422 -1.9924 0.9780
2.6366 4.4831 -1.9931 0.9780
2.2269 4.7012 -1.9935 0.9780
0.9043 5.1262 -1.9948 0.9779
0.4438 5.1876 -1.9952 0.9779
-3.0673 4.2182 -1.9987 0.9779
-3.4317 3.9287 -1.9990 0.9779
-4.0761 3.2579 -1.9997 0.9779
-4.3508 2.8820 -1.9999 0.9779
-4.7945 2.0640 -2.0004 0.9779
-4.9598 1.6286 -2.0005 0.9779
-2.3042 -0.2990 -0.8904 0.9901
4.8644 0.0154 -1.9909 0.9792
4.8438 0.4489 -1.9909 0.9792
4.7846 0.8789 -1.9910 0.9792
4.5530 1.7148 -1.9912 0.9792
4.1769 2.4965 -1.9916 0.9792
3.9382 2.8592 -1.9918 0.9792
3.3689 3.5140 -1.9924 0.9792
3.0427 3.8010 -1.9927 0.9792
1.9297 4.4730 -1.9938 0.9792
1.5236 4.6281 -1.9942 0.9792
1.1052 4.7465 -1.9946 0.9792
-1.4736 4.6518 -1.9971 0.9791
-1.8828 4.5028 -1.9975 0.9791
-2.2771 4.3179 -1.9979 0.9791
-2.6535 4.0985 -1.9983 0.9791
-3.3402 3.5633 -1.9989 0.9791
-3.6451 3.2519 -1.9992 0.9791
-4.1656 2.5536 -1.9997 0.9791
-4.3771 2.1724 -1.9999 0.9791
-2.0121 -0.1509 -0.8258 0.9913
-2.0420 -0.3382 -0.8471 0.9911
-4.7313 -1.2252 -2.0003 0.9791
-3.7373 -3.1458 -1.9993 0.9791
-3.4415 -3.4659 -1.9990 0.9791
-3.1183 -3.7583 -1.9987 0.9791
-2.7705 -4.0206 -1.9984 0.9791
-2.4006 -4.2508 -1.9980 0.9791
-2.0117 -4.4470 -1.9976 0.9791
-1.1896 -4.7317 -1.9968 0.9791
-0.7629 -4.8179 -1.9964 0.9791
-0.3304 -4.8657 -1.9960 0.9791
0.1046 -4.8747 -1.9956 0.9791
0.5386 -4.8450 -1.9951 0.9792
0.9682 -4.7766 -1.9947 0.9792
2.9322 -3.8872 -1.9928 0.9792
3.2665 -3.6097 -1.9925 0.9792
3.5747 -3.3037 -1.9922 0.9792
3.8545 -2.9715 -1.9919 0.9792
4.8289 -0.5881 -1.9909 0.9792
4.6103 1.5539 -1.9912 0.9792
4.0360 2.7191 -1.9917 0.9792
3.7780 3.0684 -1.9920 0.9792
2.8328 3.9605 -1.9929 0.9792
2.4689 4.1980 -1.9933 0.9792
1.6849 4.5715 -1.9940 0.9792
1.2709 4.7044 -1.9944 0.9792
0.4156 4.8574 -1.9953 0.9791
-0.0191 4.8761 -1.9957 0.9791
-0.4538 4.8560 -1.9961 0.9791
-0.8850 4.7973 -1.9965 0.9791
-1.7235 4.5657 -1.9974 0.9791
-2.5078 4.1887 -1.9981 0.9791
-3.2129 3.6782 -1.9988 0.9791
-4.0733 2.6981 -1.9996 0.9791
-4.2980 2.3245 -1.9999 0.9791
-2.0044 0.0993 -0.8214 0.9914
-2.0009 -0.0796 -0.8196 0.9914
-2.0204 -0.2622 -0.8338 0.9912
-4.6579 -1.4795 -2.0002 0.9791
-4.5072 -1.8886 -2.0001 0.9791
4.5520 -0.3929 -1.9912 0.9803
4.5494 0.4216 -1.9912 0.9803
4.4939 0.8255 -1.9913 0.9803
4.4026 1.2229 -1.9914 0.9803
3.6988 2.6854 -1.9920 0.9803
2.8577 3.5698 -1.9929 0.9802
2.5285 3.8109 -1.9932 0.9802
2.1791 4.0219 -1.9935 0.9802
1.8122 4.2008 -1.9939 0.9802
0.6365 4.5332 -1.9950 0.9802
0.2300 4.5728 -1.9954 0.9802
-0.1786 4.5760 -1.9958 0.9802
-0.5859 4.5428 -1.9962 0.9802
-0.9887 4.4734 -1.9966 0.9802
-1.3838 4.3683 -1.9970 0.9802
-1.7680 4.2283 -1.9974 0.9802
-2.4917 3.8485 -1.9981 0.9802
-3.1364 3.3460 -1.9987 0.9802
-3.4227 3.0535 -1.9990 0.9802
-3.6817 2.7366 -1.9993 0.9802
-3.9115 2.3978 -1.9995 0.9802
-1.5516 0.6043 -0.7257 0.9928
-1.4936 0.4330 -0.6777 0.9932
-1.4701 0.1529 -0.6441 0.9936
-1.4917 -0.3863 -0.6716 0.9933
-4.1671 -1.9207 -1.9997 0.9802
-3.7591 -2.6296 -1.9993 0.9802
-2.9282 -3.5291 -1.9985 0.9802
-1.8891 -4.1760 -1.9975 0.9802
-1.5091 -4.3269 -1.9971 0.9802
-1.1171 -4.4433 -1.9968 0.9802
-0.3103 -4.5693 -1.9960 0.9802
0.0983 -4.5779 -1.9956 0.9802
1.3052 -4.3861 -1.9944 0.9802
2.0626 -4.0831 -1.9936 0.9802
2.4179 -3.8823 -1.9933 0.9802
2.7539 -3.6507 -1.9930 0.9802
3.0679 -3.3902 -1.9927 0.9802
3.6202 -2.7908 -1.9921 0.9803
4.2283 -1.7330 -1.9915 0.9803
4.4683 -0.9545 -1.9913 0.9803
4.5354 -0.5524 -1.9912 0.9803
4.5666 -0.1459 -1.9912 0.9803
4.5614 0.2617 -1.9912 0.9803
4.1830 1.8398 -1.9916 0.9803
4.0028 2.2055 -1.9918 0.9803
3.7906 2.5538 -1.9920 0.9803
3.5483 2.8819 -1.9922 0.9803
2.9810 3.4671 -1.9928 0.9802
1.9584 4.1344 -1.9938 0.9802
1.5824 4.2933 -1.9941 0.9802
1.1936 4.4181 -1.9945 0.9802
-0.0179 4.5791 -1.9957 0.9802
-0.4261 4.5602 -1.9961 0.9802
-2.3549 3.9334 -1.9980 0.9802
-2.6966 3.7084 -1.9983 0.9802
-3.0169 3.4538 -1.9986 0.9802
-3.3133 3.1716 -1.9989 0.9802
-3.5833 2.8640 -1.9992 0.9802
-3.8247 2.5335 -1.9994 0.9802
-4.0358 2.1827 -1.9996 0.9802
-1.4930 0.4902 -0.6848 0.9932
-1.4857 0.3448 -0.6647 0.9934
-1.4737 0.2058 -0.6485 0.9935
-1.4731 -0.1911 -0.6474 0.9935
-4.2321 -1.7734 -1.9998 0.9802
4.2364 -0.7506 -1.9915 0.9812
4.2864 -0.3700 -1.9915 0.9812
4.3022 0.0136 -1.9915 0.9812
4.0267 1.5165 -1.9917 0.9812
3.8758 1.8696 -1.9919 0.9812
3.6941 2.2078 -1.9921 0.9812
3.2440 2.8293 -1.9925 0.9812
2.6908 3.3613 -1.9930 0.9812
1.7064 3.9554 -1.9940 0.9812
1.3472 4.0925 -1.9943 0.9812
0.5993 4.2682 -1.9951 0.9812
0.2165 4.3055 -1.9955 0.9812
-0.1682 4.3084 -1.9958 0.9812
-0.5517 4.2771 -1.9962 0.9812
-0.9309 4.2117 -1.9966 0.9812
-2.0131 3.8173 -1.9976 0.9812
-2.9528 3.1501 -1.9986 0.9811
-3.2222 2.8747 -1.9988 0.9811
-3.4661 2.5763 -1.9991 0.9811
-3.6823 2.2573 -1.9993 0.9811
-3.8692 1.9203 -1.9994 0.9811
-1.2560 0.4892 -0.6239 0.9941
-1.2699 0.2481 -0.5989 0.9943
-1.2735 -0.2109 -0.5975 0.9943
-1.2613 -0.5814 -0.6429 0.9939
-3.7459 -2.1505 -1.9993 0.9811
-3.5389 -2.4756 -1.9991 0.9811
-3.3037 -2.7809 -1.9989 0.9811
-3.0423 -3.0639 -1.9986 0.9811
-2.4492 -3.5544 -1.9981 0.9812
-1.7785 -3.9315 -1.9974 0.9812
-0.2921 -4.3021 -1.9959 0.9812
0.0925 -4.3102 -1.9956 0.9812
1.5919 -4.0031 -1.9941 0.9812
1.9421 -3.8446 -1.9938 0.9812
2.5931 -3.4375 -1.9931 0.9812
2.8887 -3.1922 -1.9928 0.9812
3.1614 -2.9216 -1.9926 0.9812
3.6291 -2.3133 -1.9921 0.9812
3.8205 -1.9804 -1.9919 0.9812
3.9815 -1.6318 -1.9918 0.9812
4.1109 -1.2704 -1.9916 0.9812
4.0774 1.3743 -1.9917 0.9812
3.7691 2.0768 -1.9920 0.9812
3.5693 2.4047 -1.9922 0.9812
3.3411 2.7136 -1.9924 0.9812
3.0863 3.0010 -1.9926 0.9812
2.8069 3.2646 -1.9929 0.9812
2.5051 3.5024 -1.9932 0.9812
2.1833 3.7123 -1.9935 0.9812
1.1238 4.1598 -1.9946 0.9812
0.7487 4.2442 -1.9949 0.9812
-0.7825 4.2414 -1.9964 0.9812
-1.1577 4.1556 -1.9968 0.9812
-1.5237 4.0366 -1.9972 0.9812
-2.2171 3.7031 -1.9978 0.9812
-2.5387 3.4913 -1.9981 0.9812
-3.3734 2.6962 -1.9990 0.9811
-3.6007 2.3851 -1.9992 0.9811
-1.2444 0.5357 -0.6271 0.9940
-1.2672 0.4161 -0.6174 0.9941
-1.2691 0.2945 -0.6030 0.9943
-1.2750 0.1780 -0.5959 0.9943
-1.2752 -0.1655 -0.5952 0.9943
-1.2681 -0.2813 -0.6012 0.9943
-1.2684 -0.4029 -0.6160 0.9942
-1.2479 -0.5229 -0.6263 0.9941
3.9982 -0.7084 -1.9918 0.9821
4.0603 0.0128 -1.9917 0.9821
3.9936 0.7336 -1.9918 0.9821
3.9125 1.0868 -1.9918 0.9821
3.0615 2.6701 -1.9927 0.9821
2.8117 2.9328 -1.9929 0.9821
2.5394 3.1722 -1.9932 0.9821
2.2468 3.3864 -1.9935 0.9821
1.6103 3.7327 -1.9941 0.9821
1.2714 3.8620 -1.9944 0.9820
0.9222 3.9607 -1.9948 0.9820
0.2043 4.0629 -1.9955 0.9820
-0.5206 4.0361 -1.9962 0.9820
-0.8784 3.9743 -1.9965 0.9820
-1.5707 3.7564 -1.9972 0.9820
-1.8996 3.6020 -1.9975 0.9820
-2.2135 3.4189 -1.9978 0.9820
-2.5098 3.2084 -1.9981 0.9820
-2.7862 2.9723 -1.9984 0.9820
-1.0871 0.5395 -0.5953 0.9946
-1.1161 0.4347 -0.5875 0.9947
-1.1443 0.1190 -0.5643 0.9949
-1.1329 -0.2934 -0.5741 0.9948
-3.5344 -2.0291 -1.9991 0.9820
-3.3392 -2.3359 -1.9989 0.9820
-2.8707 -2.8910 -1.9985 0.9820
-2.6012 -3.1350 -1.9982 0.9820
-0.9925 -3.9476 -1.9966 0.9820
-0.6365 -4.0196 -1.9963 0.9820
0.0873 -4.0673 -1.9956 0.9820
0.4494 -4.0426 -1.9952 0.9820
0.8079 -3.9858 -1.9949 0.9820
1.1597 -3.8972 -1.9945 0.9820
1.5023 -3.7777 -1.9942 0.9821
1.8327 -3.6281 -1.9939 0.9821
2.4471 -3.2441 -1.9933 0.9821
2.9835 -2.7573 -1.9927 0.9821
3.2170 -2.4801 -1.9925 0.9821
3.4250 -2.1832 -1.9923 0.9821
3.6056 -1.8690 -1.9921 0.9821
3.7576 -1.5401 -1.9920 0.9821
3.8797 -1.1989 -1.9919 0.9821
3.9709 -0.8483 -1.9918 0.9821
4.0306 -0.4909 -1.9917 0.9821
4.0537 0.2326 -1.9917 0.9821
3.5571 1.9600 -1.9922 0.9821
3.1532 2.5610 -1.9926 0.9821
2.9127 2.8322 -1.9928 0.9821
2.6490 3.0809 -1.9931 0.9821
2.3641 3.3053 -1.9934 0.9821
2.0604 3.5034 -1.9937 0.9821
1.7402 3.6737 -1.9940 0.9821
1.4060 3.8148 -1.9943 0.9820
-0.0159 4.0684 -1.9957 0.9820
-0.3786 4.0516 -1.9960 0.9820
-0.7384 4.0024 -1.9964 0.9820
-1.0924 3.9213 -1.9967 0.9820
-1.4378 3.8090 -1.9971 0.9820
-1.7719 3.6662 -1.9974 0.9820
-2.0920 3.4942 -1.9977 0.9820
-2.6800 3.0681 -1.9983 0.9820
-2.9432 2.8174 -1.9985 0.9820
-3.1830 2.5441 -1.9988 0.9820
-3.3975 2.2505 -1.9990 0.9820
-1.1067 0.5985 -0.6172 0.9944
-1.1052 0.4758 -0.5902 0.9947
-1.1277 0.3703 -0.5822 0.9947
-1.1326 0.2628 -0.5703 0.9948
-1.1414 0.0565 -0.5606 0.9949
-1.1402 -0.0454 -0.5597 0.9949
-1.1341 -0.2516 -0.5698 0.9948
-1.1085 -0.4645 -0.5895 0.9947
3.8396 0.0121 -1.9919 0.9828
3.8233 0.3543 -1.9919 0.9828
3.7765 0.6937 -1.9920 0.9828
3.6998 1.0277 -1.9920 0.9828
3.1082 2.2566 -1.9926 0.9828
2.6587 2.7733 -1.9931 0.9828
2.4012 2.9996 -1.9933 0.9828
2.1246 3.2021 -1.9936 0.9828
1.2021 3.6518 -1.9945 0.9828
0.8720 3.7450 -1.9948 0.9828
0.1932 3.8416 -1.9955 0.9828
-0.1501 3.8442 -1.9958 0.9828
-0.4922 3.8162 -1.9961 0.9828
-1.1624 3.6693 -1.9968 0.9828
-1.7960 3.4056 -1.9974 0.9828
-2.3729 3.0335 -1.9980 0.9828
-2.8746 2.5645 -1.9985 0.9828
-0.9713 0.4820 -0.5625 0.9951
-1.0316 0.0148 -0.5352 0.9954
-1.0200 -0.2642 -0.5466 0.9953
-1.0092 -0.3600 -0.5559 0.9952
-2.9473 -2.4808 -1.9985 0.9828
-2.1850 -3.1711 -1.9978 0.9828
-1.8934 -3.3527 -1.9975 0.9828
-1.5868 -3.5076 -1.9972 0.9828
-1.2676 -3.6345 -1.9969 0.9828
-0.9384 -3.7325 -1.9966 0.9828
-0.2606 -3.8385 -1.9959 0.9828
0.4250 -3.8225 -1.9952 0.9828
1.0966 -3.6851 -1.9946 0.9828
1.4205 -3.5721 -1.9943 0.9828
1.7330 -3.4307 -1.9940 0.9828
2.0316 -3.2621 -1.9937 0.9828
2.3140 -3.0676 -1.9934 0.9828
2.5779 -2.8487 -1.9931 0.9828
3.0421 -2.3452 -1.9927 0.9828
3.6687 -1.1337 -1.9921 0.9828
3.7550 -0.8022 -1.9920 0.9828
3.8377 -0.1226 -1.9919 0.9828
3.8333 0.2200 -1.9919 0.9828
3.7335 0.8972 -1.9920 0.9828
3.5153 1.5460 -1.9922 0.9828
3.3637 1.8534 -1.9924 0.9828
2.9817 2.4217 -1.9928 0.9828
2.7543 2.6781 -1.9930 0.9828
2.5049 2.9133 -1.9932 0.9828
1.9483 3.3127 -1.9938 0.9828
1.0028 3.7119 -1.9947 0.9828
0.3278 3.8322 -1.9953 0.9828
-1.0329 3.7076 -1.9967 0.9828
-1.6753 3.4664 -1.9973 0.9828
-1.9780 3.3037 -1.9976 0.9828
-2.2649 3.1147 -1.9979 0.9828
-2.5339 2.9008 -1.9981 0.9828
-3.0094 2.4053 -1.9986 0.9828
-1.0139 0.3329 -0.5536 0.9952
-1.0237 0.2375 -0.5452 0.9953
-1.0362 0.1447 -0.5428 0.9953
-1.0368 -0.1345 -0.5424 0.9953
-1.0257 -0.2275 -0.5450 0.9953
-0.9952 -0.4170 -0.5598 0.9951
1.8852 -0.3340 -1.0486 0.9913
1.8884 -0.1630 -1.0381 0.9914
1.8728 0.0059 -1.0257 0.9915
3.4042 1.2821 -1.9923 0.9835
3.1229 1.8665 -1.9926 0.9835
2.9443 2.1376 -1.9928 0.9835
2.7423 2.3918 -1.9930 0.9835
2.5185 2.6270 -1.9932 0.9835
2.0125 3.0332 -1.9937 0.9835
1.4423 3.3433 -1.9943 0.9835
1.1387 3.4591 -1.9946 0.9835
0.8260 3.5473 -1.9949 0.9835
0.1830 3.6388 -1.9955 0.9835
-0.7867 3.5592 -1.9964 0.9835
-1.1010 3.4754 -1.9967 0.9835
-1.7011 3.2257 -1.9973 0.9835
-2.2475 2.8731 -1.9979 0.9835
-0.8619 0.5284 -0.5537 0.9954
-0.9394 0.1835 -0.5243 0.9956
-0.9473 0.0985 -0.5216 0.9957
-0.9427 0.0136 -0.5164 0.9957
-0.9433 -0.1562 -0.5237 0.9956
-0.9271 -0.2401 -0.5245 0.9956
-2.3293 -2.8073 -1.9979 0.9835
-2.0695 -3.0034 -1.9977 0.9835
-1.7933 -3.1755 -1.9974 0.9835
-1.2006 -3.4425 -1.9968 0.9835
0.4025 -3.6207 -1.9953 0.9835
0.7236 -3.5698 -1.9950 0.9835
1.0387 -3.4906 -1.9946 0.9835
1.3455 -3.3836 -1.9943 0.9835
2.4419 -2.6985 -1.9933 0.9835
2.6724 -2.4698 -1.9931 0.9835
2.8817 -2.2215 -1.9928 0.9835
3.0679 -1.9556 -1.9927 0.9835
3.2298 -1.6742 -1.9925 0.9835
1.8772 -0.5801 -1.0761 0.9911
1.8889 -0.2301 -1.0422 0.9914
1.8805 -0.0601 -1.0305 0.9915
1.8882 0.2788 -1.0454 0.9913
1.8863 0.4533 -1.0625 0.9912
1.8689 0.6299 -1.0802 0.9910
3.3299 1.4646 -1.9924 0.9835
3.1863 1.7557 -1.9926 0.9835
2.3727 2.7597 -1.9933 0.9835
2.1176 2.9606 -1.9936 0.9835
1.8455 3.1379 -1.9939 0.9835
1.5586 3.2904 -1.9941 0.9835
1.2593 3.4168 -1.9944 0.9835
0.9499 3.5159 -1.9947 0.9835
-0.0143 3.6437 -1.9957 0.9835
-0.6613 3.5844 -1.9963 0.9835
-0.9783 3.5117 -1.9966 0.9835
-1.2876 3.4110 -1.9969 0.9835
-1.5868 3.2832 -1.9972 0.9835
-1.8734 3.1291 -1.9975 0.9835
-2.1452 2.9500 -1.9978 0.9835
-2.3999 2.7474 -1.9980 0.9835
-2.8502 2.2781 -1.9985 0.9835
-0.9027 0.3886 -0.5383 0.9955
-0.9189 0.3017 -0.5297 0.9956
-0.9329 0.2165 -0.5246 0.9956
-0.9457 0.1320 -0.5230 0.9957
-0.9459 0.0469 -0.5187 0.9957
-0.9349 -0.2074 -0.5245 0.9956
1.7377 -0.3079 -1.0189 0.9919
1.7404 -0.1502 -1.0085 0.9920
1.7268 0.0055 -0.9970 0.9921
1.7278 0.4799 -1.0353 0.9918
1.6989 0.6399 -1.0481 0.9916
3.1086 1.4995 -1.9926 0.9842
2.9627 1.7708 -1.9928 0.9842
2.7933 2.0280 -1.9929 0.9842
2.3893 2.4923 -1.9933 0.9842
2.1579 2.6956 -1.9936 0.9842
1.9092 2.8776 -1.9938 0.9842
1.3683 3.1717 -1.9943 0.9842
0.4805 3.4222 -1.9952 0.9842
0.1736 3.4519 -1.9955 0.9842
-0.4423 3.4289 -1.9961 0.9842
-0.7463 3.3764 -1.9964 0.9842
-1.0444 3.2969 -1.9967 0.9842
-1.3343 3.1911 -1.9970 0.9842
-1.8803 2.9042 -1.9975 0.9841
-2.1319 2.7254 -1.9978 0.9841
-2.3667 2.5248 -1.9980 0.9841
-2.5826 2.3040 -1.9982 0.9841
-0.8031 0.5969 -0.5777 0.9954
-0.8358 0.4148 -0.5387 0.9957
-0.8552 0.3331 -0.5299 0.9958
-0.8776 0.1714 -0.5163 0.9959
-0.8820 -0.0662 -0.5107 0.9959
-0.8799 -0.1457 -0.5150 0.9959
-0.8700 -0.2253 -0.5189 0.9959
-2.2096 -2.6630 -1.9978 0.9841
-1.9632 -2.8490 -1.9976 0.9841
-1.7012 -3.0123 -1.9973 0.9841
-1.1389 -3.2656 -1.9968 0.9842
-0.8432 -3.3537 -1.9965 0.9842
-0.2342 -3.4490 -1.9959 0.9842
0.3819 -3.4348 -1.9953 0.9842
0.6864 -3.3866 -1.9950 0.9842
1.2765 -3.2099 -1.9944 0.9842
2.3167 -2.5601 -1.9934 0.9842
2.7339 -2.1076 -1.9930 0.9842
2.9106 -1.8553 -1.9928 0.9842
1.7333 -0.0554 -1.0012 0.9920
1.7372 0.0997 -1.0046 0.9920
1.7409 0.2570 -1.0160 0.9919
1.7321 0.4162 -1.0285 0.9918
1.7126 0.5772 -1.0434 0.9917
2.4752 2.4068 -1.9932 0.9842
2.2510 2.6181 -1.9935 0.9842
1.7508 2.9770 -1.9940 0.9842
1.1947 3.2414 -1.9945 0.9842
0.9011 3.3355 -1.9948 0.9842
0.6003 3.4030 -1.9951 0.9842
0.2946 3.4435 -1.9954 0.9842
-0.0135 3.4566 -1.9957 0.9842
-1.5053 3.1145 -1.9971 0.9841
-1.7771 2.9683 -1.9974 0.9841
-2.0349 2.7984 -1.9977 0.9841
-2.2765 2.6062 -1.9979 0.9841
-2.5000 2.3931 -1.9981 0.9841
-0.7950 0.5266 -0.5506 0.9956
-0.8486 0.3653 -0.5334 0.9957
-0.8629 0.2833 -0.5244 0.9958
-0.8736 0.2027 -0.5178 0.9959
-0.8813 0.1231 -0.5138 0.9959
-0.8812 0.0436 -0.5094 0.9959
-0.8807 -0.0350 -0.5089 0.9959
-0.8640 -0.2744 -0.5234 0.9958
