ply
format ascii 1.0
element vertex 1136
property float32 x
property float32 y
property float32 z
property float32 I
end_header
-5.2343 9.8070 1.9601 0.9559
-1.7482 17.7916 2.7387 0.9302
-5.8724 9.7307 1.7411 0.9550
2.1431 -13.2293 2.0531 0.9472
6.7710 -11.9189 2.0997 0.9460
6.7740 -11.9242 1.7861 0.9462
-5.8789 9.7415 1.2218 0.9553
-5.8821 9.7468 0.9637 0.9553
-5.2151 9.7709 0.9376 0.9565
-5.8854 9.7522 0.7063 0.9554
-5.2103 9.7621 0.6862 0.9566
-5.8886 9.7575 0.4494 0.9554
-5.2119 9.7650 0.4365 0.9567
-5.8918 9.7629 0.1926 0.9554
2.1439 -13.2345 0.2265 0.9478
-5.2134 9.7678 0.1870 0.9567
-5.8950 9.7682 -0.0642 0.9554
6.6104 2.9730 -0.2041 0.9714
5.3189 2.9867 -0.1718 0.9759
6.0570 2.9929 -0.1902 0.9733
5.0778 3.0989 -0.1675 0.9765
5.0461 3.7332 -0.1767 0.9752
-5.2164 9.7734 -0.3119 0.9566
5.2421 2.9436 -0.3049 0.9762
-3.1995 8.3737 -0.4546 0.9647
-4.0417 8.2827 -0.4674 0.9638
-5.9015 9.7789 -0.5792 0.9553
-10.4008 -11.6346 -0.7914 0.9394
5.9516 2.9408 -0.3367 0.9738
-3.5119 8.2772 -0.4560 0.9646
6.3434 2.8530 -0.5100 0.9725
4.8883 3.3490 -0.4345 0.9765
11.7526 13.8654 -1.3327 0.9297
5.9662 8.4621 -0.7592 0.9593
6.1793 13.2598 -1.0726 0.9430
-4.0616 8.3235 -0.6791 0.9635
-8.3302 6.6239 -0.7804 0.9582
-10.4022 -11.6361 -1.1444 0.9393
7.2524 2.8124 -0.5703 0.9693
5.6185 13.2964 -1.0584 0.9437
-5.2194 9.7790 -0.8128 0.9565
18.6901 -3.7964 -1.8310 0.9262
18.9315 -2.1176 -1.8289 0.9263
19.0012 1.2678 -1.8283 0.9263
18.8292 2.9543 -1.8298 0.9263
18.5200 4.6233 -1.8326 0.9262
11.7248 13.8325 -1.7409 0.9297
3.2164 18.8424 -1.8351 0.9261
-1.9183 19.5227 -1.8833 0.9242
-3.6756 19.4309 -1.8985 0.9236
-4.0616 8.3236 -0.8892 0.9635
-5.9080 9.7897 -1.0977 0.9551
-10.9452 5.8912 -1.1933 0.9513
-3.7996 -19.1945 -1.8785 0.9244
-2.0613 -19.2962 -1.8631 0.9250
-0.3352 -19.2433 -1.8477 0.9256
1.3654 -19.0399 -1.8326 0.9262
6.1925 -17.5835 -1.7897 0.9278
10.3914 -15.0070 -1.7524 0.9293
11.6120 -13.9372 -1.7416 0.9297
14.8793 -12.4855 -1.8648 0.9249
16.7083 -9.5694 -1.8485 0.9255
17.4320 -8.0184 -1.8421 0.9258
18.0243 -6.4188 -1.8369 0.9260
18.4826 -4.7807 -1.8328 0.9262
18.8051 -3.1140 -1.8300 0.9263
18.9477 1.9570 -1.8287 0.9263
18.7197 3.6375 -1.8308 0.9262
7.0082 2.7177 -0.7216 0.9702
4.8376 2.9523 -0.5441 0.9775
4.8232 3.5683 -0.5760 0.9762
10.0221 15.3702 -1.7616 0.9289
4.6244 8.6949 -0.9455 0.9612
3.5676 8.4428 -0.8799 0.9638
5.7627 17.9412 -1.8091 0.9271
4.1825 18.5483 -1.8254 0.9264
-2.6343 19.5053 -1.8896 0.9240
-5.2209 9.7819 -1.0645 0.9564
13.4232 -8.3490 -1.8778 0.9383
14.6074 -5.8075 -1.8673 0.9386
15.0352 -4.4770 -1.8635 0.9388
15.6388 -0.3501 -1.8581 0.9389
15.6103 1.0415 -1.8584 0.9389
7.7026 2.6697 -0.9684 0.9677
4.9521 2.7807 -0.6746 0.9774
9.5798 11.3020 -1.7599 0.9421
4.8368 8.3487 -1.1461 0.9619
5.1564 14.2547 -1.8006 0.9408
3.8970 14.7634 -1.8137 0.9403
2.5879 15.1603 -1.8269 0.9399
-0.1395 15.5968 -1.8528 0.9391
-1.5356 15.6276 -1.8653 0.9387
-2.9376 15.5293 -1.8774 0.9383
-3.2308 8.4557 -1.0752 0.9642
-4.0616 8.3236 -1.1002 0.9634
-6.7136 9.1695 -1.3500 0.9553
-7.1042 6.7629 -1.1651 0.9613
-16.5966 7.1104 -2.1447 0.9299
-17.2061 5.6211 -2.1502 0.9297
-18.0089 -2.3411 -2.1572 0.9295
-17.7073 -3.9278 -2.1545 0.9295
-16.6595 -6.9708 -2.1452 0.9298
-15.9252 -8.3984 -2.1386 0.9300
-15.0612 -9.7456 -2.1309 0.9303
-12.0020 -11.2332 -1.9527 0.9359
-10.4043 -11.6384 -1.8543 0.9391
-9.7150 -13.0356 -1.9312 0.9366
-7.1681 -14.3792 -1.9085 0.9373
-5.8249 -14.8659 -1.8966 0.9377
-3.0603 -15.4594 -1.8720 0.9385
-0.2708 -15.5483 -1.8472 0.9393
0.9016 -12.5716 -1.4972 0.9505
2.0268 -12.5118 -1.5056 0.9502
5.0338 -14.2933 -1.8001 0.9408
6.2467 -13.7068 -1.7893 0.9411
6.6746 -11.7492 -1.6051 0.9470
8.4801 -12.2467 -1.7694 0.9418
9.4869 -11.3866 -1.7605 0.9420
12.9912 -9.0631 -1.8816 0.9382
15.1775 -3.9258 -1.8622 0.9388
15.4466 -2.5579 -1.8598 0.9389
15.6014 -1.1738 -1.8585 0.9389
15.5656 1.6076 -1.8588 0.9389
15.0708 4.3488 -1.8632 0.9388
4.7753 2.9143 -0.6645 0.9777
4.7492 3.5136 -0.7017 0.9765
4.4285 3.9311 -0.7034 0.9764
10.1336 10.7513 -1.7550 0.9422
8.1507 12.5002 -1.7726 0.9417
4.5751 8.6021 -1.1573 0.9615
3.5529 8.4082 -1.0843 0.9639
4.6495 14.4752 -1.8060 0.9406
3.3687 14.9390 -1.8191 0.9402
2.0420 15.2886 -1.8322 0.9398
0.6797 15.5187 -1.8452 0.9393
-0.6175 13.6425 -1.6222 0.9465
-3.5080 15.4516 -1.8821 0.9382
-5.2224 9.7847 -1.3175 0.9563
-8.8661 13.5540 -1.9239 0.9368
11.3632 -7.0677 -1.8961 0.9474
12.7427 -3.7943 -1.8838 0.9477
13.2356 0.8831 -1.8795 0.9478
4.7138 3.2295 -0.8096 0.9772
8.8732 8.7547 -1.7662 0.9509
5.9695 8.4668 -1.4679 0.9590
4.8396 8.3535 -1.3679 0.9617
3.9021 8.3733 -1.3089 0.9634
4.3370 11.9896 -1.8065 0.9498
3.2711 12.3923 -1.8160 0.9495
1.0363 12.9155 -1.8359 0.9490
-0.1165 13.0288 -1.8461 0.9487
-2.4489 12.9460 -1.8668 0.9482
-3.6098 12.7471 -1.8772 0.9479
-4.0616 8.3236 -1.3123 0.9633
-5.3984 8.9453 -1.4804 0.9587
-6.5909 9.0019 -1.5808 0.9559
-8.9675 10.2039 -1.9248 0.9466
-7.1719 5.7029 -1.2983 0.9637
-10.8095 5.8182 -1.7394 0.9516
-14.2484 4.6548 -2.1239 0.9412
-14.6290 3.3752 -2.1272 0.9411
-14.8870 2.0637 -2.1295 0.9411
-15.0197 0.7326 -2.1307 0.9411
-14.9048 -1.9376 -2.1296 0.9411
-14.6584 -3.2514 -2.1274 0.9411
-13.8012 -5.7748 -2.1198 0.9413
-13.1998 -6.9611 -2.1144 0.9415
-12.4914 -8.0827 -2.1081 0.9417
-10.7845 -10.0936 -2.0929 0.9421
-8.3589 -11.2160 -1.9820 0.9451
-7.0535 -11.4671 -1.9075 0.9471
-5.9761 -11.9881 -1.8979 0.9473
-3.7191 -12.7210 -1.8779 0.9479
-2.5595 -12.9298 -1.8676 0.9481
-1.3923 -13.0333 -1.8572 0.9484
-0.2270 -13.0324 -1.8468 0.9487
3.1444 -12.3347 -1.8036 0.9499
5.2626 -11.5475 -1.7981 0.9500
8.6737 -10.4106 -1.9199 0.9467
10.9941 -7.6699 -1.8994 0.9473
11.5994 -6.6434 -1.8940 0.9474
12.8646 -3.3275 -1.8828 0.9477
13.1973 1.3630 -1.8799 0.9478
13.0340 2.5327 -1.8813 0.9478
6.8420 2.6533 -1.0398 0.9708
5.4240 2.6802 -0.8572 0.9759
4.7274 2.8851 -0.7847 0.9779
4.6559 3.4445 -0.8206 0.9769
8.5630 9.0850 -1.7689 0.9508
3.5398 8.3770 -1.2886 0.9639
1.7098 12.8010 -1.8299 0.9492
0.5682 12.9739 -1.8400 0.9489
-4.0790 12.6358 -1.8813 0.9478
-5.8732 8.9786 -1.5202 0.9576
9.8430 -6.1222 -1.9096 0.9541
10.3251 -5.2113 -1.9053 0.9542
11.2837 -2.2920 -1.8968 0.9544
11.4997 -0.2575 -1.8949 0.9544
11.3706 1.7840 -1.8961 0.9544
11.1772 2.7902 -1.8978 0.9544
7.6092 2.6373 -1.3267 0.9679
5.8782 2.6437 -1.0618 0.9742
4.6981 3.2187 -0.9382 0.9772
4.4242 3.6490 -0.9448 0.9770
7.8250 7.7206 -1.8109 0.9564
4.8396 8.3535 -1.5904 0.9616
3.9021 8.3733 -1.5218 0.9632
3.7411 10.3421 -1.8118 0.9564
2.8196 10.6818 -1.8200 0.9562
-0.1002 11.2048 -1.8460 0.9556
-6.5452 6.2307 -1.4887 0.9640
-7.2275 5.7471 -1.5212 0.9633
-11.7253 5.0234 -2.1014 0.9496
-12.6864 1.7586 -2.1099 0.9494
-12.7985 0.6243 -2.1109 0.9494
-12.8035 -0.5158 -2.1110 0.9494
-12.7015 -1.6512 -2.1100 0.9494
-12.1815 -3.8657 -2.1054 0.9495
-11.7691 -4.9246 -2.1017 0.9496
-10.6608 -6.8982 -2.0918 0.9498
-9.9762 -7.7957 -2.0858 0.9500
-6.5361 -10.6259 -2.0551 0.9507
-2.2217 -11.2232 -1.8848 0.9547
-1.1995 -11.2282 -1.8603 0.9553
-0.1956 -11.2293 -1.8502 0.9555
1.8173 -11.2183 -1.8722 0.9550
2.8578 -11.2103 -1.9058 0.9542
4.9157 -10.7862 -1.9527 0.9531
5.8324 -10.2668 -1.9452 0.9533
8.9178 -7.4831 -1.9178 0.9539
9.5210 -6.6422 -1.9125 0.9540
10.4989 -4.8293 -1.9038 0.9542
10.8679 -3.8703 -1.9005 0.9543
11.4717 -0.8631 -1.8952 0.9544
11.5014 0.1600 -1.8949 0.9544
11.4448 1.1820 -1.8954 0.9544
11.3020 2.1962 -1.8967 0.9544
11.0740 3.1955 -1.8988 0.9544
6.8061 2.6393 -1.2026 0.9708
4.7111 2.8751 -0.9092 0.9779
4.5882 3.3944 -0.9402 0.9771
7.4076 7.8592 -1.7792 0.9572
5.9421 9.1130 -1.7922 0.9569
3.5398 8.3770 -1.4982 0.9638
3.3695 10.4902 -1.8151 0.9563
1.4722 11.0225 -1.8320 0.9559
-0.5077 11.2158 -1.8496 0.9555
-1.5099 11.1799 -1.8585 0.9553
-3.5292 8.3181 -1.4886 0.9640
-7.1799 9.0946 -1.9089 0.9541
9.4578 -3.7602 -1.9130 0.9594
9.7418 -2.9008 -1.9105 0.9595
10.1431 -0.2271 -1.9070 0.9595
10.1241 0.6755 -1.9072 0.9595
10.0285 1.5734 -1.9080 0.9595
7.5134 2.6041 -1.4946 0.9682
5.7618 2.5914 -1.1875 0.9746
4.7394 2.6613 -1.0217 0.9781
4.4219 3.6471 -1.0774 0.9769
3.9021 8.3733 -1.7364 0.9631
3.2862 9.0846 -1.8158 0.9614
2.4754 9.3778 -1.8230 0.9613
0.7821 9.7478 -1.8381 0.9610
-0.9644 9.8144 -1.8536 0.9607
-1.8407 9.7306 -1.8614 0.9605
-3.2254 8.4415 -1.6986 0.9639
-5.1989 8.6147 -1.8912 0.9599
-6.7849 7.7204 -1.9319 0.9590
-9.2365 6.0882 -2.0793 0.9560
-10.2108 4.3746 -2.0880 0.9558
-10.5756 3.4550 -2.0912 0.9557
-11.0551 -1.4372 -2.0954 0.9556
-10.6055 -3.3655 -2.0914 0.9557
-9.2893 -6.0108 -2.0797 0.9560
-8.0347 -7.5200 -2.0685 0.9562
-4.8423 -9.7138 -2.0401 0.9568
-0.1852 -10.6320 -1.9987 0.9576
0.7574 -10.5619 -1.9903 0.9578
2.5943 -10.1767 -1.9740 0.9582
3.4748 -9.8665 -1.9662 0.9583
4.3214 -9.4822 -1.9586 0.9585
6.6013 -7.9231 -1.9384 0.9589
7.2576 -7.2830 -1.9326 0.9590
7.8546 -6.5910 -1.9273 0.9591
8.8565 -5.0725 -1.9184 0.9593
9.2553 -4.2573 -1.9148 0.9594
9.5825 -3.4125 -1.9119 0.9594
10.0153 -1.6585 -1.9081 0.9595
10.1182 -0.7613 -1.9072 0.9595
10.1447 0.1411 -1.9070 0.9595
9.9677 1.9369 -1.9086 0.9595
9.7653 2.8179 -1.9104 0.9595
6.7880 2.6323 -1.3684 0.9708
4.6932 2.8642 -1.0334 0.9779
4.6013 3.4042 -1.0758 0.9770
7.0457 7.4752 -1.9308 0.9591
5.2264 8.0154 -1.7986 0.9618
3.5398 8.3771 -1.7094 0.9637
2.9591 9.2126 -1.8187 0.9614
2.1370 9.4771 -1.8260 0.9612
1.2915 9.6692 -1.8336 0.9611
-1.3222 9.7898 -1.8568 0.9606
-4.7146 8.8333 -1.8820 0.9601
-5.5163 8.4329 -1.8941 0.9598
-6.2660 7.9370 -1.9007 0.9597
8.4494 -3.3593 -1.9220 0.9635
9.0129 -1.0081 -1.9170 0.9636
9.0647 -0.2029 -1.9166 0.9636
9.0476 0.6037 -1.9167 0.9636
8.9618 1.4061 -1.9175 0.9636
8.8076 2.1987 -1.9189 0.9636
7.3704 2.5546 -1.6489 0.9686
5.7767 2.5981 -1.3389 0.9744
4.6667 3.1972 -1.1958 0.9771
6.5304 6.4432 -1.9392 0.9632
3.6226 7.7735 -1.8128 0.9655
2.9272 8.0922 -1.8190 0.9654
2.2041 8.3498 -1.8254 0.9653
1.4584 8.5436 -1.8321 0.9652
-0.0781 8.7314 -1.8457 0.9649
-0.8571 8.7225 -1.8527 0.9648
-3.8997 7.9918 -1.8797 0.9643
-8.1759 5.3891 -2.0699 0.9608
-9.5997 2.2149 -2.0825 0.9605
-9.7655 1.3537 -2.0840 0.9605
-9.8507 0.4805 -2.0847 0.9605
-9.7770 -1.2710 -2.0840 0.9605
-8.6799 -4.5775 -2.0743 0.9607
-8.2225 -5.3204 -2.0702 0.9608
-7.6996 -6.0167 -2.0655 0.9608
-7.1164 -6.6606 -2.0603 0.9609
-6.4783 -7.2467 -2.0547 0.9610
-5.0615 -8.2286 -2.0421 0.9613
-3.5004 -8.9336 -2.0282 0.9615
-1.0081 -9.4364 -2.0060 0.9619
0.6738 -9.3953 -1.9911 0.9622
1.5007 -9.2639 -1.9837 0.9624
2.3098 -9.0608 -1.9765 0.9625
3.8509 -8.4497 -1.9628 0.9627
4.5718 -8.0476 -1.9564 0.9629
5.8891 -7.0684 -1.9447 0.9631
7.0116 -5.8835 -1.9348 0.9633
8.5613 -3.0489 -1.9210 0.9635
9.0209 0.9317 -1.9170 0.9636
8.9071 1.7308 -1.9180 0.9636
6.6984 2.5976 -1.5186 0.9711
5.2510 2.5947 -1.2381 0.9763
4.4191 3.9227 -1.2490 0.9761
6.2990 6.6830 -1.9412 0.9631
5.6957 7.2364 -1.9466 0.9630
5.0210 7.7003 -1.9431 0.9631
4.1056 7.7193 -1.8481 0.9649
1.9024 8.4367 -1.8281 0.9653
-0.3955 8.7362 -1.8485 0.9649
-1.1748 8.6989 -1.8555 0.9647
-1.9506 8.5919 -1.8624 0.9646
-2.7165 8.4151 -1.8692 0.9645
-5.0464 7.7146 -1.9486 0.9630
6.9911 -4.3484 -1.9350 0.9667
7.3383 -3.7038 -1.9319 0.9668
8.1391 -0.9104 -1.9248 0.9669
8.0927 1.2697 -1.9252 0.9669
5.7048 2.5657 -1.4701 0.9746
4.5230 3.7305 -1.3779 0.9762
5.8906 5.8120 -1.9449 0.9666
5.3636 6.3278 -1.9495 0.9665
4.7923 6.7972 -1.9546 0.9664
3.5238 7.5615 -1.9606 0.9663
2.7878 7.7069 -1.9262 0.9669
2.0371 7.7173 -1.8759 0.9677
1.3186 7.7247 -1.8418 0.9683
-0.0702 7.8527 -1.8456 0.9682
-0.7705 7.8418 -1.8519 0.9681
-2.9470 7.7129 -1.9405 0.9666
-5.1349 7.0133 -2.0429 0.9649
-5.7534 6.5467 -2.0484 0.9648
-6.8543 5.4503 -2.0581 0.9647
-7.7406 4.1663 -2.0660 0.9645
-8.5971 1.9835 -2.0736 0.9644
-8.8242 -0.3555 -2.0756 0.9644
-8.7551 -1.1382 -2.0750 0.9644
-8.1223 -3.3987 -2.0693 0.9645
-7.3682 -4.7677 -2.0626 0.9646
-6.9013 -5.3929 -2.0584 0.9647
-6.3802 -5.9715 -2.0538 0.9647
-5.1952 -6.9709 -2.0433 0.9649
-3.1434 -8.0224 -2.0250 0.9652
-2.4101 -8.2434 -2.0185 0.9653
-1.6623 -8.3973 -2.0118 0.9654
-0.1481 -8.5016 -1.9984 0.9657
0.6062 -8.4527 -1.9917 0.9658
2.0796 -8.1578 -1.9786 0.9660
2.7876 -7.9154 -1.9723 0.9661
3.4695 -7.6128 -1.9662 0.9662
4.7355 -6.8388 -1.9550 0.9664
5.3107 -6.3741 -1.9499 0.9665
5.8421 -5.8626 -1.9452 0.9666
6.3261 -5.3084 -1.9409 0.9666
6.7595 -4.7156 -1.9370 0.9667
7.4635 -3.4331 -1.9308 0.9668
7.7297 -2.7527 -1.9284 0.9668
8.0819 -1.3383 -1.9253 0.9669
8.1463 0.8414 -1.9247 0.9669
7.8784 2.2734 -1.9271 0.9669
6.5770 2.5505 -1.6579 0.9714
4.5554 3.3702 -1.3318 0.9770
5.6813 6.0276 -1.9467 0.9665
5.1358 6.5250 -1.9516 0.9665
4.5476 6.9743 -1.9568 0.9664
3.9170 7.3647 -1.9605 0.9663
2.4770 7.7115 -1.9036 0.9673
1.7410 7.7207 -1.8601 0.9680
-0.3556 7.8558 -1.8482 0.9682
-1.7549 7.7298 -1.8629 0.9680
-4.0615 7.6096 -2.0272 0.9652
6.3642 -3.9584 -1.9405 0.9695
6.6812 -3.3722 -1.9377 0.9696
7.1571 -2.1311 -1.9335 0.9696
7.3130 -1.4855 -1.9321 0.9696
7.4127 -0.8292 -1.9313 0.9697
7.4556 -0.1669 -1.9309 0.9697
7.4415 0.4965 -1.9310 0.9697
7.2426 1.8080 -1.9328 0.9696
7.0592 2.4467 -1.9344 0.9696
5.7048 2.5657 -1.6196 0.9745
4.5524 3.1189 -1.4288 0.9775
4.5498 3.7525 -1.5270 0.9759
5.3599 5.2884 -1.9496 0.9694
4.8793 5.7565 -1.9538 0.9693
4.3586 6.1820 -1.9585 0.9692
2.5936 7.1700 -1.9742 0.9690
1.9494 7.3850 -1.9776 0.9689
-0.7542 7.6748 -1.9967 0.9686
-2.1175 7.4775 -2.0122 0.9684
-4.0576 6.7235 -2.0333 0.9681
-5.7294 5.4542 -2.0481 0.9678
-6.2043 4.9334 -2.0524 0.9678
-7.0039 3.7698 -2.0594 0.9677
-7.3213 3.1366 -2.0623 0.9676
-7.5795 2.4762 -2.0646 0.9676
-7.7762 1.7941 -2.0663 0.9676
-7.9094 1.0964 -2.0675 0.9675
-7.9779 0.3891 -2.0681 0.9675
-7.9186 -1.0294 -2.0675 0.9675
-7.7915 -1.7283 -2.0664 0.9676
-7.3483 -3.0747 -2.0624 0.9676
-6.2467 -4.8814 -2.0526 0.9678
-2.8496 -7.2727 -2.0224 0.9682
-0.1344 -7.7166 -1.9983 0.9686
0.5504 -7.6746 -1.9922 0.9687
1.2267 -7.5723 -1.9862 0.9688
1.8893 -7.4113 -1.9803 0.9689
2.5333 -7.1932 -1.9746 0.9690
3.7464 -6.5947 -1.9638 0.9691
4.8311 -5.7985 -1.9542 0.9693
5.3157 -5.3344 -1.9498 0.9694
5.7573 -4.8310 -1.9459 0.9694
6.1528 -4.2924 -1.9424 0.9695
6.7956 -3.1259 -1.9367 0.9696
7.0387 -2.5067 -1.9346 0.9696
7.2274 -1.8694 -1.9329 0.9696
4.5514 3.3672 -1.4659 0.9769
5.6243 4.9926 -1.9472 0.9694
4.6716 5.9353 -1.9557 0.9693
3.5647 6.7024 -1.9655 0.9691
1.0137 7.5893 -1.9825 0.9689
-2.3917 7.4089 -2.0158 0.9683
-3.6918 6.9169 -2.0300 0.9681
-4.3035 6.5789 -2.0355 0.9680
6.1262 -3.0920 -1.9427 0.9719
6.5638 -1.9545 -1.9388 0.9719
6.7071 -1.3624 -1.9375 0.9719
6.8383 -0.1531 -1.9364 0.9720
6.8253 0.4554 -1.9365 0.9720
6.4738 2.2438 -1.9396 0.9719
5.7048 2.5657 -1.7708 0.9743
5.6731 3.8867 -1.9468 0.9718
4.4709 5.2746 -1.9575 0.9717
3.9930 5.6635 -1.9617 0.9716
3.4818 6.0099 -1.9663 0.9715
2.9410 6.3110 -1.9711 0.9715
1.1809 6.9179 -1.9867 0.9712
0.5628 7.0148 -1.9922 0.9712
-0.0631 7.0567 -1.9978 0.9711
-0.6920 7.0428 -2.0034 0.9710
-2.5466 6.6650 -2.0199 0.9708
-5.2287 4.9775 -2.0437 0.9704
-5.6611 4.5015 -2.0475 0.9704
-6.0490 3.9872 -2.0510 0.9703
-6.6775 2.8608 -2.0565 0.9703
-7.0912 1.6361 -2.0602 0.9702
-7.2123 0.9998 -2.0613 0.9702
-7.2745 0.3548 -2.0618 0.9702
-7.1051 -1.5760 -2.0603 0.9702
-6.4183 -3.3848 -2.0542 0.9703
-6.0832 -3.9362 -2.0512 0.9703
-4.8022 -5.3718 -2.0398 0.9705
-4.2962 -5.7646 -2.0353 0.9706
-3.7579 -6.1093 -2.0305 0.9706
-2.6035 -6.6444 -2.0202 0.9708
-1.3783 -6.9627 -2.0093 0.9709
1.1224 -6.9290 -1.9871 0.9712
1.7292 -6.7833 -1.9817 0.9713
2.8879 -6.3368 -1.9714 0.9715
3.4314 -6.0402 -1.9666 0.9715
4.8716 -4.8887 -1.9538 0.9717
5.2772 -4.4282 -1.9502 0.9718
5.6405 -3.9350 -1.9470 0.9718
6.6284 -1.7145 -1.9382 0.9719
6.8213 -0.5132 -1.9365 0.9720
6.8394 0.0951 -1.9364 0.9720
6.5798 1.8987 -1.9387 0.9719
4.7369 5.0257 -1.9551 0.9717
3.7884 5.8100 -1.9635 0.9716
3.2647 6.1383 -1.9682 0.9715
0.3083 7.0386 -1.9945 0.9711
-0.3195 7.0578 -2.0001 0.9711
-2.7898 6.5752 -2.0220 0.9707
-3.3718 6.3173 -2.0272 0.9707
-3.9296 6.0073 -2.0321 0.9706
6.1879 -1.2569 -1.9421 0.9739
6.3092 -0.1413 -1.9411 0.9739
6.2972 0.4201 -1.9412 0.9739
6.2367 0.9785 -1.9417 0.9739
5.9721 2.0699 -1.9441 0.9739
5.7698 2.5950 -1.9459 0.9739
4.9000 4.0415 -1.9536 0.9738
4.1215 4.8624 -1.9606 0.9737
3.6803 5.2200 -1.9645 0.9736
2.7097 5.8146 -1.9731 0.9735
-0.0581 6.4948 -1.9977 0.9732
-1.2134 6.4147 -2.0080 0.9730
-2.3418 6.1289 -2.0180 0.9729
-3.4059 5.6437 -2.0275 0.9728
-5.5555 3.6619 -2.0466 0.9725
-5.8669 3.1578 -2.0493 0.9725
-6.3465 2.0733 -2.0536 0.9724
-6.5103 1.5021 -2.0550 0.9724
-6.6808 -0.2692 -2.0565 0.9724
-6.3642 -2.0196 -2.0537 0.9724
-5.8940 -3.1083 -2.0495 0.9725
-5.2354 -4.0911 -2.0436 0.9726
-4.8428 -4.5325 -2.0402 0.9726
-4.4124 -4.9358 -2.0363 0.9727
-3.4541 -5.6155 -2.0278 0.9728
-2.9346 -5.8869 -2.0232 0.9728
-2.3940 -6.1098 -2.0184 0.9729
0.4635 -6.4630 -1.9930 0.9732
1.5925 -6.2471 -1.9829 0.9734
2.1363 -6.0660 -1.9781 0.9734
2.6608 -5.8383 -1.9734 0.9735
3.6365 -5.2518 -1.9648 0.9736
4.0807 -4.8979 -1.9608 0.9737
4.8662 -4.0833 -1.9539 0.9738
5.2019 -3.6291 -1.9509 0.9738
5.9547 -2.1206 -1.9442 0.9739
6.2935 -0.4735 -1.9412 0.9739
6.3102 0.0878 -1.9411 0.9739
6.1981 1.2044 -1.9421 0.9739
5.8951 2.2861 -1.9448 0.9739
5.1929 2.5660 -1.7816 0.9761
5.4092 3.3012 -1.9491 0.9738
5.1015 3.7742 -1.9518 0.9738
4.3671 4.6334 -1.9584 0.9737
3.4915 5.3547 -1.9662 0.9736
2.4993 5.9147 -1.9750 0.9735
1.9684 6.1281 -1.9797 0.9734
1.4193 6.2943 -1.9846 0.9734
-0.2940 6.4952 -1.9998 0.9732
-2.5651 6.0458 -2.0200 0.9729
-3.0997 5.8075 -2.0248 0.9728
-3.6117 5.5213 -2.0293 0.9728
4.9885 -3.1027 -1.9528 0.9755
5.2386 -2.6440 -1.9506 0.9756
5.8164 -0.6506 -1.9454 0.9756
5.8503 -0.1310 -1.9451 0.9756
5.3491 2.4058 -1.9496 0.9756
5.1195 2.8748 -1.9517 0.9756
4.8496 3.3225 -1.9541 0.9755
4.5415 3.7457 -1.9568 0.9755
3.8189 4.5054 -1.9633 0.9754
2.5096 5.3852 -1.9749 0.9753
2.0254 5.5991 -1.9792 0.9752
1.0065 5.8962 -1.9883 0.9751
-0.0537 6.0096 -1.9977 0.9750
-1.1223 5.9331 -2.0072 0.9749
-1.6491 5.8235 -2.0119 0.9748
-2.1652 5.6667 -2.0165 0.9748
-2.6662 5.4638 -2.0209 0.9747
-3.6064 4.9256 -2.0293 0.9746
-4.0376 4.5942 -2.0331 0.9745
-6.0110 1.3869 -2.0506 0.9743
-6.1657 0.3007 -2.0520 0.9743
-6.1681 -0.2485 -2.0520 0.9743
-6.1203 -0.7956 -2.0515 0.9743
-6.0228 -1.3360 -2.0507 0.9743
-5.8765 -1.8648 -2.0494 0.9743
-5.6826 -2.3778 -2.0476 0.9744
-5.4431 -2.8705 -2.0455 0.9744
-4.8360 -3.7790 -2.0401 0.9745
-4.4739 -4.1873 -2.0369 0.9745
-3.1925 -5.1901 -2.0255 0.9746
-2.7128 -5.4419 -2.0212 0.9747
-1.6987 -5.8102 -2.0122 0.9748
-0.1047 -6.0099 -1.9980 0.9750
0.4289 -5.9812 -1.9933 0.9750
0.9566 -5.9055 -1.9886 0.9751
1.9782 -5.6170 -1.9795 0.9752
2.9290 -5.1558 -1.9711 0.9753
4.1623 -4.1769 -1.9601 0.9755
4.8217 -3.3638 -1.9543 0.9755
5.0953 -2.9183 -1.9518 0.9756
5.3289 -2.4512 -1.9498 0.9756
5.6699 -1.4666 -1.9467 0.9756
5.7751 -0.9563 -1.9458 0.9756
5.8216 0.6012 -1.9454 0.9756
5.7470 1.1167 -1.9461 0.9756
5.4655 2.1195 -1.9486 0.9756
3.6556 4.6445 -1.9647 0.9754
2.7864 5.2390 -1.9724 0.9753
2.3146 5.4775 -1.9766 0.9752
1.8225 5.6741 -1.9810 0.9752
0.2626 5.9956 -1.9949 0.9750
-0.8070 5.9757 -2.0044 0.9749
-1.8611 5.7652 -2.0138 0.9748
-3.3379 5.1028 -2.0269 0.9746
-3.7857 4.7953 -2.0309 0.9746
4.6442 -2.8886 -1.9558 0.9770
4.8774 -2.4617 -1.9538 0.9771
5.0725 -2.0167 -1.9520 0.9771
5.2279 -1.5567 -1.9507 0.9771
5.3428 -1.0853 -1.9497 0.9771
5.3851 0.8449 -1.9493 0.9771
5.2909 1.3208 -1.9501 0.9771
5.1558 1.7870 -1.9513 0.9771
4.9805 2.2400 -1.9529 0.9771
4.5147 3.0931 -1.9571 0.9770
4.2274 3.4867 -1.9596 0.9770
3.9064 3.8543 -1.9625 0.9770
3.1727 4.5000 -1.9690 0.9769
0.9359 5.4824 -1.9889 0.9767
-0.5475 5.5717 -2.0021 0.9765
-1.0429 5.5131 -2.0065 0.9764
-1.5321 5.4102 -2.0108 0.9764
-2.0112 5.2638 -2.0151 0.9763
-2.4762 5.0745 -2.0192 0.9763
-3.3484 4.5733 -2.0270 0.9762
-4.1192 3.9213 -2.0338 0.9761
-4.7618 3.1387 -2.0395 0.9761
-5.0278 2.7062 -2.0419 0.9760
-5.5769 1.2867 -2.0467 0.9760
-5.6715 0.7862 -2.0476 0.9760
-5.7223 -0.2306 -2.0480 0.9760
-5.4523 -1.7302 -2.0456 0.9760
-4.7887 -3.0986 -2.0397 0.9761
-4.4884 -3.5074 -2.0370 0.9761
-3.7847 -4.2337 -2.0308 0.9762
-3.3875 -4.5454 -2.0272 0.9762
-2.9645 -4.8195 -2.0235 0.9762
-2.5195 -5.0541 -2.0195 0.9763
-2.0560 -5.2473 -2.0154 0.9763
-1.0897 -5.5049 -2.0068 0.9764
-0.5948 -5.5677 -2.0024 0.9765
-0.0973 -5.5862 -1.9980 0.9765
0.3988 -5.5604 -1.9936 0.9766
0.8895 -5.4909 -1.9892 0.9766
1.3711 -5.3785 -1.9849 0.9767
1.8399 -5.2244 -1.9807 0.9767
2.2923 -5.0299 -1.9767 0.9768
3.5188 -4.2234 -1.9658 0.9769
3.8741 -3.8877 -1.9627 0.9770
4.1981 -3.5227 -1.9598 0.9770
4.4887 -3.1315 -1.9572 0.9770
4.7438 -2.7170 -1.9550 0.9770
5.3778 -0.8905 -1.9493 0.9771
5.2407 1.5123 -1.9506 0.9771
4.8978 2.4201 -1.9536 0.9771
4.6682 2.8489 -1.9557 0.9770
3.7664 3.9960 -1.9637 0.9769
-0.2528 5.5855 -1.9995 0.9765
-0.7500 5.5531 -2.0039 0.9765
-1.2433 5.4765 -2.0083 0.9764
-1.7289 5.3557 -2.0126 0.9764
-2.6609 4.9854 -2.0209 0.9763
-3.0994 4.7382 -2.0248 0.9762
4.7406 -1.8847 -1.9550 0.9784
4.9937 -1.0144 -1.9528 0.9784
5.0921 -0.1140 -1.9519 0.9784
4.6545 2.0934 -1.9558 0.9784
3.9499 3.2578 -1.9621 0.9783
3.3200 3.9169 -1.9677 0.9782
2.5826 4.4577 -1.9742 0.9782
1.3223 5.0094 -1.9854 0.9781
0.8736 5.1174 -1.9894 0.9780
-0.9729 5.1430 -2.0059 0.9778
-1.4291 5.0464 -2.0099 0.9778
-2.3090 4.7319 -2.0177 0.9777
-2.7255 4.5162 -2.0214 0.9777
-3.1215 4.2635 -2.0249 0.9776
-3.4939 3.9756 -2.0282 0.9776
-3.8392 3.6548 -2.0313 0.9775
-4.1546 3.3036 -2.0341 0.9775
-4.6848 2.5215 -2.0388 0.9775
-4.8948 2.0971 -2.0407 0.9774
-5.0656 1.6549 -2.0422 0.9774
-5.1956 1.1987 -2.0433 0.9774
-2.2994 -0.0926 -0.8819 0.9902
-5.0797 -1.6120 -2.0423 0.9774
-4.1828 -3.2686 -2.0343 0.9775
-3.8704 -3.6225 -2.0315 0.9775
-3.5278 -3.9463 -2.0285 0.9776
-3.1579 -4.2374 -2.0252 0.9776
-2.7640 -4.4935 -2.0217 0.9777
-2.3493 -4.7128 -2.0180 0.9777
-1.9175 -4.8936 -2.0141 0.9777
-1.0166 -5.1353 -2.0061 0.9778
-0.5549 -5.1947 -2.0020 0.9779
0.3722 -5.1895 -1.9938 0.9780
0.8303 -5.1253 -1.9897 0.9780
1.2800 -5.0211 -1.9857 0.9780
2.1406 -4.6970 -1.9781 0.9781
2.5450 -4.4800 -1.9745 0.9782
2.9281 -4.2287 -1.9711 0.9782
3.2871 -3.9453 -1.9679 0.9782
3.6193 -3.6320 -1.9649 0.9783
4.9346 -1.2764 -1.9533 0.9784
5.0265 -0.8324 -1.9525 0.9784
5.0929 0.0708 -1.9519 0.9784
5.0020 0.9720 -1.9527 0.9784
4.8981 1.4134 -1.9536 0.9784
4.5771 2.2617 -1.9565 0.9784
4.3622 2.6622 -1.9584 0.9783
4.1130 3.0429 -1.9606 0.9783
3.1778 4.0373 -1.9689 0.9782
2.8110 4.3110 -1.9722 0.9782
2.0104 4.7577 -1.9793 0.9781
1.5826 4.9270 -1.9831 0.9781
1.1406 5.0582 -1.9871 0.9780
0.2278 5.2014 -1.9952 0.9779
-0.6997 5.1808 -2.0034 0.9779
-2.0542 4.8415 -2.0155 0.9777
-2.4811 4.6485 -2.0193 0.9777
-2.8896 4.4175 -2.0229 0.9776
4.0685 -2.5306 -1.9610 0.9795
4.4448 -1.7671 -1.9576 0.9795
4.5814 -1.3642 -1.9564 0.9796
4.7470 -0.5310 -1.9550 0.9796
4.7748 -0.1069 -1.9547 0.9796
4.7195 0.7405 -1.9552 0.9796
4.5180 1.5659 -1.9570 0.9795
3.9548 2.7095 -1.9620 0.9795
3.1116 3.6709 -1.9695 0.9794
2.7772 3.9389 -1.9725 0.9794
1.2386 4.6922 -1.9862 0.9792
0.8181 4.7928 -1.9899 0.9792
0.3896 4.8558 -1.9937 0.9792
-0.4782 4.8668 -2.0015 0.9791
-0.9107 4.8143 -2.0053 0.9790
-2.1606 4.4277 -2.0164 0.9789
-3.8855 3.0896 -2.0317 0.9788
-4.1496 2.7352 -2.0341 0.9787
-4.3807 2.3579 -2.0361 0.9787
-4.5768 1.9608 -2.0379 0.9787
-4.7363 1.5473 -2.0393 0.9787
-2.0207 0.2801 -0.8349 0.9912
-2.0011 -0.0806 -0.8197 0.9914
-2.0204 -0.2627 -0.8339 0.9912
-2.0890 -0.4634 -0.8758 0.9908
-4.5935 -1.9221 -2.0380 0.9787
-4.4008 -2.3208 -2.0362 0.9787
-3.9119 -3.0569 -2.0319 0.9788
-2.5860 -4.2041 -2.0201 0.9789
-2.1983 -4.4098 -2.0166 0.9789
-1.7944 -4.5796 -2.0131 0.9790
-1.3777 -4.7123 -2.0094 0.9790
1.1989 -4.7032 -1.9864 0.9792
1.6093 -4.5696 -1.9828 0.9793
2.3847 -4.1978 -1.9759 0.9793
3.9320 -2.7431 -1.9622 0.9795
4.3474 -1.9997 -1.9585 0.9795
4.5047 -1.6042 -1.9571 0.9795
4.6269 -1.1968 -1.9560 0.9796
4.7132 -0.7805 -1.9553 0.9796
4.7756 0.0664 -1.9547 0.9796
4.7513 0.4907 -1.9549 0.9796
4.6902 0.9114 -1.9555 0.9796
4.2913 2.1204 -1.9590 0.9795
4.0895 2.4958 -1.9608 0.9795
3.8556 2.8525 -1.9629 0.9795
3.5911 3.1877 -1.9653 0.9795
3.2979 3.4989 -1.9679 0.9794
2.2683 4.2649 -1.9770 0.9793
1.4825 4.6154 -1.9840 0.9793
0.6442 4.8230 -1.9915 0.9792
-0.6550 4.8500 -2.0030 0.9791
-1.9223 4.5307 -2.0143 0.9790
4.0178 -2.0279 -1.9614 0.9806
4.1791 -1.6615 -1.9600 0.9806
4.3077 -1.2827 -1.9588 0.9806
4.4637 -0.4993 -1.9575 0.9806
4.4378 0.6963 -1.9577 0.9806
4.3599 1.0884 -1.9584 0.9806
4.1030 1.8454 -1.9607 0.9806
3.9259 2.2045 -1.9623 0.9805
3.7179 2.5472 -1.9641 0.9805
3.4805 2.8707 -1.9662 0.9805
2.9245 3.4503 -1.9712 0.9805
2.6100 3.7018 -1.9740 0.9804
2.2740 3.9251 -1.9770 0.9804
1.5481 4.2797 -1.9834 0.9803
1.1635 4.4079 -1.9869 0.9803
-0.8550 4.5199 -2.0048 0.9801
-1.2556 4.4339 -2.0084 0.9801
-1.6476 4.3122 -2.0118 0.9801
-2.0278 4.1556 -2.0152 0.9800
-3.3689 3.2071 -2.0271 0.9799
-3.8925 2.5657 -2.0318 0.9799
-4.2928 1.8391 -2.0353 0.9798
-1.4853 0.3427 -0.6643 0.9934
-1.4517 0.0708 -0.6334 0.9937
-1.4475 -0.0583 -0.6314 0.9937
-1.4824 -0.3288 -0.6617 0.9934
-4.1278 -2.1769 -2.0338 0.9798
-3.9143 -2.5328 -2.0319 0.9799
-3.6698 -2.8677 -2.0297 0.9799
-3.3963 -3.1787 -2.0273 0.9799
-2.7721 -3.7197 -2.0218 0.9800
-2.4268 -3.9453 -2.0187 0.9800
-1.6843 -4.2986 -2.0121 0.9801
-1.2933 -4.4237 -2.0086 0.9801
-0.8934 -4.5131 -2.0050 0.9801
-0.4878 -4.5664 -2.0014 0.9802
-0.0798 -4.5834 -1.9978 0.9802
0.3273 -4.5641 -1.9942 0.9802
1.1263 -4.4182 -1.9871 0.9803
1.8844 -4.1349 -1.9804 0.9804
2.8955 -3.4753 -1.9714 0.9805
3.1887 -3.1999 -1.9688 0.9805
3.4564 -2.9003 -1.9664 0.9805
3.6965 -2.5788 -1.9643 0.9805
4.4677 0.4614 -1.9574 0.9806
4.4101 0.8569 -1.9580 0.9806
4.3183 1.2461 -1.9588 0.9806
4.1928 1.6259 -1.9599 0.9806
4.0346 1.9936 -1.9613 0.9806
3.8448 2.3464 -1.9630 0.9805
3.6246 2.6815 -1.9650 0.9805
3.3757 2.9965 -1.9672 0.9805
3.0998 3.2888 -1.9696 0.9805
2.4754 3.7964 -1.9752 0.9804
1.3927 4.3360 -1.9848 0.9803
1.0036 4.4504 -1.9883 0.9803
0.6051 4.5301 -1.9918 0.9803
-1.0192 4.4892 -2.0063 0.9801
-1.8043 4.2525 -2.0132 0.9800
-2.5369 3.8783 -2.0197 0.9800
3.6049 -2.2422 -1.9651 0.9815
3.7868 -1.9113 -1.9635 0.9815
3.9390 -1.5660 -1.9621 0.9815
4.0604 -1.2091 -1.9610 0.9815
4.1501 -0.8430 -1.9603 0.9815
4.2075 -0.4706 -1.9597 0.9815
4.1096 1.0259 -1.9606 0.9815
3.8672 1.7393 -1.9628 0.9815
3.7001 2.0777 -1.9643 0.9815
3.5039 2.4005 -1.9660 0.9815
3.0299 2.9895 -1.9703 0.9814
2.4590 3.4877 -1.9753 0.9814
1.8079 3.8794 -1.9811 0.9813
1.4581 4.0310 -1.9842 0.9813
1.0958 4.1514 -1.9875 0.9813
0.7237 4.2394 -1.9908 0.9812
-1.1818 4.1732 -2.0077 0.9811
-1.5506 4.0583 -2.0110 0.9810
-2.5781 3.5212 -2.0201 0.9809
-3.1691 3.0169 -2.0254 0.9809
-3.6611 2.4132 -2.0297 0.9809
-1.2751 0.1767 -0.5959 0.9943
-1.2681 -0.2813 -0.6012 0.9943
-1.2481 -0.5223 -0.6263 0.9941
-3.8823 -2.0474 -2.0316 0.9808
-3.6817 -2.3823 -2.0299 0.9809
-3.4519 -2.6974 -2.0278 0.9809
-3.1948 -2.9902 -2.0255 0.9809
-2.6081 -3.4996 -2.0203 0.9809
-1.9415 -3.8947 -2.0144 0.9810
-1.5851 -4.0455 -2.0112 0.9810
-0.8409 -4.2482 -2.0046 0.9811
-0.4592 -4.2989 -2.0012 0.9811
0.3082 -4.2975 -1.9944 0.9812
0.6878 -4.2459 -1.9910 0.9812
2.1111 -3.7162 -1.9783 0.9813
2.4296 -3.5088 -1.9755 0.9814
2.7282 -3.2745 -1.9729 0.9814
3.0047 -3.0153 -1.9704 0.9814
3.4837 -2.4303 -1.9662 0.9815
3.6826 -2.1092 -1.9644 0.9815
3.9923 -1.4217 -1.9617 0.9815
4.1009 -1.0607 -1.9607 0.9815
4.1775 -0.6918 -1.9600 0.9815
4.2216 -0.3176 -1.9596 0.9815
4.2113 0.4349 -1.9597 0.9815
4.1570 0.8078 -1.9602 0.9815
3.9520 1.5325 -1.9620 0.9815
3.6235 2.2114 -1.9650 0.9815
1.6669 3.9449 -1.9824 0.9813
0.9451 4.1913 -1.9888 0.9812
0.5698 4.2658 -1.9921 0.9812
-0.1953 4.3140 -1.9989 0.9811
-0.9593 4.2256 -2.0057 0.9811
-1.6980 4.0020 -2.0123 0.9810
-2.0501 3.8411 -2.0154 0.9810
-2.3870 3.6491 -2.0184 0.9810
3.8355 -1.1421 -1.9630 0.9823
3.9204 -0.7963 -1.9623 0.9823
3.9747 -0.4446 -1.9618 0.9823
3.9903 0.2662 -1.9617 0.9823
3.9515 0.6200 -1.9620 0.9823
3.6529 1.6429 -1.9647 0.9823
3.4949 1.9625 -1.9661 0.9823
3.3094 2.2673 -1.9678 0.9823
2.6021 3.0699 -1.9741 0.9822
2.3219 3.2932 -1.9765 0.9822
1.7068 3.6624 -1.9820 0.9822
1.0344 3.9186 -1.9880 0.9821
-0.0364 4.0720 -1.9975 0.9820
-0.3989 4.0592 -2.0007 0.9820
-1.7998 3.6884 -2.0132 0.9819
-2.9882 2.8446 -2.0237 0.9818
-3.4517 2.2752 -2.0279 0.9818
-1.1051 0.5948 -0.6156 0.9944
-1.1439 0.1586 -0.5665 0.9949
-1.1413 0.0557 -0.5605 0.9949
-1.1442 -0.1488 -0.5660 0.9949
-1.1291 -0.3583 -0.5811 0.9947
-1.0982 -0.5792 -0.6090 0.9945
-3.2546 -2.5432 -2.0261 0.9818
-3.0124 -2.8195 -2.0239 0.9818
-2.7467 -3.0725 -2.0215 0.9818
-2.4596 -3.3003 -2.0190 0.9818
-2.1536 -3.5011 -2.0163 0.9819
-0.4333 -4.0562 -2.0010 0.9820
-0.0709 -4.0721 -1.9977 0.9820
1.6758 -3.6772 -1.9822 0.9822
1.9932 -3.5087 -1.9794 0.9822
2.2941 -3.3131 -1.9767 0.9822
3.0762 -2.5813 -1.9698 0.9823
3.7711 -1.3430 -1.9636 0.9823
3.8738 -1.0020 -1.9627 0.9823
3.9879 -0.3001 -1.9617 0.9823
3.9986 0.0556 -1.9616 0.9823
3.9782 0.4109 -1.9618 0.9823
3.9269 0.7631 -1.9623 0.9823
3.7330 1.4476 -1.9640 0.9823
3.5918 1.7748 -1.9652 0.9823
3.4225 2.0887 -1.9668 0.9823
2.7583 2.9265 -1.9727 0.9822
2.2021 3.3771 -1.9776 0.9822
1.8958 3.5644 -1.9803 0.9822
0.8921 3.9560 -1.9893 0.9821
0.5377 4.0260 -1.9924 0.9821
0.1780 4.0644 -1.9956 0.9820
-0.1843 4.0707 -1.9988 0.9820
-0.9051 3.9865 -2.0052 0.9820
-1.2578 3.8963 -2.0084 0.9819
-1.6016 3.7749 -2.0114 0.9819
3.2221 -2.0041 -1.9685 0.9830
3.6300 -1.0809 -1.9649 0.9831
3.7104 -0.7537 -1.9642 0.9831
3.7839 -0.0847 -1.9635 0.9831
3.5795 1.2406 -1.9653 0.9831
3.4570 1.5548 -1.9664 0.9831
2.9312 2.4176 -1.9711 0.9830
2.7074 2.6712 -1.9731 0.9830
2.4620 2.9046 -1.9753 0.9830
2.1967 3.1156 -1.9777 0.9830
1.9135 3.3027 -1.9802 0.9829
1.6145 3.4644 -1.9828 0.9829
1.3020 3.5992 -1.9856 0.9829
0.6459 3.7840 -1.9914 0.9829
-0.0344 3.8502 -1.9975 0.9828
-0.3771 3.8377 -2.0005 0.9828
-0.7178 3.7948 -2.0036 0.9827
-1.0539 3.7215 -2.0066 0.9827
-2.8234 2.6877 -2.0223 0.9826
-3.2609 2.1495 -2.0262 0.9826
-0.9926 0.4253 -0.5602 0.9951
-1.0240 0.2362 -0.5452 0.9953
-1.0348 -0.0417 -0.5373 0.9953
-1.0368 -0.1348 -0.5424 0.9953
-0.9953 -0.4165 -0.5597 0.9951
-3.2792 -2.1219 -2.0263 0.9826
-3.0749 -2.4028 -2.0245 0.9826
-2.8463 -2.6639 -2.0224 0.9826
-1.7307 -3.4718 -2.0125 0.9827
-1.4133 -3.6069 -2.0097 0.9827
-0.7500 -3.7890 -2.0038 0.9827
0.2750 -3.8351 -1.9947 0.9828
0.6139 -3.7897 -1.9917 0.9828
1.5852 -3.4783 -1.9830 0.9829
1.8856 -3.3192 -1.9804 0.9829
2.4375 -2.9256 -1.9755 0.9830
2.6849 -2.6943 -1.9733 0.9830
2.9108 -2.4425 -1.9713 0.9830
3.1135 -2.1721 -1.9695 0.9830
3.2916 -1.8853 -1.9679 0.9831
3.4438 -1.5841 -1.9665 0.9831
3.5690 -1.2710 -1.9654 0.9831
3.7349 -0.6185 -1.9639 0.9831
3.7652 0.3889 -1.9637 0.9831
3.6389 1.0500 -1.9648 0.9831
2.8427 2.5233 -1.9719 0.9830
2.3561 2.9934 -1.9762 0.9830
2.0832 3.1949 -1.9787 0.9830
1.4885 3.5227 -1.9840 0.9829
0.8437 3.7414 -1.9897 0.9829
0.5085 3.8073 -1.9927 0.9828
0.1683 3.8432 -1.9957 0.9828
-1.1889 3.6830 -2.0078 0.9827
-1.8275 3.4239 -2.0134 0.9827
-2.4111 3.0541 -2.0186 0.9826
3.0542 -1.8997 -1.9700 0.9837
3.3381 -1.3271 -1.9675 0.9838
1.8892 -0.2113 -1.0412 0.9914
1.8782 -0.0421 -1.0289 0.9915
1.8866 0.1259 -1.0356 0.9914
1.8859 0.4708 -1.0646 0.9912
3.1351 1.7605 -1.9693 0.9837
2.9684 2.0337 -1.9708 0.9837
2.7783 2.2915 -1.9725 0.9837
2.5661 2.5318 -1.9744 0.9837
1.5298 3.2827 -1.9836 0.9836
1.2336 3.4102 -1.9862 0.9836
0.9268 3.5112 -1.9889 0.9836
0.6119 3.5847 -1.9917 0.9836
0.2913 3.6301 -1.9946 0.9835
-0.3572 3.6348 -2.0004 0.9835
-0.6798 3.5938 -2.0032 0.9835
-0.9980 3.5241 -2.0061 0.9834
-1.9000 3.1484 -2.0141 0.9834
-2.1750 2.9706 -2.0165 0.9833
-2.6725 2.5441 -2.0209 0.9833
-2.8908 2.2987 -2.0229 0.9833
-0.9031 0.3869 -0.5381 0.9955
-0.9332 0.2153 -0.5245 0.9956
-0.9453 -0.0381 -0.5181 0.9957
-0.9463 -0.1230 -0.5227 0.9957
-0.9349 -0.2074 -0.5245 0.9956
-0.9048 -0.3786 -0.5372 0.9955
-0.8826 -0.4654 -0.5465 0.9955
-2.9104 -2.2743 -2.0230 0.9833
-2.4568 -2.7482 -2.0190 0.9833
-2.2003 -2.9524 -2.0167 0.9833
-1.9268 -3.1325 -2.0142 0.9834
-1.3382 -3.4152 -2.0090 0.9834
-0.3880 -3.6320 -2.0006 0.9835
1.5021 -3.2958 -1.9838 0.9836
2.0568 -2.9704 -1.9788 0.9837
2.3101 -2.7726 -1.9766 0.9837
2.5447 -2.5536 -1.9745 0.9837
2.7590 -2.3151 -1.9726 0.9837
3.1202 -1.7871 -1.9694 0.9837
3.2646 -1.5017 -1.9681 0.9837
1.9369 -0.6898 -1.1261 0.9907
1.8875 -0.1420 -1.0367 0.9914
1.8759 0.0261 -1.0276 0.9915
3.2222 1.5922 -1.9685 0.9837
2.4735 2.6243 -1.9752 0.9837
2.2329 2.8369 -1.9773 0.9837
1.4104 3.3378 -1.9846 0.9836
0.7993 3.5445 -1.9901 0.9836
0.4817 3.6066 -1.9929 0.9835
0.1595 3.6404 -1.9958 0.9835
-0.1650 3.6454 -1.9987 0.9835
-2.2824 2.8911 -2.0175 0.9833
1.7235 -0.5132 -1.0383 0.9917
1.7332 -0.3521 -1.0211 0.9919
1.7314 -0.0388 -0.9999 0.9920
1.7382 0.1160 -1.0058 0.9920
1.7402 0.2730 -1.0170 0.9919
1.7314 0.4322 -1.0303 0.9918
1.7095 0.5925 -1.0446 0.9917
3.1111 1.3992 -1.9695 0.9844
2.9763 1.6712 -1.9707 0.9844
2.6373 2.1752 -1.9737 0.9843
2.4357 2.4032 -1.9755 0.9843
1.9758 2.8023 -1.9796 0.9843
1.4517 3.1152 -1.9843 0.9843
1.1706 3.2360 -1.9868 0.9842
0.8794 3.3316 -1.9894 0.9842
0.5806 3.4011 -1.9920 0.9842
0.2763 3.4439 -1.9947 0.9842
-0.6448 3.4087 -2.0029 0.9841
-0.9465 3.3424 -2.0056 0.9841
-1.2415 3.2492 -2.0082 0.9841
-1.8017 2.9854 -2.0132 0.9840
-2.5337 2.4120 -2.0197 0.9840
-2.7406 2.1792 -2.0215 0.9840
-0.7953 0.5242 -0.5499 0.9956
-0.8490 0.3637 -0.5332 0.9957
-0.8631 0.2820 -0.5242 0.9958
-0.8808 -0.0355 -0.5089 0.9959
-0.8507 -0.3560 -0.5324 0.9957
-0.7986 -0.5168 -0.5492 0.9956
-2.5542 -2.3906 -2.0198 0.9840
-2.3293 -2.6056 -2.0178 0.9840
-1.8271 -2.9703 -2.0134 0.9840
-1.5539 -3.1172 -2.0109 0.9840
-1.2691 -3.2389 -2.0084 0.9841
-0.3680 -3.4452 -2.0004 0.9841
0.8512 -3.3392 -1.9896 0.9842
1.1432 -3.2461 -1.9870 0.9842
1.6957 -2.9850 -1.9820 0.9843
1.9521 -2.8192 -1.9798 0.9843
2.6189 -2.1976 -1.9739 0.9843
2.9621 -1.6965 -1.9708 0.9844
3.0993 -1.4256 -1.9696 0.9844
1.7061 -0.6076 -1.0456 0.9917
1.7393 -0.1309 -1.0070 0.9920
1.7295 0.0240 -0.9986 0.9920
1.7324 0.6718 -1.0728 0.9915
2.7469 2.0322 -1.9728 0.9843
2.3479 2.4910 -1.9763 0.9843
2.1193 2.6926 -1.9783 0.9843
1.8736 2.8735 -1.9805 0.9843
1.3384 3.1674 -1.9853 0.9842
1.0529 3.2781 -1.9878 0.9842
0.7584 3.3631 -1.9904 0.9842
0.4570 3.4218 -1.9931 0.9842
0.1513 3.4536 -1.9958 0.9842
-0.1565 3.4581 -1.9986 0.9841
-0.7685 3.3849 -2.0040 0.9841
-1.0677 3.3076 -2.0067 0.9841
-1.6407 3.0740 -2.0118 0.9840
-1.9097 2.9195 -2.0142 0.9840
-2.1641 2.7412 -2.0164 0.9840
