ply
format ascii 1.0
element vertex 1406
property float32 x
property float32 y
property float32 z
property float32 I
end_header
-5.1514 9.9141 1.9700 0.9556
-5.1431 9.8980 1.7088 0.9559
-5.1348 9.8822 1.4502 0.9561
-1.2426 17.4041 2.2721 0.9320
-5.4395 9.5809 1.4347 0.9565
7.8130 17.9281 2.1000 0.9243
-1.1637 16.2990 1.7547 0.9364
-5.4403 9.5822 1.1832 0.9566
14.4183 -13.7436 1.6861 0.9232
-5.4411 9.5836 0.9329 0.9567
-5.1105 9.8353 0.6873 0.9566
-5.4419 9.5849 0.6835 0.9568
14.4065 -13.7323 0.7848 0.9234
-5.4426 9.5863 0.4347 0.9568
14.4109 -13.7365 0.3363 0.9234
5.3606 3.1892 -0.0351 0.9754
14.4125 -13.7380 -0.1121 0.9234
-5.4442 9.5890 -0.0621 0.9569
4.1173 2.9750 -0.1430 0.9799
-5.0836 9.7837 -0.3105 0.9568
2.5190 -13.3704 -0.3831 0.9470
14.4141 -13.7396 -0.5607 0.9234
5.6122 2.9563 -0.1786 0.9749
4.5922 2.9685 -0.1540 0.9784
3.9119 3.6581 -0.1508 0.9788
-5.4449 9.5903 -0.3105 0.9568
6.0336 2.8972 -0.3394 0.9735
-3.4056 8.2806 -0.4541 0.9648
2.5187 -13.3689 -0.6899 0.9470
14.3164 -13.6464 -1.0030 0.9238
5.5067 2.9007 -0.3156 0.9754
4.5236 2.9241 -0.2732 0.9787
3.8596 3.0132 -0.2483 0.9806
3.8495 3.5997 -0.2673 0.9791
12.0091 13.4220 -0.9134 0.9304
-3.0806 8.7553 -0.4707 0.9635
-3.7731 8.2850 -0.4617 0.9642
-5.4457 9.5917 -0.5594 0.9568
5.8931 2.8297 -0.4793 0.9741
4.8656 2.8947 -0.4151 0.9775
4.0202 2.9048 -0.3637 0.9803
4.7424 8.6808 -0.7253 0.9611
-5.0851 9.7864 -0.8086 0.9567
-9.7206 6.0602 -0.8399 0.9551
14.2214 -13.5559 -1.4406 0.9242
6.2461 2.6100 -0.4964 0.9732
5.3994 2.8442 -0.4475 0.9758
6.4287 8.6186 -0.7884 0.9578
5.2209 8.4801 -0.7302 0.9608
-5.4465 9.5931 -0.8088 0.9567
-8.5197 7.1521 -0.8156 0.9564
13.3920 -11.5012 -1.6948 0.9315
14.9067 -8.7651 -1.6602 0.9329
15.4995 -7.3448 -1.6466 0.9334
16.7831 -1.4546 -1.6173 0.9345
16.7766 1.5408 -1.6174 0.9345
16.6116 3.0332 -1.6212 0.9344
5.7300 2.7514 -0.6102 0.9748
4.7462 2.8236 -0.5302 0.9781
3.9695 2.8681 -0.4702 0.9805
3.7615 3.2641 -0.4781 0.9802
3.7423 3.8821 -0.5177 0.9786
10.5068 13.0450 -1.6081 0.9349
4.7205 8.6407 -0.9453 0.9612
4.2461 17.8971 -1.7659 0.9288
2.6950 18.5954 -1.8039 0.9273
-5.0858 9.7878 -1.0590 0.9566
-12.8883 13.9387 -1.8226 0.9266
-7.9403 7.1851 -1.0281 0.9579
-8.1035 6.1156 -0.9747 0.9600
-9.5601 5.9602 -1.0816 0.9557
-1.5848 -19.5625 -1.8842 0.9242
0.1572 -19.2120 -1.8445 0.9257
1.2223 -12.5355 -1.2092 0.9506
6.3226 -16.5830 -1.7038 0.9312
7.0773 -11.7455 -1.3165 0.9464
10.9770 -12.5071 -1.5976 0.9353
12.5576 -11.9699 -1.6655 0.9327
16.1528 -5.2875 -1.6317 0.9340
16.8174 -0.8296 -1.6165 0.9346
16.8230 0.6687 -1.6164 0.9346
4.4017 2.8453 -0.5032 0.9792
3.7554 3.5118 -0.4936 0.9796
11.0783 12.3817 -1.5951 0.9354
5.1166 8.3106 -0.9370 0.9615
3.4738 8.8557 -0.9133 0.9625
5.1057 17.4398 -1.7446 0.9296
0.3438 19.3753 -1.8604 0.9251
-1.2485 17.4873 -1.6831 0.9320
-3.7902 8.3226 -0.8780 0.9639
-5.4472 9.5944 -1.0592 0.9566
-7.9403 6.6657 -0.9953 0.9592
-8.5067 5.9370 -0.9959 0.9592
9.1267 -11.2132 -1.7174 0.9434
10.3606 -10.6379 -1.7639 0.9419
12.9664 -6.1444 -1.7044 0.9438
13.9433 -2.4721 -1.6821 0.9446
14.0813 -1.2204 -1.6789 0.9447
14.1255 0.0363 -1.6779 0.9447
14.0757 1.2928 -1.6790 0.9447
4.6315 2.7554 -0.6401 0.9785
3.8900 2.8107 -0.5701 0.9809
3.5146 3.6460 -0.6016 0.9798
7.8087 11.6873 -1.6696 0.9450
4.7013 8.6056 -1.1648 0.9613
4.6405 13.9115 -1.7420 0.9426
3.4428 14.5111 -1.7716 0.9417
-0.4647 13.6183 -1.6186 0.9466
-1.9645 15.8740 -1.9000 0.9376
-3.4274 15.9123 -1.9335 0.9365
-4.9121 15.8139 -1.9670 0.9355
-3.4213 8.3188 -1.0685 0.9644
-5.0865 9.7892 -1.3104 0.9565
-10.7680 13.9537 -2.0937 0.9315
-12.1438 13.1336 -2.1248 0.9305
-7.8026 5.8885 -1.1612 0.9614
-16.7501 8.4760 -2.2299 0.9272
-16.3827 -11.2025 -2.3575 0.9232
-12.8410 -12.6475 -2.1410 0.9300
-9.9888 -11.7640 -1.8332 0.9397
-7.1655 -15.3432 -2.0115 0.9341
-5.6755 -15.6505 -1.9775 0.9351
-4.1886 -15.8170 -1.9436 0.9362
-2.7181 -15.8485 -1.9101 0.9373
0.1271 -15.5330 -1.8452 0.9393
1.2248 -12.5612 -1.4992 0.9504
2.3553 -12.5013 -1.5111 0.9500
4.0185 -14.2295 -1.7564 0.9422
10.7013 -10.2004 -1.7561 0.9422
11.4527 -9.1187 -1.7390 0.9427
12.6791 -6.8345 -1.7110 0.9436
13.5331 -4.4299 -1.6915 0.9443
13.8196 -3.1969 -1.6849 0.9445
14.0123 -1.9505 -1.6805 0.9446
14.1161 0.5611 -1.6781 0.9447
14.0272 1.8160 -1.6801 0.9446
13.8443 3.0634 -1.6843 0.9445
6.4440 2.6927 -0.8296 0.9723
4.3139 2.7885 -0.6102 0.9795
3.3436 3.7370 -0.5956 0.9800
6.2775 8.4159 -1.2472 0.9586
5.1415 8.3511 -1.1649 0.9613
6.3969 12.8196 -1.7018 0.9439
0.2760 15.5523 -1.8477 0.9393
-2.5717 15.9062 -1.9140 0.9372
-4.0453 15.8882 -1.9475 0.9361
-5.5351 15.7309 -1.9809 0.9350
-9.9482 14.3744 -2.0765 0.9320
-7.5603 6.3467 -1.1725 0.9610
-8.0885 5.6452 -1.1717 0.9610
-15.1637 -11.2179 -2.2406 0.9268
8.0894 -9.9388 -1.8157 0.9495
8.8549 -9.0919 -1.7982 0.9500
10.6860 -6.2833 -1.7564 0.9512
11.1367 -5.2773 -1.7461 0.9514
11.5059 -4.2458 -1.7377 0.9517
12.1198 -1.0504 -1.7237 0.9520
12.1148 1.1127 -1.7238 0.9520
11.7783 3.2550 -1.7314 0.9518
3.8161 2.7573 -0.6671 0.9812
3.6507 3.1679 -0.6849 0.9807
3.3549 3.4803 -0.6849 0.9807
7.4300 9.2250 -1.6783 0.9533
6.6502 9.9533 -1.6961 0.9528
4.7066 8.6153 -1.3910 0.9611
2.9026 12.2341 -1.7816 0.9505
1.8282 12.6149 -1.8061 0.9498
-1.6340 13.2033 -1.8850 0.9477
-4.0624 13.0786 -1.9404 0.9462
-3.4213 8.3188 -1.2745 0.9643
-4.6472 8.9437 -1.4281 0.9601
-5.7329 8.9791 -1.5094 0.9579
-6.6463 7.1880 -1.3871 0.9612
-7.6486 5.7723 -1.3577 0.9620
-14.6853 7.4311 -2.3320 0.9357
-15.4175 6.1479 -2.3518 0.9351
-16.6987 1.8846 -2.3810 0.9344
-14.3276 -8.0284 -2.3271 0.9358
-11.3223 -11.1517 -2.2517 0.9378
-9.5291 -11.2227 -2.0860 0.9423
-8.2951 -11.7442 -2.0372 0.9436
-7.1235 -12.2720 -2.0105 0.9443
-2.2664 -13.2148 -1.8997 0.9473
0.1066 -13.0252 -1.8456 0.9487
1.2134 -12.4443 -1.7716 0.9507
2.3334 -12.3849 -1.7857 0.9504
3.3961 -12.0256 -1.7705 0.9508
5.4645 -11.2182 -1.7681 0.9508
6.7054 -11.1283 -1.8409 0.9489
7.6090 -10.4071 -1.8267 0.9492
8.4181 -9.5915 -1.8082 0.9497
9.8085 -7.8096 -1.7765 0.9506
10.3862 -6.8554 -1.7633 0.9510
12.0588 -1.6786 -1.7251 0.9520
12.1505 0.4830 -1.7230 0.9521
11.9105 2.6355 -1.7284 0.9519
6.3539 2.6550 -0.9757 0.9726
4.2208 2.7283 -0.7121 0.9799
3.6356 3.3997 -0.7053 0.9801
3.3427 3.7360 -0.7103 0.9800
6.2782 8.4169 -1.4878 0.9585
5.1415 8.3512 -1.3895 0.9612
5.4322 10.8865 -1.7239 0.9520
3.4841 8.8819 -1.3518 0.9622
2.4599 12.4034 -1.7917 0.9502
1.3662 12.7481 -1.8166 0.9495
-3.7903 8.3227 -1.2958 0.9637
-5.0859 8.9580 -1.4596 0.9592
-6.7046 6.7312 -1.3461 0.9623
-6.9974 5.8742 -1.2945 0.9638
-15.6743 5.5848 -2.3576 0.9350
-16.5558 2.7438 -2.3778 0.9345
-16.7684 1.2637 -2.3826 0.9343
-16.7195 -1.7251 -2.3816 0.9343
-16.0457 -4.6289 -2.3662 0.9348
-13.9704 -8.5253 -2.3189 0.9360
7.0485 -8.6599 -1.8394 0.9557
9.3502 -5.4979 -1.7869 0.9570
9.7517 -4.6211 -1.7777 0.9572
10.0811 -3.7200 -1.7702 0.9574
10.3375 -2.7998 -1.7643 0.9575
10.5205 -1.8652 -1.7602 0.9576
10.6296 -0.9212 -1.7577 0.9577
10.5117 1.9194 -1.7603 0.9576
10.3244 2.8532 -1.7646 0.9575
4.4650 2.6564 -0.8559 0.9792
6.4735 8.0374 -1.7001 0.9590
5.7862 8.6602 -1.7158 0.9587
4.7119 8.6250 -1.6191 0.9609
3.6507 8.3769 -1.5054 0.9636
3.4002 10.1935 -1.7702 0.9574
2.5090 10.5755 -1.7906 0.9569
0.6109 11.1151 -1.8338 0.9559
-1.4014 11.3241 -1.8798 0.9548
-3.4213 8.3189 -1.4818 0.9642
-4.6473 8.9439 -1.6604 0.9600
-5.7330 8.9793 -1.7550 0.9577
-7.4859 9.7005 -2.0186 0.9515
-6.3881 6.9087 -1.5501 0.9626
-6.6025 5.9746 -1.4669 0.9645
-7.6107 5.7437 -1.5707 0.9621
-9.1946 5.7322 -1.7850 0.9570
-12.9420 5.1608 -2.2953 0.9451
-13.7629 2.8099 -2.3141 0.9446
-13.9895 1.5788 -2.3192 0.9445
-14.0575 -0.9243 -2.3208 0.9445
-13.8979 -2.1670 -2.3172 0.9446
-13.6119 -3.3844 -2.3107 0.9447
-12.6797 -5.6888 -2.2894 0.9452
-12.0474 -6.7507 -2.2750 0.9456
-10.4956 -8.6411 -2.2397 0.9464
-9.5973 -9.4527 -2.2192 0.9469
-7.6114 -10.7762 -2.1734 0.9479
-6.5018 -11.2011 -2.1336 0.9489
-4.0695 -11.2218 -1.9665 0.9528
-2.9772 -11.2425 -1.9159 0.9539
0.0919 -11.2288 -1.8499 0.9555
1.0941 -11.2202 -1.8572 0.9553
3.1631 -11.2003 -1.9173 0.9539
5.0131 -10.2917 -1.8859 0.9547
6.6248 -9.0610 -1.8491 0.9555
8.5702 -6.8236 -1.8047 0.9566
9.8980 -4.2476 -1.7744 0.9573
10.1970 -3.3379 -1.7676 0.9574
10.5750 -1.4720 -1.7589 0.9576
10.6532 -0.5255 -1.7571 0.9577
6.3051 2.6346 -1.1257 0.9727
5.0679 2.6695 -0.9436 0.9770
4.1545 2.6855 -0.8149 0.9801
3.6413 2.8428 -0.7610 0.9814
3.6203 3.3854 -0.8165 0.9801
3.3419 3.7351 -0.8256 0.9799
5.1416 8.3512 -1.6156 0.9610
4.7165 9.4520 -1.7402 0.9581
3.0334 10.3615 -1.7786 0.9572
2.1248 10.7136 -1.7993 0.9567
1.1779 10.9904 -1.8209 0.9562
0.1985 11.1872 -1.8433 0.9557
-1.8307 11.3229 -1.8895 0.9546
-3.7903 8.3227 -1.5066 0.9636
-5.0860 8.9582 -1.6970 0.9591
-6.2254 8.9953 -1.8022 0.9566
-6.8344 5.7373 -1.4700 0.9645
-8.2533 5.7602 -1.6580 0.9600
-10.1253 5.8016 -1.9225 0.9538
-13.8729 2.2992 -2.3166 0.9446
-14.0464 1.0586 -2.3206 0.9445
-14.0911 -0.1945 -2.3216 0.9445
-13.7937 -2.6791 -2.3148 0.9446
-12.9987 -5.0398 -2.2967 0.9450
-11.7536 -7.1725 -2.2683 0.9457
-10.1295 -8.9914 -2.2313 0.9466
6.2396 -7.6661 -1.8579 0.9606
6.8451 -7.0283 -1.8441 0.9609
7.8794 -5.6319 -1.8205 0.9613
8.6660 -4.1066 -1.8025 0.9617
9.1943 -2.4901 -1.7904 0.9620
9.3595 -1.6594 -1.7866 0.9621
9.4580 -0.8197 -1.7844 0.9621
9.4895 0.0244 -1.7837 0.9621
9.4540 0.8683 -1.7845 0.9621
9.3516 1.7075 -1.7868 0.9620
6.7996 2.5489 -1.3649 0.9709
5.5116 2.6465 -1.1492 0.9754
3.6156 3.1375 -0.8998 0.9807
5.1602 7.7233 -1.7459 0.9629
3.6461 8.3665 -1.7154 0.9635
2.2075 9.3046 -1.7974 0.9618
0.5359 9.7510 -1.8356 0.9610
-0.3367 9.8659 -1.8555 0.9606
-1.2257 9.9040 -1.8758 0.9602
-2.1243 9.8624 -1.8963 0.9598
-2.6498 8.5307 -1.6790 0.9643
-3.4214 8.3189 -1.6907 0.9641
-4.5903 8.8343 -1.8713 0.9603
-6.4870 8.4062 -1.9958 0.9577
-6.5612 5.9372 -1.6632 0.9646
-10.0666 6.2759 -2.2297 0.9529
-10.6476 5.3879 -2.2430 0.9526
-11.1400 4.4422 -2.2542 0.9524
-11.8331 2.4159 -2.2700 0.9520
-11.9469 -1.8628 -2.2727 0.9520
-11.3611 -3.9259 -2.2593 0.9523
-10.9181 -4.8984 -2.2492 0.9525
-10.3827 -5.8179 -2.2370 0.9527
-9.0648 -7.4631 -2.2070 0.9533
-6.6016 -9.3466 -2.1508 0.9545
-5.6890 -9.8007 -2.1300 0.9549
-3.7846 -10.4361 -2.0866 0.9558
1.0208 -10.4683 -1.9770 0.9581
1.9270 -10.2280 -1.9563 0.9585
2.7999 -9.9142 -1.9364 0.9589
4.4250 -9.0843 -1.8993 0.9597
5.8610 -8.0163 -1.8665 0.9604
6.4993 -7.4053 -1.8520 0.9607
7.0808 -6.7494 -1.8387 0.9610
7.6032 -6.0537 -1.8268 0.9612
8.0645 -5.3229 -1.8162 0.9614
8.4632 -4.5619 -1.8071 0.9616
8.7978 -3.7754 -1.7995 0.9618
9.0675 -2.9682 -1.7933 0.9619
9.2713 -2.1447 -1.7887 0.9620
9.4087 -1.3097 -1.7855 0.9621
9.4829 0.3770 -1.7838 0.9621
9.4194 1.2195 -1.7853 0.9621
9.2891 2.0555 -1.7882 0.9620
9.0923 2.8803 -1.7927 0.9619
5.0093 2.6387 -1.0642 0.9772
4.0918 2.6450 -0.9158 0.9804
3.6084 3.3742 -0.9286 0.9801
3.3410 3.7341 -0.9418 0.9798
5.7505 7.7094 -1.8078 0.9616
4.8528 7.8822 -1.7398 0.9630
4.1508 8.3185 -1.7474 0.9629
2.6710 9.1237 -1.7869 0.9620
1.0342 9.6500 -1.8242 0.9613
0.1741 9.8081 -1.8438 0.9609
-2.9412 8.3591 -1.6656 0.9646
-3.7903 8.3228 -1.7189 0.9635
-6.0096 8.6834 -1.9849 0.9579
-6.3961 6.4214 -1.7036 0.9638
-6.8314 5.7348 -1.6765 0.9643
-8.2739 5.7746 -1.8965 0.9598
-10.0343 5.7494 -2.1737 0.9540
-11.1878 -4.3377 -2.2554 0.9523
-8.7530 -7.7696 -2.1999 0.9535
7.0769 -5.0583 -1.8388 0.9651
7.4627 -4.3880 -1.8299 0.9652
7.7912 -3.6920 -1.8224 0.9654
8.2717 -2.2403 -1.8115 0.9656
8.5118 -0.7377 -1.8060 0.9657
8.5406 0.0219 -1.8053 0.9657
8.5082 0.7814 -1.8060 0.9657
8.2610 2.2830 -1.8117 0.9656
6.7996 2.5489 -1.5350 0.9707
5.4862 2.6343 -1.2864 0.9754
4.6235 2.7506 -1.1372 0.9782
3.3403 3.4651 -1.0174 0.9805
5.5589 6.9018 -1.8733 0.9644
4.2103 7.7069 -1.8563 0.9647
2.6748 8.0187 -1.7868 0.9660
1.2347 8.5194 -1.8196 0.9654
0.4769 8.6771 -1.8369 0.9651
-2.6064 8.3910 -1.8573 0.9647
-3.4366 8.3559 -1.9098 0.9637
-4.2416 8.1632 -1.9446 0.9631
-4.9943 7.8223 -1.9617 0.9628
-6.5713 5.9464 -1.8733 0.9644
-9.3423 4.7274 -2.2132 0.9581
-10.1114 3.0220 -2.2308 0.9578
-10.5320 1.1886 -2.2404 0.9576
-10.6037 0.2478 -2.2420 0.9576
-10.5814 -0.6958 -2.2415 0.9576
-10.4653 -1.6318 -2.2389 0.9576
-9.9594 -3.4416 -2.2274 0.9578
-9.5763 -4.2964 -2.2186 0.9580
-9.1128 -5.1063 -2.2081 0.9582
-8.5749 -5.8635 -2.1958 0.9584
-7.3032 -7.1932 -2.1668 0.9590
-6.5846 -7.7549 -2.1504 0.9593
-4.1957 -8.9841 -2.0959 0.9603
-3.3492 -9.2356 -2.0766 0.9606
-0.7708 -9.5147 -2.0178 0.9617
0.0774 -9.4541 -1.9985 0.9621
0.9088 -9.3205 -1.9795 0.9624
1.7177 -9.1170 -1.9610 0.9628
2.4985 -8.8471 -1.9432 0.9631
3.9569 -8.1232 -1.9100 0.9637
4.6261 -7.6774 -1.8947 0.9640
5.8271 -6.6393 -1.8673 0.9645
6.3531 -6.0558 -1.8553 0.9648
7.2448 -4.7819 -1.8349 0.9651
8.1563 -2.6699 -1.8141 0.9655
8.5313 -0.4208 -1.8055 0.9657
6.2250 2.6012 -1.4261 0.9728
4.9656 2.6157 -1.1863 0.9773
4.0364 2.6091 -1.0159 0.9805
3.6135 2.8210 -0.9690 0.9814
3.3401 3.7331 -1.0588 0.9797
4.6809 7.6030 -1.8873 0.9642
3.0712 7.8294 -1.7778 0.9662
0.9209 8.5931 -1.8268 0.9653
-1.4197 8.7808 -1.8802 0.9643
-2.2159 8.7031 -1.8984 0.9639
-4.5589 8.0298 -1.9518 0.9630
-5.3451 7.7233 -1.9854 0.9623
-6.4150 7.7031 -2.1190 0.9598
-7.2275 7.2560 -2.1648 0.9590
-6.8290 5.7328 -1.8847 0.9642
-9.0580 5.1901 -2.2067 0.9582
-9.5299 4.3855 -2.2175 0.9580
-10.4471 1.7314 -2.2384 0.9576
-10.6058 -0.1464 -2.2421 0.9576
-10.5443 -1.0880 -2.2407 0.9576
-10.3894 -2.0179 -2.2372 0.9577
-10.1434 -2.9262 -2.2316 0.9578
-9.8096 -3.8034 -2.2240 0.9579
-9.3923 -4.6405 -2.2144 0.9581
-8.3299 -6.1623 -2.1902 0.9585
-7.6981 -6.8332 -2.1758 0.9588
-7.0091 -7.4365 -2.1601 0.9591
5.0622 -6.2196 -1.8847 0.9676
6.0136 -5.1646 -1.8630 0.9680
6.4171 -4.5867 -1.8538 0.9681
6.7699 -3.9807 -1.8457 0.9682
7.0706 -3.3505 -1.8389 0.9684
7.7311 -0.6700 -1.8238 0.9686
7.7278 0.7098 -1.8238 0.9686
7.5011 2.0730 -1.8290 0.9685
5.4342 2.6094 -1.4168 0.9755
4.4859 6.7140 -1.8977 0.9674
3.8985 7.1362 -1.9111 0.9671
3.2661 7.4946 -1.9214 0.9670
2.5699 7.7041 -1.9087 0.9672
-0.2690 7.8838 -1.8540 0.9681
-0.9773 7.8969 -1.8701 0.9678
-1.6901 7.8464 -1.8864 0.9676
-2.4017 7.7322 -1.9029 0.9673
-4.0048 7.7073 -2.0413 0.9649
-6.1851 6.6892 -2.1412 0.9633
-9.2146 1.8813 -2.2103 0.9621
-9.3594 1.0563 -2.2136 0.9620
-9.4224 0.2202 -2.2151 0.9620
-9.1179 -2.2670 -2.2082 0.9621
-8.5193 -3.8222 -2.1945 0.9624
-7.6371 -5.2223 -2.1744 0.9627
-4.4914 -7.7376 -2.1027 0.9639
-3.7555 -8.0415 -2.0859 0.9642
-2.2342 -8.4368 -2.0512 0.9648
0.0696 -8.5037 -1.9986 0.9657
0.8183 -8.3915 -1.9816 0.9659
2.2536 -7.9799 -1.9488 0.9665
2.9307 -7.6865 -1.9334 0.9668
3.5750 -7.3393 -1.9187 0.9670
4.1829 -6.9419 -1.9048 0.9672
5.2761 -6.0116 -1.8798 0.9677
5.7559 -5.4866 -1.8689 0.9679
7.4051 -2.4240 -1.8312 0.9685
7.7489 -0.3823 -1.8234 0.9686
7.6988 0.9967 -1.8245 0.9686
7.4258 2.3524 -1.8307 0.9685
6.1250 2.5594 -1.5601 0.9731
3.5995 2.8102 -1.0733 0.9814
3.5862 3.3535 -1.1539 0.9800
3.3392 3.7321 -1.1770 0.9796
4.2456 6.8959 -1.9032 0.9673
1.5309 7.7195 -1.8496 0.9682
0.8292 7.7375 -1.8289 0.9685
0.1393 7.8475 -1.8446 0.9683
-0.5638 7.8969 -1.8607 0.9680
-1.9875 7.8062 -1.8932 0.9674
-3.5132 7.7144 -1.9922 0.9658
-4.3725 7.7015 -2.0814 0.9643
-5.1196 7.3975 -2.1143 0.9637
-5.8065 6.9725 -2.1325 0.9634
-6.4473 6.4728 -2.1471 0.9632
-7.5821 5.2917 -2.1730 0.9627
-9.2849 1.5388 -2.2119 0.9621
-9.3957 0.7081 -2.2145 0.9620
-9.4242 -0.1300 -2.2151 0.9620
-8.7245 -3.3827 -2.1992 0.9623
-6.8630 -6.0920 -2.1568 0.9630
4.6197 -5.6758 -1.8948 0.9702
5.4934 -4.7178 -1.8749 0.9705
6.8720 -1.8612 -1.8434 0.9710
6.9992 -1.2409 -1.8405 0.9711
7.0751 -0.6132 -1.8387 0.9711
7.0721 0.6495 -1.8388 0.9711
6.8630 1.8966 -1.8436 0.9710
6.6821 2.5048 -1.8477 0.9709
5.3535 2.5706 -1.5376 0.9758
4.3129 2.5658 -1.2994 0.9795
3.5453 3.0765 -1.2154 0.9808
3.4760 3.6059 -1.2968 0.9795
4.0912 6.1233 -1.9067 0.9700
3.5534 6.5044 -1.9190 0.9698
2.9812 6.8407 -1.9321 0.9696
2.3780 7.1290 -1.9458 0.9694
1.7460 7.3594 -1.9584 0.9692
0.4205 7.6499 -1.9837 0.9688
-0.2628 7.7001 -1.9949 0.9687
-0.9530 7.7004 -2.0090 0.9684
-1.6514 7.6670 -2.0307 0.9681
-2.3468 7.5554 -2.0484 0.9678
-3.7125 7.1449 -2.0848 0.9673
-5.5780 6.0326 -2.1273 0.9666
-6.1282 5.5453 -2.1399 0.9664
-6.6323 5.0054 -2.1514 0.9663
-7.4807 3.7854 -2.1707 0.9660
-7.8150 3.1163 -2.1784 0.9658
-8.4127 0.9494 -2.1920 0.9656
-8.4688 0.1979 -2.1933 0.9656
-8.3606 -1.3036 -2.1909 0.9656
-8.1977 -2.0383 -2.1872 0.9657
-7.9647 -2.7523 -2.1819 0.9658
-7.6644 -3.4386 -2.1750 0.9659
-6.8770 -4.7025 -2.1571 0.9662
-5.3025 -6.2449 -2.1212 0.9667
-4.6955 -6.6479 -2.1073 0.9669
-3.3955 -7.2706 -2.0777 0.9674
-2.7152 -7.4874 -2.0622 0.9676
-2.0232 -7.6402 -2.0464 0.9679
-0.6283 -7.7552 -2.0145 0.9684
0.0632 -7.7194 -1.9988 0.9686
2.0505 -7.2606 -1.9534 0.9693
2.6684 -6.9987 -1.9393 0.9695
3.2573 -6.6871 -1.9259 0.9697
3.8136 -6.3291 -1.9132 0.9699
4.3341 -5.9279 -1.9013 0.9701
4.8159 -5.4872 -1.8903 0.9703
5.2566 -5.0106 -1.8803 0.9704
6.0057 -3.9641 -1.8632 0.9707
6.3107 -3.4017 -1.8562 0.9708
6.5673 -2.8183 -1.8504 0.9709
7.0372 -0.9796 -1.8396 0.9711
7.0916 -0.3498 -1.8384 0.9711
7.0943 0.2820 -1.8383 0.9711
6.5918 2.7544 -1.8497 0.9709
4.8944 2.5782 -1.4323 0.9774
3.4771 3.2515 -1.2326 0.9805
3.3383 3.7311 -1.2963 0.9795
3.8711 6.2876 -1.9118 0.9700
3.3185 6.6504 -1.9244 0.9698
2.7329 6.9671 -1.9377 0.9696
0.8132 7.5875 -1.9758 0.9690
0.1363 7.6831 -1.9896 0.9687
-0.5498 7.7006 -1.9989 0.9686
-1.2449 7.6997 -2.0195 0.9683
-2.6358 7.4909 -2.0561 0.9677
-3.3217 7.2937 -2.0751 0.9674
-5.2386 6.2906 -2.1196 0.9667
-5.8129 5.8358 -2.1327 0.9665
-6.3446 5.3261 -2.1448 0.9664
-6.8279 4.7654 -2.1558 0.9662
-7.6280 3.5103 -2.1741 0.9659
-7.9354 2.8274 -2.1811 0.9658
-8.1758 2.1160 -2.1866 0.9657
-8.4451 0.6364 -2.1928 0.9656
-8.4705 -0.1169 -2.1934 0.9656
-8.3013 -1.6123 -2.1895 0.9657
-8.1088 -2.3393 -2.1851 0.9657
-7.8473 -3.0425 -2.1792 0.9658
-7.1306 -4.3513 -2.1628 0.9661
5.0513 -4.3381 -1.8850 0.9727
5.6950 -3.3486 -1.8703 0.9729
5.9514 -2.8202 -1.8644 0.9730
6.1626 -2.2741 -1.8596 0.9731
6.3275 -1.7137 -1.8558 0.9731
6.5384 0.0168 -1.8510 0.9732
6.5130 0.5982 -1.8516 0.9732
6.3192 1.7463 -1.8560 0.9731
4.3129 2.5658 -1.4207 0.9794
3.4736 3.6035 -1.4169 0.9794
3.7568 5.6228 -1.9144 0.9723
2.7345 6.2748 -1.9377 0.9719
1.6011 6.7487 -1.9635 0.9716
0.3860 7.0233 -1.9913 0.9712
-0.2416 7.0804 -2.0056 0.9710
-0.8764 7.0817 -2.0201 0.9708
-3.9743 6.2248 -2.0907 0.9698
-6.0271 4.5486 -2.1376 0.9691
-6.7924 3.4371 -2.1551 0.9688
-7.6318 0.8613 -2.1742 0.9686
-7.6822 0.1795 -2.1754 0.9686
-7.6665 -0.5041 -2.1750 0.9686
-7.4383 -1.8494 -2.1698 0.9686
-7.2284 -2.4978 -2.1651 0.9687
-6.9579 -3.1217 -2.1589 0.9688
-6.2479 -4.2723 -2.1427 0.9690
-5.8165 -4.7887 -2.1329 0.9692
-3.6966 -6.3683 -2.0845 0.9699
-3.0953 -6.6278 -2.0708 0.9700
0.0578 -7.0607 -1.9989 0.9711
1.2889 -6.8413 -1.9708 0.9715
1.8791 -6.6539 -1.9573 0.9717
2.4469 -6.4177 -1.9444 0.9719
3.9808 -5.4447 -1.9094 0.9724
4.4254 -5.0423 -1.8992 0.9725
5.8075 -3.1304 -1.8677 0.9729
6.3825 -1.4765 -1.8546 0.9731
6.5311 -0.3222 -1.8512 0.9732
6.5337 0.2597 -1.8511 0.9732
6.4883 0.8400 -1.8521 0.9732
6.2549 1.9815 -1.8574 0.9731
6.0678 2.5355 -1.8617 0.9730
4.8650 2.5627 -1.5566 0.9774
3.4816 2.7181 -1.2504 0.9818
4.0301 5.4029 -1.9082 0.9724
3.5539 5.7724 -1.9190 0.9722
3.0449 6.1022 -1.9306 0.9720
1.3532 6.8231 -1.9692 0.9715
0.7464 6.9650 -1.9830 0.9713
-0.5060 7.0878 -2.0116 0.9709
-1.1423 7.0654 -2.0261 0.9707
-3.0294 6.6519 -2.0692 0.9701
-4.2138 6.0887 -2.0962 0.9697
-5.7671 4.8414 -2.1316 0.9692
-7.2021 2.5661 -2.1644 0.9687
-7.4186 1.9200 -2.1694 0.9686
-7.5721 1.2549 -2.1729 0.9686
-7.6609 0.5773 -2.1749 0.9686
-7.6404 -0.7884 -2.1744 0.9686
-6.4766 -3.9523 -2.1479 0.9690
-5.1297 -5.4424 -2.1172 0.9694
3.9215 -4.8180 -1.9107 0.9743
4.3140 -4.4294 -1.9018 0.9745
4.6706 -4.0111 -1.8936 0.9746
4.9894 -3.5663 -1.8864 0.9747
5.2688 -3.0981 -1.8800 0.9747
5.5074 -2.6098 -1.8745 0.9748
5.7039 -2.1048 -1.8700 0.9749
5.8575 -1.5864 -1.8665 0.9749
6.0328 -0.5228 -1.8625 0.9750
6.0539 0.0155 -1.8620 0.9750
6.0302 0.5538 -1.8626 0.9750
5.6936 2.1343 -1.8702 0.9749
4.3128 2.5658 -1.5435 0.9792
3.4734 3.0141 -1.4145 0.9809
2.5231 5.7896 -1.9425 0.9739
1.4758 6.2205 -1.9664 0.9736
0.3554 6.4665 -1.9920 0.9733
-0.8060 6.5127 -2.0185 0.9729
-1.3909 6.4577 -2.0318 0.9727
-1.9723 6.3497 -2.0451 0.9726
-2.5452 6.1885 -2.0581 0.9724
-3.1044 5.9745 -2.0709 0.9722
-5.1023 4.6170 -2.1165 0.9716
-5.5171 4.1637 -2.1260 0.9715
-5.8888 3.6713 -2.1344 0.9714
-6.8706 1.4028 -2.1569 0.9711
-7.0217 0.1641 -2.1603 0.9710
-6.8002 -1.6908 -2.1553 0.9711
-6.6096 -2.2840 -2.1509 0.9712
-6.3638 -2.8551 -2.1453 0.9712
-6.0655 -3.3988 -2.1385 0.9713
-5.7180 -3.9100 -2.1306 0.9714
-5.3253 -4.3844 -2.1217 0.9715
-4.8916 -4.8179 -2.1118 0.9717
-4.4213 -5.2071 -2.1010 0.9718
-3.3909 -5.8417 -2.0775 0.9721
-2.2745 -6.2721 -2.0521 0.9725
-1.6969 -6.4080 -2.0389 0.9726
-0.5283 -6.5209 -2.0123 0.9730
0.0532 -6.4989 -1.9990 0.9732
1.7325 -6.1346 -1.9607 0.9737
2.7582 -5.6624 -1.9373 0.9740
4.0896 -4.6596 -1.9069 0.9744
4.4673 -4.2583 -1.8983 0.9745
4.8084 -3.8285 -1.8905 0.9746
5.5946 -2.4008 -1.8725 0.9748
5.7733 -1.8898 -1.8685 0.9749
6.0470 -0.2983 -1.8622 0.9750
5.9205 1.3101 -1.8651 0.9749
5.6157 2.3466 -1.8720 0.9749
3.9696 2.5660 -1.4539 0.9804
4.1316 4.6177 -1.9058 0.9744
2.8103 5.6320 -1.9360 0.9740
0.6875 6.4149 -1.9844 0.9734
-0.4655 6.5206 -2.0107 0.9730
-1.0503 6.4962 -2.0240 0.9728
-2.2128 6.2888 -2.0506 0.9725
-2.7806 6.1055 -2.0635 0.9723
-3.3326 5.8698 -2.0761 0.9721
-3.8636 5.5826 -2.0882 0.9720
-4.3686 5.2459 -2.0997 0.9718
-4.8425 4.8616 -2.1106 0.9717
-6.0302 3.4552 -2.1377 0.9713
-6.3340 2.9148 -2.1446 0.9712
-6.5857 2.3465 -2.1503 0.9712
-6.7823 1.7554 -2.1548 0.9711
-6.9838 -0.7206 -2.1595 0.9710
-6.8849 -1.3372 -2.1572 0.9711
-5.5594 -4.1127 -2.1270 0.9715
-4.6994 -4.9859 -2.1074 0.9717
3.6407 -4.4731 -1.9171 0.9760
4.0065 -4.1137 -1.9088 0.9761
4.3390 -3.7264 -1.9012 0.9762
4.6365 -3.3140 -1.8944 0.9763
4.8973 -2.8796 -1.8885 0.9763
5.3037 -1.9571 -1.8792 0.9765
5.6086 0.5151 -1.8722 0.9765
5.5449 1.0125 -1.8736 0.9765
5.4399 1.5033 -1.8760 0.9765
5.1082 2.4528 -1.8836 0.9764
4.3128 2.5658 -1.6681 0.9791
3.5822 2.5883 -1.4690 0.9815
4.3206 3.7493 -1.9015 0.9762
3.9861 4.1351 -1.9092 0.9761
3.6185 4.4927 -1.9175 0.9760
3.2200 4.8193 -1.9266 0.9759
2.3397 5.3688 -1.9467 0.9756
1.8635 5.5865 -1.9576 0.9755
1.3673 5.7632 -1.9689 0.9753
-0.2057 6.0276 -2.0048 0.9749
-1.2855 5.9683 -2.0294 0.9746
-2.3500 5.7139 -2.0537 0.9743
-2.8649 5.5137 -2.0654 0.9741
-4.2846 4.6338 -2.0978 0.9737
-4.7007 4.2537 -2.1073 0.9736
-5.0811 3.8347 -2.1160 0.9735
-5.4218 3.3801 -2.1238 0.9734
-6.1709 1.8443 -2.1409 0.9732
-6.4168 0.7242 -2.1465 0.9731
-6.4456 -0.4238 -2.1472 0.9731
-6.0817 -2.1016 -2.1389 0.9732
-5.5836 -3.1287 -2.1275 0.9734
-4.9053 -4.0386 -2.1121 0.9736
-4.5074 -4.4395 -2.1030 0.9737
-3.6146 -5.1176 -2.0826 0.9739
-3.1286 -5.3898 -2.0716 0.9741
-2.6223 -5.6151 -2.0600 0.9742
-2.1006 -5.7924 -2.0481 0.9744
-1.0291 -6.0004 -2.0237 0.9747
-0.4886 -6.0311 -2.0113 0.9748
0.0492 -6.0138 -1.9991 0.9750
1.1001 -5.8391 -1.9751 0.9753
2.0926 -5.4883 -1.9525 0.9755
2.9993 -4.9777 -1.9318 0.9758
3.7973 -4.3267 -1.9136 0.9760
4.4676 -3.5571 -1.8983 0.9762
5.3685 -1.7573 -1.8777 0.9765
5.4950 -1.2711 -1.8748 0.9765
5.6266 0.2237 -1.8718 0.9765
5.5061 1.2184 -1.8745 0.9765
5.3839 1.7056 -1.8773 0.9765
4.1851 3.9136 -1.9046 0.9761
3.8366 4.2880 -1.9126 0.9760
3.0450 4.9458 -1.9306 0.9758
1.6586 5.6654 -1.9622 0.9754
0.6365 5.9393 -1.9856 0.9751
-1.5102 5.9314 -2.0345 0.9745
-2.0437 5.8082 -2.0467 0.9744
-2.5668 5.6362 -2.0586 0.9742
-3.5633 5.1488 -2.0814 0.9740
-4.0273 4.8361 -2.0920 0.9738
-4.4624 4.4800 -2.1019 0.9737
-4.8641 4.0833 -2.1111 0.9736
-5.2284 3.6490 -2.1194 0.9735
-5.8295 2.6827 -2.1331 0.9733
-6.0598 2.1591 -2.1384 0.9732
-6.3672 1.0552 -2.1454 0.9732
-6.4409 0.4854 -2.1471 0.9731
-6.3335 -1.2301 -2.1446 0.9732
-5.9938 -2.3239 -2.1369 0.9733
-5.7484 -2.8401 -2.1313 0.9733
-5.4560 -3.3295 -2.1246 0.9734
-5.1199 -3.7876 -2.1170 0.9735
-4.3311 -4.5951 -2.0990 0.9737
3.3941 -4.1700 -1.9228 0.9774
4.0473 -3.4759 -1.9078 0.9776
4.3258 -3.0920 -1.9015 0.9777
4.5702 -2.6872 -1.8959 0.9777
5.0855 -1.3773 -1.8841 0.9779
5.2393 -0.4541 -1.8806 0.9779
5.0787 1.4035 -1.8843 0.9779
4.9420 1.8525 -1.8874 0.9778
4.7678 2.2894 -1.8914 0.9778
4.3128 2.5658 -1.7946 0.9789
4.3106 3.1146 -1.9018 0.9777
4.0301 3.4972 -1.9082 0.9776
3.3733 4.1883 -1.9231 0.9774
3.0008 4.4913 -1.9316 0.9773
1.2724 5.3629 -1.9711 0.9769
0.7949 5.4850 -1.9819 0.9767
-1.6911 5.4443 -2.0387 0.9761
-2.1803 5.3012 -2.0498 0.9759
-3.1168 4.8817 -2.0712 0.9757
-3.9690 4.2925 -2.0906 0.9755
-4.3530 3.9391 -2.0994 0.9754
-4.7039 3.5499 -2.1074 0.9753
-5.7077 1.7059 -2.1303 0.9750
-5.9340 0.6697 -2.1355 0.9750
-5.9605 -0.3919 -2.1361 0.9749
-5.7861 -1.4386 -2.1321 0.9750
-5.6256 -1.9440 -2.1285 0.9750
-5.4185 -2.4310 -2.1238 0.9751
-3.7761 -4.4472 -2.0863 0.9755
-3.3501 -4.7431 -2.0766 0.9756
-2.9008 -4.9974 -2.0664 0.9758
-1.4556 -5.4966 -2.0334 0.9761
-0.4540 -5.6039 -2.0106 0.9764
0.5395 -5.5326 -1.9879 0.9767
1.4942 -5.2910 -1.9661 0.9769
2.3828 -4.8918 -1.9458 0.9772
2.7947 -4.6381 -1.9364 0.9773
3.8699 -3.6888 -1.9119 0.9775
4.6617 -2.5128 -1.8938 0.9778
4.8553 -2.0836 -1.8894 0.9778
5.0118 -1.6406 -1.8858 0.9778
5.1304 -1.1868 -1.8831 0.9779
5.2105 -0.7253 -1.8813 0.9779
5.2517 -0.2591 -1.8803 0.9779
5.2538 0.2088 -1.8803 0.9779
5.0263 1.5923 -1.8855 0.9779
4.8738 2.0365 -1.8889 0.9778
4.6841 2.4674 -1.8933 0.9778
3.9759 2.5700 -1.6930 0.9801
3.9033 3.6500 -1.9111 0.9776
3.2212 4.3185 -1.9266 0.9774
1.5438 5.2732 -1.9649 0.9769
1.0747 5.4189 -1.9756 0.9768
-0.4001 5.6042 -2.0092 0.9764
-1.4021 5.5067 -2.0321 0.9761
-1.8965 5.3900 -2.0433 0.9760
-2.3810 5.2282 -2.0544 0.9759
-4.1331 4.1494 -2.0944 0.9754
-4.8396 3.3777 -2.1105 0.9752
-5.3934 2.4820 -2.1231 0.9751
-5.8573 -1.1376 -2.1338 0.9750
-5.7249 -1.6515 -2.1308 0.9750
-5.3187 -2.6278 -2.1215 0.9751
-5.0494 -3.0813 -2.1154 0.9752
-4.3926 -3.8990 -2.1004 0.9754
3.4964 -3.5900 -1.9204 0.9788
3.7885 -3.2536 -1.9137 0.9788
4.0501 -2.8949 -1.9078 0.9789
4.4758 -2.1210 -1.8981 0.9790
4.6376 -1.7113 -1.8944 0.9790
4.8547 -0.8607 -1.8894 0.9791
4.9087 -0.4254 -1.8882 0.9791
4.9261 0.0126 -1.8878 0.9791
4.8504 0.8857 -1.8895 0.9791
4.0358 2.9160 -1.9080 0.9789
3.7724 3.2735 -1.9141 0.9788
3.1560 3.9184 -1.9281 0.9787
2.4328 4.4532 -1.9446 0.9785
2.0367 4.6735 -1.9536 0.9784
1.6210 4.8595 -1.9631 0.9783
0.2855 5.1944 -1.9936 0.9780
-1.5760 5.0739 -2.0360 0.9775
-2.4744 4.7620 -2.0565 0.9773
-2.9016 4.5446 -2.0663 0.9772
-3.3089 4.2879 -2.0756 0.9771
-3.6925 3.9935 -2.0843 0.9770
-4.3738 3.3009 -2.0999 0.9768
-4.9182 2.4887 -2.1123 0.9767
-5.1318 2.0464 -2.1172 0.9766
-5.3032 1.5850 -2.1211 0.9766
-2.2949 0.0536 -0.8797 0.9902
-5.4793 -0.8543 -2.1251 0.9765
-5.3757 -1.3366 -2.1228 0.9766
-5.2272 -1.8063 -2.1194 0.9766
-4.8027 -2.6912 -2.1097 0.9767
-4.5311 -3.0983 -2.1035 0.9768
-4.2236 -3.4773 -2.0965 0.9768
-3.8833 -3.8248 -2.0888 0.9769
-3.5136 -4.1381 -2.0803 0.9770
-3.1183 -4.4149 -2.0713 0.9771
-2.7010 -4.6531 -2.0618 0.9772
-2.2656 -4.8513 -2.0519 0.9773
-1.8163 -5.0084 -2.0416 0.9774
-1.3568 -5.1236 -2.0311 0.9776
0.0427 -5.2167 -1.9992 0.9779
0.5036 -5.1650 -1.9887 0.9780
0.9558 -5.0733 -1.9784 0.9781
2.2276 -4.5731 -1.9494 0.9784
2.6135 -4.3373 -1.9406 0.9785
2.9760 -4.0704 -1.9323 0.9786
3.9015 -3.1064 -1.9112 0.9789
4.5476 -1.9515 -1.8964 0.9790
4.6948 -1.5368 -1.8931 0.9791
4.8817 -0.6795 -1.8888 0.9791
4.9204 -0.2427 -1.8879 0.9791
4.8876 0.6328 -1.8886 0.9791
4.8161 1.0657 -1.8903 0.9791
4.7084 1.4916 -1.8927 0.9791
4.5650 1.9075 -1.8960 0.9790
4.1745 2.6984 -1.9049 0.9789
3.9296 3.0678 -1.9105 0.9789
3.6533 3.4163 -1.9168 0.9788
3.0133 4.0398 -1.9314 0.9786
2.2700 4.5492 -1.9483 0.9785
1.8654 4.7554 -1.9575 0.9784
0.0925 5.2128 -1.9980 0.9779
-0.8410 5.2017 -2.0193 0.9777
-1.7672 5.0226 -2.0404 0.9775
-2.2179 4.8700 -2.0507 0.9773
-3.0743 4.4421 -2.0702 0.9771
-3.4722 4.1695 -2.0793 0.9770
-3.8448 3.8600 -2.0878 0.9769
-4.1884 3.5160 -2.0956 0.9768
-4.4996 3.1404 -2.1027 0.9768
-5.2086 1.8558 -2.1189 0.9766
-5.3618 1.3877 -2.1224 0.9766
-5.4416 -1.0569 -2.1243 0.9765
-5.3191 -1.5345 -2.1215 0.9766
-4.4069 -3.2602 -2.1007 0.9768
-4.0853 -3.6263 -2.0934 0.9769
2.9802 -3.6615 -1.9322 0.9798
3.2821 -3.3700 -1.9253 0.9799
3.5571 -3.0549 -1.9190 0.9799
3.8034 -2.7186 -1.9134 0.9800
4.0197 -2.3635 -1.9085 0.9800
4.2045 -1.9924 -1.9042 0.9801
4.4763 -1.2123 -1.8980 0.9802
4.6126 -0.3998 -1.8949 0.9802
4.6290 0.0119 -1.8945 0.9802
4.5576 0.8322 -1.8962 0.9802
3.5419 3.0735 -1.9193 0.9799
3.2653 3.3874 -1.9256 0.9799
2.9619 3.6774 -1.9325 0.9798
2.6334 3.9414 -1.9400 0.9797
1.1138 4.6945 -1.9747 0.9794
-0.1670 4.8934 -2.0039 0.9791
-0.6043 4.8833 -2.0139 0.9790
-1.4740 4.7454 -2.0337 0.9788
-1.8991 4.6175 -2.0434 0.9787
-2.3127 4.4508 -2.0528 0.9786
-2.7112 4.2463 -2.0619 0.9785
-3.0909 4.0053 -2.0706 0.9784
-3.4482 3.7293 -2.0788 0.9783
-4.0824 3.0809 -2.0932 0.9781
-4.3529 2.7138 -2.0994 0.9781
-4.7872 1.9090 -2.1093 0.9780
-4.9465 1.4783 -2.1130 0.9779
-2.0190 0.2279 -0.8316 0.9913
-1.9962 0.0467 -0.8172 0.9914
-2.0096 -0.1321 -0.8243 0.9913
-2.1041 -0.5231 -0.8874 0.9907
-4.4813 -2.5111 -2.1024 0.9780
-4.2287 -2.8916 -2.0966 0.9781
-2.9131 -4.1244 -2.0666 0.9784
-2.5241 -4.3483 -2.0578 0.9785
-1.6984 -4.6834 -2.0389 0.9787
-1.2692 -4.7927 -2.0291 0.9788
-0.8340 -4.8626 -2.0192 0.9789
0.0400 -4.8848 -1.9993 0.9791
0.4717 -4.8379 -1.9894 0.9792
1.3084 -4.6330 -1.9703 0.9794
1.7072 -4.4776 -1.9612 0.9795
2.4517 -4.0689 -1.9443 0.9797
2.7926 -3.8195 -1.9365 0.9798
3.1094 -3.5428 -1.9292 0.9798
3.4003 -3.2412 -1.9226 0.9799
3.6635 -2.9169 -1.9166 0.9800
3.8974 -2.5725 -1.9113 0.9800
4.4109 -1.4439 -1.8995 0.9801
4.5871 -0.6385 -1.8955 0.9802
4.6237 -0.2281 -1.8947 0.9802
4.6256 0.1839 -1.8946 0.9802
4.5927 0.5946 -1.8954 0.9802
4.5253 1.0013 -1.8969 0.9802
4.4238 1.4014 -1.8992 0.9801
3.4298 3.2073 -1.9219 0.9799
3.1418 3.5115 -1.9284 0.9798
2.8277 3.7909 -1.9356 0.9798
2.4893 4.0433 -1.9433 0.9797
1.7490 4.4587 -1.9602 0.9795
1.3519 4.6177 -1.9693 0.9794
0.5177 4.8304 -1.9883 0.9792
0.0866 4.8813 -1.9981 0.9791
-0.3494 4.8939 -2.0081 0.9790
-0.7870 4.8676 -2.0180 0.9789
-1.6526 4.6968 -2.0378 0.9787
-2.8722 4.1501 -2.0656 0.9784
-3.2430 3.8942 -2.0741 0.9783
-3.5900 3.6042 -2.0820 0.9783
-3.9098 3.2822 -2.0893 0.9782
-4.4557 2.5531 -2.1018 0.9780
-4.6762 2.1519 -2.1068 0.9780
-2.0422 0.3385 -0.8472 0.9911
-2.0122 0.1516 -0.8259 0.9913
-1.9938 -0.0275 -0.8161 0.9914
-2.0178 -0.2082 -0.8302 0.9913
-4.3801 -2.6729 -2.1001 0.9781
-4.1132 -3.0428 -2.0940 0.9781
-3.8139 -3.3854 -2.0872 0.9782
-3.4853 -3.6977 -2.0797 0.9783
3.3487 -2.8759 -1.9238 0.9809
4.1041 -1.5145 -1.9065 0.9811
4.2975 -0.7619 -1.9021 0.9811
4.3457 -0.3766 -1.9010 0.9811
4.2937 0.7840 -1.9022 0.9811
4.2111 1.1638 -1.9041 0.9811
3.9507 1.8970 -1.9100 0.9811
3.7743 2.2455 -1.9140 0.9810
3.5685 2.5784 -1.9187 0.9810
3.3344 2.8935 -1.9240 0.9809
3.0734 3.1883 -1.9300 0.9809
2.1464 3.9289 -1.9511 0.9807
1.4285 4.2826 -1.9675 0.9805
0.6533 4.5080 -1.9852 0.9803
0.2511 4.5693 -1.9944 0.9802
-0.9771 4.5364 -2.0224 0.9800
-1.3828 4.4519 -2.0316 0.9799
-2.5413 3.9803 -2.0581 0.9796
-3.2305 3.4938 -2.0738 0.9795
-3.5403 3.2036 -2.0809 0.9794
-4.0755 2.5408 -2.0931 0.9793
-4.4808 1.7868 -2.1023 0.9792
-1.4937 0.4464 -0.6795 0.9932
-1.4899 -0.3704 -0.6691 0.9933
-1.4906 -0.5151 -0.6873 0.9931
-4.3973 -1.9729 -2.1005 0.9792
-4.1953 -2.3508 -2.0959 0.9792
-3.6923 -3.0399 -2.0844 0.9793
-1.9860 -4.2526 -2.0455 0.9797
-1.5931 -4.3930 -2.0365 0.9798
-1.1908 -4.4968 -2.0273 0.9799
-0.7827 -4.5638 -2.0180 0.9800
-0.3722 -4.5939 -2.0087 0.9801
0.0375 -4.5874 -1.9993 0.9802
1.2298 -4.3548 -1.9721 0.9804
2.3063 -3.8276 -1.9476 0.9807
2.6276 -3.5938 -1.9402 0.9808
2.9264 -3.3343 -1.9334 0.9808
3.2008 -3.0510 -1.9272 0.9809
3.8620 -2.0817 -1.9121 0.9810
4.0240 -1.7268 -1.9084 0.9811
4.1550 -1.3601 -1.9054 0.9811
4.3216 -0.6016 -1.9016 0.9811
4.3561 -0.2149 -1.9008 0.9811
4.3579 0.1732 -1.9007 0.9811
4.3268 0.5602 -1.9014 0.9811
4.0395 1.6879 -1.9080 0.9811
3.8807 2.0442 -1.9116 0.9810
3.6919 2.3865 -1.9159 0.9810
3.2286 3.0191 -1.9265 0.9809
2.9569 3.3048 -1.9327 0.9808
2.0023 4.0127 -1.9544 0.9806
0.8838 4.4562 -1.9799 0.9804
0.0814 4.5843 -1.9982 0.9802
-0.3280 4.5948 -2.0076 0.9801
-1.1472 4.5056 -2.0263 0.9799
-1.5502 4.4057 -2.0355 0.9798
-2.3260 4.0968 -2.0532 0.9797
-2.6919 3.8896 -2.0615 0.9796
-3.6618 3.0740 -2.0836 0.9794
-4.1715 2.3902 -2.0953 0.9792
-1.4883 0.5303 -0.6886 0.9931
-1.4625 0.1102 -0.6392 0.9936
-1.4699 -0.1517 -0.6440 0.9936
-1.4936 -0.4309 -0.6775 0.9932
-1.5468 -0.5997 -0.7230 0.9928
-4.3172 -2.1330 -2.0986 0.9792
-4.1008 -2.5025 -2.0937 0.9793
-3.8517 -2.8494 -2.0880 0.9793
2.9146 -2.9926 -1.9337 0.9818
3.1600 -2.7138 -1.9281 0.9818
3.3799 -2.4158 -1.9231 0.9819
3.5731 -2.1010 -1.9187 0.9819
3.8747 -1.4298 -1.9118 0.9820
4.0578 -0.7194 -1.9076 0.9820
3.9760 1.0988 -1.9094 0.9820
3.8676 1.4498 -1.9119 0.9820
3.5626 2.1195 -1.9188 0.9819
3.3678 2.4334 -1.9233 0.9819
3.1464 2.7304 -1.9283 0.9818
2.8997 3.0080 -1.9340 0.9818
2.0238 3.7045 -1.9539 0.9816
1.3463 4.0360 -1.9694 0.9814
0.9862 4.1569 -1.9776 0.9813
-0.1476 4.3257 -2.0035 0.9811
-0.5339 4.3143 -2.0123 0.9810
-1.3008 4.1877 -2.0298 0.9809
-1.6749 4.0725 -2.0383 0.9808
-2.3886 3.7411 -2.0546 0.9806
-2.7218 3.5270 -2.0622 0.9806
-3.0350 3.2824 -2.0693 0.9805
-3.5902 2.7095 -2.0820 0.9804
-3.8268 2.3858 -2.0874 0.9803
-1.2536 0.4999 -0.6247 0.9941
-1.2699 0.3795 -0.6135 0.9942
-1.2749 0.1439 -0.5939 0.9944
-3.9390 -2.2072 -2.0900 0.9803
-3.1906 -3.1425 -2.0730 0.9805
-2.8890 -3.4024 -2.0661 0.9805
-2.2243 -3.8320 -2.0509 0.9807
-1.4983 -4.1317 -2.0344 0.9808
-1.1203 -4.2305 -2.0257 0.9809
-0.7366 -4.2947 -2.0170 0.9810
0.4174 -4.2802 -1.9907 0.9812
0.7928 -4.2080 -1.9821 0.9813
1.5129 -3.9679 -1.9657 0.9815
2.1748 -3.6093 -1.9506 0.9816
2.4783 -3.3896 -1.9436 0.9817
2.7606 -3.1454 -1.9372 0.9817
3.0201 -2.8787 -1.9313 0.9818
3.2550 -2.5916 -1.9259 0.9818
3.7988 -1.6302 -1.9135 0.9819
4.0170 -0.9292 -1.9085 0.9820
4.1133 -0.2029 -1.9063 0.9820
3.9344 1.2464 -1.9104 0.9820
3.8135 1.5935 -1.9131 0.9819
3.6633 1.9297 -1.9166 0.9819
2.5096 3.3644 -1.9429 0.9817
1.5500 3.9514 -1.9647 0.9815
0.8326 4.1981 -1.9811 0.9813
0.4580 4.2739 -1.9896 0.9812
0.0766 4.3165 -1.9983 0.9812
-1.8282 4.0144 -2.0418 0.9807
-2.1866 3.8513 -2.0500 0.9807
-2.5299 3.6556 -2.0578 0.9806
-3.6925 2.5771 -2.0843 0.9803
-3.9166 2.2442 -2.0895 0.9803
-1.2630 0.4500 -0.6206 0.9941
-1.2705 0.3288 -0.6075 0.9942
-1.2735 0.2111 -0.5975 0.9943
-1.2745 -0.1315 -0.5931 0.9944
-1.2701 -0.2467 -0.5989 0.9943
-1.2704 -0.3665 -0.6120 0.9942
-4.0531 -2.0025 -2.0926 0.9803
-3.8505 -2.3497 -2.0880 0.9803
-3.3553 -2.9783 -2.0767 0.9804
-3.0675 -3.2545 -2.0701 0.9805
2.7556 -2.8293 -1.9373 0.9826
3.5362 -1.6757 -1.9195 0.9827
3.7667 -1.0202 -1.9142 0.9828
3.8392 -0.6806 -1.9126 0.9828
3.8964 0.0100 -1.9113 0.9828
3.8807 0.3564 -1.9116 0.9828
3.8357 0.7004 -1.9126 0.9828
2.9751 2.5817 -1.9322 0.9826
2.7414 2.8438 -1.9376 0.9826
2.4852 3.0856 -1.9434 0.9825
1.9122 3.5003 -1.9565 0.9824
1.5993 3.6698 -1.9636 0.9823
1.2715 3.8119 -1.9711 0.9823
0.9313 3.9252 -1.9789 0.9822
0.5810 4.0086 -1.9868 0.9821
-1.5788 3.8389 -2.0361 0.9817
-1.9212 3.6975 -2.0439 0.9816
-2.2506 3.5250 -2.0514 0.9815
-2.5639 3.3225 -2.0586 0.9815
-2.8585 3.0914 -2.0653 0.9814
-1.1379 0.0266 -0.5583 0.9949
-1.1430 -0.1782 -0.5675 0.9949
-1.1250 -0.3887 -0.5839 0.9947
-2.4173 -3.4224 -2.0553 0.9815
-2.0960 -3.6109 -2.0480 0.9816
-1.7601 -3.7688 -2.0403 0.9816
-0.6947 -4.0508 -2.0160 0.9819
-0.3305 -4.0797 -2.0077 0.9819
0.0334 -4.0759 -1.9994 0.9820
0.7485 -3.9729 -1.9831 0.9821
1.0944 -3.8752 -1.9752 0.9822
1.7500 -3.5927 -1.9603 0.9824
2.0552 -3.4107 -1.9533 0.9824
2.6097 -2.9735 -1.9406 0.9825
2.8554 -2.7218 -1.9350 0.9826
3.8083 0.8427 -1.9133 0.9828
3.1004 2.4205 -1.9294 0.9826
2.8804 2.6935 -1.9344 0.9826
2.6371 2.9473 -1.9400 0.9825
2.3720 3.1800 -1.9460 0.9825
2.0868 3.3896 -1.9525 0.9824
1.7835 3.5743 -1.9594 0.9824
1.1309 3.8628 -1.9743 0.9822
0.4324 4.0343 -1.9902 0.9821
0.0723 4.0735 -1.9984 0.9820
-1.7232 3.7837 -2.0394 0.9816
-2.0605 3.6292 -2.0471 0.9816
-2.3835 3.4440 -2.0545 0.9815
-2.6893 3.2294 -2.0615 0.9815
-2.9752 2.9869 -2.0680 0.9814
-3.2383 2.7185 -2.0740 0.9813
-3.4762 2.4262 -2.0794 0.9813
-3.6867 2.1124 -2.0842 0.9812
-1.1231 0.4002 -0.5848 0.9947
-1.1330 0.2932 -0.5741 0.9948
-1.1435 0.0862 -0.5625 0.9949
-1.1362 -0.0157 -0.5574 0.9949
-3.6246 -2.2119 -2.0828 0.9813
-3.4054 -2.5193 -2.0778 0.9813
-2.8889 -3.0651 -2.0661 0.9814
2.3681 -2.9095 -1.9461 0.9832
2.6100 -2.6798 -1.9406 0.9833
2.8305 -2.4308 -1.9356 0.9833
3.0283 -2.1645 -1.9311 0.9834
3.4738 -1.2819 -1.9209 0.9835
3.5699 -0.9669 -1.9187 0.9835
3.6931 0.0095 -1.9159 0.9835
3.6782 0.3378 -1.9162 0.9835
3.4674 1.2998 -1.9210 0.9835
3.3430 1.6052 -1.9239 0.9834
3.1927 1.8995 -1.9273 0.9834
3.0175 2.1803 -1.9313 0.9834
2.8183 2.4456 -1.9358 0.9833
2.5965 2.6935 -1.9409 0.9833
0.5495 3.7916 -1.9876 0.9829
0.2111 3.8403 -1.9953 0.9828
-0.4761 3.8470 -2.0110 0.9827
-2.1250 3.3283 -2.0486 0.9824
-2.6980 2.9179 -2.0617 0.9823
-0.9692 0.6042 -0.5925 0.9949
-0.9679 0.4898 -0.5627 0.9951
-1.0174 0.3041 -0.5509 0.9952
-1.0375 0.1171 -0.5416 0.9953
-1.0329 0.0241 -0.5360 0.9954
-1.0368 -0.0682 -0.5390 0.9953
-1.0348 -0.1613 -0.5433 0.9953
-2.8357 -2.7930 -2.0649 0.9822
-2.5686 -3.0251 -2.0588 0.9823
-1.9792 -3.4098 -2.0453 0.9824
-1.3344 -3.6797 -2.0306 0.9825
-0.9982 -3.7695 -2.0229 0.9826
-0.6566 -3.8285 -2.0152 0.9826
0.0315 -3.8540 -1.9995 0.9828
0.7081 -3.7583 -1.9840 0.9829
1.9457 -3.2291 -1.9558 0.9832
2.9159 -2.3217 -1.9336 0.9833
3.1039 -2.0487 -1.9294 0.9834
3.2674 -1.7612 -1.9256 0.9834
3.4054 -1.4614 -1.9225 0.9834
3.5172 -1.1513 -1.9199 0.9835
3.6593 -0.5094 -1.9167 0.9835
3.6888 -0.1820 -1.9160 0.9835
3.6638 0.4743 -1.9166 0.9835
3.6094 0.7987 -1.9178 0.9835
3.4187 1.4285 -1.9221 0.9834
3.2834 1.7296 -1.9252 0.9834
3.1226 2.0184 -1.9289 0.9834
2.9372 2.2931 -1.9331 0.9833
2.4975 2.7914 -1.9431 0.9833
2.2461 3.0112 -1.9489 0.9832
1.9757 3.2091 -1.9550 0.9832
1.6883 3.3833 -1.9616 0.9831
1.0700 3.6549 -1.9757 0.9830
0.4089 3.8156 -1.9908 0.9829
-0.2754 3.8577 -2.0064 0.9827
-1.6276 3.5738 -2.0372 0.9825
-2.5386 3.0484 -2.0580 0.9823
-0.9531 0.5461 -0.5698 0.9951
-0.9832 0.4525 -0.5615 0.9951
-1.0093 0.3596 -0.5558 0.9952
-1.0200 0.2640 -0.5466 0.9953
-1.0315 -0.0142 -0.5352 0.9954
-1.0183 -0.2938 -0.5498 0.9952
-1.0029 -0.3888 -0.5580 0.9952
2.2462 -2.7598 -1.9489 0.9839
2.6856 -2.3064 -1.9389 0.9840
3.0389 -1.7869 -1.9308 0.9841
3.1804 -1.5071 -1.9276 0.9841
1.8841 -0.5103 -1.0691 0.9911
1.8852 -0.3342 -1.0486 0.9913
1.8884 -0.1637 -1.0382 0.9914
1.8726 0.0048 -1.0256 0.9915
1.8834 0.5205 -1.0702 0.9911
3.2911 1.2337 -1.9250 0.9841
3.1729 1.5235 -1.9277 0.9841
2.8633 2.0689 -1.9348 0.9840
1.4351 3.2929 -1.9674 0.9838
0.2000 3.6380 -1.9955 0.9835
-1.7167 3.3039 -2.0393 0.9832
-2.0102 3.1485 -2.0460 0.9831
-2.5514 2.7593 -2.0583 0.9830
-2.7941 2.5283 -2.0639 0.9830
-0.8642 0.5388 -0.5578 0.9954
-0.9080 0.3621 -0.5354 0.9956
-0.9471 0.1069 -0.5220 0.9957
-0.9468 -0.0623 -0.5197 0.9957
-0.9163 -0.3166 -0.5310 0.9956
-0.8994 -0.4035 -0.5399 0.9955
-0.8760 -0.5990 -0.5812 0.9952
-2.9130 -2.3983 -2.0666 0.9829
-2.6814 -2.6410 -2.0613 0.9830
-2.4292 -2.8609 -2.0556 0.9830
-2.1587 -3.0563 -2.0494 0.9831
-0.9449 -3.5683 -2.0217 0.9833
-0.6217 -3.6249 -2.0144 0.9834
0.0299 -3.6506 -1.9995 0.9835
1.2820 -3.3624 -1.9709 0.9837
2.1037 -2.8773 -1.9522 0.9839
2.3445 -2.6713 -1.9467 0.9839
3.1009 -1.6715 -1.9294 0.9841
1.8720 -0.6128 -1.0789 0.9911
1.8865 -0.4364 -1.0605 0.9912
1.8886 -0.2629 -1.0443 0.9913
1.8840 -0.0929 -1.0331 0.9914
1.8888 0.2445 -1.0431 0.9914
1.8751 0.5940 -1.0773 0.9911
3.2448 1.3559 -1.9261 0.9841
3.1162 1.6415 -1.9290 0.9841
2.9632 1.9155 -1.9325 0.9840
2.7870 2.1758 -1.9365 0.9840
2.3692 2.6480 -1.9461 0.9839
2.1304 2.8561 -1.9515 0.9839
1.6007 3.2079 -1.9636 0.9838
1.0142 3.4642 -1.9770 0.9837
0.0647 3.6485 -1.9986 0.9835
-0.2608 3.6534 -2.0061 0.9834
-0.5868 3.6291 -2.0135 0.9834
-1.2291 3.4931 -2.0281 0.9833
-1.8408 3.2423 -2.0421 0.9831
-2.1286 3.0757 -2.0487 0.9831
-0.8713 0.4992 -0.5500 0.9954
-0.8971 0.4129 -0.5409 0.9955
-0.9144 0.3258 -0.5317 0.9956
-0.9471 0.0714 -0.5202 0.9957
-0.9426 -0.0130 -0.5163 0.9957
-0.9396 -0.1825 -0.5242 0.9956
-0.9236 -0.2664 -0.5265 0.9956
-0.8901 -0.4398 -0.5438 0.9955
-0.8614 -0.5257 -0.5527 0.9954
-3.0376 -2.2471 -2.0695 0.9829
-2.5785 -2.7357 -2.0590 0.9830
2.3523 -2.4152 -1.9465 0.9845
2.5517 -2.1914 -1.9420 0.9846
2.8880 -1.6981 -1.9343 0.9846
3.0227 -1.4324 -1.9312 0.9847
1.7377 -0.3081 -1.0189 0.9919
1.7404 -0.1508 -1.0086 0.9920
1.7267 0.0044 -0.9969 0.9921
1.7369 0.3172 -1.0194 0.9919
1.7280 0.4775 -1.0351 0.9918
1.6990 0.6369 -1.0476 0.9917
3.0155 1.4480 -1.9313 0.9847
2.8795 1.7131 -1.9344 0.9846
2.5407 2.2047 -1.9422 0.9846
1.0827 3.2457 -1.9754 0.9843
0.7925 3.3402 -1.9820 0.9843
0.1897 3.4516 -1.9958 0.9842
-0.4276 3.4548 -2.0099 0.9840
-0.7356 3.4150 -2.0169 0.9840
-1.0398 3.3476 -2.0238 0.9839
-1.3378 3.2528 -2.0306 0.9839
-2.1688 2.8104 -2.0496 0.9837
-2.6463 2.3946 -2.0605 0.9837
-0.8050 0.5019 -0.5477 0.9956
-0.8337 0.4219 -0.5395 0.9957
-0.8654 0.2586 -0.5214 0.9958
-0.8768 0.1790 -0.5166 0.9959
-0.8821 0.0996 -0.5125 0.9959
-0.8797 0.0206 -0.5081 0.9959
-0.8818 -0.0580 -0.5102 0.9959
-0.8715 -0.2167 -0.5185 0.9959
-0.8610 -0.2975 -0.5260 0.9958
-0.7975 -0.5454 -0.5578 0.9955
-2.7587 -2.2713 -2.0631 0.9836
-2.5397 -2.5014 -2.0581 0.9837
-1.7744 -3.0568 -2.0406 0.9838
-0.8959 -3.3832 -2.0206 0.9840
-0.5896 -3.4375 -2.0136 0.9840
0.6368 -3.3798 -1.9856 0.9842
1.4913 -3.0616 -1.9661 0.9844
1.7523 -2.9080 -1.9602 0.9844
2.6290 -2.0932 -1.9402 0.9846
2.7990 -1.8475 -1.9363 0.9846
3.0721 -1.3183 -1.9301 0.9847
1.7347 0.0690 -1.0023 0.9920
1.7418 0.2255 -1.0140 0.9919
1.7187 0.5445 -1.0409 0.9917
1.8267 0.7633 -1.1430 0.9909
2.9615 1.5600 -1.9326 0.9847
2.8160 1.8202 -1.9359 0.9846
2.4594 2.2998 -1.9440 0.9846
2.0235 2.7128 -1.9540 0.9845
1.7794 2.8901 -1.9595 0.9844
1.5200 3.0461 -1.9654 0.9844
1.2471 3.1792 -1.9717 0.9844
0.3676 3.4301 -1.9917 0.9842
0.0614 3.4613 -1.9987 0.9841
-0.2474 3.4652 -2.0057 0.9841
-0.8632 3.3902 -2.0198 0.9840
-1.1651 3.3113 -2.0267 0.9839
-1.7444 3.0725 -2.0399 0.9838
-2.5149 2.5249 -2.0575 0.9837
-0.7990 0.5577 -0.5626 0.9955
-0.8180 0.4687 -0.5443 0.9957
-0.8597 0.3063 -0.5269 0.9958
-0.8799 0.1458 -0.5150 0.9959
-0.8790 -0.0121 -0.5076 0.9959
-0.8555 -0.3317 -0.5297 0.9958
-0.8363 -0.4132 -0.5385 0.9957
-0.8085 -0.4934 -0.5468 0.9956
-2.4424 -2.5913 -2.0559 0.9837
