ply
format ascii 1.0
element vertex 1261
property float32 x
property float32 y
property float32 z
property float32 I
end_header
1.3746 -13.1638 2.3337 0.9477
1.3751 -13.1688 2.0284 0.9478
-1.4290 17.7477 2.7276 0.9305
-5.7355 9.8847 1.4882 0.9549
1.3762 -13.1788 1.4229 0.9481
1.3767 -13.1837 1.1221 0.9482
1.3782 -13.1985 0.2242 0.9483
-5.7270 9.8701 0.1928 0.9554
1.3787 -13.2034 -0.0747 0.9483
1.3792 -13.2083 -0.3739 0.9482
6.5730 3.5319 -0.2101 0.9706
6.5856 3.1461 -0.2055 0.9712
1.3798 -13.2133 -0.6737 0.9482
6.4404 3.4607 -0.3708 0.9711
-3.8815 8.3164 -0.4654 0.9639
-4.8312 8.3262 -0.4882 0.9622
-15.7140 8.8009 -0.9134 0.9304
7.8278 2.9159 -0.4236 0.9671
8.6347 2.8127 -0.6659 0.9642
6.7494 2.8854 -0.5382 0.9710
6.3667 3.4210 -0.5299 0.9714
5.5154 14.4308 -1.1327 0.9399
-3.8815 8.3163 -0.6729 0.9639
-4.8311 8.3262 -0.7058 0.9621
-13.6986 13.4917 -1.4098 0.9258
-8.5489 7.0372 -0.8119 0.9566
-8.7456 5.9783 -0.7768 0.9584
-10.7640 -11.6685 -1.1640 0.9383
7.6743 2.8587 -0.6005 0.9677
6.3721 3.0441 -0.5178 0.9721
-16.1766 -11.2065 -1.8893 0.9240
-13.1872 -13.1508 -1.7880 0.9279
-11.9979 -14.3112 -1.7929 0.9277
-4.7397 -18.3866 -1.8229 0.9265
-3.0966 -18.8052 -1.8297 0.9263
-1.4167 -19.0781 -1.8366 0.9260
0.1878 -12.5507 -1.2051 0.9508
2.7729 -14.1788 -1.3870 0.9436
7.0735 -18.1673 -1.8717 0.9246
8.6926 -17.5283 -1.8784 0.9244
10.2525 -16.7426 -1.8848 0.9241
11.7394 -15.8154 -1.8909 0.9239
13.1399 -14.7531 -1.8967 0.9237
8.3127 2.7078 -0.8393 0.9655
6.5383 2.7951 -0.6827 0.9718
6.2776 3.3732 -0.6842 0.9718
15.5492 12.3501 -1.9064 0.9233
14.3514 13.6489 -1.9014 0.9235
11.6850 15.9486 -1.8981 0.9236
10.2062 16.9023 -1.8956 0.9237
3.6330 19.2113 -1.8771 0.9244
-3.2453 18.9707 -1.8477 0.9256
-10.8321 15.3396 -1.8028 0.9273
-12.0912 14.2414 -1.7936 0.9277
-13.2645 13.0642 -1.7874 0.9279
-8.0897 6.6591 -1.0059 0.9588
-17.2121 7.7166 -1.8109 0.9270
-13.7767 -12.4942 -1.7855 0.9280
-10.7652 -11.6698 -1.5243 0.9382
-10.0739 -15.8233 -1.8009 0.9274
-8.6544 -16.7112 -1.8067 0.9272
1.0892 -19.2076 -1.8470 0.9256
2.8044 -19.1075 -1.8541 0.9253
4.5103 -18.8536 -1.8611 0.9251
6.1927 -18.4461 -1.8681 0.9248
7.8376 -17.8868 -1.8748 0.9245
10.9582 -16.3260 -1.8877 0.9240
-16.0254 -2.5933 -1.9284 0.9367
-14.8104 -6.7509 -1.9334 0.9365
-14.1705 -8.0528 -1.9361 0.9365
-13.4195 -9.2965 -1.9392 0.9364
-12.5622 -10.4726 -1.9427 0.9362
-9.7471 -11.6263 -1.8022 0.9407
-7.5699 -13.2355 -1.8112 0.9404
-5.1329 -14.4475 -1.8212 0.9401
-2.5060 -15.2186 -1.8321 0.9398
-1.1457 -15.4284 -1.8377 0.9396
0.1878 -12.5506 -1.4910 0.9507
5.6995 -14.6383 -1.8660 0.9387
8.2498 -13.4720 -1.8765 0.9383
10.5601 -11.8566 -1.8860 0.9380
12.5575 -11.7949 -2.0465 0.9330
16.5455 -5.2758 -2.0629 0.9324
17.2423 -2.2632 -2.0657 0.9323
17.3748 0.8286 -2.0662 0.9323
17.2270 2.3704 -2.0656 0.9324
6.3533 2.7160 -0.8207 0.9726
6.2081 3.3358 -0.8371 0.9720
12.4838 9.9155 -1.8937 0.9378
11.5281 10.9638 -1.8898 0.9379
10.4829 11.9186 -1.8855 0.9381
9.3578 12.7723 -1.8808 0.9382
4.0878 8.3734 -1.1068 0.9632
-2.6069 15.2388 -1.8364 0.9396
-3.8815 8.3163 -1.0902 0.9637
-4.8311 8.3262 -1.1435 0.9620
-6.3386 8.9762 -1.3053 0.9567
-9.8164 11.5620 -1.8016 0.9407
-10.2606 5.7466 -1.3969 0.9537
-15.7641 3.9128 -1.9294 0.9367
-16.1933 1.0561 -1.9276 0.9367
-16.2222 -0.3887 -1.9275 0.9367
-15.9075 -3.2597 -1.9288 0.9367
-14.5251 -7.3667 -1.9346 0.9365
-13.8326 -8.6426 -1.9375 0.9364
-13.0312 -9.8557 -1.9408 0.9363
-8.1772 -12.8441 -1.8087 0.9405
-5.8028 -14.1665 -1.8185 0.9402
-4.5325 -14.6688 -1.8237 0.9400
-1.8723 -15.3317 -1.8347 0.9397
-0.5024 -15.4851 -1.8404 0.9395
0.7118 -12.5523 -1.4934 0.9506
3.6381 -15.2080 -1.8575 0.9390
6.3131 -14.4076 -1.8685 0.9386
8.8149 -13.1328 -1.8788 0.9383
9.9736 -12.3278 -1.8836 0.9381
13.0511 -11.2725 -2.0485 0.9329
15.6457 -7.4645 -2.0592 0.9326
16.2679 -6.0505 -2.0617 0.9325
17.3953 0.0045 -2.0663 0.9323
17.3233 1.5518 -2.0660 0.9323
17.1091 3.0854 -2.0651 0.9324
9.4111 2.5793 -1.1591 0.9615
6.2206 2.9717 -0.8189 0.9726
5.9234 3.5085 -0.8178 0.9726
12.9529 9.3224 -1.8957 0.9377
9.9658 12.3311 -1.8833 0.9381
-13.5074 -2.1859 -1.9387 0.9462
-12.9224 -4.5508 -1.9412 0.9462
-12.4782 -5.6878 -1.9430 0.9461
-11.3009 -7.8288 -1.9479 0.9460
-9.7664 -9.7394 -1.9543 0.9458
-8.8778 -10.5895 -1.9579 0.9457
-6.4195 -11.2239 -1.8320 0.9491
-5.3608 -11.6750 -1.8203 0.9494
-3.2224 -12.5007 -1.8291 0.9492
-2.1028 -12.7700 -1.8337 0.9491
-0.9608 -12.9397 -1.8385 0.9489
0.1865 -12.4622 -1.7660 0.9509
2.4141 -12.3439 -1.7821 0.9505
3.6508 -12.5911 -1.8575 0.9484
9.5479 -10.7201 -2.0340 0.9437
10.4835 -9.8468 -2.0379 0.9436
12.1021 -7.8586 -2.0445 0.9434
13.3363 -5.6033 -2.0496 0.9432
14.1409 -3.1562 -2.0529 0.9431
14.3722 -1.8865 -2.0539 0.9431
14.4863 -0.6005 -2.0543 0.9431
14.1200 3.2439 -2.0528 0.9431
8.1253 2.6467 -1.2108 0.9661
5.9147 3.8933 -1.0033 0.9718
10.4188 8.2753 -1.8852 0.9477
9.6245 9.1534 -1.8819 0.9478
8.7552 9.9543 -1.8783 0.9479
7.8188 10.6717 -1.8745 0.9480
6.8234 11.3001 -1.8704 0.9481
4.0789 8.3554 -1.3174 0.9631
3.2008 8.3747 -1.2703 0.9644
3.5712 12.6096 -1.8569 0.9484
2.4290 12.8446 -1.8522 0.9486
-1.0411 12.9293 -1.8379 0.9489
-2.1816 12.7526 -1.8332 0.9491
-3.2992 12.4765 -1.8285 0.9492
-4.8311 8.3262 -1.3639 0.9619
-6.3386 8.9762 -1.5570 0.9566
-8.2591 9.7278 -1.8081 0.9498
-7.0749 6.9681 -1.4070 0.9607
-8.4174 5.7540 -1.4447 0.9596
-10.2911 5.7637 -1.6713 0.9535
-12.5117 5.6093 -1.9428 0.9461
-13.5201 2.1016 -1.9387 0.9462
-13.5932 -1.5431 -1.9384 0.9462
-12.2366 -6.2061 -1.9440 0.9461
-11.6505 -7.2792 -1.9465 0.9460
-9.3601 -10.1466 -1.9560 0.9458
-7.1393 -11.2139 -1.8836 0.9477
-5.9007 -11.3940 -1.8180 0.9495
-2.7018 -12.6390 -1.8313 0.9491
-0.4213 -12.9842 -1.8407 0.9489
1.8164 -12.3757 -1.7723 0.9507
3.0460 -12.7328 -1.8550 0.9485
4.1772 -12.4425 -1.8597 0.9484
5.2805 -12.0510 -1.8642 0.9482
6.3466 -11.5606 -1.8686 0.9481
9.9953 -10.3223 -2.0359 0.9436
11.7068 -8.4165 -2.0429 0.9434
13.9708 -3.8213 -2.0522 0.9432
14.4991 0.0037 -2.0544 0.9431
14.4394 1.2934 -2.0541 0.9431
9.4327 2.5853 -1.3858 0.9613
7.0145 2.6130 -1.0606 0.9702
6.1973 2.9606 -0.9731 0.9726
5.9161 3.5042 -0.9743 0.9726
10.0569 8.6954 -1.8837 0.9477
9.2266 9.5382 -1.8803 0.9478
8.3249 10.3007 -1.8766 0.9479
-11.6631 -1.8874 -1.9464 0.9532
-11.4541 -2.9188 -1.9472 0.9532
-10.7711 -4.9097 -1.9501 0.9531
-9.7516 -6.7555 -1.9543 0.9530
-8.4237 -8.4004 -1.9598 0.9529
-5.9373 -10.3809 -1.9701 0.9527
-4.9946 -10.8775 -1.9718 0.9526
-1.8475 -11.2195 -1.8732 0.9550
0.1680 -11.2262 -1.8496 0.9555
2.1943 -11.2205 -1.8835 0.9547
4.3623 -11.2040 -1.9807 0.9524
6.4068 -10.4624 -2.0211 0.9515
7.3259 -9.8694 -2.0248 0.9514
10.3724 -6.7354 -2.0374 0.9511
10.9431 -5.7926 -2.0397 0.9510
12.1127 -2.7035 -2.0445 0.9509
12.3101 -1.6158 -2.0453 0.9509
12.4073 -0.5143 -2.0457 0.9509
12.4037 0.5916 -2.0457 0.9509
12.0949 2.7787 -2.0444 0.9509
5.9071 3.8883 -1.1650 0.9717
7.5097 8.5381 -1.8732 0.9550
5.8562 9.6984 -1.8664 0.9551
4.0789 8.3554 -1.5317 0.9630
3.0681 10.8333 -1.8549 0.9554
2.0876 11.0391 -1.8508 0.9555
1.0948 11.1563 -1.8467 0.9556
-4.8311 8.3261 -1.5858 0.9617
-6.2605 8.8657 -1.7880 0.9570
-7.2056 7.0968 -1.6661 0.9598
-10.8003 4.8420 -1.9499 0.9532
-11.6741 1.8147 -1.9463 0.9532
-11.7865 0.7687 -1.9458 0.9532
-11.5764 -2.3722 -1.9467 0.9532
-11.3256 -3.3945 -1.9478 0.9532
-10.9866 -4.3918 -1.9492 0.9532
-10.5619 -5.3567 -1.9509 0.9531
-10.0543 -6.2819 -1.9530 0.9531
-9.4673 -7.1603 -1.9555 0.9530
-8.8051 -7.9854 -1.9582 0.9530
-6.4160 -10.0778 -1.9681 0.9527
-4.5339 -11.0687 -1.9705 0.9527
0.6366 -11.2255 -1.8523 0.9554
1.6472 -11.2228 -1.8687 0.9551
3.7633 -11.2097 -1.9480 0.9532
4.8914 -11.1631 -2.0078 0.9518
6.8433 -10.1954 -2.0229 0.9514
7.7373 -9.5636 -2.0265 0.9514
10.0348 -7.2144 -2.0360 0.9511
10.6500 -6.3008 -2.0385 0.9511
12.2174 -2.1968 -2.0450 0.9509
12.4182 0.0032 -2.0458 0.9509
12.3674 1.1078 -2.0456 0.9509
12.2160 2.2030 -2.0449 0.9509
10.0303 7.2189 -2.0358 0.9511
8.9229 7.7149 -1.9432 0.9533
7.9128 8.1800 -1.8749 0.9549
-10.0684 -2.5657 -1.9530 0.9586
-9.8057 -3.4532 -1.9540 0.9586
-8.5682 -5.9357 -1.9592 0.9585
-7.3989 -7.3784 -1.9640 0.9584
-5.9918 -8.5983 -1.9698 0.9582
-4.3879 -9.5561 -1.9765 0.9581
-3.5266 -9.9264 -1.9800 0.9580
-2.6345 -10.2198 -1.9837 0.9580
2.0453 -10.4586 -2.0030 0.9576
3.8811 -9.9681 -2.0106 0.9574
5.6060 -9.1548 -2.0177 0.9572
6.4087 -8.6339 -2.0210 0.9572
9.9853 -4.1953 -2.0358 0.9569
10.3260 -3.2926 -2.0372 0.9568
10.8401 -0.4493 -2.0393 0.9568
10.7460 1.4786 -2.0389 0.9568
10.5680 2.4279 -2.0381 0.9568
6.0625 3.2576 -1.2936 0.9724
5.8995 3.8833 -1.3275 0.9717
7.8019 7.4200 -2.0238 0.9571
5.8688 8.0101 -1.8664 0.9604
5.1244 8.4865 -1.8634 0.9605
3.2008 8.3746 -1.6852 0.9642
0.9592 9.7751 -1.8462 0.9608
-0.7852 9.7522 -1.8390 0.9610
-1.6465 9.6250 -1.8354 0.9610
-2.4916 9.4224 -1.8319 0.9611
-3.3138 9.1464 -1.8285 0.9612
-3.8814 8.3163 -1.7250 0.9633
-4.8526 8.3631 -1.8174 0.9614
-6.5459 7.7099 -1.9010 0.9597
-9.0838 5.0875 -1.9569 0.9585
-10.1763 -2.0853 -1.9525 0.9586
-9.9552 -2.9838 -1.9534 0.9586
-8.3178 -6.2909 -1.9602 0.9584
-6.3872 -8.2978 -1.9682 0.9583
-5.6325 -8.8472 -1.9713 0.9582
-4.8312 -9.3288 -1.9746 0.9581
-3.1126 -10.0735 -1.9817 0.9580
-0.3439 -10.5987 -1.9932 0.9578
0.6016 -10.6080 -1.9971 0.9577
1.5459 -10.5329 -2.0010 0.9576
3.4011 -10.1308 -2.0086 0.9574
4.2968 -9.8061 -2.0123 0.9574
5.1613 -9.4016 -2.0159 0.9573
6.7679 -8.3654 -2.0225 0.9572
8.1666 -7.0536 -2.0283 0.9570
8.7725 -6.3068 -2.0308 0.9570
9.3089 -5.5074 -2.0330 0.9569
10.1549 -3.7769 -2.0365 0.9569
10.4570 -2.8602 -2.0377 0.9568
10.8059 -0.9624 -2.0391 0.9568
10.8496 0.0028 -2.0393 0.9568
10.6734 1.9248 -2.0385 0.9568
6.1445 2.9354 -1.2800 0.9727
5.9013 3.4955 -1.2892 0.9725
6.2490 7.7322 -1.8686 0.9603
-8.4360 -3.8453 -1.9597 0.9628
-5.3353 -7.6561 -1.9725 0.9626
-4.6398 -8.1122 -1.9754 0.9625
-3.9056 -8.5059 -1.9785 0.9625
-3.1384 -8.8338 -1.9816 0.9624
-2.3440 -9.0930 -1.9849 0.9623
-0.6978 -9.3965 -1.9917 0.9622
0.1412 -9.4378 -1.9952 0.9621
0.9820 -9.4041 -1.9986 0.9621
4.9785 -8.1300 -2.0151 0.9618
6.3584 -7.1391 -2.0208 0.9617
6.9771 -6.5534 -2.0234 0.9616
8.4860 -4.4920 -2.0296 0.9615
8.8587 -3.7220 -2.0311 0.9615
9.1603 -2.9209 -2.0323 0.9615
9.3881 -2.0954 -2.0333 0.9614
7.5031 5.9595 -2.0254 0.9616
6.9351 6.5957 -2.0231 0.9616
4.6605 7.7183 -1.9059 0.9638
3.8564 7.8995 -1.8581 0.9647
3.1333 8.1980 -1.8552 0.9648
2.3875 8.4302 -1.8521 0.9648
0.0761 8.7163 -1.8425 0.9650
-0.6984 8.6734 -1.8393 0.9651
-2.2169 8.3837 -1.8331 0.9652
-2.9491 8.1398 -1.8300 0.9652
-6.0304 7.1028 -1.9695 0.9626
-7.1765 5.9074 -1.9648 0.9627
-7.6657 5.2402 -1.9628 0.9627
-8.4590 3.7924 -1.9595 0.9628
-8.9873 2.2307 -1.9574 0.9628
-9.2522 -0.2217 -1.9563 0.9629
-9.1969 -1.0441 -1.9565 0.9629
-9.0700 -1.8586 -1.9571 0.9629
-8.8725 -2.6593 -1.9579 0.9628
-8.6056 -3.4400 -1.9590 0.9628
-7.8719 -4.9183 -1.9620 0.9628
-7.4104 -5.6046 -1.9640 0.9627
-6.3143 -6.8450 -1.9685 0.9626
-2.7697 -8.9638 -1.9832 0.9624
-1.9646 -9.1900 -1.9865 0.9623
0.5348 -9.4313 -1.9968 0.9621
1.3742 -9.3626 -2.0003 0.9621
2.2054 -9.2190 -2.0037 0.9620
3.8170 -8.7110 -2.0103 0.9619
5.3167 -7.9210 -2.0165 0.9617
6.0087 -7.4271 -2.0194 0.9617
6.6544 -6.8721 -2.0220 0.9616
7.7849 -5.5968 -2.0267 0.9616
8.6691 -4.1360 -2.0303 0.9615
9.2762 -2.5372 -2.0328 0.9614
9.4688 -1.7026 -2.0336 0.9614
9.6236 0.0025 -2.0342 0.9614
9.5844 0.8585 -2.0341 0.9614
9.4677 1.7074 -2.0336 0.9614
9.2746 2.5419 -2.0328 0.9614
6.0329 2.8820 -1.4133 0.9730
7.2444 6.2636 -2.0243 0.9616
6.6504 6.8750 -2.0219 0.9616
-8.0860 -2.0605 -1.9611 0.9663
-7.8742 -2.7730 -1.9620 0.9663
-6.4318 -5.3619 -1.9680 0.9662
-5.9354 -5.9190 -1.9701 0.9661
-3.5156 -7.6564 -1.9801 0.9660
2.3750 -8.1911 -2.0044 0.9656
3.0989 -7.9592 -2.0074 0.9655
3.8002 -7.6629 -2.0103 0.9655
4.4730 -7.3045 -2.0130 0.9654
5.1118 -6.8866 -2.0157 0.9654
5.7112 -6.4124 -2.0181 0.9653
6.7719 -5.3102 -2.0225 0.9653
8.2230 -2.6221 -2.0285 0.9652
8.5634 -1.1240 -2.0299 0.9651
8.4149 1.9332 -2.0292 0.9651
8.2060 2.6731 -2.0284 0.9652
6.4890 2.7741 -1.6586 0.9714
7.5929 4.0799 -2.0258 0.9652
6.2285 5.9236 -2.0202 0.9653
5.0680 6.9172 -2.0154 0.9654
2.9470 7.7105 -1.9400 0.9667
2.1864 7.7200 -1.8857 0.9676
1.4621 7.7315 -1.8493 0.9682
0.7668 7.8144 -1.8454 0.9683
-1.3218 7.7268 -1.8423 0.9683
-3.5516 7.6097 -1.9737 0.9661
-4.2208 7.2743 -1.9766 0.9660
-4.8459 6.8625 -1.9744 0.9661
-5.9714 5.8812 -1.9698 0.9661
-6.9056 4.7206 -1.9659 0.9662
-7.2923 4.0842 -1.9643 0.9662
-7.6215 3.4169 -1.9630 0.9663
-7.8908 2.7237 -1.9619 0.9663
-8.0983 2.0101 -1.9610 0.9663
-8.2425 1.2812 -1.9605 0.9663
-8.3375 -0.1998 -1.9601 0.9663
-8.2876 -0.9408 -1.9603 0.9663
-7.7537 -3.0995 -1.9625 0.9663
-7.4520 -3.7794 -1.9638 0.9662
-7.0916 -4.4308 -1.9653 0.9662
-6.6752 -5.0486 -1.9670 0.9662
-6.2057 -5.6280 -1.9689 0.9662
-5.6866 -6.1644 -1.9711 0.9661
-5.1217 -6.6538 -1.9734 0.9661
-4.5152 -7.0920 -1.9759 0.9660
-3.1956 -7.8015 -1.9814 0.9660
-1.0266 -8.4063 -1.9903 0.9658
1.2356 -8.4183 -1.9997 0.9656
1.9826 -8.2877 -2.0028 0.9656
2.7162 -8.0907 -2.0058 0.9655
4.7765 -7.1162 -2.0143 0.9654
5.3975 -6.6715 -2.0169 0.9654
5.9767 -6.1722 -2.0192 0.9653
6.5092 -5.6221 -2.0214 0.9653
7.7829 -3.7132 -2.0267 0.9652
8.0873 -3.0079 -2.0279 0.9652
8.3269 -2.2776 -2.0289 0.9651
8.4995 -1.5283 -2.0296 0.9651
8.3255 2.2818 -2.0289 0.9652
7.0239 4.1604 -1.9186 0.9670
6.9874 5.0289 -2.0233 0.9652
6.5059 5.6251 -2.0213 0.9653
5.3937 6.6738 -2.0167 0.9654
-7.3511 -1.8733 -1.9642 0.9691
-6.9092 -3.1494 -1.9660 0.9691
-5.8454 -4.8730 -1.9704 0.9690
-5.3938 -5.3789 -1.9723 0.9690
-1.2484 -7.5815 -1.9894 0.9688
0.1153 -7.7045 -1.9951 0.9687
0.8014 -7.6746 -1.9979 0.9686
2.8113 -7.2203 -2.0062 0.9685
4.0567 -6.6247 -2.0113 0.9684
4.6355 -6.2450 -2.0137 0.9684
5.1785 -5.8143 -2.0159 0.9683
6.1389 -4.8139 -2.0199 0.9683
6.5483 -4.2522 -2.0216 0.9683
6.9057 -3.6554 -2.0230 0.9682
7.2079 -3.0284 -2.0243 0.9682
7.6371 -1.7046 -2.0260 0.9682
7.7604 -1.0186 -2.0266 0.9682
7.8212 -0.3242 -2.0268 0.9682
7.6261 1.7520 -2.0260 0.9682
7.4371 2.4226 -2.0252 0.9682
6.5523 2.8011 -1.8450 0.9710
6.5211 4.2925 -2.0214 0.9683
6.1082 4.8515 -2.0197 0.9683
5.6470 5.3706 -2.0178 0.9683
4.5959 6.2728 -2.0134 0.9684
2.7658 7.2365 -2.0058 0.9685
1.4317 7.5706 -1.9949 0.9687
0.0671 7.6758 -1.9875 0.9688
-0.6154 7.6427 -1.9852 0.9688
-1.2920 7.5528 -1.9840 0.9688
-1.9586 7.4068 -1.9837 0.9688
-3.2360 6.9333 -1.9811 0.9689
-3.8352 6.6097 -1.9786 0.9689
-5.8749 4.8360 -1.9702 0.9690
-6.9282 3.1061 -1.9659 0.9691
-7.4937 1.1648 -1.9635 0.9692
-7.5665 0.4935 -1.9633 0.9692
-7.5802 -0.1816 -1.9632 0.9692
-7.4304 -1.5226 -1.9638 0.9691
-7.0486 -2.8176 -1.9654 0.9691
-6.7739 -3.4355 -1.9666 0.9691
-6.4459 -4.0273 -1.9679 0.9691
-6.0669 -4.5885 -1.9695 0.9691
-5.6397 -5.1146 -1.9713 0.9690
-5.1674 -5.6016 -1.9732 0.9690
-4.1020 -6.4431 -1.9776 0.9689
-0.9320 -7.6319 -1.9907 0.9687
-0.2497 -7.6955 -1.9935 0.9687
0.4365 -7.6981 -1.9964 0.9686
1.1212 -7.6395 -1.9992 0.9686
2.4642 -7.3402 -2.0047 0.9685
3.7358 -6.8050 -2.0100 0.9684
5.4189 -5.5962 -2.0169 0.9683
6.3368 -4.5557 -2.0207 0.9683
7.0541 -3.3655 -2.0237 0.9682
7.3297 -2.7261 -2.0248 0.9682
7.8280 0.0020 -2.0268 0.9682
7.7017 1.3889 -2.0263 0.9682
7.5452 2.0679 -2.0256 0.9682
7.0521 3.3690 -2.0236 0.9682
6.3341 4.5587 -2.0206 0.9683
5.4157 5.5986 -2.0168 0.9683
-6.7321 -1.7155 -1.9667 0.9715
-6.5552 -2.3085 -1.9675 0.9715
-6.3269 -2.8839 -1.9684 0.9715
-6.0488 -3.4374 -1.9696 0.9715
-4.9379 -4.9242 -1.9742 0.9714
-4.4845 -5.3491 -1.9760 0.9714
-1.7523 -6.7978 -1.9873 0.9712
-0.5212 -7.0187 -1.9924 0.9712
0.7329 -7.0182 -1.9976 0.9711
1.3561 -6.9340 -2.0002 0.9711
1.9701 -6.7945 -2.0027 0.9710
2.5699 -6.6004 -2.0052 0.9710
3.1507 -6.3532 -2.0076 0.9709
3.7076 -6.0547 -2.0099 0.9709
5.6086 -4.3980 -2.0177 0.9708
5.9822 -3.8846 -2.0192 0.9708
6.5840 -2.7663 -2.0217 0.9707
6.9755 -1.5569 -2.0233 0.9707
6.2868 3.3781 -2.0204 0.9708
5.9573 3.9214 -2.0191 0.9708
5.5805 4.4324 -2.0175 0.9708
5.1596 4.9071 -2.0158 0.9708
4.2000 5.7325 -2.0118 0.9709
3.6693 6.0768 -2.0096 0.9709
3.1106 6.3718 -2.0073 0.9710
1.9274 6.8056 -2.0024 0.9710
1.3126 6.9413 -1.9998 0.9711
0.6890 7.0215 -1.9973 0.9711
-0.5648 7.0142 -1.9921 0.9712
-1.1850 6.9272 -1.9895 0.9712
-1.7943 6.7857 -1.9870 0.9712
-2.3880 6.5911 -1.9846 0.9713
-2.9613 6.3449 -1.9822 0.9713
-4.5171 5.3204 -1.9758 0.9714
-4.9679 4.8928 -1.9739 0.9714
-5.3788 4.4277 -1.9722 0.9715
-5.7470 3.9286 -1.9707 0.9715
-6.7424 1.6735 -1.9666 0.9715
-6.9421 -0.1663 -1.9658 0.9715
-6.9004 -0.7833 -1.9660 0.9715
-5.9021 -3.6876 -1.9702 0.9715
-5.5547 -4.2011 -1.9716 0.9715
-4.2597 -5.5339 -1.9770 0.9714
-3.7544 -5.8971 -1.9791 0.9714
-2.6559 -6.4840 -1.9836 0.9713
-2.0711 -6.7027 -1.9860 0.9713
-1.4684 -6.8690 -1.9885 0.9712
-0.8526 -6.9813 -1.9910 0.9712
0.3992 -7.0402 -1.9962 0.9711
1.0253 -6.9857 -1.9988 0.9711
1.6448 -6.8756 -2.0014 0.9710
2.8443 -6.4913 -2.0063 0.9710
3.4145 -6.2198 -2.0087 0.9709
4.4725 -5.5282 -2.0130 0.9709
4.9514 -5.1134 -2.0150 0.9708
6.8928 -1.8853 -2.0230 0.9707
7.0352 -1.2650 -2.0236 0.9707
7.1497 0.0018 -2.0240 0.9707
6.1387 3.6361 -2.0198 0.9708
5.7867 4.1648 -2.0183 0.9708
5.3889 4.6593 -2.0167 0.9708
4.9485 5.1156 -2.0149 0.9708
4.4694 5.5301 -2.0129 0.9709
-6.0399 -2.1270 -1.9696 0.9736
-5.8293 -2.6571 -1.9705 0.9735
-5.5728 -3.1669 -1.9715 0.9735
-5.2723 -3.6524 -1.9728 0.9735
-4.9300 -4.1100 -1.9742 0.9735
-4.1305 -4.9269 -1.9775 0.9735
-3.1982 -5.5918 -1.9813 0.9734
-1.6133 -6.2585 -1.9879 0.9733
-1.0513 -6.3846 -1.9902 0.9733
0.6744 -6.4587 -1.9973 0.9732
1.2478 -6.3806 -1.9997 0.9732
1.8126 -6.2516 -2.0020 0.9731
3.4104 -5.5692 -2.0086 0.9730
3.8962 -5.2490 -2.0106 0.9730
4.3518 -4.8861 -2.0125 0.9730
4.7733 -4.4834 -2.0143 0.9730
5.1573 -4.0442 -2.0158 0.9729
5.5005 -3.5718 -2.0172 0.9729
6.5161 -0.8553 -2.0214 0.9729
6.5105 0.8958 -2.0214 0.9729
6.4036 1.4712 -2.0209 0.9729
6.0370 2.5808 -2.0194 0.9729
5.7804 3.1060 -2.0183 0.9729
5.4777 3.6057 -2.0171 0.9729
4.7448 4.5126 -2.0140 0.9730
4.3208 4.9126 -2.0123 0.9730
3.8630 5.2725 -2.0104 0.9730
3.3752 5.5897 -2.0084 0.9730
2.3261 6.0862 -2.0040 0.9731
1.7734 6.2618 -2.0018 0.9731
1.2079 6.3873 -1.9994 0.9732
-2.1987 6.0688 -1.9854 0.9733
-2.7269 5.8427 -1.9832 0.9734
-3.2325 5.5710 -1.9811 0.9734
-4.1606 4.9005 -1.9773 0.9735
-4.9550 4.0788 -1.9740 0.9735
-5.2945 3.6192 -1.9726 0.9735
-5.8454 2.6206 -1.9703 0.9735
-6.0528 2.0893 -1.9695 0.9736
-6.2126 1.5420 -1.9688 0.9736
-6.3237 0.9830 -1.9684 0.9736
-6.3968 -0.1533 -1.9681 0.9736
-6.2701 -1.2849 -1.9686 0.9736
-6.1327 -1.8381 -1.9692 0.9736
-5.9472 -2.3773 -1.9700 0.9736
-5.4376 -3.3973 -1.9721 0.9735
-5.1172 -3.8702 -1.9734 0.9735
-4.7562 -4.3134 -1.9749 0.9735
-4.3572 -4.7234 -1.9766 0.9735
-3.4577 -5.4310 -1.9803 0.9734
-1.9069 -6.1712 -1.9867 0.9733
-1.3518 -6.3237 -1.9890 0.9733
-0.2102 -6.4785 -1.9937 0.9732
1.5135 -6.3265 -2.0008 0.9731
2.6167 -5.9717 -2.0054 0.9731
3.1409 -5.7214 -2.0075 0.9731
4.1134 -5.0843 -2.0115 0.9730
5.3232 -3.8270 -2.0165 0.9729
5.9244 -2.8265 -2.0190 0.9729
6.5727 0.0017 -2.0216 0.9729
6.5462 0.5864 -2.0215 0.9729
6.4670 1.1663 -2.0212 0.9729
6.1539 2.2924 -2.0199 0.9729
5.6443 3.3432 -2.0178 0.9729
5.3210 3.8296 -2.0164 0.9729
4.9555 4.2846 -2.0149 0.9730
-5.8514 -0.9469 -1.9703 0.9753
-4.5653 -3.8059 -1.9757 0.9753
-4.2117 -4.2001 -1.9772 0.9752
-2.0005 -5.6307 -1.9863 0.9751
-0.4439 -5.9784 -1.9927 0.9750
0.0898 -6.0008 -1.9949 0.9750
0.6240 -5.9756 -1.9971 0.9750
1.1544 -5.9029 -1.9993 0.9750
1.6768 -5.7830 -2.0015 0.9749
2.1869 -5.6168 -2.0036 0.9749
4.7683 -3.7391 -2.0142 0.9748
5.3620 -2.8383 -2.0167 0.9748
5.7851 -1.8447 -2.0184 0.9747
5.9280 -1.3231 -2.0190 0.9747
6.0234 -0.7906 -2.0194 0.9747
6.0687 0.2894 -2.0196 0.9747
6.0182 0.8281 -2.0193 0.9747
5.9195 1.3599 -2.0189 0.9747
5.3439 2.8715 -2.0165 0.9748
3.9954 4.5426 -2.0109 0.9748
3.5723 4.8758 -2.0092 0.9748
2.1516 5.6296 -2.0033 0.9749
1.6405 5.7926 -2.0012 0.9749
0.5867 5.9786 -1.9969 0.9750
-0.4811 5.9747 -1.9925 0.9751
-1.5290 5.7823 -1.9881 0.9751
-2.0352 5.6174 -1.9860 0.9751
-2.5243 5.4086 -1.9840 0.9752
-2.9926 5.1576 -1.9821 0.9752
-4.5885 3.7771 -1.9755 0.9753
-4.9031 3.3517 -1.9742 0.9753
-5.7541 1.4282 -1.9707 0.9753
-5.8571 0.9104 -1.9703 0.9753
-5.9142 0.3857 -1.9701 0.9753
-5.9249 -0.1420 -1.9700 0.9753
-5.8074 -1.1900 -1.9705 0.9753
-5.5081 -2.2018 -1.9718 0.9753
-5.2927 -2.6843 -1.9727 0.9753
-4.7387 -3.5840 -1.9750 0.9753
-4.4042 -3.9942 -1.9764 0.9752
-3.2011 -5.0281 -1.9813 0.9752
-2.7437 -5.2980 -1.9832 0.9752
-1.7649 -5.7120 -1.9873 0.9751
-1.2511 -5.8526 -1.9894 0.9751
-0.7263 -5.9472 -1.9916 0.9751
0.3400 -5.9950 -1.9960 0.9750
1.9173 -5.7109 -2.0025 0.9749
2.4202 -5.5234 -2.0045 0.9749
2.9049 -5.2915 -2.0065 0.9749
3.8037 -4.7016 -2.0103 0.9748
4.5841 -3.9594 -2.0135 0.9748
5.2200 -3.0883 -2.0161 0.9748
5.4769 -2.6130 -2.0171 0.9747
5.8578 -1.6022 -2.0187 0.9747
6.0757 0.0016 -2.0196 0.9747
6.0511 0.5420 -2.0195 0.9747
5.9780 1.0781 -2.0192 0.9747
5.8569 1.6052 -2.0187 0.9747
5.4754 2.6157 -2.0171 0.9747
5.2182 3.0909 -2.0160 0.9748
4.9195 3.5407 -2.0148 0.9748
4.2080 4.3501 -2.0118 0.9748
3.8011 4.7033 -2.0101 0.9748
-5.4437 -0.8809 -1.9720 0.9768
-5.3449 -1.3620 -1.9724 0.9768
-4.8009 -2.7282 -1.9747 0.9768
-3.9173 -3.9065 -1.9784 0.9768
-3.1679 -4.5460 -1.9815 0.9767
-1.8600 -5.2354 -1.9869 0.9767
-1.3882 -5.3854 -1.9888 0.9767
-0.9045 -5.4931 -1.9908 0.9766
0.0835 -5.5778 -1.9949 0.9766
0.5800 -5.5540 -1.9969 0.9766
1.5582 -5.3741 -2.0010 0.9765
2.0321 -5.2193 -2.0029 0.9765
2.4908 -5.0225 -2.0048 0.9765
3.3473 -4.5096 -2.0084 0.9764
3.7383 -4.1972 -2.0100 0.9764
4.0999 -3.8509 -2.0115 0.9764
4.4292 -3.4732 -2.0128 0.9764
4.9802 -2.6362 -2.0151 0.9763
5.1973 -2.1837 -2.0160 0.9763
5.3729 -1.7132 -2.0167 0.9763
5.5055 -1.2288 -2.0172 0.9763
5.5940 -0.7342 -2.0176 0.9763
5.6376 -0.2337 -2.0178 0.9763
5.5892 0.7691 -2.0176 0.9763
5.4976 1.2630 -2.0172 0.9763
5.3619 1.7466 -2.0166 0.9763
4.7039 3.0964 -2.0139 0.9764
4.4071 3.5004 -2.0127 0.9764
3.7117 4.2200 -2.0098 0.9764
2.9002 4.8030 -2.0064 0.9764
2.4592 5.0374 -2.0046 0.9765
1.9994 5.2312 -2.0027 0.9765
0.5453 5.5568 -1.9967 0.9766
-1.8924 5.2231 -1.9866 0.9767
-2.3473 5.0293 -1.9848 0.9767
-3.5829 4.2200 -1.9797 0.9768
-3.9412 3.8817 -1.9782 0.9768
-4.2680 3.5132 -1.9768 0.9768
-4.5608 3.1177 -1.9756 0.9768
-4.8175 2.6981 -1.9746 0.9768
-5.2151 1.8002 -1.9729 0.9768
-5.4490 0.8470 -1.9720 0.9768
-5.5021 0.3589 -1.9718 0.9768
-5.4027 -1.1071 -1.9722 0.9768
-5.2841 -1.5838 -1.9727 0.9768
-5.1240 -2.0483 -1.9734 0.9768
-4.6842 -2.9267 -1.9752 0.9768
-4.0964 -3.7151 -1.9776 0.9768
-3.3783 -4.3888 -1.9806 0.9767
-2.5514 -4.9266 -1.9840 0.9767
-1.6410 -5.3108 -1.9878 0.9767
-1.1632 -5.4411 -1.9898 0.9766
-0.6752 -5.5286 -1.9918 0.9766
-0.1808 -5.5725 -1.9938 0.9766
0.8113 -5.5276 -1.9979 0.9765
1.3012 -5.4390 -1.9999 0.9765
1.7816 -5.3070 -2.0019 0.9765
2.6991 -4.9165 -2.0057 0.9765
3.1285 -4.6610 -2.0075 0.9764
3.9113 -4.0392 -2.0107 0.9764
4.2582 -3.6779 -2.0121 0.9764
4.5714 -3.2866 -2.0134 0.9764
5.6425 0.0015 -2.0178 0.9763
5.4395 1.4908 -2.0169 0.9763
5.2836 1.9682 -2.0163 0.9763
4.8468 2.8709 -2.0145 0.9764
4.5696 3.2888 -2.0133 0.9764
3.9091 4.0411 -2.0106 0.9764
-5.0837 -0.8227 -1.9735 0.9782
-4.9913 -1.2719 -1.9739 0.9782
-4.8597 -1.7114 -1.9744 0.9782
-4.6899 -2.1377 -1.9752 0.9782
-4.4831 -2.5476 -1.9760 0.9782
-3.9649 -3.3054 -1.9782 0.9781
-3.6575 -3.6473 -1.9794 0.9781
-3.3208 -3.9610 -1.9808 0.9781
-2.9575 -4.2440 -1.9823 0.9781
-2.5703 -4.4939 -1.9839 0.9781
-1.2957 -5.0265 -1.9892 0.9780
-0.8442 -5.1266 -1.9911 0.9780
-0.3851 -5.1863 -1.9930 0.9780
0.0779 -5.2050 -1.9949 0.9779
1.0010 -5.1186 -1.9987 0.9779
1.4538 -5.0139 -2.0006 0.9779
1.8958 -4.8691 -2.0024 0.9779
3.4866 -3.9147 -2.0089 0.9778
3.8237 -3.5915 -2.0103 0.9778
4.4049 -2.8604 -2.0127 0.9778
4.6442 -2.4583 -2.0137 0.9777
4.8465 -2.0363 -2.0145 0.9777
5.1336 -1.1458 -2.0157 0.9777
5.2567 -0.2179 -2.0162 0.9777
5.2552 0.2506 -2.0162 0.9777
5.1263 1.1777 -2.0157 0.9777
4.9998 1.6287 -2.0151 0.9777
4.1101 3.2645 -2.0114 0.9778
3.8010 3.6149 -2.0102 0.9778
2.7053 4.4802 -2.0056 0.9778
1.4224 5.0223 -2.0003 0.9779
0.5088 5.1850 -1.9965 0.9779
-0.8760 5.1207 -1.9908 0.9780
-2.1911 4.6947 -1.9854 0.9781
-2.9836 4.2251 -1.9821 0.9781
-3.3451 3.9400 -1.9806 0.9781
-3.6798 3.6242 -1.9793 0.9781
-3.9851 3.2804 -1.9780 0.9781
-4.2587 2.9112 -1.9769 0.9781
-4.8701 1.6811 -1.9744 0.9782
-4.9990 1.2408 -1.9738 0.9782
-2.3020 -0.2613 -0.8878 0.9901
-5.0454 -1.0339 -1.9737 0.9782
-4.3740 -2.7328 -1.9765 0.9781
-3.8248 -3.4687 -1.9787 0.9781
-3.5034 -3.7978 -1.9801 0.9781
-3.1540 -4.0974 -1.9815 0.9781
-2.7791 -4.3652 -1.9831 0.9781
-2.3817 -4.5989 -1.9847 0.9781
-0.1687 -5.2002 -1.9939 0.9780
0.2949 -5.1996 -1.9958 0.9779
0.7570 -5.1576 -1.9977 0.9779
1.6622 -4.9511 -2.0014 0.9779
2.0979 -4.7879 -2.0032 0.9779
2.9182 -4.3476 -2.0066 0.9778
3.2959 -4.0739 -2.0081 0.9778
3.9713 -3.4300 -2.0109 0.9778
4.2632 -3.0650 -2.0121 0.9778
4.5214 -2.6750 -2.0132 0.9777
4.7436 -2.2631 -2.0141 0.9777
4.9279 -1.8328 -2.0149 0.9777
5.0730 -1.3876 -2.0155 0.9777
5.2403 -0.4667 -2.0161 0.9777
5.2613 0.0014 -2.0162 0.9777
5.1768 0.9336 -2.0159 0.9777
5.0722 1.3901 -2.0154 0.9777
4.9269 1.8353 -2.0148 0.9777
3.6458 3.7690 -2.0095 0.9778
-2.0379 -0.3298 -0.8449 0.9911
-2.1279 -0.5422 -0.8987 0.9906
-4.5533 -1.6035 -1.9757 0.9794
-4.3940 -2.0029 -1.9764 0.9793
-3.9730 -2.7523 -1.9781 0.9793
-3.7144 -3.0965 -1.9792 0.9793
-3.4263 -3.4168 -1.9804 0.9793
-3.1107 -3.7105 -1.9817 0.9793
-2.4074 -4.2092 -1.9846 0.9793
-2.0250 -4.4102 -1.9862 0.9792
-0.7905 -4.8007 -1.9913 0.9792
-0.3606 -4.8564 -1.9931 0.9792
0.0729 -4.8736 -1.9948 0.9792
0.9372 -4.7920 -1.9984 0.9791
1.3610 -4.6938 -2.0002 0.9791
1.7747 -4.5580 -2.0019 0.9791
2.1749 -4.3856 -2.0035 0.9791
2.5585 -4.1780 -2.0051 0.9790
2.9222 -3.9368 -2.0066 0.9790
3.8656 -3.0312 -2.0105 0.9790
4.1221 -2.6767 -2.0115 0.9790
4.6880 -1.4949 -2.0139 0.9790
4.8035 -1.0721 -2.0143 0.9790
4.8806 -0.6406 -2.0147 0.9789
4.9187 -0.2039 -2.0148 0.9789
4.8765 0.6710 -2.0146 0.9789
4.6784 1.5240 -2.0138 0.9790
4.5229 1.9335 -2.0132 0.9790
4.3312 2.3273 -2.0124 0.9790
4.1051 2.7022 -2.0114 0.9790
3.5572 3.3831 -2.0092 0.9790
2.8974 3.9546 -2.0064 0.9790
2.1473 4.3986 -2.0033 0.9791
1.7461 4.5684 -2.0017 0.9791
1.3316 4.7017 -1.9999 0.9791
0.0426 4.8734 -1.9946 0.9792
-0.8203 4.7952 -1.9911 0.9792
-1.2426 4.6991 -1.9893 0.9792
-1.6543 4.5660 -1.9876 0.9792
-2.0522 4.3971 -1.9860 0.9792
-2.7947 3.9577 -1.9829 0.9793
-3.1335 3.6908 -1.9815 0.9793
-3.4472 3.3951 -1.9802 0.9793
-4.2147 2.3605 -1.9771 0.9793
-2.1033 0.5221 -0.8870 0.9907
-2.0309 0.3157 -0.8412 0.9912
-1.9963 -0.0478 -0.8173 0.9914
-4.6234 -1.3858 -1.9754 0.9794
-4.3075 -2.1847 -1.9767 0.9793
-3.8558 -2.9162 -1.9786 0.9793
-3.2819 -3.5577 -1.9810 0.9793
-2.9544 -3.8382 -1.9823 0.9793
-2.6031 -4.0888 -1.9838 0.9793
-2.2308 -4.3075 -1.9853 0.9793
-1.8402 -4.4925 -1.9869 0.9792
-1.4344 -4.6423 -1.9886 0.9792
-1.0166 -4.7557 -1.9903 0.9792
-0.5900 -4.8315 -1.9921 0.9792
0.7087 -4.8288 -1.9975 0.9791
1.9638 -4.4818 -2.0027 0.9791
2.7313 -4.0692 -2.0058 0.9790
3.0847 -3.8129 -2.0073 0.9790
3.4140 -3.5257 -2.0086 0.9790
3.9895 -2.8682 -2.0110 0.9790
4.4388 -2.1177 -2.0128 0.9790
4.7468 -1.2983 -2.0141 0.9790
4.9229 0.0013 -2.0148 0.9789
4.9031 0.4392 -2.0147 0.9789
4.8440 0.8736 -2.0145 0.9790
4.7461 1.3008 -2.0141 0.9790
4.6102 1.7174 -2.0135 0.9790
4.4376 2.1200 -2.0128 0.9790
3.9879 2.8702 -2.0109 0.9790
-1.4729 -0.2383 -0.6503 0.9935
-1.4893 -0.5245 -0.6881 0.9931
-3.2190 -3.2101 -1.9812 0.9804
-2.2615 -3.9541 -1.9852 0.9803
-1.9022 -4.1427 -1.9867 0.9803
-1.5273 -4.2988 -1.9882 0.9803
-1.1397 -4.4212 -1.9898 0.9803
-0.7425 -4.5088 -1.9915 0.9803
0.0685 -4.5767 -1.9948 0.9802
0.4758 -4.5563 -1.9965 0.9802
1.6662 -4.2794 -2.0014 0.9802
2.0419 -4.1174 -2.0030 0.9801
2.4019 -3.9223 -2.0045 0.9801
2.7432 -3.6957 -2.0059 0.9801
3.3590 -3.1550 -2.0084 0.9801
3.6284 -2.8452 -2.0095 0.9801
3.8690 -2.5124 -2.0105 0.9801
4.0789 -2.1591 -2.0114 0.9801
4.3999 -1.4030 -2.0127 0.9801
4.5083 -1.0062 -2.0131 0.9800
4.5806 -0.6012 -2.0134 0.9800
4.6162 -0.1914 -2.0136 0.9800
4.5767 0.6297 -2.0134 0.9800
4.3909 1.4303 -2.0126 0.9801
3.8531 2.5363 -2.0104 0.9801
3.3391 3.1756 -2.0083 0.9801
3.0414 3.4580 -2.0070 0.9801
2.3772 3.9369 -2.0043 0.9801
2.0160 4.1297 -2.0028 0.9801
1.2503 4.4146 -1.9996 0.9802
0.8519 4.5046 -1.9980 0.9802
0.4474 4.5587 -1.9963 0.9802
-0.3670 4.5581 -1.9929 0.9802
-1.1671 4.4136 -1.9896 0.9803
-1.5539 4.2888 -1.9880 0.9803
-1.9278 4.1304 -1.9865 0.9803
-2.2859 3.9396 -1.9850 0.9803
-2.6254 3.7180 -1.9836 0.9803
-2.9439 3.4673 -1.9823 0.9803
-3.5076 2.8874 -1.9800 0.9804
-3.9601 2.2179 -1.9781 0.9804
-4.1402 1.8561 -1.9774 0.9804
-1.4898 0.3698 -0.6690 0.9933
-1.4384 -0.0345 -0.6271 0.9937
-1.4716 -0.1671 -0.6455 0.9936
-1.4938 -0.4477 -0.6796 0.9932
-4.2125 -1.6839 -1.9771 0.9804
-4.0474 -2.0527 -1.9778 0.9804
-3.8503 -2.4056 -1.9786 0.9804
-3.6227 -2.7399 -1.9796 0.9804
-3.0833 -3.3424 -1.9818 0.9804
-1.7285 -4.2199 -1.9874 0.9803
-0.5541 -4.5376 -1.9923 0.9803
0.2592 -4.5717 -1.9956 0.9802
2.2125 -4.0301 -2.0037 0.9801
2.5641 -3.8201 -2.0051 0.9801
4.1661 -1.9876 -2.0117 0.9801
4.4551 -1.2185 -2.0129 0.9800
4.5466 -0.8175 -2.0133 0.9800
4.6202 0.0012 -2.0136 0.9800
4.6016 0.4122 -2.0135 0.9800
4.4544 1.2208 -2.0129 0.9800
4.3270 1.6119 -2.0123 0.9801
4.1650 1.9897 -2.0117 0.9801
3.7432 2.6940 -2.0099 0.9801
3.4868 3.0148 -2.0089 0.9801
3.2029 3.3111 -2.0077 0.9801
2.8938 3.5806 -2.0064 0.9801
-1.2704 -0.3237 -0.6068 0.9942
-3.7174 -2.1125 -1.9792 0.9813
-3.2871 -2.7403 -1.9810 0.9813
-3.0319 -3.0235 -1.9820 0.9813
-2.7525 -3.2832 -1.9832 0.9813
-2.4511 -3.5173 -1.9844 0.9813
-2.1298 -3.7239 -1.9857 0.9813
-1.7914 -3.9013 -1.9871 0.9813
0.0645 -4.3090 -1.9948 0.9812
1.2029 -4.1488 -1.9995 0.9811
2.8830 -3.2369 -2.0064 0.9811
3.8385 -2.0319 -2.0104 0.9810
4.0054 -1.6829 -2.0111 0.9810
4.1404 -1.3202 -2.0116 0.9810
4.3103 -0.5658 -2.0123 0.9810
4.2362 0.9732 -2.0120 0.9810
4.1320 1.3460 -2.0115 0.9810
3.9947 1.7077 -2.0110 0.9810
3.3977 2.6987 -2.0085 0.9811
3.1425 2.9887 -2.0074 0.9811
2.5600 3.4941 -2.0050 0.9811
2.2375 3.7056 -2.0037 0.9811
1.8977 3.8872 -2.0023 0.9811
1.5432 4.0377 -2.0008 0.9811
0.8020 4.2407 -1.9978 0.9812
0.0376 4.3089 -1.9946 0.9812
-1.0990 4.1561 -1.9899 0.9812
-1.4633 4.0388 -1.9884 0.9812
-1.8155 3.8898 -1.9870 0.9813
-2.1528 3.7102 -1.9856 0.9813
-2.4727 3.5017 -1.9843 0.9813
-2.7727 3.2658 -1.9830 0.9813
-3.3039 2.7197 -1.9808 0.9813
-1.2743 0.1981 -0.5969 0.9943
-1.2636 -0.0303 -0.5851 0.9944
-1.2749 -0.1447 -0.5939 0.9944
-1.2683 -0.2599 -0.5993 0.9943
-1.2699 -0.3806 -0.6136 0.9942
-1.2534 -0.5010 -0.6248 0.9941
-3.4124 -2.5809 -1.9804 0.9813
-3.1709 -2.8756 -1.9814 0.9813
-2.9041 -3.1481 -1.9825 0.9813
-2.3031 -3.6175 -1.9850 0.9813
-1.9735 -3.8106 -1.9864 0.9813
-1.6278 -3.9739 -1.9878 0.9812
-1.2687 -4.1061 -1.9893 0.9812
-0.5218 -4.2725 -1.9924 0.9812
-0.1397 -4.3054 -1.9940 0.9812
0.2441 -4.3042 -1.9955 0.9812
0.6265 -4.2688 -1.9971 0.9812
1.0046 -4.1994 -1.9987 0.9811
1.3753 -4.0965 -2.0002 0.9811
1.7356 -3.9609 -2.0017 0.9811
2.4134 -3.5956 -2.0045 0.9811
2.7255 -3.3688 -2.0058 0.9811
3.9205 -1.8704 -2.0107 0.9810
4.0726 -1.5147 -2.0113 0.9810
4.2784 -0.7693 -2.0122 0.9810
4.3303 -0.3856 -2.0124 0.9810
4.3476 0.0011 -2.0124 0.9810
4.1916 1.1488 -2.0118 0.9810
4.0718 1.5168 -2.0113 0.9810
3.9195 1.8724 -2.0107 0.9810
3.7359 2.2129 -2.0099 0.9810
3.5227 2.5354 -2.0090 0.9811
3.2815 2.8373 -2.0080 0.9811
3.0145 3.1163 -2.0069 0.9811
-1.1426 -0.1849 -0.5677 0.9949
-2.8621 -2.8542 -1.9827 0.9822
-2.5983 -3.0992 -1.9838 0.9821
-2.3136 -3.3200 -1.9850 0.9821
-0.6598 -4.0066 -1.9918 0.9821
-0.3009 -4.0524 -1.9933 0.9821
0.4227 -4.0477 -1.9963 0.9820
1.1350 -3.9145 -1.9992 0.9820
1.4798 -3.8007 -2.0006 0.9820
2.1328 -3.4829 -2.0033 0.9820
2.4357 -3.2814 -2.0046 0.9820
3.7780 -1.5873 -2.0101 0.9819
3.9052 -1.2452 -2.0106 0.9819
4.0013 -0.8930 -2.0110 0.9819
4.0970 -0.1698 -2.0114 0.9819
4.0959 0.1953 -2.0114 0.9819
4.0620 0.5589 -2.0113 0.9819
3.8973 1.2695 -2.0106 0.9819
3.7679 1.6108 -2.0100 0.9819
3.4203 2.2514 -2.0086 0.9819
3.2050 2.5457 -2.0077 0.9819
2.9644 2.8193 -2.0067 0.9819
2.4151 3.2963 -2.0044 0.9820
1.7903 3.6674 -2.0019 0.9820
1.1105 3.9211 -1.9990 0.9820
-1.7135 3.6714 -1.9874 0.9821
-2.0320 3.5021 -1.9861 0.9821
-2.6173 3.0828 -1.9837 0.9821
-3.1190 2.5674 -1.9816 0.9822
-3.3335 2.2788 -1.9807 0.9822
-3.5217 1.9724 -1.9799 0.9822
-1.1428 0.0745 -0.5618 0.9949
-1.1309 -0.3390 -0.5791 0.9948
-1.1136 -0.4451 -0.5883 0.9947
-1.0900 -0.5528 -0.5995 0.9946
-3.4239 -2.1392 -1.9804 0.9822
-3.2214 -2.4364 -1.9812 0.9822
-2.7414 -2.9717 -1.9832 0.9821
-2.4675 -3.2057 -1.9843 0.9821
-2.1739 -3.4146 -1.9856 0.9821
-1.8627 -3.5968 -1.9868 0.9821
-0.4924 -4.0320 -1.9925 0.9821
-0.1318 -4.0629 -1.9940 0.9821
0.2303 -4.0615 -1.9955 0.9820
1.2976 -3.8651 -1.9999 0.9820
1.9647 -3.5788 -2.0026 0.9820
2.8452 -2.9383 -2.0063 0.9819
3.3242 -2.3899 -2.0082 0.9819
3.9541 -1.0815 -2.0108 0.9819
4.0353 -0.7256 -2.0112 0.9819
4.0843 -0.3637 -2.0114 0.9819
4.0841 0.3659 -2.0114 0.9819
3.6969 1.7661 -2.0097 0.9819
3.5239 2.0873 -2.0090 0.9819
2.8436 2.9396 -2.0062 0.9819
-1.0100 -0.3557 -0.5555 0.9952
-0.9846 -0.4488 -0.5613 0.9951
-2.9351 -2.4469 -1.9824 0.9829
-2.4575 -2.9313 -1.9844 0.9829
-1.5990 -3.4824 -1.9879 0.9829
-1.2837 -3.6132 -1.9892 0.9829
-0.9578 -3.7156 -1.9906 0.9829
-0.6239 -3.7887 -1.9920 0.9828
-0.2845 -3.8319 -1.9934 0.9828
0.7390 -3.7790 -1.9976 0.9828
1.3990 -3.5931 -2.0003 0.9828
2.3024 -3.1018 -2.0040 0.9827
2.5707 -2.8863 -2.0051 0.9827
3.4220 -1.8114 -2.0086 0.9827
3.5707 -1.5002 -2.0093 0.9827
3.6909 -1.1769 -2.0097 0.9827
3.6834 1.1998 -2.0097 0.9827
3.5611 1.5224 -2.0092 0.9827
3.4105 1.8326 -2.0086 0.9827
3.2328 2.1280 -2.0078 0.9827
3.0294 2.4061 -2.0070 0.9827
2.8020 2.6648 -2.0060 0.9827
2.5525 2.9021 -2.0050 0.9827
1.6925 3.4669 -2.0015 0.9828
0.7154 3.7832 -1.9974 0.9828
0.0336 3.8447 -1.9946 0.9828
-0.3084 3.8297 -1.9932 0.9828
-1.3061 3.6048 -1.9891 0.9829
-1.9218 3.3121 -1.9865 0.9829
-2.2075 3.1261 -1.9854 0.9829
-2.4755 2.9157 -1.9842 0.9829
-2.7237 2.6825 -1.9832 0.9829
-0.9495 0.5318 -0.5646 0.9951
-0.9869 0.4424 -0.5611 0.9951
-1.0204 0.2533 -0.5454 0.9953
-1.0348 0.1609 -0.5433 0.9953
-1.0368 0.0676 -0.5390 0.9953
-1.0329 -0.0247 -0.5360 0.9954
-1.0375 -0.1178 -0.5417 0.9953
-1.0173 -0.3049 -0.5510 0.9952
-1.0000 -0.3998 -0.5587 0.9952
-1.4529 -3.5471 -1.9885 0.9829
-1.1324 -3.6647 -1.9899 0.9829
-0.8024 -3.7535 -1.9912 0.9829
-0.4656 -3.8126 -1.9926 0.9828
0.5589 -3.8083 -1.9968 0.9828
1.2267 -3.6540 -1.9996 0.9828
1.5480 -3.5327 -2.0009 0.9828
2.1522 -3.2065 -2.0034 0.9827
3.1419 -2.2589 -2.0075 0.9827
3.4951 -1.6675 -2.0089 0.9827
3.8138 -0.6858 -2.0103 0.9827
3.8599 0.3458 -2.0104 0.9827
3.7365 1.0241 -2.0099 0.9827
3.4941 1.6692 -2.0089 0.9827
3.3306 1.9728 -2.0082 0.9827
2.4287 3.0051 -2.0045 0.9827
-0.9437 -0.1527 -0.5236 0.9956
-0.9280 -0.2365 -0.5245 0.9956
-0.9152 -0.3223 -0.5314 0.9956
-0.8725 -0.4958 -0.5497 0.9954
-2.5649 -2.5578 -1.9839 0.9836
-2.3283 -2.7772 -1.9849 0.9836
-1.8012 -3.1493 -1.9871 0.9836
-1.5148 -3.2990 -1.9883 0.9836
-1.2161 -3.4229 -1.9895 0.9836
-0.5910 -3.5888 -1.9921 0.9835
-0.2695 -3.6296 -1.9934 0.9835
0.3785 -3.6248 -1.9961 0.9835
1.0163 -3.5049 -1.9987 0.9835
2.1803 -2.9373 -2.0035 0.9835
2.4342 -2.7331 -2.0046 0.9834
2.8827 -2.2605 -2.0064 0.9834
3.2401 -1.7151 -2.0079 0.9834
3.3808 -1.4205 -2.0085 0.9834
1.8825 -0.0780 -1.0319 0.9914
1.8886 0.2599 -1.0441 0.9913
3.0610 2.0149 -2.0071 0.9834
2.6532 2.5233 -2.0054 0.9834
2.4170 2.7480 -2.0044 0.9834
1.8897 3.1295 -2.0023 0.9835
1.3036 3.4107 -1.9998 0.9835
0.6776 3.5831 -1.9973 0.9835
0.3559 3.6268 -1.9959 0.9835
-0.2921 3.6276 -1.9933 0.9835
-0.6132 3.5848 -1.9919 0.9836
-1.2373 3.4150 -1.9894 0.9836
-1.5352 3.2893 -1.9881 0.9836
-1.8207 3.1378 -1.9869 0.9836
-0.8994 0.4033 -0.5399 0.9955
-0.9295 0.2307 -0.5245 0.9956
-0.9444 0.1468 -0.5235 0.9957
-0.9379 -0.1922 -0.5244 0.9956
-0.9078 -0.3629 -0.5355 0.9956
-0.8872 -0.4500 -0.5449 0.9955
-2.8871 -2.1835 -1.9826 0.9836
-2.2111 -2.8725 -1.9854 0.9836
-1.6689 -3.2225 -1.9876 0.9836
-1.0727 -3.4716 -1.9901 0.9836
-0.4410 -3.6115 -1.9927 0.9835
0.2063 -3.6373 -1.9954 0.9835
0.5294 -3.6070 -1.9967 0.9835
0.8487 -3.5479 -1.9980 0.9835
1.1618 -3.4606 -1.9993 0.9835
1.7589 -3.2038 -2.0018 0.9835
2.3014 -2.8446 -2.0040 0.9835
2.7717 -2.3940 -2.0060 0.9834
3.1546 -1.8664 -2.0075 0.9834
3.3092 -1.5788 -2.0082 0.9834
3.4374 -1.2785 -2.0087 0.9834
1.8848 -0.3389 -1.0489 0.9913
1.8886 -0.1682 -1.0385 0.9914
1.8719 0.0005 -1.0252 0.9915
1.8886 0.1692 -1.0385 0.9914
1.8847 0.3399 -1.0489 0.9913
2.7705 2.3954 -2.0059 0.9834
2.5452 2.6311 -2.0050 0.9834
-0.8603 -0.3029 -0.5266 0.9958
-0.7985 -0.5532 -0.5608 0.9955
-2.6390 -2.2000 -1.9836 0.9843
-2.2093 -2.6352 -1.9854 0.9842
-1.7091 -2.9882 -1.9875 0.9842
-1.4373 -3.1301 -1.9886 0.9842
-0.5607 -3.4048 -1.9922 0.9842
-0.2557 -3.4433 -1.9935 0.9842
0.3591 -3.4385 -1.9960 0.9842
0.6640 -3.3951 -1.9973 0.9841
0.9640 -3.3246 -1.9985 0.9841
1.2567 -3.2276 -1.9997 0.9841
1.8109 -2.9572 -2.0020 0.9841
2.0679 -2.7858 -2.0031 0.9841
2.9148 -1.8928 -2.0066 0.9841
1.7417 -0.2286 -1.0142 0.9919
1.7350 -0.0719 -1.0025 0.9920
1.7415 0.2396 -1.0149 0.9919
1.7161 0.5590 -1.0420 0.9917
3.0623 1.6455 -2.0071 0.9841
2.9029 1.9108 -2.0065 0.9841
2.7203 2.1607 -2.0057 0.9841
2.5162 2.3931 -2.0049 0.9841
2.0503 2.7985 -2.0029 0.9841
1.2365 3.2351 -1.9996 0.9841
0.6428 3.3989 -1.9971 0.9841
0.3376 3.4404 -1.9959 0.9842
0.0302 3.4546 -1.9946 0.9842
-0.2771 3.4414 -1.9933 0.9842
-1.7275 2.9773 -1.9873 0.9842
-1.9845 2.8103 -1.9863 0.9842
-2.2255 2.6213 -1.9853 0.9842
-2.4488 2.4118 -1.9844 0.9843
-0.8212 0.4599 -0.5434 0.9957
-0.8611 0.2972 -0.5259 0.9958
-0.8653 -0.2593 -0.5215 0.9958
-0.8537 -0.3412 -0.5308 0.9958
-0.8335 -0.4227 -0.5395 0.9957
-0.8044 -0.6084 -0.5823 0.9954
-2.3311 -2.5270 -1.9849 0.9842
-2.0980 -2.7256 -1.9859 0.9842
-1.5835 -3.0576 -1.9880 0.9842
-1.0177 -3.2937 -1.9903 0.9842
-0.7211 -3.3732 -1.9916 0.9842
-0.4184 -3.4262 -1.9928 0.9842
-0.1120 -3.4520 -1.9941 0.9842
0.1957 -3.4505 -1.9953 0.9842
0.8051 -3.3654 -1.9979 0.9841
1.9330 -2.8799 -2.0025 0.9841
2.1827 -2.6979 -2.0035 0.9841
2.9916 -1.7699 -2.0069 0.9841
1.7002 -0.6323 -1.0473 0.9917
1.7374 -0.3124 -1.0192 0.9919
1.7406 -0.1550 -1.0089 0.9920
1.7407 0.1559 -1.0090 0.9920
1.7284 0.4737 -1.0347 0.9918
3.1374 1.4988 -2.0074 0.9841
2.8202 2.0298 -2.0061 0.9841
2.1812 2.6989 -2.0035 0.9841
