ply
format ascii 1.0
element vertex 1070
property float32 x
property float32 y
property float32 z
property float32 I
end_header
0.5817 -13.2672 2.3416 0.9475
1.0526 -13.2531 2.3443 0.9474
0.5821 -13.2764 1.7305 0.9478
13.0662 -13.8642 2.4808 0.9260
1.0532 -13.2601 1.7322 0.9478
13.0544 -13.8517 1.6113 0.9264
0.5827 -13.2900 0.8249 0.9481
13.0497 -13.8467 1.1799 0.9266
0.5829 -13.2945 0.5247 0.9481
12.9417 -13.7321 0.7440 0.9272
0.5831 -13.2990 0.2249 0.9481
12.9417 -13.7321 0.3187 0.9273
1.0546 -13.2774 0.2250 0.9481
0.5833 -13.3035 -0.0750 0.9481
13.0374 -13.8336 -0.1070 0.9268
0.5835 -13.3080 -0.3751 0.9481
13.0346 -13.8306 -0.5352 0.9268
8.4259 2.9987 -0.2518 0.9648
6.9039 3.9520 -0.2240 0.9687
-5.1897 8.4454 -0.2791 0.9611
0.5837 -13.3125 -0.6758 0.9480
8.1976 2.9175 -0.4413 0.9658
-9.6781 6.2693 -0.5848 0.9549
-11.4695 6.0562 -0.6578 0.9494
1.0554 -13.2876 -0.6760 0.9480
12.9453 -13.7359 -1.3839 0.9271
6.6827 3.0722 -0.5393 0.9709
11.1358 13.3581 -1.2751 0.9326
-14.4446 13.5324 -1.4513 0.9237
-9.0549 7.0830 -0.8429 0.9549
-11.0414 5.8302 -0.9155 0.9512
1.0557 -13.2911 -0.9776 0.9479
-19.2703 -0.2449 -1.8502 0.9255
-19.1789 -1.9573 -1.8508 0.9255
-18.9463 -3.6574 -1.8525 0.9254
-18.5736 -5.3347 -1.8552 0.9253
-17.4155 -8.5782 -1.8638 0.9250
-16.6355 -10.1234 -1.8696 0.9247
-15.1918 -11.2090 -1.8125 0.9269
-10.0686 -15.3965 -1.7662 0.9287
-5.7525 -17.8255 -1.7982 0.9275
-4.1726 -18.3856 -1.8100 0.9270
0.5841 -13.3216 -1.2802 0.9478
7.6967 -18.2149 -1.8984 0.9236
9.3453 -17.5719 -1.9107 0.9231
10.3431 2.6732 -1.0256 0.9580
6.5904 3.0297 -0.6964 0.9713
6.2603 3.5836 -0.6925 0.9714
3.8562 8.4543 -0.8921 0.9633
2.2144 8.6742 -0.8595 0.9647
3.1484 19.3926 -1.8862 0.9241
1.4029 19.4633 -1.8734 0.9246
-3.6993 18.7267 -1.8326 0.9262
-6.8498 17.5033 -1.8045 0.9273
-8.3135 16.6950 -1.7905 0.9278
-5.1146 8.3233 -0.9379 0.9615
-8.3634 6.5421 -1.0194 0.9582
-10.9026 5.7569 -1.1837 0.9517
-17.8417 7.4766 -1.8572 0.9252
-18.4297 5.8594 -1.8566 0.9252
-18.8455 4.1912 -1.8535 0.9254
-19.2571 0.7870 -1.8503 0.9255
-19.1031 -2.6364 -1.8514 0.9254
-17.1206 -9.2007 -1.8660 0.9249
-8.1451 -16.6609 -1.7804 0.9282
-6.6729 -17.4254 -1.7914 0.9278
-5.1304 -18.0645 -1.8029 0.9273
-3.5278 -18.5710 -1.8148 0.9269
-1.8759 -18.9386 -1.8271 0.9264
-0.1865 -19.1614 -1.8397 0.9259
1.0559 -13.2945 -1.2804 0.9478
6.6841 -18.5267 -1.8909 0.9239
-15.7927 -0.2007 -1.8761 0.9384
-15.7168 -1.6039 -1.8766 0.9383
-15.2142 -4.3698 -1.8803 0.9382
-14.7902 -5.7142 -1.8834 0.9381
-12.8556 -9.4853 -1.8977 0.9377
-9.2439 -11.7125 -1.7724 0.9417
-7.0877 -13.2831 -1.7884 0.9412
-5.9079 -13.9284 -1.7972 0.9409
-2.0562 -15.2327 -1.8258 0.9400
1.6657 -12.4678 -1.4942 0.9506
3.4575 -15.3316 -1.8669 0.9387
4.8329 -15.0459 -1.8772 0.9383
6.1840 -14.6349 -1.8873 0.9380
8.7660 -13.4447 -1.9065 0.9374
9.9732 -12.6720 -1.9155 0.9371
11.3534 -12.0468 -1.9663 0.9355
15.1349 -9.2384 -2.1063 0.9311
15.9417 -7.8793 -2.1123 0.9309
16.6188 -6.4467 -2.1174 0.9307
17.1588 -4.9537 -2.1215 0.9306
17.9056 -0.2519 -2.1271 0.9304
17.8543 1.3403 -2.1268 0.9304
17.6524 2.9198 -2.1253 0.9305
6.5287 3.0014 -0.8535 0.9715
6.2355 3.5694 -0.8535 0.9715
13.4084 9.3494 -1.9417 0.9363
12.4799 10.4668 -1.9348 0.9365
11.4551 11.4892 -1.9272 0.9367
10.3441 12.4084 -1.9189 0.9370
9.1581 13.2177 -1.9101 0.9373
4.8041 8.4506 -1.1547 0.9616
3.7906 8.3106 -1.0850 0.9639
2.2109 8.6608 -1.0618 0.9646
2.5185 15.5127 -1.8668 0.9387
1.1237 15.5904 -1.8567 0.9390
-2.9761 15.0658 -1.8242 0.9400
-5.1146 8.3233 -1.1604 0.9614
-6.6768 8.9675 -1.3280 0.9560
-8.8475 5.7313 -1.2522 0.9584
-14.6349 6.1328 -1.8849 0.9381
-15.0943 4.7990 -1.8814 0.9382
-15.4396 3.4337 -1.8788 0.9383
-15.7816 0.6450 -1.8762 0.9384
-15.6538 -2.1604 -1.8771 0.9383
-15.4143 -3.5464 -1.8788 0.9383
-14.5898 -6.2396 -1.8849 0.9381
-14.0093 -7.5287 -1.8892 0.9379
-12.5274 -9.9476 -1.9002 0.9376
-8.8381 -12.0532 -1.7754 0.9416
-7.7665 -12.8483 -1.7834 0.9413
-5.4215 -14.1575 -1.8008 0.9408
-0.1223 -12.5624 -1.4923 0.9507
0.9931 -12.5034 -1.4899 0.9507
4.0074 -15.2329 -1.8710 0.9385
5.4806 -11.7867 -1.5440 0.9490
8.0101 -13.8535 -1.9009 0.9376
-13.3026 -1.3576 -1.8946 0.9474
-12.8733 -3.6975 -1.8978 0.9473
-12.5113 -4.8338 -1.9004 0.9473
-12.0536 -5.9372 -1.9038 0.9472
-11.5028 -6.9999 -1.9079 0.9471
-9.3268 -9.8694 -1.9240 0.9466
-8.4414 -10.6957 -1.9306 0.9464
-5.9900 -11.2259 -1.8029 0.9499
-4.9723 -11.7227 -1.8042 0.9499
-2.8430 -12.5268 -1.8201 0.9494
1.6500 -12.3506 -1.7655 0.9509
5.1637 -12.2202 -1.8797 0.9478
6.2564 -11.7637 -1.8879 0.9476
7.3222 -11.2302 -1.8995 0.9473
8.8817 -11.2852 -2.0348 0.9436
10.0106 -10.6219 -2.0681 0.9427
12.5737 -7.6751 -2.0872 0.9422
13.2376 -6.5427 -2.0922 0.9421
13.7941 -5.3510 -2.0964 0.9420
14.2378 -4.1104 -2.0997 0.9419
14.7688 -1.5275 -2.1037 0.9418
14.8507 -0.2089 -2.1044 0.9418
14.8085 1.1117 -2.1041 0.9418
14.6427 2.4220 -2.1029 0.9418
9.8562 2.5474 -1.4424 0.9597
7.3103 2.6017 -1.0994 0.9691
6.5027 2.9894 -1.0141 0.9715
10.3777 8.7037 -1.9191 0.9468
4.8040 8.4505 -1.3773 0.9615
3.8089 8.3506 -1.3005 0.9636
4.3990 12.4780 -1.8746 0.9480
2.1589 8.4571 -1.2367 0.9654
0.9381 13.0151 -1.8489 0.9486
-0.2213 12.9860 -1.8402 0.9489
-3.5898 12.2974 -1.8151 0.9496
-4.1836 8.4016 -1.3298 0.9628
-6.6767 8.9675 -1.5841 0.9558
-7.9497 8.9011 -1.6910 0.9529
-7.8536 7.3576 -1.5248 0.9575
-7.7956 6.0979 -1.4023 0.9608
-8.8414 5.7273 -1.4926 0.9583
-11.2488 5.9397 -1.8024 0.9499
-12.7707 4.0603 -1.8987 0.9473
-13.0657 2.9058 -1.8965 0.9474
-13.2618 1.7317 -1.8950 0.9474
-13.3536 -0.6435 -1.8943 0.9474
-13.0442 -3.0011 -1.8965 0.9474
-12.7408 -4.1535 -1.8987 0.9473
-12.3404 -5.2776 -1.9017 0.9472
-9.8228 -9.3381 -1.9203 0.9467
-8.9831 -10.2072 -1.9266 0.9465
-5.5786 -11.4111 -1.7997 0.9500
-4.5614 -11.9116 -1.8073 0.9498
-2.4016 -12.6425 -1.8233 0.9493
-0.1211 -12.4443 -1.7633 0.9510
0.9838 -12.3859 -1.7605 0.9510
3.3510 -12.7376 -1.8662 0.9482
5.4570 -11.7362 -1.8339 0.9491
6.6805 -11.5540 -1.8910 0.9475
-11.5780 -0.1471 -1.9075 0.9541
-11.3776 -2.1963 -1.9089 0.9541
-10.8317 -4.1848 -1.9130 0.9540
-10.4330 -5.1389 -1.9159 0.9539
-8.7638 -7.7591 -1.9283 0.9537
-8.0612 -8.5302 -1.9335 0.9535
-7.2926 -9.2402 -1.9392 0.9534
-5.5779 -10.4536 -1.9519 0.9531
-4.6361 -10.9300 -1.9559 0.9530
-3.6154 -11.2031 -1.9393 0.9534
-2.5448 -11.2130 -1.8942 0.9545
-0.5074 -11.2241 -1.8509 0.9555
3.6020 -11.2138 -1.9403 0.9534
5.7979 -10.9017 -2.0341 0.9512
7.6993 -9.7828 -2.0509 0.9508
10.7439 -6.5582 -2.0736 0.9503
11.7793 -4.5694 -2.0814 0.9501
12.1553 -3.5092 -2.0842 0.9500
12.6744 -0.1783 -2.0882 0.9499
12.4982 2.0673 -2.0869 0.9499
6.4740 2.9762 -1.1738 0.9715
10.3109 7.1895 -2.0708 0.9503
9.1958 7.7124 -1.9772 0.9525
7.3723 8.8435 -1.8967 0.9544
6.5356 9.4327 -1.8905 0.9545
4.8039 8.4504 -1.6013 0.9614
3.8089 8.3506 -1.5120 0.9635
3.7740 10.7052 -1.8699 0.9550
1.8048 11.1164 -1.8553 0.9554
0.8064 11.1878 -1.8478 0.9555
-2.1479 10.8731 -1.8258 0.9561
-3.0937 10.5980 -1.8188 0.9562
-4.0083 10.2426 -1.8120 0.9564
-8.2327 7.7128 -1.8584 0.9553
-9.7869 6.3398 -1.9210 0.9538
-10.7158 4.4905 -1.9140 0.9540
-11.3148 2.5164 -1.9095 0.9541
-11.4858 1.4998 -1.9082 0.9541
-11.5697 0.4728 -1.9076 0.9541
-11.4746 -1.5836 -1.9082 0.9541
-11.0317 -3.5963 -1.9115 0.9541
-10.2515 -5.5092 -1.9172 0.9539
-9.1528 -7.2679 -1.9254 0.9537
-5.2112 -10.6596 -1.9547 0.9530
-3.1830 -11.2074 -1.9193 0.9539
-1.1115 -11.2220 -1.8577 0.9553
-0.1093 -11.2251 -1.8493 0.9555
0.8916 -11.2258 -1.8552 0.9554
4.0444 -11.2102 -1.9633 0.9528
5.1836 -11.1481 -2.0254 0.9514
6.1974 -10.7184 -2.0397 0.9510
-10.2021 -0.1296 -1.9178 0.9593
-10.1521 -1.0360 -1.9181 0.9593
-9.8206 -2.8207 -1.9205 0.9593
-9.5413 -3.6863 -1.9226 0.9592
-8.7640 -5.3333 -1.9283 0.9591
-8.2710 -6.1026 -1.9320 0.9590
-7.7124 -6.8282 -1.9361 0.9589
-4.9015 -9.1859 -1.9570 0.9585
-2.3269 -10.2530 -1.9762 0.9581
-0.4781 -10.5761 -1.9899 0.9578
0.4654 -10.6141 -1.9970 0.9577
2.3537 -10.4371 -2.0110 0.9574
4.1928 -9.9227 -2.0247 0.9571
5.9209 -9.0810 -2.0376 0.9568
9.8589 -4.8728 -2.0671 0.9562
10.2682 -3.9832 -2.0702 0.9562
10.5942 -3.0585 -2.0726 0.9561
10.8335 -2.1066 -2.0744 0.9561
11.0439 -0.1554 -2.0760 0.9560
11.0129 0.8267 -2.0758 0.9560
9.8561 2.5473 -1.9134 0.9594
6.3478 2.9182 -1.3132 0.9720
6.3436 3.6313 -1.3739 0.9707
8.3826 7.0304 -2.0564 0.9564
7.6754 7.6983 -2.0433 0.9567
3.8089 8.3506 -1.7251 0.9633
2.1558 8.4449 -1.6382 0.9651
0.7065 9.8015 -1.8471 0.9608
-1.0328 9.7031 -1.8341 0.9611
-1.8845 9.5398 -1.8278 0.9612
-3.5201 8.9950 -1.8156 0.9614
-5.7515 7.7248 -1.8102 0.9616
-6.8596 7.6805 -1.9356 0.9590
-7.5240 7.0489 -1.9379 0.9589
-8.1026 6.3381 -1.9336 0.9590
-9.0629 4.7855 -1.9264 0.9591
-9.4385 3.9553 -1.9235 0.9592
-9.7412 3.0971 -1.9213 0.9593
-9.9689 2.2171 -1.9195 0.9593
-10.1205 1.3215 -1.9184 0.9593
-9.9525 -2.2898 -1.9196 0.9593
-9.7183 -3.1682 -1.9213 0.9593
-9.4094 -4.0241 -1.9236 0.9592
-9.0278 -4.8516 -1.9264 0.9591
-8.5757 -5.6445 -1.9297 0.9591
-7.4724 -7.1037 -1.9379 0.9589
-6.8283 -7.7588 -1.9427 0.9588
-4.5785 -9.3653 -1.9594 0.9585
-3.7399 -9.7662 -1.9656 0.9583
-2.8665 -10.0932 -1.9721 0.9582
-1.0413 -10.5131 -1.9857 0.9579
0.8424 -10.6059 -1.9998 0.9576
1.7879 -10.5260 -2.0068 0.9575
2.7259 -10.3614 -2.0138 0.9573
3.6484 -10.1125 -2.0207 0.9572
-8.9512 -1.7279 -1.9270 0.9634
-8.5179 -3.2909 -1.9302 0.9634
-7.8215 -4.7597 -1.9354 0.9633
-7.3800 -5.4452 -1.9386 0.9632
-6.8799 -6.0912 -1.9423 0.9631
-6.3247 -6.6927 -1.9465 0.9631
-5.7181 -7.2451 -1.9510 0.9630
-5.0641 -7.7438 -1.9558 0.9629
-4.3673 -8.1849 -1.9610 0.9628
-3.6327 -8.5645 -1.9665 0.9627
-2.0711 -9.1259 -1.9781 0.9625
4.5030 -8.4668 -2.0271 0.9616
5.2521 -8.0553 -2.0327 0.9614
5.9628 -7.5763 -2.0380 0.9613
7.2438 -6.4310 -2.0476 0.9612
7.8026 -5.7735 -2.0517 0.9611
8.2999 -5.0663 -2.0555 0.9610
9.0920 -3.5269 -2.0614 0.9609
9.7228 -1.0056 -2.0662 0.9608
9.7483 0.7318 -2.0664 0.9608
9.6411 1.5947 -2.0656 0.9608
9.4550 2.4436 -2.0643 0.9609
6.3318 3.6245 -1.5422 0.9706
7.9679 5.5558 -2.0533 0.9611
7.4281 6.2298 -2.0493 0.9611
6.1715 7.4031 -2.0373 0.9614
2.9313 8.3148 -1.8636 0.9646
-0.1484 8.7066 -1.8407 0.9650
-0.9187 8.6320 -1.8349 0.9651
-1.6771 8.4899 -1.8293 0.9652
-3.8465 7.7246 -1.8241 0.9653
-4.7360 7.7072 -1.9121 0.9637
-5.5102 7.4007 -1.9504 0.9630
-7.2291 5.6548 -1.9400 0.9632
-8.0891 4.2713 -1.9336 0.9633
-8.6970 2.7651 -1.9290 0.9634
-9.1008 -0.4385 -1.9259 0.9634
-9.0282 -1.2460 -1.9265 0.9634
-8.8865 -2.0446 -1.9275 0.9634
-8.3997 -3.5923 -1.9311 0.9633
-8.0577 -4.3303 -1.9336 0.9633
-7.1876 -5.7075 -1.9401 0.9632
-5.4630 -7.4504 -1.9529 0.9629
-3.3307 -8.6977 -1.9687 0.9626
3.2393 -8.9787 -2.0177 0.9617
4.0364 -8.6808 -2.0236 0.9616
-8.2220 -0.1045 -1.9325 0.9668
-8.0779 -1.5594 -1.9335 0.9668
-7.9123 -2.2726 -1.9348 0.9667
-7.6856 -2.9693 -1.9364 0.9667
-6.6560 -4.9110 -1.9440 0.9666
-6.2039 -5.4926 -1.9474 0.9665
-5.1540 -6.5303 -1.9552 0.9664
-4.5634 -6.9782 -1.9596 0.9663
-3.9345 -7.3737 -1.9643 0.9662
-3.2718 -7.7135 -1.9692 0.9662
-1.8642 -8.2144 -1.9797 0.9660
-1.1299 -8.3706 -1.9851 0.9659
-0.3825 -8.4616 -1.9907 0.9658
0.3721 -8.4860 -1.9963 0.9657
1.1280 -8.4431 -2.0019 0.9656
1.8791 -8.3326 -2.0075 0.9655
4.0432 -7.6023 -2.0237 0.9652
4.7145 -7.2307 -2.0287 0.9652
5.3510 -6.7990 -2.0335 0.9651
6.4975 -5.7684 -2.0420 0.9649
6.9972 -5.1775 -2.0458 0.9649
8.1495 -3.1614 -2.0544 0.9647
8.4062 -2.4268 -2.0563 0.9647
8.5945 -1.6712 -2.0577 0.9647
8.6399 1.4291 -2.0582 0.9647
7.2027 2.5634 -1.7968 0.9691
7.2652 4.1588 -1.9675 0.9662
7.1449 4.9820 -2.0471 0.9648
6.6621 5.5875 -2.0435 0.9649
3.5135 7.7030 -1.9898 0.9658
0.5647 7.8341 -1.8460 0.9682
-0.1335 7.8311 -1.8408 0.9683
-0.8266 7.7664 -1.8356 0.9684
-3.0146 7.7034 -1.9442 0.9666
-3.7220 7.4745 -1.9624 0.9663
-4.3693 7.1104 -1.9614 0.9663
-4.9725 6.6785 -1.9569 0.9664
-6.0513 5.6692 -1.9488 0.9665
-6.5195 5.0997 -1.9453 0.9666
-6.9358 4.4929 -1.9422 0.9666
-7.6021 3.1857 -1.9372 0.9667
-7.8477 2.4951 -1.9354 0.9667
-8.0326 1.7864 -1.9340 0.9668
-8.1556 1.0649 -1.9330 0.9668
-8.2160 0.3358 -1.9326 0.9668
-8.2133 -0.3958 -1.9326 0.9668
-8.0193 -1.8450 -1.9340 0.9668
-5.4891 -6.2371 -1.9527 0.9664
-3.6743 -7.5159 -1.9662 0.9662
-2.9994 -7.8326 -1.9712 0.9661
-2.2975 -8.0896 -1.9764 0.9660
-0.8335 -8.4147 -1.9873 0.9659
2.9099 -8.0657 -2.0152 0.9654
3.6249 -7.7958 -2.0206 0.9653
4.3143 -7.4617 -2.0257 0.9652
-7.4473 -0.7600 -1.9383 0.9695
-7.2018 -2.0685 -1.9401 0.9695
-6.9949 -2.7025 -1.9416 0.9695
-5.1861 -5.4878 -1.9550 0.9693
-4.1488 -6.3442 -1.9627 0.9692
-3.5763 -6.7023 -1.9669 0.9691
-2.9732 -7.0096 -1.9714 0.9690
-0.3473 -7.6817 -1.9910 0.9687
0.3377 -7.7019 -1.9961 0.9686
1.0235 -7.6610 -2.0012 0.9686
1.7046 -7.5588 -2.0063 0.9685
3.0309 -7.1728 -2.0162 0.9683
4.2725 -6.5528 -2.0254 0.9682
4.8482 -6.1602 -2.0297 0.9681
5.3872 -5.7163 -2.0337 0.9681
6.3362 -4.6884 -2.0408 0.9680
7.9277 -0.1115 -2.0528 0.9678
7.8192 1.2933 -2.0520 0.9678
7.6692 1.9821 -2.0509 0.9678
7.1846 3.3029 -2.0474 0.9679
6.0334 5.0601 -2.0388 0.9680
4.4589 6.4355 -2.0271 0.9682
3.8608 6.7914 -2.0227 0.9682
1.2360 7.6132 -1.9970 0.9686
-0.1307 7.6688 -1.9859 0.9688
-0.8101 7.6112 -1.9818 0.9689
-2.7774 7.0971 -1.9732 0.9690
-3.9720 6.4639 -1.9643 0.9691
-5.5043 5.1567 -1.9529 0.9693
-5.9311 4.6395 -1.9497 0.9694
-6.6407 3.5065 -1.9444 0.9694
-7.1428 2.2709 -1.9406 0.9695
-7.3115 1.6261 -1.9393 0.9695
-7.4238 0.9694 -1.9385 0.9695
-7.2995 -1.6794 -1.9393 0.9695
-6.6150 -3.5549 -1.9444 0.9694
-6.2808 -4.1340 -1.9469 0.9694
-4.9920 -5.6723 -1.9564 0.9693
-3.3395 -6.8310 -1.9687 0.9691
-2.7255 -7.1172 -1.9733 0.9690
-2.0871 -7.3489 -1.9780 0.9689
-0.0749 -7.6971 -1.9930 0.9687
0.6110 -7.6929 -1.9981 0.9686
1.2956 -7.6276 -2.0032 0.9685
1.9734 -7.5011 -2.0083 0.9685
2.6388 -7.3141 -2.0132 0.9684
-6.8616 -0.0872 -1.9426 0.9719
-6.8276 -0.6968 -1.9429 0.9719
-6.7408 -1.3012 -1.9435 0.9719
-6.1720 -3.0401 -1.9477 0.9718
-5.1709 -4.5781 -1.9551 0.9717
-4.7511 -5.0275 -1.9582 0.9717
-4.2929 -5.4393 -1.9616 0.9716
-3.7996 -5.8102 -1.9653 0.9716
-3.2746 -6.1370 -1.9692 0.9715
-2.7219 -6.4171 -1.9733 0.9714
-0.9387 -6.9543 -1.9866 0.9712
-0.3177 -7.0266 -1.9912 0.9712
0.3088 -7.0435 -1.9959 0.9711
0.9358 -7.0045 -2.0006 0.9710
1.5582 -6.9096 -2.0052 0.9710
2.7694 -6.5540 -2.0142 0.9709
4.4274 -5.6255 -2.0266 0.9707
4.9187 -5.2192 -2.0303 0.9706
6.4660 -3.1958 -2.0418 0.9705
6.7310 -2.6111 -2.0438 0.9704
7.0965 -1.3799 -2.0466 0.9704
7.1337 1.1800 -2.0469 0.9704
6.9972 1.8084 -2.0459 0.9704
6.8040 2.4215 -2.0445 0.9704
6.5560 3.0139 -2.0427 0.9704
6.2553 3.5808 -2.0405 0.9705
5.9048 4.1173 -2.0379 0.9705
5.5075 4.6191 -2.0349 0.9706
3.5268 6.2038 -2.0202 0.9708
1.7536 6.8693 -2.0070 0.9710
1.1335 6.9818 -2.0024 0.9710
-0.1200 7.0392 -1.9930 0.9712
-1.3581 6.8748 -1.9838 0.9713
-2.5424 6.4967 -1.9750 0.9714
-3.6374 5.9193 -1.9668 0.9715
-4.1412 5.5620 -1.9630 0.9716
-4.6108 5.1627 -1.9595 0.9716
-5.7835 3.7465 -1.9508 0.9718
-6.0865 3.2138 -1.9485 0.9718
-6.5477 2.0818 -1.9450 0.9718
-6.7028 1.4907 -1.9439 0.9719
-6.8544 -0.3303 -1.9427 0.9719
-6.5323 -2.1295 -1.9450 0.9718
-6.3222 -2.7038 -1.9466 0.9718
-6.0629 -3.2582 -1.9485 0.9718
-5.0085 -4.7613 -1.9563 0.9717
-4.1004 -5.5921 -1.9631 0.9716
-3.0576 -6.2543 -1.9708 0.9715
-1.9102 -6.7259 -1.9794 0.9714
-1.3078 -6.8846 -1.9838 0.9713
-0.6923 -6.9897 -1.9884 0.9712
0.5587 -7.0347 -1.9977 0.9711
2.4114 -6.6839 -2.0116 0.9709
3.0025 -6.4573 -2.0160 0.9708
3.5720 -6.1779 -2.0202 0.9708
-6.2968 -0.6426 -1.9468 0.9739
-5.4249 -3.3013 -1.9533 0.9738
-4.7666 -4.2201 -1.9581 0.9737
-4.3791 -4.6339 -1.9610 0.9737
-3.9562 -5.0127 -1.9642 0.9736
-3.0169 -5.6540 -1.9711 0.9735
-1.9759 -6.1228 -1.9789 0.9734
-1.4269 -6.2872 -1.9830 0.9734
-0.8642 -6.4026 -1.9872 0.9733
0.2842 -6.4822 -1.9957 0.9732
1.9970 -6.2171 -2.0085 0.9730
4.0696 -5.1709 -2.0239 0.9728
4.5206 -4.7967 -2.0273 0.9728
4.9366 -4.3826 -2.0304 0.9728
5.3139 -3.9320 -2.0332 0.9727
6.1828 -2.3984 -2.0398 0.9726
6.6423 -0.0935 -2.0432 0.9726
6.5519 1.0837 -2.0426 0.9726
6.4267 1.6610 -2.0417 0.9726
6.2497 2.2242 -2.0404 0.9726
6.0223 2.7686 -2.0387 0.9726
5.0608 4.2444 -2.0316 0.9727
3.7436 5.4031 -2.0218 0.9729
3.2426 5.7039 -2.0181 0.9729
2.1729 6.1635 -2.0101 0.9730
1.0429 6.4238 -2.0017 0.9731
0.4669 6.4772 -1.9974 0.9732
-0.6844 6.4298 -1.9888 0.9733
-1.2504 6.3300 -1.9846 0.9734
-1.8043 6.1810 -1.9805 0.9734
-2.3418 5.9840 -1.9765 0.9735
-2.8588 5.7410 -1.9726 0.9735
-3.3514 5.4540 -1.9689 0.9736
-3.8162 5.1255 -1.9655 0.9736
-4.2496 4.7582 -1.9622 0.9737
-4.6486 4.3550 -1.9592 0.9737
-5.3322 3.4541 -1.9541 0.9738
-5.6121 2.9634 -1.9520 0.9738
-6.3216 -0.3046 -1.9467 0.9739
-6.2707 -0.8654 -1.9470 0.9739
-6.1713 -1.4198 -1.9477 0.9738
-5.8299 -2.4933 -1.9503 0.9738
-5.5903 -3.0043 -1.9520 0.9738
-4.9816 -3.9557 -1.9565 0.9737
-4.6167 -4.3889 -1.9593 0.9737
-4.2147 -4.7891 -1.9622 0.9737
-3.7787 -5.1532 -1.9655 0.9736
-2.8168 -5.7617 -1.9726 0.9735
-1.7591 -6.1940 -1.9805 0.9734
-0.0631 -6.4797 -1.9931 0.9732
2.2179 -6.1475 -2.0101 0.9730
2.7610 -5.9380 -2.0142 0.9730
3.2842 -5.6801 -2.0181 0.9729
-5.2744 -2.5980 -1.9544 0.9755
-5.0274 -3.0593 -1.9562 0.9755
-4.7407 -3.4979 -1.9584 0.9755
-4.4165 -3.9101 -1.9608 0.9754
-3.6648 -4.6435 -1.9663 0.9754
-3.2428 -4.9587 -1.9695 0.9753
0.2630 -5.9976 -1.9956 0.9750
1.8468 -5.7496 -2.0074 0.9749
2.3550 -5.5732 -2.0112 0.9748
4.5616 -4.0497 -2.0276 0.9746
4.9098 -3.6329 -2.0302 0.9746
5.7111 -2.2155 -2.0363 0.9745
6.0200 -1.1706 -2.0386 0.9745
6.1021 -0.6311 -2.0392 0.9745
6.1348 -0.0863 -2.0395 0.9745
5.7728 2.0545 -2.0368 0.9745
5.5631 2.5575 -2.0353 0.9745
5.0124 3.4950 -2.0312 0.9746
4.6762 3.9219 -2.0287 0.9746
4.3032 4.3161 -2.0259 0.9746
3.8968 4.6745 -2.0229 0.9747
2.9977 5.2731 -2.0162 0.9748
1.4920 5.8444 -2.0050 0.9749
0.9647 5.9423 -2.0011 0.9749
-0.6334 5.9506 -1.9892 0.9751
-1.6704 5.7222 -1.9815 0.9752
-2.1683 5.5407 -1.9777 0.9752
-2.6474 5.3164 -1.9742 0.9753
-3.1040 5.0513 -1.9708 0.9753
-4.3070 4.0350 -1.9618 0.9754
-4.6426 3.6316 -1.9593 0.9755
-4.9413 3.2009 -1.9570 0.9755
-5.4200 2.2713 -1.9534 0.9755
-5.7297 1.2743 -1.9511 0.9756
-5.8182 0.7597 -1.9504 0.9756
-5.8617 0.2396 -1.9501 0.9756
-5.8598 -0.2823 -1.9501 0.9756
-5.8125 -0.8022 -1.9504 0.9756
-5.7202 -1.3161 -1.9511 0.9756
-5.4033 -2.3108 -1.9534 0.9755
-3.9046 -4.4367 -1.9646 0.9754
-3.5001 -4.7734 -1.9676 0.9754
-3.0671 -5.0739 -1.9708 0.9753
-2.6085 -5.3356 -1.9742 0.9753
-2.1278 -5.5564 -1.9778 0.9752
-1.1146 -5.8676 -1.9853 0.9751
-0.5899 -5.9551 -1.9892 0.9751
1.0081 -5.9351 -2.0011 0.9749
2.5528 -5.4903 -2.0126 0.9748
3.0361 -5.2510 -2.0162 0.9748
-5.3644 -1.0355 -1.9538 0.9771
-5.2533 -1.5088 -1.9546 0.9770
-5.1014 -1.9709 -1.9557 0.9770
-4.1100 -3.6388 -1.9630 0.9770
-3.7751 -3.9948 -1.9655 0.9769
-2.1594 -5.0909 -1.9775 0.9768
-1.2282 -5.4117 -1.9845 0.9767
-0.2516 -5.5639 -1.9917 0.9766
0.2444 -5.5746 -1.9954 0.9766
1.7158 -5.3418 -2.0064 0.9764
2.1876 -5.1772 -2.0099 0.9764
3.4929 -4.4381 -2.0197 0.9763
4.2351 -3.7598 -2.0252 0.9762
4.5579 -3.3726 -2.0276 0.9762
5.6933 -0.0801 -2.0362 0.9761
5.6776 0.4262 -2.0361 0.9761
4.9279 2.8209 -2.0305 0.9762
3.6184 4.3406 -2.0208 0.9763
2.7842 4.8976 -2.0146 0.9764
1.8668 5.2951 -2.0078 0.9764
1.3863 5.4304 -2.0042 0.9765
0.8965 5.5221 -2.0006 0.9765
0.4014 5.5696 -1.9969 0.9766
-2.0166 5.1531 -1.9789 0.9768
-3.2888 4.4172 -1.9694 0.9769
-3.6632 4.1016 -1.9666 0.9769
-4.0080 3.7548 -1.9640 0.9769
-4.3207 3.3797 -1.9617 0.9770
-4.8412 2.5563 -1.9578 0.9770
-5.2099 1.6564 -1.9550 0.9770
-5.3339 1.1862 -1.9541 0.9771
-5.4571 0.2230 -1.9531 0.9771
-5.4112 -0.7468 -1.9534 0.9771
-5.3251 -1.2252 -1.9541 0.9771
-5.1977 -1.6944 -1.9550 0.9770
-4.8224 -2.5916 -1.9578 0.9770
-3.9805 -3.7840 -1.9640 0.9769
-3.6331 -4.1282 -1.9666 0.9769
-3.2565 -4.4411 -1.9694 0.9769
-2.8532 -4.7201 -1.9724 0.9768
-1.9789 -5.1677 -1.9789 0.9768
-1.5144 -5.3325 -1.9823 0.9767
-1.0364 -5.4557 -1.9859 0.9767
0.9368 -5.5154 -2.0006 0.9765
2.3714 -5.0999 -2.0113 0.9764
-2.2914 -0.0291 -0.8782 0.9902
-2.3034 -0.2351 -0.8873 0.9901
-4.5871 -2.2594 -1.9595 0.9783
-4.3717 -2.6603 -1.9611 0.9783
-4.1218 -3.0412 -1.9630 0.9783
-3.5262 -3.7313 -1.9674 0.9782
-3.1847 -4.0351 -1.9699 0.9782
-2.8174 -4.3082 -1.9727 0.9782
-1.1465 -5.0516 -1.9851 0.9781
-0.6941 -5.1422 -1.9885 0.9780
0.2281 -5.2018 -1.9953 0.9779
1.1494 -5.0967 -2.0022 0.9779
1.6005 -4.9827 -2.0056 0.9778
2.4653 -4.6355 -2.0120 0.9778
2.8719 -4.4047 -2.0150 0.9777
4.2485 -3.1436 -2.0253 0.9776
4.5155 -2.7563 -2.0273 0.9776
5.2907 0.3972 -2.0332 0.9775
5.1339 1.3269 -2.0320 0.9775
4.9931 1.7770 -2.0310 0.9776
4.8122 2.2123 -2.0297 0.9776
4.5929 2.6291 -2.0280 0.9776
3.7247 3.7358 -2.0216 0.9777
3.3735 4.0468 -2.0190 0.9777
2.9964 4.3246 -2.0162 0.9777
1.7412 4.9389 -2.0069 0.9778
1.2932 5.0657 -2.0035 0.9779
0.8364 5.1518 -2.0001 0.9779
0.3746 5.1968 -1.9967 0.9779
-0.5495 5.1632 -1.9898 0.9780
-1.8828 4.8111 -1.9799 0.9781
-3.0715 4.1254 -1.9710 0.9782
-3.7438 3.5074 -1.9660 0.9783
-4.5231 2.3883 -1.9601 0.9783
-4.7140 1.9754 -1.9587 0.9783
-2.3055 0.3010 -0.8910 0.9901
-2.3174 -0.3198 -0.8965 0.9900
-4.9759 -1.1448 -1.9567 0.9784
-4.8566 -1.5832 -1.9575 0.9784
-4.6994 -2.0098 -1.9587 0.9783
-4.2762 -2.8146 -1.9618 0.9783
-4.0131 -3.1867 -1.9638 0.9783
-3.3934 -3.8559 -1.9684 0.9782
-3.0413 -4.1477 -1.9710 0.9782
-2.6644 -4.4078 -1.9738 0.9782
-2.2655 -4.6342 -1.9768 0.9781
-1.8476 -4.8248 -1.9799 0.9781
-1.4138 -4.9780 -1.9831 0.9781
-0.9674 -5.0924 -1.9864 0.9780
0.4125 -5.1940 -1.9967 0.9779
0.8740 -5.1456 -2.0001 0.9779
1.3302 -5.0561 -2.0035 0.9779
-1.9935 -0.0253 -0.8160 0.9914
-2.0176 -0.2059 -0.8300 0.9913
-4.0976 -2.4936 -1.9632 0.9795
-3.8632 -2.8504 -1.9649 0.9795
-3.3045 -3.4967 -1.9691 0.9794
-2.6398 -4.0366 -1.9740 0.9794
-1.8887 -4.4528 -1.9796 0.9793
-1.4877 -4.6100 -1.9826 0.9793
-0.2198 -4.8622 -1.9920 0.9792
0.2135 -4.8703 -1.9952 0.9792
1.4980 -4.6637 -2.0048 0.9791
1.9095 -4.5190 -2.0079 0.9790
2.6872 -4.1214 -2.0137 0.9790
3.3832 -3.5898 -2.0189 0.9789
3.6931 -3.2787 -2.0212 0.9789
4.2235 -2.5781 -2.0252 0.9788
4.4394 -2.1942 -2.0268 0.9788
4.7635 -1.3752 -2.0292 0.9788
4.8688 -0.9468 -2.0300 0.9788
4.9612 -0.0698 -2.0307 0.9788
4.9476 0.3714 -2.0306 0.9788
4.6696 1.6619 -2.0286 0.9788
4.5007 2.0690 -2.0273 0.9788
4.2958 2.4590 -2.0258 0.9788
4.0567 2.8286 -2.0241 0.9789
3.7854 3.1748 -2.0220 0.9789
3.4844 3.4948 -2.0198 0.9789
3.1562 3.7861 -2.0174 0.9789
2.0371 4.4662 -2.0090 0.9790
1.2105 4.7417 -2.0029 0.9791
-0.0830 4.8696 -1.9933 0.9792
-1.7637 4.5068 -1.9807 0.9793
-2.1541 4.3259 -1.9778 0.9793
-2.5265 4.1115 -1.9750 0.9794
-2.8781 3.8655 -1.9724 0.9794
-3.2063 3.5900 -1.9700 0.9794
-4.0272 2.6087 -1.9638 0.9795
-4.2397 2.2387 -1.9622 0.9795
-4.4188 1.8518 -1.9609 0.9795
-2.0040 -0.0965 -0.8211 0.9914
-2.0207 -0.2788 -0.8349 0.9912
-4.5527 -1.4841 -1.9598 0.9795
-4.4052 -1.8839 -1.9609 0.9795
-3.7612 -2.9866 -1.9657 0.9795
-0.4793 -4.8387 -1.9901 0.9792
-0.0474 -4.8700 -1.9933 0.9792
1.2451 -4.7328 -2.0029 0.9791
1.6634 -4.6105 -2.0060 0.9790
2.4607 -4.2558 -2.0120 0.9790
-1.4697 -0.1500 -0.6439 0.9936
-1.5430 -0.5961 -0.7209 0.9928
-4.0418 -1.9908 -1.9636 0.9805
-3.8517 -2.3439 -1.9650 0.9805
-3.6311 -2.6792 -1.9666 0.9805
-3.3818 -2.9941 -1.9685 0.9805
-2.8044 -3.5533 -1.9728 0.9804
-2.1363 -4.0037 -1.9777 0.9804
-0.6105 -4.5230 -1.9891 0.9803
-0.2064 -4.5663 -1.9921 0.9803
0.2005 -4.5735 -1.9951 0.9802
1.4063 -4.3782 -2.0041 0.9801
1.7925 -4.2420 -2.0070 0.9801
2.1654 -4.0715 -2.0098 0.9801
3.1747 -3.3686 -2.0173 0.9800
3.9625 -2.4187 -2.0232 0.9799
4.3341 -1.6813 -2.0260 0.9799
4.5672 -0.8881 -2.0278 0.9799
4.6292 -0.4788 -2.0282 0.9799
4.6539 -0.0655 -2.0284 0.9799
4.6411 0.3484 -2.0283 0.9799
4.5038 1.1640 -2.0273 0.9799
4.3806 1.5590 -2.0264 0.9799
4.2223 1.9411 -2.0253 0.9799
3.5518 2.9789 -2.0203 0.9800
3.2696 3.2794 -2.0182 0.9800
2.6312 3.7975 -2.0135 0.9800
2.2803 4.0111 -2.0108 0.9801
1.1364 4.4517 -2.0023 0.9802
0.7352 4.5283 -1.9994 0.9802
0.3293 4.5688 -1.9963 0.9802
-0.0779 4.5730 -1.9933 0.9802
-0.8837 4.4735 -1.9873 0.9803
-1.2759 4.3708 -1.9844 0.9803
-2.0239 4.0644 -1.9788 0.9804
-2.3740 3.8633 -1.9762 0.9804
-3.0132 3.3738 -1.9714 0.9805
-3.7854 2.4521 -1.9656 0.9805
-3.9853 2.1044 -1.9641 0.9805
-4.1539 1.7407 -1.9629 0.9805
-1.4732 0.1924 -0.6475 0.9935
-1.4478 0.0592 -0.6315 0.9937
-1.4514 -0.0699 -0.6333 0.9937
-1.4736 -0.2034 -0.6483 0.9935
-4.1411 -1.7710 -1.9629 0.9805
-3.9698 -2.1334 -1.9641 0.9805
-3.7674 -2.4797 -1.9656 0.9805
-2.3457 -3.8806 -1.9762 0.9804
-1.9942 -4.0791 -1.9788 0.9804
-1.6260 -4.2460 -1.9815 0.9804
-1.2440 -4.3800 -1.9844 0.9803
1.5615 -4.3281 -2.0053 0.9801
1.9427 -4.1781 -2.0081 0.9801
-1.2744 -0.1300 -0.5930 0.9944
-3.8089 -1.8761 -1.9653 0.9815
-3.6295 -2.2087 -1.9667 0.9814
-3.4215 -2.5245 -1.9682 0.9814
-3.1864 -2.8211 -1.9699 0.9814
-2.6420 -3.3475 -1.9740 0.9814
-2.3367 -3.5732 -1.9763 0.9814
-1.6713 -3.9403 -1.9812 0.9813
-1.3163 -4.0787 -1.9838 0.9813
-0.9499 -4.1853 -1.9866 0.9813
-0.5749 -4.2591 -1.9894 0.9812
-0.1944 -4.2995 -1.9922 0.9812
0.1888 -4.3059 -1.9951 0.9812
0.5715 -4.2782 -1.9979 0.9812
2.0378 -3.8316 -2.0088 0.9811
2.3732 -3.6399 -2.0113 0.9810
2.9870 -3.1694 -2.0159 0.9810
3.5077 -2.5955 -2.0198 0.9810
3.9178 -1.9364 -2.0229 0.9809
4.0768 -1.5814 -2.0241 0.9809
4.3773 -0.0616 -2.0264 0.9809
4.3652 0.3277 -2.0263 0.9809
3.9717 1.8259 -2.0234 0.9809
3.5805 2.4966 -2.0205 0.9809
3.3415 2.8025 -2.0187 0.9810
3.0762 3.0854 -2.0168 0.9810
2.1459 3.7747 -2.0098 0.9810
1.7996 3.9454 -2.0073 0.9811
1.4399 4.0843 -2.0046 0.9811
1.0697 4.1903 -2.0018 0.9811
0.3100 4.3013 -1.9962 0.9812
-0.0734 4.3057 -1.9933 0.9812
-0.4551 4.2760 -1.9905 0.9812
-1.5606 3.9879 -1.9822 0.9813
-1.9064 3.8284 -1.9797 0.9813
-2.2363 3.6393 -1.9772 0.9813
-3.5670 2.3106 -1.9672 0.9814
-3.7555 1.9830 -1.9658 0.9815
-1.2479 0.5230 -0.6263 0.9941
-1.2681 0.2820 -0.6013 0.9943
-1.2752 0.1665 -0.5953 0.9943
-1.2667 0.0518 -0.5868 0.9944
-1.2751 -0.1760 -0.5958 0.9943
-1.2689 -0.2919 -0.6027 0.9943
-3.0856 -2.9333 -1.9707 0.9814
-2.8156 -3.1992 -1.9727 0.9814
-2.5229 -3.4406 -1.9749 0.9814
-1.8784 -3.8422 -1.9797 0.9813
-1.5315 -3.9992 -1.9822 0.9813
-1.1715 -4.1250 -1.9849 0.9813
-0.8014 -4.2187 -1.9877 0.9813
0.3414 -4.2989 -1.9962 0.9812
1.1003 -4.1824 -2.0018 0.9811
1.4697 -4.0736 -2.0046 0.9811
-1.1443 -0.1168 -0.5642 0.9949
-1.1390 -0.2199 -0.5690 0.9948
-1.0861 -0.5350 -0.5939 0.9946
-3.4276 -2.0858 -1.9682 0.9823
-3.2311 -2.3840 -1.9696 0.9823
-3.0089 -2.6639 -1.9713 0.9823
-2.4945 -3.1607 -1.9751 0.9822
-1.5777 -3.7196 -1.9819 0.9822
-0.8965 -3.9503 -1.9870 0.9821
-0.1834 -4.0574 -1.9923 0.9821
0.1781 -4.0631 -1.9950 0.9820
0.8971 -3.9781 -2.0003 0.9820
1.5914 -3.7661 -2.0055 0.9819
2.2384 -3.4331 -2.0103 0.9819
2.5375 -3.2241 -2.0126 0.9819
2.8169 -2.9890 -2.0147 0.9819
3.0744 -2.7294 -2.0166 0.9819
3.8438 -1.4911 -2.0224 0.9818
3.9628 -1.1440 -2.0233 0.9818
4.0502 -0.7876 -2.0239 0.9818
4.1050 -0.4246 -2.0243 0.9818
4.1268 -0.0581 -2.0245 0.9818
3.8849 1.3826 -2.0227 0.9818
3.3762 2.3542 -2.0190 0.9818
3.1510 2.6427 -2.0173 0.9818
2.9010 2.9097 -2.0154 0.9819
2.6283 3.1528 -2.0134 0.9819
2.3351 3.3703 -2.0112 0.9819
1.6975 3.7217 -2.0065 0.9819
1.3583 3.8530 -2.0040 0.9820
1.0092 3.9533 -2.0014 0.9820
0.6530 4.0220 -1.9987 0.9820
0.2925 4.0587 -1.9960 0.9820
-0.0693 4.0631 -1.9933 0.9821
-0.7854 3.9760 -1.9880 0.9821
-1.7997 3.6141 -1.9804 0.9822
-2.1113 3.4358 -1.9781 0.9822
-2.4056 3.2310 -1.9759 0.9822
-2.9338 2.7485 -1.9720 0.9822
-3.1637 2.4747 -1.9703 0.9823
-3.3685 2.1821 -1.9687 0.9823
-1.0986 0.5801 -0.6094 0.9945
-1.1085 0.4645 -0.5895 0.9947
-1.1290 0.3590 -0.5811 0.9947
-1.1404 0.0466 -0.5598 0.9949
-1.1280 -0.3677 -0.5820 0.9947
-1.1045 -0.5936 -0.6151 0.9944
-3.3525 -2.2066 -1.9687 0.9823
-2.6585 -3.0208 -1.9739 0.9822
-2.3820 -3.2485 -1.9759 0.9822
-1.7732 -3.6272 -1.9805 0.9822
-0.7564 -3.9816 -1.9880 0.9821
0.6823 -4.0172 -1.9987 0.9820
1.0381 -3.9458 -2.0014 0.9820
1.3864 -3.8429 -2.0040 0.9820
1.7247 -3.7092 -2.0065 0.9819
-1.0314 -0.0131 -0.5351 0.9954
-1.0377 -0.1059 -0.5411 0.9953
-1.0302 -0.1989 -0.5443 0.9953
-1.0184 -0.2925 -0.5497 0.9952
-1.0032 -0.3876 -0.5579 0.9952
-2.3599 -2.9901 -1.9761 0.9830
-2.0869 -3.1912 -1.9781 0.9830
-1.7970 -3.3677 -1.9803 0.9829
-1.4923 -3.5182 -1.9826 0.9829
-1.1751 -3.6412 -1.9849 0.9829
-0.5131 -3.8011 -1.9898 0.9829
-0.1735 -3.8366 -1.9924 0.9828
0.8481 -3.7607 -2.0000 0.9828
1.1804 -3.6750 -2.0025 0.9828
2.1155 -3.2446 -2.0094 0.9827
2.9051 -2.5791 -2.0153 0.9826
3.1254 -2.3126 -2.0170 0.9826
3.3210 -2.0271 -2.0184 0.9826
3.4902 -1.7250 -2.0197 0.9826
3.7440 -1.0809 -2.0216 0.9826
3.8781 -0.4011 -2.0226 0.9826
3.8881 0.2919 -2.0227 0.9826
3.8462 0.6362 -2.0224 0.9826
3.5381 1.6265 -2.0202 0.9826
3.3775 1.9334 -2.0190 0.9826
2.9775 2.4972 -2.0160 0.9826
2.7414 2.7496 -2.0143 0.9827
2.4838 2.9795 -2.0123 0.9827
1.9130 3.3651 -2.0081 0.9827
1.2840 3.6421 -2.0034 0.9827
0.9540 3.7372 -2.0010 0.9828
0.6173 3.8025 -1.9985 0.9828
0.2766 3.8374 -1.9959 0.9828
-0.4062 3.8160 -1.9908 0.9829
-2.2757 3.0565 -1.9769 0.9830
-2.5359 2.8393 -1.9749 0.9830
-2.9933 2.3415 -1.9715 0.9830
-3.1872 2.0646 -1.9701 0.9830
-0.9598 0.5068 -0.5631 0.9951
-1.0153 0.3228 -0.5527 0.9952
-1.0256 0.2281 -0.5450 0.9953
-1.0363 -0.1430 -0.5427 0.9953
-1.0241 -0.2356 -0.5452 0.9953
-0.9928 -0.4246 -0.5602 0.9951
-0.9563 -0.5139 -0.5632 0.9951
-2.9761 -2.3632 -1.9715 0.9830
-2.7566 -2.6206 -1.9732 0.9830
-2.5151 -2.8578 -1.9749 0.9830
-2.2533 -3.0730 -1.9769 0.9830
-1.6773 -3.4309 -1.9812 0.9829
-1.0458 -3.6823 -1.9859 0.9829
-0.7153 -3.7654 -1.9883 0.9829
-0.3783 -3.8188 -1.9908 0.9829
-0.0374 -3.8422 -1.9934 0.9828
0.6451 -3.7978 -1.9985 0.9828
0.9813 -3.7301 -2.0010 0.9828
1.6302 -3.5059 -2.0058 0.9827
1.9375 -3.3510 -2.0081 0.9827
-0.9425 -0.0120 -0.5162 0.9957
-0.9473 -0.0967 -0.5215 0.9957
-0.9398 -0.1814 -0.5242 0.9956
-2.6979 -2.3886 -1.9736 0.9837
-1.9775 -3.0240 -1.9789 0.9837
-1.7027 -3.1910 -1.9810 0.9836
-1.4139 -3.3333 -1.9831 0.9836
-1.1133 -3.4497 -1.9854 0.9836
-0.4861 -3.6008 -1.9900 0.9836
-0.1643 -3.6341 -1.9924 0.9835
0.4829 -3.6145 -1.9973 0.9835
1.4244 -3.3708 -2.0043 0.9834
1.7202 -3.2345 -2.0065 0.9834
2.5201 -2.6740 -2.0125 0.9834
2.7501 -2.4415 -2.0142 0.9834
2.9585 -2.1891 -2.0157 0.9834
3.1435 -1.9188 -2.0171 0.9833
3.3036 -1.6328 -2.0183 0.9833
3.4373 -1.3334 -2.0193 0.9833
1.8816 -0.5432 -1.0726 0.9911
1.8848 -0.3665 -1.0517 0.9913
1.8867 0.3121 -1.0474 0.9913
3.1970 1.8301 -2.0176 0.9833
2.8186 2.3639 -2.0148 0.9834
2.0894 3.0157 -2.0094 0.9834
1.8113 3.1862 -2.0073 0.9834
1.5193 3.3309 -2.0052 0.9834
1.2159 3.4489 -2.0029 0.9835
0.9035 3.5392 -2.0006 0.9835
-0.0620 3.6390 -1.9934 0.9835
-0.3847 3.6148 -1.9910 0.9836
-1.3201 3.3733 -1.9840 0.9836
-1.8924 3.0797 -1.9797 0.9837
-2.6305 2.4644 -1.9742 0.9837
-2.8369 2.2191 -1.9727 0.9837
-0.9047 0.3791 -0.5372 0.9955
-0.9203 0.2926 -0.5289 0.9956
-0.9463 0.1236 -0.5227 0.9957
-0.9458 -0.1305 -0.5229 0.9957
-0.8802 -0.4730 -0.5473 0.9955
-2.6125 -2.4835 -1.9742 0.9837
-2.3834 -2.7082 -1.9759 0.9837
-2.1353 -2.9120 -1.9778 0.9837
-1.8699 -3.0934 -1.9797 0.9837
-1.2954 -3.3829 -1.9840 0.9836
-0.9908 -3.4886 -1.9863 0.9836
1.2410 -3.4399 -2.0029 0.9835
1.5436 -3.3197 -2.0052 0.9834
1.8345 -3.1728 -2.0073 0.9834
-0.8822 -0.0900 -0.5120 0.9959
-0.8778 -0.1694 -0.5162 0.9959
-0.8557 -0.3306 -0.5296 0.9958
-0.8366 -0.4121 -0.5384 0.9957
-0.8090 -0.4923 -0.5467 0.9956
-2.5607 -2.2672 -1.9746 0.9843
-2.3510 -2.4877 -1.9762 0.9843
-1.8767 -2.8698 -1.9797 0.9843
-1.6158 -3.0282 -1.9816 0.9843
-1.3416 -3.1631 -1.9837 0.9843
-1.0563 -3.2733 -1.9858 0.9842
-0.4611 -3.4162 -1.9902 0.9842
-0.1559 -3.4476 -1.9925 0.9842
0.4580 -3.4286 -1.9971 0.9842
0.7618 -3.3781 -1.9993 0.9841
1.0602 -3.3007 -2.0016 0.9841
1.3508 -3.1969 -2.0037 0.9841
2.3895 -2.5354 -2.0115 0.9840
2.6075 -2.3149 -2.0131 0.9840
2.8050 -2.0755 -2.0146 0.9840
2.9803 -1.8192 -2.0159 0.9840
1.7328 -0.6722 -1.0731 0.9915
1.7295 -0.0243 -0.9986 0.9920
1.7393 0.2877 -1.0178 0.9919
1.7306 0.4473 -1.0320 0.9918
1.7062 0.6072 -1.0456 0.9917
3.1749 1.4596 -2.0174 0.9840
3.0310 1.7351 -2.0164 0.9840
2.8630 1.9964 -2.0151 0.9840
2.6724 2.2413 -2.0137 0.9840
2.2297 2.6747 -2.0104 0.9840
1.9814 2.8597 -2.0086 0.9841
1.7177 3.0215 -2.0066 0.9841
1.1532 3.2710 -2.0024 0.9841
0.8569 3.3569 -2.0002 0.9841
-0.0588 3.4522 -1.9934 0.9842
-0.3650 3.4294 -1.9911 0.9842
-0.9642 3.3031 -1.9867 0.9842
-1.2526 3.2009 -1.9845 0.9842
-2.2808 2.5538 -1.9768 0.9843
-2.6927 2.1063 -1.9738 0.9843
-0.8288 0.4376 -0.5411 0.9957
-0.8639 0.2747 -0.5234 0.9958
-0.8748 0.1946 -0.5174 0.9959
-0.8812 -0.0424 -0.5093 0.9959
-0.8814 -0.1216 -0.5137 0.9959
-0.8632 -0.2814 -0.5242 0.9958
-0.8491 -0.3631 -0.5332 0.9957
-2.4796 -2.3572 -1.9752 0.9843
-2.2621 -2.5703 -1.9768 0.9843
-2.0265 -2.7637 -1.9786 0.9843
-1.7745 -2.9356 -1.9805 0.9843
-1.2292 -3.2100 -1.9845 0.9842
-0.9401 -3.3101 -1.9867 0.9842
-0.0336 -3.4525 -1.9934 0.9842
0.5795 -3.4117 -1.9980 0.9841
