ply
format ascii 1.0
element vertex 1142
property float32 x
property float32 y
property float32 z
property float32 I
end_header
7.2175 -8.0603 1.9078 0.9570
7.2165 -8.0803 1.9103 0.9570
7.2445 -6.7769 1.7492 0.9605
8.1966 -6.3920 1.8328 0.9587
5.2900 -18.3771 2.9296 0.9255
6.9326 -17.8724 2.9367 0.9254
10.5229 -6.7833 1.9180 0.9506
6.8538 -7.6542 1.3379 0.9594
8.0356 -6.2497 1.3256 0.9598
5.2914 -18.3818 2.4909 0.9257
6.8413 -17.6372 2.4635 0.9265
6.6852 -8.9930 1.4592 0.9558
6.8516 -7.6717 1.3394 0.9594
6.9964 -6.5449 1.2476 0.9621
10.2794 -6.6263 1.5926 0.9519
6.9430 -6.4780 1.0197 0.9625
8.0027 -6.2241 1.0886 0.9600
10.2592 -6.5944 1.3096 0.9521
0.8695 11.1204 1.1978 0.9561
6.7934 -7.6065 1.0951 0.9598
6.9410 -6.4931 1.0206 0.9625
7.9756 -6.2197 1.0861 0.9601
10.2202 -6.5882 1.3057 0.9523
6.7388 -7.5257 0.8551 0.9603
6.8888 -6.4274 0.7976 0.9629
10.2192 -6.5687 1.0284 0.9524
13.6004 -7.1072 1.2990 0.9403
0.8699 11.1246 0.9446 0.9562
5.2941 -18.3912 1.6201 0.9261
10.1800 -6.5622 1.0253 0.9525
13.5388 -7.0974 1.2940 0.9405
7.9380 -6.1738 0.6236 0.9605
13.5364 -7.0738 0.9471 0.9406
0.8702 11.1288 0.6922 0.9562
5.2954 -18.3959 1.1871 0.9262
6.8335 -6.3925 0.5803 0.9632
10.1310 -6.5306 0.7474 0.9528
6.7834 -6.3291 0.3658 0.9635
7.9056 -6.1485 0.3949 0.9607
13.4731 -7.0407 0.5994 0.9410
5.2968 -18.4006 0.7550 0.9262
6.8629 -17.6928 0.7483 0.9268
6.4460 -8.6712 0.4260 0.9577
7.8788 -6.1442 0.3940 0.9608
10.0826 -6.4994 0.4730 0.9531
13.4125 -7.0312 0.5971 0.9412
10.0730 -6.4747 0.2023 0.9532
13.4105 -7.0080 0.2556 0.9413
6.7299 -6.2956 0.1557 0.9638
7.8458 -6.1184 0.1681 0.9610
10.0347 -6.4686 0.2017 0.9534
13.3504 -6.9987 0.2546 0.9415
6.5401 -7.3038 -0.0552 0.9615
6.8560 -17.6750 -0.1067 0.9270
6.3474 -8.5386 -0.0599 0.9583
6.7015 -6.2690 -0.0517 0.9640
7.8296 -6.1058 -0.0559 0.9611
13.3140 -6.9796 -0.0846 0.9416
6.5422 -7.3061 -0.2761 0.9615
7.8590 -6.1123 -0.2803 0.9609
10.0448 -6.4566 -0.3362 0.9533
-2.2512 -13.2395 -0.3781 0.9477
5.4750 -19.0196 -0.5573 0.9239
6.3496 -8.5416 -0.2997 0.9583
6.5397 -7.3224 -0.2764 0.9615
6.7036 -6.2710 -0.2585 0.9639
10.0066 -6.4504 -0.3352 0.9535
7.8619 -6.1146 -0.5051 0.9609
13.5163 -7.0633 -0.7734 0.9407
9.6043 16.5151 -0.9689 0.9263
-2.2503 -13.2346 -0.6808 0.9477
6.5418 -7.3248 -0.4981 0.9614
10.0104 -6.4529 -0.6040 0.9534
9.6299 16.5098 -0.9693 0.9263
7.8938 16.8418 -0.9433 0.9282
6.7099 -6.2606 -0.6729 0.9639
7.8512 16.8076 -1.3602 0.9283
5.4404 -18.8993 -1.4420 0.9242
6.3542 -8.5477 -0.7809 0.9582
6.5440 -7.3273 -0.7203 0.9614
8.5709 -6.6839 -0.7969 0.9573
10.0168 -6.4570 -0.8738 0.9533
9.5722 16.4108 -1.3930 0.9266
7.8730 16.7974 -1.3602 0.9283
6.5487 -7.3134 -0.9425 0.9613
7.9222 -6.1615 -0.9635 0.9605
7.6094 -3.9765 -0.8243 0.9661
19.3943 -0.6371 -1.8630 0.9250
18.7016 2.7623 -1.8149 0.9268
17.0567 5.7686 -1.7286 0.9302
15.4655 6.8300 -1.6231 0.9343
14.6621 8.1171 -1.6089 0.9349
13.7696 9.3266 -1.5967 0.9354
11.7428 11.4973 -1.5778 0.9361
5.5442 15.3187 -1.5640 0.9366
4.1570 15.7843 -1.5670 0.9365
2.7343 16.1441 -1.5720 0.9363
-1.8252 17.9289 -1.7302 0.9301
-5.0809 17.6075 -1.7594 0.9290
-6.7049 17.2523 -1.7770 0.9283
-8.3148 16.7648 -1.7966 0.9276
-11.4532 15.3861 -1.8415 0.9258
-14.4121 13.4645 -1.8935 0.9238
6.7271 -17.3426 -1.7858 0.9280
6.7098 -6.2768 -0.8821 0.9638
7.8957 -6.1574 -0.9613 0.9606
19.3974 -0.6624 -1.8633 0.9250
18.7085 2.7385 -1.8152 0.9268
18.1723 4.3525 -1.7940 0.9277
15.4764 6.8108 -1.6233 0.9343
13.7831 9.3097 -1.5968 0.9353
12.8091 10.4389 -1.5864 0.9358
11.7585 11.4828 -1.5779 0.9361
10.6373 12.4380 -1.5712 0.9363
9.4515 13.3014 -1.5666 0.9365
8.2068 14.0700 -1.5638 0.9366
6.9090 14.7408 -1.5629 0.9367
5.5640 15.3112 -1.5640 0.9366
4.1774 15.7783 -1.5670 0.9365
2.7551 16.1397 -1.5719 0.9363
0.8838 11.1174 -1.0707 0.9562
-0.1721 16.5344 -1.5875 0.9357
-1.8016 17.9294 -1.7300 0.9301
-3.4279 17.8345 -1.7435 0.9296
7.9160 -6.1567 -1.1912 0.9604
7.2687 -4.6722 -1.0264 0.9658
15.9038 -3.4284 -1.9325 0.9366
15.9528 -1.9653 -1.9093 0.9373
15.6881 0.8937 -1.8665 0.9387
14.9727 3.6067 -1.8294 0.9398
13.8164 6.1017 -1.7941 0.9410
12.1481 6.7253 -1.6494 0.9456
11.4236 7.7376 -1.6389 0.9459
7.8518 11.0806 -1.6132 0.9468
6.8172 11.7226 -1.6108 0.9468
4.6157 12.7531 -1.6111 0.9468
3.4597 13.1365 -1.6136 0.9468
2.2744 13.4289 -1.6179 0.9466
0.8661 11.0770 -1.3198 0.9562
-2.8591 14.7717 -1.7872 0.9412
-5.5360 14.2447 -1.8154 0.9403
-6.8521 13.8156 -1.8319 0.9398
-10.6080 11.8623 -1.8903 0.9379
-12.8583 10.0140 -1.9359 0.9365
-13.8773 8.9329 -1.9604 0.9357
-15.6503 6.4780 -2.0120 0.9340
-16.3827 5.1165 -2.0387 0.9332
-16.9984 3.6759 -2.0658 0.9323
-18.0462 -1.0163 -2.1470 0.9298
-17.9952 -4.3225 -2.1984 0.9282
-17.2919 -7.6232 -2.2448 0.9267
-15.0017 -12.2419 -2.3000 0.9250
-13.9255 -13.6167 -2.3135 0.9245
-12.7076 -14.8783 -2.3242 0.9242
-11.3606 -16.0102 -2.3319 0.9240
-9.8994 -16.9972 -2.3365 0.9238
-2.2708 -13.3550 -1.6092 0.9469
-1.4132 -17.9241 -2.1357 0.9301
3.3329 -17.2795 -2.0904 0.9316
4.8232 -16.7554 -2.0711 0.9322
5.8900 -11.8953 -1.5767 0.9479
6.3587 -8.5539 -1.2661 0.9580
6.5483 -7.3321 -1.1677 0.9612
6.7119 -6.2787 -1.0917 0.9637
7.2658 -4.6837 -1.0268 0.9658
7.5140 -3.9391 -1.0078 0.9664
15.8812 -0.5424 -1.8876 0.9380
15.3892 2.2526 -1.8475 0.9393
12.1580 6.7102 -1.6496 0.9456
11.4346 7.7234 -1.6391 0.9459
7.8664 11.0707 -1.6132 0.9468
6.8325 11.7139 -1.6108 0.9468
4.6321 12.7469 -1.6110 0.9468
2.2917 13.4253 -1.6178 0.9466
-1.4945 14.8723 -1.7755 0.9416
6.7162 -6.2664 -1.3015 0.9636
7.9098 -6.1519 -1.4198 0.9603
7.2174 -4.6392 -1.2157 0.9659
7.4729 -3.9051 -1.1947 0.9665
12.9451 -5.3484 -1.9846 0.9450
13.4319 -0.4412 -1.9042 0.9472
13.0556 1.9284 -1.8699 0.9481
12.3053 4.1617 -1.8405 0.9489
11.2168 6.2097 -1.8166 0.9495
8.3462 8.1717 -1.6550 0.9539
4.9104 10.5120 -1.6439 0.9542
3.9505 10.9152 -1.6447 0.9542
2.9604 11.2408 -1.6470 0.9541
1.9454 11.4866 -1.6507 0.9540
-0.1439 12.2907 -1.7416 0.9516
-1.2924 12.6952 -1.8081 0.9498
-2.4384 12.5979 -1.8181 0.9495
-3.5800 12.4065 -1.8296 0.9492
-5.8223 11.7394 -1.8567 0.9484
-6.9082 11.2636 -1.8722 0.9480
-8.9708 10.0315 -1.9068 0.9471
-9.9313 9.2783 -1.9257 0.9466
-11.6688 7.5112 -1.9663 0.9455
-12.4287 6.5052 -1.9876 0.9449
-14.5474 1.8018 -2.0770 0.9425
-14.9477 -0.8418 -2.1213 0.9413
-14.9612 -2.1999 -2.1426 0.9407
-14.5950 -4.9255 -2.1825 0.9397
-13.6956 -7.5704 -2.2172 0.9387
-13.0487 -8.8260 -2.2321 0.9383
-11.3830 -11.1305 -2.2558 0.9377
-10.3787 -12.1515 -2.2643 0.9375
-9.2729 -13.0680 -2.2704 0.9373
-8.0773 -13.8687 -2.2740 0.9372
-5.4710 -15.0857 -2.2737 0.9372
-3.7781 -14.3077 -2.0967 0.9420
-2.2259 -13.0908 -1.8815 0.9478
0.1617 -14.6258 -2.0724 0.9426
2.7353 -14.1813 -2.0464 0.9433
3.9649 -13.7739 -2.0309 0.9437
5.8886 -11.8923 -1.8803 0.9478
7.2866 -11.8979 -1.9768 0.9452
6.7140 -6.2807 -1.3026 0.9635
7.8835 -6.1478 -1.4165 0.9604
7.2141 -4.6503 -1.2161 0.9659
7.4681 -3.9150 -1.1947 0.9665
12.9402 -5.3661 -1.9849 0.9450
13.4332 -0.4587 -1.9044 0.9471
13.2953 0.7400 -1.8867 0.9476
13.0597 1.9117 -1.8701 0.9481
12.7305 3.0492 -1.8548 0.9485
11.8089 5.1968 -1.8280 0.9492
10.1438 6.8515 -1.7344 0.9518
8.3572 8.1612 -1.6551 0.9539
4.9240 10.5056 -1.6439 0.9542
2.9749 11.2367 -1.6470 0.9541
1.9603 11.4836 -1.6506 0.9540
-0.1276 12.2545 -1.7364 0.9517
9.1548 -8.5417 -2.0627 0.9505
7.9036 -6.1470 -1.6495 0.9602
7.4562 -3.8964 -1.3859 0.9665
11.5718 -2.4945 -1.9501 0.9531
11.5220 0.6564 -1.9012 0.9543
11.3298 1.6735 -1.8867 0.9546
11.0550 2.6630 -1.8733 0.9549
6.5977 7.7349 -1.6748 0.9596
5.0959 8.7627 -1.6699 0.9597
1.6983 10.0271 -1.6754 0.9596
0.8260 10.5641 -1.7456 0.9580
-0.1297 11.0760 -1.8248 0.9561
-1.1264 11.0655 -1.8323 0.9559
-3.1157 10.7973 -1.8513 0.9555
-5.0574 10.1971 -1.8751 0.9549
-7.7647 8.6828 -1.9189 0.9539
-10.6967 5.5987 -1.9890 0.9522
-12.4423 1.5410 -2.0654 0.9504
-12.7453 -0.7177 -2.1030 0.9496
-12.6206 -3.0315 -2.1383 0.9487
-11.6004 -6.4122 -2.1836 0.9477
-11.0412 -7.4681 -2.1959 0.9474
-10.3779 -8.4687 -2.2066 0.9471
-8.7625 -10.2593 -2.2227 0.9468
-7.8256 -11.0284 -2.2277 0.9467
-6.8149 -11.7012 -2.2307 0.9466
-4.6160 -12.7283 -2.2305 0.9466
-2.1217 -12.4782 -2.0852 0.9500
0.1368 -12.3659 -2.0373 0.9511
2.3172 -12.0134 -2.0156 0.9516
4.4292 -11.4187 -2.0177 0.9516
5.7328 -11.5777 -2.1283 0.9490
6.7170 -10.9678 -2.1187 0.9492
7.8449 -8.7839 -1.9402 0.9534
9.1450 -8.5548 -2.0630 0.9505
7.8773 -6.1430 -1.6456 0.9603
11.1391 -4.6192 -1.9866 0.9523
11.4018 -3.5690 -1.9682 0.9527
11.5701 -2.5099 -1.9504 0.9531
11.6291 -0.3971 -1.9169 0.9539
11.5242 0.6415 -1.9014 0.9543
11.3332 1.6589 -1.8869 0.9546
11.0595 2.6489 -1.8735 0.9549
10.7066 3.6055 -1.8611 0.9552
10.2783 4.5232 -1.8500 0.9555
9.7787 5.3970 -1.8400 0.9557
8.5577 6.9741 -1.8187 0.9562
6.6080 7.7266 -1.6749 0.9596
5.8780 8.2723 -1.6718 0.9597
5.1073 8.7562 -1.6699 0.9597
3.4624 9.5281 -1.6701 0.9597
1.7112 10.0245 -1.6753 0.9596
0.8386 10.5480 -1.7432 0.9580
-0.1153 11.0755 -1.8247 0.9561
7.9914 -7.4562 -2.0543 0.9565
7.1813 -4.6160 -1.6046 0.9659
7.4408 -3.8883 -1.5780 0.9664
10.2475 -1.2625 -1.9407 0.9588
10.2426 -0.3365 -1.9262 0.9591
9.9984 1.4768 -1.8997 0.9597
9.7639 2.3520 -1.8877 0.9599
8.6479 4.7876 -1.8579 0.9606
8.1498 5.5202 -1.8502 0.9607
6.9877 6.8416 -1.8381 0.9610
4.5696 7.8577 -1.7085 0.9637
2.3753 9.0189 -1.7530 0.9628
1.6243 9.5904 -1.8283 0.9612
-0.1149 9.8122 -1.8444 0.9608
-1.8796 9.7108 -1.8591 0.9605
-4.4663 9.0053 -1.8894 0.9599
-5.2890 8.6235 -1.9015 0.9597
-6.8385 7.6471 -1.9282 0.9591
-10.2745 3.2088 -2.0232 0.9571
-10.6081 2.2940 -2.0400 0.9568
-11.0237 0.3693 -2.0732 0.9561
-11.0793 -1.6291 -2.1049 0.9554
-10.9656 -2.6340 -2.1197 0.9551
-10.7562 -3.6300 -2.1338 0.9548
-10.4509 -4.6073 -2.1468 0.9546
-9.5595 -6.4659 -2.1692 0.9541
-8.9794 -7.3275 -2.1784 0.9539
-8.3156 -8.1311 -2.1860 0.9538
-6.7623 -9.5299 -2.1964 0.9536
-4.9599 -10.6002 -2.1997 0.9535
-0.9121 -11.5676 -2.1810 0.9539
0.1267 -11.4532 -2.1529 0.9545
3.1521 -10.9500 -2.1418 0.9547
4.1020 -10.5752 -2.1320 0.9549
5.8431 -9.5410 -2.1029 0.9555
7.3398 -8.2184 -2.0711 0.9561
6.9894 -5.4505 -1.6660 0.9646
9.7693 -4.0512 -1.9879 0.9579
10.0110 -3.1337 -1.9717 0.9582
10.1700 -2.2062 -1.9560 0.9585
10.1605 0.5656 -1.9127 0.9594
10.0012 1.4640 -1.8999 0.9597
9.7679 2.3396 -1.8879 0.9599
9.4635 3.1869 -1.8769 0.9602
6.9969 6.8328 -1.8382 0.9610
6.3205 7.3904 -1.8278 0.9612
4.5811 7.8540 -1.7090 0.9637
2.3856 9.0108 -1.7520 0.9628
1.6366 9.5875 -1.8281 0.9612
-0.9847 9.7990 -1.8511 0.9607
7.0835 -6.6091 -2.0478 0.9612
7.5920 -5.9047 -2.0330 0.9614
7.1861 -4.6191 -1.8057 0.9657
7.4596 -3.8982 -1.7791 0.9662
8.6951 -3.5925 -1.9887 0.9623
8.9171 -2.7785 -1.9743 0.9625
9.0655 -1.9542 -1.9603 0.9628
9.0758 0.5170 -1.9216 0.9635
8.7352 2.1042 -1.8993 0.9639
8.4671 2.8636 -1.8894 0.9641
8.1376 3.5938 -1.8804 0.9643
7.7496 4.2903 -1.8724 0.9644
5.6818 6.6611 -1.8507 0.9648
5.0545 7.1330 -1.8479 0.9649
4.3872 7.5440 -1.8447 0.9650
3.6904 7.9002 -1.8432 0.9650
2.2269 8.4555 -1.8483 0.9649
0.6841 8.7495 -1.8551 0.9648
-1.6842 8.7015 -1.8735 0.9644
-2.4680 8.5526 -1.8816 0.9643
-7.3240 5.7039 -1.9623 0.9628
-7.8616 5.0605 -1.9763 0.9625
-8.3440 4.3673 -1.9907 0.9622
-9.4104 2.0350 -2.0351 0.9614
-9.6243 1.1920 -2.0499 0.9611
-9.8182 -0.5529 -2.0787 0.9606
-9.7932 -1.4400 -2.0924 0.9603
-9.6848 -2.3263 -2.1054 0.9601
-9.4925 -3.2035 -2.1177 0.9599
-8.8582 -4.8965 -2.1395 0.9595
-8.4200 -5.6952 -2.1487 0.9593
-7.3176 -7.1553 -2.1634 0.9590
-6.6630 -7.8011 -2.1686 0.9589
-4.3614 -9.3210 -2.1753 0.9588
-2.6233 -9.9347 -2.1720 0.9589
-0.8042 -10.1992 -2.1626 0.9590
1.0224 -10.1083 -2.1476 0.9593
2.7845 -9.6730 -2.1277 0.9597
4.4164 -8.9191 -2.1038 0.9601
5.1654 -8.4344 -2.0906 0.9604
5.8617 -7.8853 -2.0769 0.9606
6.4999 -7.2779 -2.0626 0.9609
7.5852 -5.9152 -2.0333 0.9614
7.1825 -4.6300 -1.8063 0.9657
7.4524 -3.9067 -1.7786 0.9662
8.6914 -3.6042 -1.9889 0.9623
9.1402 -1.1381 -1.9470 0.9630
9.1442 -0.3123 -1.9340 0.9633
8.4715 2.8528 -1.8895 0.9641
8.1428 3.5834 -1.8805 0.9643
7.7556 4.2804 -1.8725 0.9644
6.8192 5.5573 -1.8595 0.9647
6.2770 6.1298 -1.8545 0.9648
3.7006 7.8955 -1.8432 0.9650
2.9807 8.2024 -1.8447 0.9649
2.2378 8.4524 -1.8482 0.9649
1.4735 8.6323 -1.8511 0.9648
0.6955 8.7483 -1.8550 0.9648
-1.6728 8.7032 -1.8734 0.9644
5.8347 -6.5161 -2.0557 0.9647
6.3546 -5.9291 -2.0426 0.9649
8.1687 -1.7609 -1.9639 0.9662
8.2421 -1.0154 -1.9517 0.9665
8.2501 -0.2710 -1.9400 0.9667
8.1940 0.4668 -1.9289 0.9668
8.0751 1.1927 -1.9184 0.9670
7.8953 1.9019 -1.9087 0.9672
7.6569 2.5896 -1.8997 0.9673
7.3622 3.2514 -1.8915 0.9675
3.3495 7.1705 -1.8600 0.9680
2.0180 7.6623 -1.8622 0.9680
0.6197 7.9260 -1.8685 0.9679
-0.0933 7.9693 -1.8731 0.9678
-0.8096 7.9525 -1.8787 0.9677
-1.5243 7.8752 -1.8852 0.9676
-2.9299 7.5388 -1.9009 0.9673
-4.2708 6.9635 -1.9199 0.9670
-5.5071 6.1583 -1.9416 0.9666
-6.0735 5.6742 -1.9534 0.9664
-7.5070 3.9292 -1.9914 0.9658
-7.8809 3.2621 -2.0046 0.9656
-8.7495 0.2931 -2.0575 0.9647
-8.7944 -0.4953 -2.0702 0.9645
-8.7660 -1.2890 -2.0824 0.9642
-7.0530 -5.7555 -2.1395 0.9633
-6.5267 -6.3820 -2.1454 0.9632
-5.3022 -7.4722 -2.1534 0.9631
-3.8877 -8.3087 -2.1559 0.9630
-3.1263 -8.6206 -2.1551 0.9630
-2.3388 -8.8572 -2.1530 0.9631
-1.5331 -9.0165 -2.1495 0.9631
0.9126 -9.0230 -2.1314 0.9634
1.7109 -8.8702 -2.1231 0.9636
3.2368 -8.3447 -2.1036 0.9639
3.9508 -7.9790 -2.0925 0.9641
4.6240 -7.5503 -2.0808 0.9643
6.8097 -5.3104 -2.0296 0.9651
7.8202 -3.2429 -1.9897 0.9658
8.0268 -2.5126 -1.9767 0.9660
8.1671 -1.7717 -1.9641 0.9662
7.8984 1.8918 -1.9088 0.9672
7.6607 2.5798 -1.8998 0.9673
7.3669 3.2420 -1.8916 0.9675
6.6214 4.4724 -1.8779 0.9677
6.1760 5.0331 -1.8725 0.9678
5.6863 5.5530 -1.8680 0.9679
5.1561 6.0289 -1.8645 0.9679
4.5889 6.4581 -1.8620 0.9680
3.3588 7.1661 -1.8600 0.9680
2.0279 7.6595 -1.8622 0.9680
1.3351 7.8214 -1.8648 0.9679
0.6300 7.9249 -1.8684 0.9679
-0.0830 7.9691 -1.8730 0.9678
-1.5140 7.8767 -1.8851 0.9676
5.7561 -5.3706 -2.0383 0.9680
6.8535 -3.5815 -2.0022 0.9686
7.1042 -2.9352 -1.9902 0.9687
7.4262 -1.6008 -1.9669 0.9691
7.4972 -0.9236 -1.9558 0.9693
7.5086 -0.2467 -1.9451 0.9694
7.4613 0.4250 -1.9350 0.9696
7.3566 1.0866 -1.9254 0.9697
7.1961 1.7335 -1.9165 0.9699
6.9817 2.3612 -1.9083 0.9700
6.4001 3.5432 -1.8941 0.9702
4.7019 5.5123 -1.8759 0.9705
3.0597 6.5502 -1.8719 0.9706
2.4611 6.8000 -1.8724 0.9706
1.8432 6.9988 -1.8739 0.9705
1.2101 7.1450 -1.8763 0.9705
-0.0852 7.2755 -1.8839 0.9704
-0.7389 7.2583 -1.8890 0.9703
-1.3908 7.1856 -1.8950 0.9702
-2.0365 7.0572 -1.9018 0.9701
-2.6714 6.8736 -1.9094 0.9700
-3.2909 6.6354 -1.9177 0.9699
-5.0117 5.6043 -1.9466 0.9694
-5.5241 5.1609 -1.9574 0.9692
-5.9985 4.6716 -1.9686 0.9691
-6.4305 4.1393 -1.9801 0.9689
-6.8160 3.5675 -1.9919 0.9687
-7.1511 2.9600 -2.0039 0.9685
-7.9559 -0.4480 -2.0632 0.9676
-7.9257 -1.1654 -2.0742 0.9674
-6.7795 -4.5856 -2.1192 0.9667
-6.3603 -5.1902 -2.1255 0.9666
-5.8841 -5.7536 -2.1308 0.9666
-4.7783 -6.7340 -2.1379 0.9665
-3.5032 -7.4869 -2.1402 0.9664
-2.1078 -7.9823 -2.1376 0.9665
0.0908 -8.2058 -2.1248 0.9667
2.2463 -7.8033 -2.1025 0.9670
2.9237 -7.5375 -2.0933 0.9671
3.5705 -7.2108 -2.0833 0.9673
4.1811 -6.8271 -2.0728 0.9675
4.7506 -6.3906 -2.0617 0.9676
5.2747 -5.9061 -2.0503 0.9678
5.7496 -5.3785 -2.0385 0.9680
6.1720 -4.8131 -2.0265 0.9682
6.8494 -3.5907 -2.0024 0.9686
7.1010 -2.9447 -1.9904 0.9687
7.2929 -2.2828 -1.9786 0.9689
7.5088 -0.2564 -1.9453 0.9694
7.1988 1.7242 -1.9166 0.9699
6.4050 3.5350 -1.8942 0.9702
6.0436 4.0821 -1.8883 0.9703
5.6385 4.5951 -1.8833 0.9704
4.7091 5.5063 -1.8759 0.9705
4.1915 5.8989 -1.8737 0.9705
3.6434 6.2463 -1.8723 0.9706
3.0682 6.5462 -1.8719 0.9706
2.4699 6.7968 -1.8724 0.9706
1.8523 6.9963 -1.8739 0.9705
1.2194 7.1432 -1.8763 0.9705
-0.7294 7.2589 -1.8889 0.9703
4.8200 -5.3828 -2.0455 0.9704
5.2553 -4.9033 -2.0347 0.9706
5.9809 -3.8444 -2.0128 0.9709
6.2669 -3.2749 -2.0017 0.9710
6.8008 -1.4660 -1.9695 0.9715
6.7490 0.9969 -1.9313 0.9720
5.1765 4.2298 -1.8924 0.9726
3.3426 5.7479 -1.8823 0.9727
2.8135 6.0231 -1.8819 0.9727
1.1125 6.5687 -1.8860 0.9727
-0.0783 6.6866 -1.8931 0.9726
-0.6789 6.6693 -1.8978 0.9725
-2.4524 6.3103 -1.9166 0.9722
-3.0201 6.0894 -1.9242 0.9721
-3.5691 5.8193 -1.9326 0.9720
-4.0950 5.5011 -1.9414 0.9719
-4.5937 5.1368 -1.9508 0.9718
-5.4929 4.2779 -1.9710 0.9715
-5.8856 3.7886 -1.9815 0.9713
-7.1384 0.8841 -2.0363 0.9705
-7.2267 0.2421 -2.0470 0.9704
-7.2560 -0.4086 -2.0574 0.9702
-7.2251 -1.0624 -2.0674 0.9701
-7.1334 -1.7135 -2.0769 0.9700
-6.9810 -2.3560 -2.0858 0.9698
-6.4969 -3.5912 -2.1015 0.9696
-6.1684 -4.1722 -2.1082 0.9695
-5.3510 -5.2323 -2.1187 0.9694
-4.8692 -5.7009 -2.1224 0.9693
-2.5610 -7.0619 -2.1266 0.9693
-0.5881 -7.4589 -2.1181 0.9694
0.7491 -7.4063 -2.1074 0.9695
1.4053 -7.2859 -2.1006 0.9696
2.0452 -7.1049 -2.0930 0.9697
2.6631 -6.8656 -2.0847 0.9699
3.2536 -6.5708 -2.0757 0.9700
3.8117 -6.2239 -2.0661 0.9701
4.3330 -5.8288 -2.0561 0.9703
4.8133 -5.3895 -2.0456 0.9704
6.2631 -3.2833 -2.0019 0.9710
6.4964 -2.6940 -1.9909 0.9712
6.8684 -0.8552 -1.9594 0.9716
6.8828 -0.2350 -1.9496 0.9718
6.8432 0.3809 -1.9403 0.9719
6.4130 2.1596 -1.9156 0.9723
5.8839 3.2474 -1.9026 0.9724
5.5534 3.7510 -1.8971 0.9725
3.8540 5.4238 -1.8836 0.9727
2.8213 6.0194 -1.8819 0.9727
1.7031 6.4327 -1.8838 0.9727
1.1210 6.5672 -1.8860 0.9727
0.5288 6.6520 -1.8891 0.9726
-0.0696 6.6864 -1.8930 0.9726
-0.6702 6.6699 -1.8977 0.9725
4.8296 -4.5062 -2.0317 0.9727
5.1883 -4.0352 -2.0216 0.9729
5.5014 -3.5362 -2.0115 0.9730
5.7669 -3.0136 -2.0014 0.9731
6.1501 -1.9164 -1.9814 0.9734
6.2663 -1.3508 -1.9716 0.9735
6.3468 -0.2085 -1.9532 0.9738
6.2281 0.9199 -1.9364 0.9740
6.0965 1.4686 -1.9288 0.9741
5.9188 2.0018 -1.9218 0.9742
5.6966 2.5158 -1.9154 0.9743
5.4319 3.0071 -1.9097 0.9744
4.7844 3.9094 -1.9004 0.9745
4.4066 4.3144 -1.8968 0.9745
2.0924 5.7813 -1.8911 0.9746
1.5669 5.9496 -1.8924 0.9746
1.0285 6.0727 -1.8944 0.9746
0.4809 6.1497 -1.8973 0.9745
-0.6274 6.1627 -1.9053 0.9744
-1.1803 6.0981 -1.9104 0.9743
-2.2645 5.8267 -1.9227 0.9742
-2.7878 5.6210 -1.9298 0.9741
-3.7773 5.0745 -1.9458 0.9739
-4.2358 4.7366 -1.9544 0.9738
-5.7400 3.0043 -1.9927 0.9733
-6.0165 2.4904 -2.0028 0.9731
-6.2470 1.9510 -2.0130 0.9730
-6.6382 0.2224 -2.0429 0.9726
-6.6623 -0.3752 -2.0524 0.9725
-6.6313 -0.9751 -2.0616 0.9723
-6.2056 -2.7358 -2.0860 0.9720
-5.6523 -3.8231 -2.0989 0.9718
-5.3001 -4.3251 -2.1041 0.9718
-4.4593 -5.2210 -2.1119 0.9717
-3.4620 -5.9442 -2.1158 0.9716
-2.9159 -6.2318 -2.1162 0.9716
1.2881 -6.6783 -2.0920 0.9719
1.8752 -6.5144 -2.0850 0.9720
2.4426 -6.2970 -2.0774 0.9721
2.9852 -6.0288 -2.0692 0.9722
3.4986 -5.7127 -2.0604 0.9724
4.8241 -4.5128 -2.0318 0.9727
5.1834 -4.0422 -2.0218 0.9729
5.7634 -3.0213 -2.0015 0.9731
6.2650 -1.3591 -1.9718 0.9735
6.3312 -0.7883 -1.9624 0.9737
6.3469 -0.2167 -1.9533 0.9738
6.3128 0.3514 -1.9447 0.9739
6.2296 0.9119 -1.9365 0.9740
4.4123 4.3088 -1.8969 0.9745
2.6087 5.5658 -1.8906 0.9746
1.5746 5.9475 -1.8923 0.9746
5.0877 -3.2701 -2.0104 0.9748
5.3353 -2.7881 -2.0010 0.9749
5.5378 -2.2880 -1.9917 0.9751
5.6942 -1.7743 -1.9825 0.9752
5.8824 -0.1932 -1.9564 0.9755
5.7760 0.8531 -1.9408 0.9757
5.2872 2.3350 -1.9213 0.9759
4.4431 3.6305 -1.9073 0.9761
2.4168 5.1738 -1.8982 0.9762
1.4556 5.5269 -1.8998 0.9762
0.9554 5.6408 -1.9017 0.9762
0.4466 5.7117 -1.9044 0.9761
-0.0672 5.7390 -1.9078 0.9761
-0.5825 5.7221 -1.9119 0.9760
-1.0957 5.6609 -1.9167 0.9760
-1.6032 5.5556 -1.9221 0.9759
-2.1012 5.4065 -1.9281 0.9758
-2.5861 5.2143 -1.9347 0.9758
-3.0542 4.9798 -1.9419 0.9757
-4.6872 3.6503 -1.9748 0.9753
-5.0183 3.2303 -1.9838 0.9752
-5.3122 2.7804 -1.9930 0.9750
-5.5659 2.3039 -2.0024 0.9749
-5.9429 1.2852 -2.0211 0.9747
-6.0394 -1.4507 -2.0646 0.9742
-5.7231 -2.5230 -2.0791 0.9740
-4.1086 -4.8104 -2.1028 0.9737
-3.6648 -5.1648 -2.1051 0.9737
-3.1892 -5.4759 -2.1064 0.9736
-2.6862 -5.7408 -2.1068 0.9736
-2.1603 -5.9569 -2.1063 0.9736
-1.0603 -6.2356 -2.1025 0.9737
0.6328 -6.2563 -2.0902 0.9738
1.1877 -6.1577 -2.0846 0.9739
1.7295 -6.0081 -2.0782 0.9740
2.2533 -5.8092 -2.0712 0.9741
2.7548 -5.5635 -2.0636 0.9742
3.6741 -4.9424 -2.0471 0.9744
4.0845 -4.5734 -2.0383 0.9745
4.7919 -3.7369 -2.0199 0.9747
5.0838 -3.2771 -2.0106 0.9748
5.3321 -2.7952 -2.0012 0.9749
5.6922 -1.7818 -1.9827 0.9752
5.8025 -1.2587 -1.9737 0.9753
5.8825 -0.2009 -1.9565 0.9755
5.7774 0.8457 -1.9409 0.9757
5.6577 1.3551 -1.9338 0.9758
5.4948 1.8504 -1.9273 0.9759
3.7179 4.3473 -1.9014 0.9762
3.3101 4.6585 -1.8996 0.9762
2.8777 4.9335 -1.8985 0.9762
2.4235 5.1707 -1.8982 0.9762
1.9508 5.3682 -1.8986 0.9762
0.4540 5.7110 -1.9044 0.9761
-1.0883 5.6621 -1.9166 0.9760
3.7965 -4.2398 -2.0352 0.9761
4.1439 -3.8664 -2.0268 0.9762
4.4548 -3.4647 -2.0182 0.9763
4.9586 -2.5913 -2.0008 0.9765
5.2956 -1.6501 -1.9835 0.9767
5.4757 -0.1799 -1.9592 0.9770
5.3797 0.7946 -1.9447 0.9772
5.2688 1.2692 -1.9381 0.9772
5.1177 1.7308 -1.9320 0.9773
4.9278 2.1763 -1.9264 0.9774
4.7008 2.6024 -1.9214 0.9774
3.4623 4.0590 -1.9079 0.9776
2.6782 4.6053 -1.9051 0.9776
2.2543 4.8260 -1.9048 0.9776
1.3576 5.1551 -1.9063 0.9776
0.8910 5.2610 -1.9082 0.9776
0.4165 5.3266 -1.9106 0.9776
-0.5431 5.3349 -1.9176 0.9775
-1.9579 5.0378 -1.9328 0.9773
-4.6668 3.0040 -1.9847 0.9767
-4.9385 2.5848 -1.9933 0.9766
-5.1727 2.1411 -2.0020 0.9765
-5.5194 1.1936 -2.0194 0.9763
-5.6912 0.1907 -2.0364 0.9761
-5.6780 -0.8349 -2.0523 0.9759
-5.0877 -2.8123 -2.0789 0.9756
-4.8271 -3.2650 -2.0840 0.9755
-4.5247 -3.6923 -2.0884 0.9755
-4.1829 -4.0902 -2.0921 0.9755
-2.9531 -5.0704 -2.0983 0.9754
-2.4872 -5.3156 -2.0987 0.9754
-0.9819 -5.7747 -2.0947 0.9754
-0.4597 -5.8311 -2.0917 0.9755
0.0646 -5.8382 -2.0879 0.9755
2.0891 -5.3858 -2.0658 0.9758
2.9959 -4.8918 -2.0513 0.9759
3.7912 -4.2450 -2.0353 0.9761
4.7233 -3.0447 -2.0096 0.9764
5.1461 -2.1340 -1.9922 0.9766
5.2938 -1.6571 -1.9837 0.9767
5.3981 -1.1710 -1.9753 0.9768
5.4587 -0.6797 -1.9671 0.9769
5.4496 0.3033 -1.9518 0.9771
4.9308 2.1699 -1.9265 0.9774
4.7043 2.5964 -1.9215 0.9774
4.4425 3.0007 -1.9171 0.9775
3.8218 3.7322 -1.9103 0.9776
3.4676 4.0546 -1.9079 0.9776
3.0875 4.3451 -1.9062 0.9776
2.2606 4.8231 -1.9048 0.9776
1.8196 5.0073 -1.9052 0.9776
0.8978 5.2597 -1.9081 0.9776
0.4234 5.3260 -1.9106 0.9776
-0.0557 5.3513 -1.9138 0.9775
-1.0145 5.2781 -1.9220 0.9774
3.8632 -3.6044 -2.0248 0.9776
4.1542 -3.2309 -2.0167 0.9777
4.4092 -2.8342 -2.0086 0.9778
4.6267 -2.4178 -2.0005 0.9779
5.0421 -1.0869 -1.9766 0.9781
5.0995 -0.6282 -1.9690 0.9782
5.1162 -0.1681 -1.9617 0.9783
5.0925 0.2901 -1.9547 0.9784
3.2405 3.7991 -1.9136 0.9788
2.8846 4.0708 -1.9120 0.9789
2.5069 4.3108 -1.9110 0.9789
1.6972 4.6893 -1.9111 0.9789
1.2708 4.8252 -1.9121 0.9789
0.8340 4.9240 -1.9138 0.9788
-0.5081 4.9916 -1.9228 0.9787
-1.3975 4.8431 -1.9317 0.9786
-1.8310 4.7112 -1.9370 0.9786
-2.2525 4.5417 -1.9428 0.9785
-3.0472 4.0936 -1.9557 0.9784
-3.4141 3.8178 -1.9627 0.9783
-3.7565 3.5095 -1.9701 0.9782
-4.0717 3.1710 -1.9777 0.9781
-4.3567 2.8044 -1.9856 0.9780
-4.6090 2.4124 -1.9936 0.9780
-2.3013 0.2850 -0.8887 0.9901
-2.2977 0.0770 -0.8810 0.9902
-2.3022 -0.1296 -0.8837 0.9902
-5.2152 -1.2527 -2.0554 0.9773
-5.0979 -1.7204 -2.0619 0.9772
-4.4915 -3.0380 -2.0780 0.9770
-3.5389 -4.1435 -2.0882 0.9769
-2.7464 -4.7156 -2.0912 0.9769
-1.3923 -5.2728 -2.0899 0.9769
0.5455 -5.3934 -2.0774 0.9770
1.9450 -5.0143 -2.0611 0.9772
3.1764 -4.2729 -2.0403 0.9775
3.8587 -3.6097 -2.0249 0.9776
4.6238 -2.4239 -2.0006 0.9779
5.0410 -1.0935 -1.9767 0.9781
5.0931 0.2835 -1.9548 0.9784
5.0301 0.7363 -1.9482 0.9785
4.7884 1.6125 -1.9363 0.9786
4.4010 2.4290 -1.9264 0.9787
3.2455 3.7949 -1.9136 0.9788
2.8899 4.0671 -1.9120 0.9789
2.5125 4.3076 -1.9110 0.9789
2.1160 4.5147 -1.9107 0.9789
1.7033 4.6871 -1.9111 0.9789
-0.5016 4.9921 -1.9227 0.9787
4.1270 -2.6527 -2.0079 0.9790
4.3316 -2.2636 -2.0003 0.9791
4.7242 -1.0184 -1.9779 0.9793
4.7792 -0.5888 -1.9708 0.9794
4.7161 0.6966 -1.9511 0.9796
4.3250 1.9100 -1.9351 0.9798
3.6393 2.9738 -1.9235 0.9799
2.3538 4.0475 -1.9163 0.9800
1.5935 4.4028 -1.9164 0.9800
0.7829 4.6228 -1.9189 0.9799
-0.4769 4.6849 -1.9273 0.9799
-0.8967 4.6327 -1.9313 0.9798
-1.3113 4.5442 -1.9357 0.9798
-2.1128 4.2599 -1.9461 0.9797
-3.5204 3.2889 -1.9718 0.9794
-3.8148 2.9710 -1.9789 0.9793
-4.0808 2.6268 -1.9863 0.9792
-4.3161 2.2590 -1.9938 0.9792
-4.6855 1.4633 -2.0090 0.9790
-2.0856 0.4510 -0.8733 0.9908
-2.0067 -0.1130 -0.8226 0.9914
-4.7635 -1.6076 -2.0576 0.9785
-4.4226 -2.4446 -2.0682 0.9784
-3.9308 -3.2077 -2.0765 0.9783
-3.3040 -3.8684 -2.0821 0.9783
-2.1594 -4.6149 -2.0853 0.9782
-1.7367 -4.7889 -2.0849 0.9782
-0.3993 -5.0646 -2.0793 0.9783
0.5095 -5.0371 -2.0721 0.9784
0.9568 -4.9603 -2.0676 0.9784
2.6087 -4.2596 -2.0443 0.9786
2.9700 -3.9953 -2.0375 0.9787
3.3046 -3.7001 -2.0304 0.9788
3.8835 -3.0285 -2.0156 0.9789
4.3289 -2.2694 -2.0004 0.9791
4.6294 -1.4491 -1.9853 0.9793
4.7231 -1.0246 -1.9780 0.9793
4.7786 -0.5950 -1.9709 0.9794
4.7959 -0.1638 -1.9640 0.9795
4.7753 0.2658 -1.9574 0.9795
4.6226 1.1072 -1.9454 0.9797
4.4923 1.5128 -1.9400 0.9797
4.3277 1.9045 -1.9351 0.9798
4.1302 2.2795 -1.9307 0.9798
3.9014 2.6352 -1.9269 0.9799
3.0470 3.5628 -1.9187 0.9799
2.7133 3.8185 -1.9172 0.9800
1.9868 4.2389 -1.9160 0.9800
1.1990 4.5286 -1.9173 0.9800
-0.0489 4.7005 -1.9239 0.9799
3.1045 -3.4671 -2.0282 0.9799
3.6485 -2.8376 -2.0144 0.9800
3.8744 -2.4904 -2.0072 0.9801
4.2265 -1.7462 -1.9930 0.9802
4.3506 -1.3556 -1.9860 0.9803
4.4917 -0.5534 -1.9724 0.9804
4.5084 -0.1481 -1.9659 0.9805
4.3464 1.0470 -1.9484 0.9807
3.6684 2.4847 -1.9309 0.9809
3.1565 3.0906 -1.9253 0.9809
2.8639 3.3575 -1.9233 0.9809
2.5496 3.5980 -1.9218 0.9809
1.8652 3.9931 -1.9207 0.9810
1.5001 4.1449 -1.9211 0.9810
0.7370 4.3516 -1.9235 0.9809
0.3444 4.4049 -1.9256 0.9809
-0.0518 4.4241 -1.9282 0.9809
-1.9872 4.0067 -1.9492 0.9807
-2.3449 3.8233 -1.9547 0.9806
-3.3086 3.0910 -1.9733 0.9804
-3.5845 2.7916 -1.9800 0.9804
-4.0536 2.1217 -1.9940 0.9802
-1.4939 0.4666 -0.6821 0.9932
-1.4727 0.1824 -0.6467 0.9935
-1.4439 0.0484 -0.6296 0.9937
-1.4551 -0.0819 -0.6352 0.9937
-1.4737 -0.2167 -0.6492 0.9935
-1.4880 -0.3574 -0.6669 0.9933
-4.3230 -1.9058 -2.0590 0.9796
-4.1442 -2.2908 -2.0637 0.9796
-3.6825 -3.0050 -2.0714 0.9795
-3.4032 -3.3277 -2.0744 0.9794
-3.0948 -3.6234 -2.0767 0.9794
-1.6266 -4.4852 -2.0793 0.9794
-1.2174 -4.6106 -2.0782 0.9794
-0.3741 -4.7443 -2.0741 0.9794
0.4773 -4.7195 -2.0674 0.9795
0.8966 -4.6482 -2.0631 0.9796
2.4463 -3.9945 -2.0414 0.9798
3.1002 -3.4713 -2.0283 0.9799
3.3873 -3.1687 -2.0215 0.9800
3.6450 -2.8425 -2.0145 0.9800
4.0649 -2.1309 -2.0002 0.9802
4.2244 -1.7518 -1.9931 0.9802
4.3490 -1.3613 -1.9861 0.9803
4.4380 -0.9627 -1.9792 0.9804
4.5084 -0.1540 -1.9660 0.9805
4.4362 0.6494 -1.9540 0.9806
4.0718 1.7919 -1.9388 0.9808
3.6717 2.4800 -1.9310 0.9809
2.2208 3.8075 -1.9210 0.9810
1.8704 3.9907 -1.9207 0.9810
1.1287 4.2632 -1.9220 0.9809
0.7427 4.3506 -1.9235 0.9809
-0.4431 4.4094 -1.9314 0.9808
2.9203 -3.2613 -2.0264 0.9809
3.1907 -2.9770 -2.0199 0.9809
3.6467 -2.3440 -2.0066 0.9811
3.8292 -2.0011 -1.9999 0.9811
3.9798 -1.6443 -1.9932 0.9812
4.2486 -0.1396 -1.9677 0.9814
4.2315 0.2411 -1.9619 0.9815
4.0980 0.9872 -1.9512 0.9816
3.4605 2.3439 -1.9347 0.9817
2.9782 2.9160 -1.9293 0.9818
2.0910 3.5955 -1.9253 0.9818
0.6954 4.1060 -1.9277 0.9818
-0.0489 4.1738 -1.9321 0.9818
-0.4234 4.1591 -1.9352 0.9817
-0.7959 4.1119 -1.9387 0.9817
-1.8736 3.7777 -1.9519 0.9816
-2.8349 3.1701 -1.9685 0.9814
-3.1173 2.9123 -1.9747 0.9814
-3.3766 2.6296 -1.9810 0.9813
-1.2674 0.2741 -0.6002 0.9943
-1.2654 0.0424 -0.5861 0.9944
-1.2691 -0.0715 -0.5884 0.9944
-1.2748 -0.1874 -0.5964 0.9943
-3.8943 -2.1526 -2.0597 0.9806
-3.6927 -2.4977 -2.0636 0.9805
-2.9070 -3.4036 -2.0719 0.9805
-2.5923 -3.6532 -2.0735 0.9804
-2.2554 -3.8725 -2.0744 0.9804
-0.7502 -4.4122 -2.0717 0.9805
-0.3514 -4.4568 -2.0694 0.9805
0.0494 -4.4642 -2.0665 0.9805
0.4485 -4.4344 -2.0631 0.9805
0.8425 -4.3680 -2.0591 0.9806
1.6014 -4.1285 -2.0498 0.9807
1.9599 -3.9581 -2.0444 0.9807
2.3003 -3.7560 -2.0387 0.9808
2.9162 -3.2653 -2.0265 0.9809
3.6438 -2.3489 -2.0067 0.9811
3.8268 -2.0061 -2.0000 0.9811
3.9778 -1.6495 -1.9933 0.9812
4.0960 -1.2821 -1.9867 0.9813
4.2316 -0.5269 -1.9739 0.9814
4.2486 -0.1451 -1.9678 0.9814
4.2320 0.2356 -1.9619 0.9815
4.0995 0.9819 -1.9513 0.9816
3.8402 1.6900 -1.9421 0.9817
3.6659 2.0233 -1.9382 0.9817
3.4637 2.3395 -1.9347 0.9817
3.2351 2.6365 -1.9318 0.9818
2.9821 2.9121 -1.9294 0.9818
2.7064 3.1646 -1.9275 0.9818
2.4102 3.3920 -1.9261 0.9818
2.0956 3.5928 -1.9253 0.9818
1.0650 4.0228 -1.9262 0.9818
-0.7905 4.1128 -1.9386 0.9817
3.4403 -2.2114 -2.0061 0.9819
3.6132 -1.8882 -1.9998 0.9820
3.7560 -1.5518 -1.9934 0.9821
3.8677 -1.2052 -1.9872 0.9821
3.9970 0.2277 -1.9638 0.9823
3.9500 0.5834 -1.9586 0.9824
3.8722 0.9328 -1.9537 0.9824
3.6273 1.6019 -1.9451 0.9825
3.4625 1.9169 -1.9414 0.9825
2.8158 2.7569 -1.9330 0.9826
2.2748 3.2102 -1.9300 0.9826
0.6575 3.8823 -1.9315 0.9826
0.3072 3.9293 -1.9333 0.9826
-0.4002 3.9317 -1.9385 0.9825
-0.7523 3.8866 -1.9419 0.9825
-1.4399 3.7050 -1.9498 0.9824
-2.0883 3.4050 -1.9593 0.9824
-2.3915 3.2127 -1.9646 0.9823
-2.6773 2.9939 -1.9701 0.9823
-2.9435 2.7499 -1.9759 0.9822
-3.1877 2.4826 -1.9819 0.9822
-3.4080 2.1937 -1.9881 0.9821
-1.0956 0.5735 -0.6066 0.9945
-1.1099 0.4594 -0.5892 0.9947
-1.1297 0.3528 -0.5805 0.9947
-1.1443 0.1417 -0.5656 0.9949
-1.1394 0.0382 -0.5592 0.9949
-1.1421 -0.0643 -0.5611 0.9949
-1.1436 -0.1681 -0.5670 0.9949
-1.1020 -0.4858 -0.5908 0.9946
-3.4781 -2.3525 -2.0597 0.9815
-3.2583 -2.6589 -2.0629 0.9814
-2.7374 -3.2051 -2.0675 0.9814
-1.7886 -3.8225 -2.0702 0.9814
-1.4386 -3.9668 -2.0698 0.9814
-0.7065 -4.1549 -2.0673 0.9814
-0.3309 -4.1971 -2.0652 0.9814
1.8470 -3.7301 -2.0417 0.9816
2.1681 -3.5402 -2.0363 0.9817
3.0054 -2.8115 -2.0187 0.9818
3.6109 -1.8929 -1.9999 0.9820
3.7541 -1.5568 -1.9935 0.9821
3.8664 -1.2102 -1.9873 0.9821
3.9470 -0.8562 -1.9811 0.9822
3.9958 -0.4975 -1.9752 0.9822
3.9509 0.5783 -1.9587 0.9824
3.4651 1.9124 -1.9414 0.9825
2.5589 2.9921 -1.9313 0.9826
1.3433 3.6966 -1.9293 0.9826
0.6626 3.8813 -1.9314 0.9826
-0.0411 3.9459 -1.9356 0.9826
-0.3951 3.9321 -1.9385 0.9825
3.0608 -2.3805 -2.0116 0.9827
3.2521 -2.0904 -2.0056 0.9827
3.4161 -1.7852 -1.9996 0.9828
3.7346 -0.8051 -1.9819 0.9829
3.7809 -0.4658 -1.9763 0.9830
3.7969 -0.1247 -1.9708 0.9830
3.6656 0.8830 -1.9560 0.9832
3.4346 1.5168 -1.9478 0.9832
3.0981 2.0985 -1.9412 0.9833
2.8937 2.3645 -1.9386 0.9833
1.2679 3.5034 -1.9328 0.9834
0.9493 3.6044 -1.9336 0.9833
0.6228 3.6774 -1.9349 0.9833
0.2910 3.7218 -1.9367 0.9833
-0.3790 3.7235 -1.9416 0.9833
-1.6758 3.3789 -1.9567 0.9831
-2.5334 2.8329 -1.9716 0.9830
-2.7848 2.6017 -1.9771 0.9830
-3.0153 2.3483 -1.9827 0.9829
-0.9965 0.4125 -0.5595 0.9952
-1.0159 0.3173 -0.5522 0.9952
-1.0371 0.1285 -0.5421 0.9953
-1.0362 -0.0584 -0.5384 0.9953
-1.0356 -0.1523 -0.5430 0.9953
-1.0125 -0.3417 -0.5544 0.9952
-0.9503 -0.5253 -0.5633 0.9951
-3.2830 -2.2206 -2.0562 0.9823
-2.8414 -2.7784 -2.0616 0.9823
-2.5834 -3.0247 -2.0636 0.9822
-2.0041 -3.4410 -2.0658 0.9822
-1.6878 -3.6071 -2.0660 0.9822
-1.3575 -3.7433 -2.0657 0.9822
-0.6667 -3.9211 -2.0634 0.9822
1.4248 -3.6732 -2.0439 0.9824
2.5979 -2.9089 -2.0233 0.9826
3.0578 -2.3846 -2.0117 0.9827
3.2495 -2.0947 -2.0057 0.9827
3.4140 -1.7897 -1.9997 0.9828
3.5500 -1.4721 -1.9937 0.9828
3.7337 -0.8099 -1.9820 0.9829
3.7396 0.5474 -1.9607 0.9831
3.6668 0.8783 -1.9561 0.9832
3.5655 1.2007 -1.9518 0.9832
2.4239 2.8342 -1.9347 0.9833
2.1588 3.0382 -1.9335 0.9833
1.5810 3.3731 -1.9326 0.9834
-0.0389 3.7372 -1.9389 0.9833
2.4625 -2.7500 -2.0218 0.9833
2.6918 -2.5115 -2.0164 0.9834
2.8980 -2.2539 -2.0108 0.9834
3.0797 -1.9796 -2.0052 0.9834
1.8766 -0.5847 -1.0765 0.9911
1.8862 -0.4066 -1.0568 0.9912
1.8889 -0.2327 -1.0424 0.9914
1.8807 -0.0618 -1.0306 0.9915
1.8852 0.1074 -1.0342 0.9914
1.8863 0.4544 -1.0627 0.9912
1.8686 0.6320 -1.0804 0.9910
2.0445 2.8852 -1.9367 0.9840
1.7770 3.0557 -1.9361 0.9840
1.2030 3.3240 -1.9361 0.9840
0.9006 3.4198 -1.9369 0.9840
-0.0415 3.5453 -1.9419 0.9840
-1.2928 3.3264 -1.9546 0.9839
-1.5890 3.2039 -1.9588 0.9838
-2.6391 2.4656 -1.9781 0.9837
-0.8835 0.4624 -0.5462 0.9955
-0.9055 0.3748 -0.5368 0.9955
-0.9466 0.1172 -0.5224 0.9957
-0.9447 0.0316 -0.5177 0.9957
-0.9464 -0.0533 -0.5191 0.9957
-0.9451 -0.1390 -0.5232 0.9957
-0.9175 -0.3097 -0.5304 0.9956
-0.8764 -0.4845 -0.5485 0.9954
-2.6868 -2.6272 -2.0581 0.9830
-2.1779 -3.0693 -2.0613 0.9830
-1.8948 -3.2533 -2.0620 0.9830
-1.2835 -3.5392 -2.0620 0.9830
-0.9608 -3.6385 -2.0611 0.9830
-0.2953 -3.7456 -2.0579 0.9830
0.0415 -3.7527 -2.0555 0.9830
0.3771 -3.7286 -2.0526 0.9831
0.7086 -3.6739 -2.0493 0.9831
1.0331 -3.5890 -2.0455 0.9831
1.6503 -3.3329 -2.0369 0.9832
3.0772 -1.9836 -2.0052 0.9834
3.3628 -1.3945 -1.9939 0.9835
1.8863 -0.4092 -1.0572 0.9912
1.8888 -0.2352 -1.0425 0.9914
1.8863 0.4518 -1.0624 0.9912
1.8690 0.6294 -1.0802 0.9910
3.2594 1.4344 -1.9504 0.9839
3.1124 1.7178 -1.9471 0.9839
2.7480 2.2395 -1.9416 0.9840
2.0482 2.8826 -1.9368 0.9840
1.7810 3.0534 -1.9361 0.9840
1.5000 3.2004 -1.9359 0.9840
-0.0369 3.5453 -1.9419 0.9840
-0.3549 3.5324 -1.9444 0.9839
-0.6711 3.4917 -1.9474 0.9839
2.3346 -2.6072 -2.0205 0.9840
2.7482 -2.1374 -2.0101 0.9840
2.9209 -1.8775 -2.0047 0.9841
1.8116 -0.7485 -1.1317 0.9910
1.7372 0.0990 -1.0046 0.9920
1.7409 0.2571 -1.0160 0.9919
1.7321 0.4172 -1.0286 0.9918
1.7123 0.5791 -1.0436 0.9917
2.7917 1.8909 -1.9467 0.9845
2.4039 2.3537 -1.9424 0.9846
2.1816 2.5576 -1.9409 0.9846
1.4213 3.0427 -1.9389 0.9846
0.8557 3.2492 -1.9399 0.9846
0.5614 3.3148 -1.9410 0.9846
-0.3416 3.3552 -1.9471 0.9845
-0.6418 3.3159 -1.9500 0.9845
-1.2277 3.1590 -1.9568 0.9845
-2.0368 2.7362 -1.9694 0.9844
-2.2793 2.5488 -1.9741 0.9843
-2.5048 2.3401 -1.9791 0.9843
-2.7114 2.1116 -1.9842 0.9843
-0.7995 0.5147 -0.5490 0.9956
-0.8298 0.4343 -0.5408 0.9957
-0.8815 -0.0496 -0.5097 0.9959
-0.8619 -0.2909 -0.5252 0.9958
-0.8468 -0.3733 -0.5343 0.9957
-0.8230 -0.4549 -0.5429 0.9957
-0.7967 -0.5389 -0.5553 0.9956
-2.7546 -2.2479 -2.0527 0.9837
-2.3135 -2.7087 -2.0566 0.9837
-2.0627 -2.9069 -2.0579 0.9837
-1.5113 -3.2299 -2.0588 0.9837
-1.2156 -3.3519 -2.0585 0.9837
-0.5971 -3.5115 -2.0564 0.9837
-0.2797 -3.5477 -2.0546 0.9837
1.2772 -3.2928 -2.0391 0.9838
1.5639 -3.1585 -2.0349 0.9839
1.8366 -2.9989 -2.0303 0.9839
2.5493 -2.3848 -2.0154 0.9840
2.9186 -1.8814 -2.0048 0.9841
1.7197 -0.5383 -1.0404 0.9917
1.7370 0.0967 -1.0044 0.9920
1.7127 0.5768 -1.0434 0.9917
3.0958 1.3624 -1.9528 0.9845
2.9564 1.6317 -1.9496 0.9845
2.7943 1.8874 -1.9468 0.9845
2.4070 2.3506 -1.9424 0.9846
1.9461 2.7388 -1.9398 0.9846
1.4253 3.0409 -1.9389 0.9846
0.8599 3.2480 -1.9399 0.9846
0.2667 3.3541 -1.9426 0.9846
-0.0351 3.3680 -1.9446 0.9846
-0.3372 3.3556 -1.9471 0.9845
