ply
format ascii 1.0
element vertex 1540
property float32 x
property float32 y
property float32 z
property float32 I
end_header
4.8233 -17.3231 3.1707 0.9296
5.7571 -7.9340 1.7285 0.9610
5.6735 -6.5112 1.5228 0.9655
5.7852 -5.5539 1.4141 0.9680
9.2418 -6.1468 1.9571 0.9559
-19.4112 -0.2166 3.4229 0.9242
5.7112 -7.2630 1.6292 0.9632
5.6669 -6.0175 1.4575 0.9670
6.3067 -5.6027 1.4875 0.9663
7.8405 -5.8049 1.7202 0.9612
6.5423 -17.3500 2.8406 0.9277
5.7677 -5.5371 1.2248 0.9682
8.7934 -5.8486 1.6178 0.9582
5.6128 -5.9601 1.2542 0.9674
6.2868 -5.5850 1.2883 0.9665
9.7956 -5.9825 1.7584 0.9546
6.2891 17.8772 2.9032 0.9262
4.8190 -17.3077 2.3396 0.9301
6.4318 -17.0569 2.3738 0.9291
5.4733 -7.5430 1.2136 0.9631
5.5357 -6.3532 1.0973 0.9666
5.7503 -5.5204 1.0380 0.9684
5.4328 -8.3409 1.2962 0.9606
5.5017 -6.9965 1.1590 0.9647
5.5601 -5.9041 1.0561 0.9678
7.6990 -5.7002 1.2474 0.9621
6.4632 -17.1401 1.9670 0.9290
5.4825 -6.2921 0.8962 0.9670
5.7332 -5.5040 0.8534 0.9685
7.0056 -5.6185 0.9643 0.9645
10.9928 -5.9752 1.3435 0.9509
14.7743 -6.4011 1.7290 0.9373
-1.7760 11.1962 1.2173 0.9554
5.3712 -8.2463 1.0568 0.9612
5.4458 -6.9255 0.9461 0.9652
9.5827 -5.8525 1.2057 0.9558
6.2995 17.9068 2.0384 0.9265
5.4306 -6.2325 0.6998 0.9674
5.7162 -5.4877 0.6708 0.9687
10.9568 -5.9557 1.0557 0.9512
-1.7764 11.1982 0.9598 0.9555
5.3113 -8.1544 0.8238 0.9617
6.2306 -5.5351 0.7055 0.9671
9.5545 -5.8352 0.9477 0.9561
12.2727 -6.0688 1.1590 0.9465
4.8127 -17.2851 1.1126 0.9306
6.4596 -17.1307 1.1353 0.9293
6.9618 -5.5834 0.5534 0.9649
8.6214 -5.7342 0.6421 0.9594
-1.7767 11.2003 0.7032 0.9556
5.3698 -16.7519 1.0909 0.9319
5.3382 -6.7886 0.5355 0.9660
6.4579 -17.1261 0.7217 0.9294
5.2494 -7.2343 0.3524 0.9649
5.6827 -5.4555 0.3106 0.9690
6.9402 -5.5661 0.3508 0.9650
14.3329 -6.2099 0.6159 0.9394
5.2863 -6.7225 0.3372 0.9663
5.3610 -5.6927 0.3083 0.9692
6.1923 -5.5010 0.3266 0.9674
9.4866 -5.7938 0.4383 0.9565
6.3150 17.9509 0.7503 0.9267
4.8085 -17.2702 0.3028 0.9308
5.1966 -7.1616 0.1495 0.9652
5.2814 -6.0613 0.1358 0.9683
5.6661 -5.4396 0.1327 0.9691
6.9188 -5.5490 0.1498 0.9651
7.5724 -5.6064 0.1592 0.9630
9.4501 -5.7715 0.1870 0.9567
6.3202 17.9655 0.3217 0.9266
6.4544 -17.1167 -0.1030 0.9294
5.6555 -5.4294 -0.0441 0.9691
6.9037 -5.5368 -0.0498 0.9652
9.3572 -17.6156 -0.1123 0.9233
6.1607 -5.4730 -0.0464 0.9676
7.5542 -5.5929 -0.0529 0.9631
4.8044 -17.2553 -0.5044 0.9308
6.4526 -17.1121 -0.5150 0.9294
5.0456 -8.4428 -0.2770 0.9614
5.1566 -7.1064 -0.2472 0.9655
5.6589 -5.4326 -0.2209 0.9691
6.9082 -5.5405 -0.2494 0.9652
10.8118 -5.8769 -0.3465 0.9520
14.2406 -6.1699 -0.4370 0.9398
5.3657 -16.7391 -0.4950 0.9321
9.3552 -17.6120 -0.5615 0.9233
5.1978 -6.6100 -0.2368 0.9669
6.1646 -5.4765 -0.2322 0.9675
7.5568 -5.5949 -0.2648 0.9631
5.0456 -8.4427 -0.4988 0.9614
5.1565 -7.1064 -0.4453 0.9654
5.6623 -5.4359 -0.3981 0.9691
6.9128 -5.5441 -0.4494 0.9651
8.5420 -5.6814 -0.5203 0.9597
5.0968 -7.8250 -0.4736 0.9633
5.1977 -6.6099 -0.4264 0.9669
6.1685 -5.4799 -0.4184 0.9675
7.5621 -5.5988 -0.4772 0.9630
9.4265 -5.7571 -0.5602 0.9567
12.5048 -6.1836 -0.7075 0.9457
6.3357 18.0096 -0.9682 0.9264
4.8002 -17.2404 -1.3122 0.9307
5.1564 -7.1063 -0.6438 0.9654
5.6657 -5.4392 -0.5759 0.9690
8.5485 -5.6857 -0.7528 0.9597
5.1447 17.3744 -1.3286 0.9299
9.2990 -17.5061 -1.4534 0.9236
7.5674 -5.6027 -0.6904 0.9629
12.2443 -6.0548 -1.0016 0.9467
6.0685 17.2502 -1.3408 0.9293
4.7982 -17.2329 -1.7174 0.9306
6.4249 -17.0387 -1.7482 0.9294
5.1563 -7.1062 -0.8429 0.9653
5.2464 -6.0211 -0.7667 0.9684
7.2048 -5.7783 -0.8867 0.9636
6.1066 -4.0616 -0.7041 0.9710
10.8209 -5.8818 -1.1824 0.9517
14.2170 -6.1596 -1.4875 0.9396
18.1756 7.5246 -1.8886 0.9240
15.1024 11.7122 -1.8348 0.9261
13.8690 12.8860 -1.8175 0.9267
12.5511 13.9382 -1.8007 0.9274
9.7099 15.6610 -1.7691 0.9286
6.6733 16.8582 -1.7407 0.9297
3.5309 17.5228 -1.7161 0.9307
0.3667 17.6601 -1.6958 0.9315
-1.1991 17.5353 -1.6874 0.9318
-1.7709 11.1640 -1.0852 0.9556
-4.6042 18.3096 -1.8125 0.9269
-6.1965 17.7770 -1.8074 0.9271
-7.7365 17.1197 -1.8036 0.9273
-9.2159 16.3421 -1.8012 0.9274
-10.6265 15.4491 -1.8002 0.9274
-11.9606 14.4460 -1.8005 0.9274
-13.2107 13.3381 -1.8023 0.9273
-15.4296 10.8328 -1.8099 0.9270
-16.3847 9.4483 -1.8158 0.9268
-17.2280 7.9855 -1.8230 0.9265
-17.9532 6.4519 -1.8315 0.9262
-18.5543 4.8557 -1.8413 0.9258
-19.3621 1.5110 -1.8645 0.9249
5.3626 -16.7294 -1.6866 0.9318
5.0967 -7.8248 -0.8965 0.9632
6.1764 -5.4869 -0.7932 0.9673
7.5750 -5.6083 -0.9049 0.9628
6.3650 -3.8873 -0.7160 0.9705
17.7970 8.1872 -1.8807 0.9243
15.7584 10.9962 -1.8448 0.9257
14.5782 12.2363 -1.8273 0.9264
13.3066 13.3580 -1.8101 0.9270
10.5377 15.2261 -1.7777 0.9283
9.0643 15.9659 -1.7626 0.9289
5.9973 17.0477 -1.7350 0.9300
4.4259 17.3887 -1.7226 0.9304
1.2597 17.6740 -1.7011 0.9313
-5.3012 18.0940 -1.8101 0.9270
-6.8719 17.5068 -1.8056 0.9272
-12.5140 13.9776 -1.8011 0.9274
-14.8421 11.5788 -1.8072 0.9271
-18.2297 5.7662 -1.8356 0.9260
-18.7752 4.1455 -1.8459 0.9256
-19.5994 -0.9771 -1.8840 0.9242
1.5650 -16.6940 -1.9917 0.9347
5.9738 -15.8423 -2.0112 0.9341
7.3724 -15.2763 -2.0149 0.9340
5.0453 -8.4423 -1.1683 0.9612
5.2464 -6.0211 -0.9486 0.9683
5.6726 -5.4458 -0.9341 0.9688
5.8546 -3.8939 -0.8352 0.9721
6.2468 -3.3955 -0.8446 0.9718
16.6497 -7.2136 -2.1554 0.9295
17.1461 -5.6783 -2.1455 0.9298
17.4922 -4.1098 -2.1344 0.9302
17.6871 -2.5236 -2.1223 0.9306
17.6277 0.6411 -2.0953 0.9314
16.4723 5.1583 -2.0504 0.9328
13.9147 7.2717 -1.8650 0.9387
13.1105 8.4144 -1.8505 0.9392
12.2151 9.4731 -1.8362 0.9396
10.1878 11.3137 -1.8085 0.9405
9.0746 12.0858 -1.7953 0.9409
7.9077 12.7543 -1.7826 0.9413
6.6968 13.3164 -1.7706 0.9417
5.4510 13.7704 -1.7592 0.9421
2.8917 14.3503 -1.7389 0.9427
1.5959 14.4763 -1.7300 0.9430
0.3010 14.4937 -1.7220 0.9433
-0.9850 14.4041 -1.7150 0.9435
-1.7648 11.1255 -1.3381 0.9556
-5.0997 14.6305 -1.8405 0.9395
-8.7518 12.7236 -1.8344 0.9397
-10.8778 10.9828 -1.8362 0.9396
-14.1570 6.5620 -1.8535 0.9391
-15.2197 3.9830 -1.8688 0.9386
-15.9055 -3.0464 -1.9237 0.9368
-15.6800 -4.4797 -1.9371 0.9364
-15.3299 -5.8987 -1.9511 0.9360
-14.8548 -7.2926 -1.9657 0.9355
-14.2557 -8.6502 -1.9807 0.9350
-12.6932 -11.2112 -2.0117 0.9341
-9.5002 -14.4941 -2.0586 0.9326
-8.2341 -15.3944 -2.0738 0.9321
-6.8812 -16.1801 -2.0886 0.9316
-3.6559 -16.0444 -1.9547 0.9359
0.7203 -16.7098 -1.9867 0.9348
2.2128 -16.6506 -1.9953 0.9346
3.6981 -16.4476 -2.0025 0.9343
5.1612 -16.1011 -2.0084 0.9342
7.9617 -14.9885 -2.0160 0.9339
5.1975 -6.6096 -0.9988 0.9667
5.2807 -5.6074 -0.9150 0.9694
5.7776 -4.2776 -0.8539 0.9715
5.9251 -3.6187 -0.8247 0.9724
17.3149 -5.0006 -2.1408 0.9300
17.5954 -3.4225 -2.1293 0.9303
17.7248 -1.8335 -2.1167 0.9307
16.7825 4.3405 -2.0591 0.9326
10.7904 10.8320 -1.8162 0.9403
9.7118 11.6614 -1.8027 0.9407
7.3870 13.0115 -1.7773 0.9415
4.9017 13.9334 -1.7545 0.9422
1.0332 14.4971 -1.7264 0.9431
-0.2588 14.4679 -1.7189 0.9434
-4.3618 14.8874 -1.8428 0.9394
-5.6566 14.4107 -1.8389 0.9395
-9.2369 12.3759 -1.8344 0.9397
-13.0445 8.4251 -1.8446 0.9394
-13.7821 7.2529 -1.8500 0.9392
-14.4229 6.0197 -1.8565 0.9390
-15.3939 3.3989 -1.8726 0.9385
-15.9218 0.6249 -1.8927 0.9378
-16.0103 -0.7981 -1.9042 0.9375
-15.9781 -2.2329 -1.9164 0.9371
-13.9574 -9.2254 -1.9874 0.9348
2.5264 -13.6884 -1.9723 0.9453
4.9349 -13.0871 -1.9818 0.9451
5.1562 -7.1060 -1.2440 0.9652
5.2463 -6.0210 -1.1315 0.9683
5.7038 -4.5745 -1.0360 0.9709
5.7963 -3.8552 -0.9863 0.9723
6.0174 -3.2708 -0.9704 0.9727
14.4999 -3.4067 -2.1104 0.9416
14.6581 0.5331 -2.0783 0.9425
14.4687 1.8239 -2.0663 0.9428
14.1634 3.0846 -2.0539 0.9431
13.7471 4.3049 -2.0411 0.9435
13.2251 5.4751 -2.0281 0.9438
11.3520 7.2858 -1.9112 0.9470
10.2458 7.9458 -1.8371 0.9490
9.4377 8.7688 -1.8253 0.9493
8.5662 9.5129 -1.8138 0.9496
7.6391 10.1739 -1.8027 0.9499
6.6642 10.7486 -1.7919 0.9502
5.6497 11.2343 -1.7817 0.9505
4.6033 11.6289 -1.7721 0.9507
3.5329 11.9312 -1.7631 0.9510
1.3512 12.2567 -1.7472 0.9514
-1.7528 11.0496 -1.5852 0.9558
-3.2039 12.7410 -1.8615 0.9483
-6.4456 11.4296 -1.8592 0.9484
-8.3661 10.1045 -1.8587 0.9484
-12.8906 3.3735 -1.8880 0.9476
-13.1940 2.2230 -1.8958 0.9474
-13.5065 -0.1507 -1.9138 0.9469
-13.5107 -1.3583 -1.9240 0.9466
-12.4825 -6.1279 -1.9703 0.9454
-11.9644 -7.2599 -1.9829 0.9450
-11.3447 -8.3490 -1.9958 0.9447
-10.6264 -9.3857 -2.0088 0.9443
-9.8133 -10.3606 -2.0219 0.9440
-7.9232 -12.0881 -2.0479 0.9433
-4.4796 -13.8375 -2.0608 0.9429
-3.0349 -13.3191 -1.9356 0.9463
-0.6335 -13.7754 -1.9539 0.9458
4.2646 -13.3041 -1.9795 0.9451
5.0965 -7.8246 -1.3231 0.9630
5.1974 -6.6096 -1.1914 0.9666
5.2807 -5.6074 -1.0914 0.9694
6.2217 -5.5272 -1.1792 0.9669
5.7193 -4.2344 -1.0083 0.9717
14.3455 -4.1431 -2.1157 0.9415
14.7135 -1.5220 -2.0959 0.9420
14.7126 -0.2065 -2.0848 0.9423
10.6722 7.4470 -1.8439 0.9488
9.9033 8.3125 -1.8320 0.9491
9.0667 9.1017 -1.8203 0.9494
3.0628 12.0335 -1.7594 0.9511
1.9716 12.2024 -1.7514 0.9513
-0.2194 12.2617 -1.7376 0.9517
-2.3736 11.9566 -1.7272 0.9519
-3.7022 12.6360 -1.8657 0.9482
-4.8027 12.2352 -1.8624 0.9483
-5.8644 11.7452 -1.8601 0.9483
-7.8454 10.5116 -1.8585 0.9484
-9.5957 8.9672 -1.8609 0.9483
-11.0701 7.1499 -1.8672 0.9482
-11.6910 6.1524 -1.8719 0.9480
-12.6770 4.0098 -1.8839 0.9477
-13.5210 -0.6740 -1.9182 0.9468
-13.4803 -1.8839 -1.9286 0.9465
-13.0851 -4.2917 -1.9512 0.9459
-12.7298 -5.4719 -1.9633 0.9456
-11.7077 -7.7385 -1.9885 0.9449
0.0522 -11.7840 -1.9413 0.9534
3.1870 -11.4465 -1.9574 0.9530
5.4109 -11.2119 -2.0509 0.9508
5.1561 -7.1059 -1.4463 0.9650
5.2462 -6.0209 -1.3156 0.9681
5.4716 -4.3883 -1.1555 0.9720
5.7316 -3.8121 -1.1340 0.9725
5.9322 -3.2245 -1.1123 0.9730
11.7406 -5.0867 -2.1079 0.9495
12.3702 -2.9064 -2.0934 0.9498
12.5830 -0.6636 -2.0758 0.9502
12.3816 1.5608 -2.0559 0.9507
12.1310 2.6419 -2.0453 0.9509
10.8246 5.6568 -2.0121 0.9517
8.1428 7.5657 -1.8311 0.9559
7.3834 8.1994 -1.8177 0.9563
6.5899 8.7766 -1.8081 0.9565
5.7537 9.2800 -1.7988 0.9567
4.8815 9.7068 -1.7899 0.9569
3.0569 10.3237 -1.7737 0.9573
2.1181 10.5115 -1.7665 0.9575
-0.7242 10.5898 -1.7486 0.9579
-2.7892 11.0918 -1.8841 0.9547
-4.6958 10.3912 -1.8785 0.9548
-7.2646 8.7741 -1.8766 0.9549
-8.0208 8.0982 -1.8777 0.9548
-8.7183 7.3606 -1.8797 0.9548
-11.1702 2.9232 -1.9021 0.9543
-11.6594 -0.1301 -1.9209 0.9538
-11.6779 -1.1741 -1.9335 0.9535
-11.5829 -2.2185 -1.9428 0.9533
-11.3972 -3.2561 -1.9527 0.9531
-11.1207 -4.2790 -1.9630 0.9528
-10.2985 -6.2491 -1.9845 0.9523
-9.1302 -8.0641 -2.0068 0.9518
-8.4238 -8.8936 -2.0180 0.9516
-7.6417 -9.6606 -2.0292 0.9513
-4.8971 -11.5147 -2.0613 0.9505
-3.8724 -11.9620 -2.0713 0.9503
-2.7964 -12.2724 -2.0736 0.9503
-1.5865 -11.6807 -1.9419 0.9533
0.5083 -11.7902 -1.9441 0.9533
1.5594 -11.7337 -1.9500 0.9531
4.7099 -11.1635 -1.9960 0.9521
5.9760 -11.2503 -2.0986 0.9497
5.0965 -7.8245 -1.5383 0.9629
5.1974 -6.6095 -1.3852 0.9665
5.2806 -5.6073 -1.2689 0.9693
6.2198 -5.5255 -1.3706 0.9668
6.2495 -3.0904 -1.1485 0.9721
11.9122 -4.6230 -2.1050 0.9495
12.4520 -2.4221 -2.0898 0.9499
12.5741 -0.1765 -2.0716 0.9503
12.4798 0.9378 -2.0617 0.9505
12.2848 2.0335 -2.0513 0.9508
11.9922 3.1016 -2.0406 0.9510
11.6060 4.1332 -2.0296 0.9513
5.3791 9.4748 -1.7949 0.9568
3.5818 10.1816 -1.7781 0.9572
2.6509 10.4152 -1.7705 0.9574
0.7583 10.6394 -1.7572 0.9577
-5.9748 9.6987 -1.8766 0.9549
-7.5997 8.4886 -1.8770 0.9549
-9.6068 6.2048 -1.8840 0.9547
-11.2919 2.4932 -1.9050 0.9542
-11.6478 -1.6278 -1.9375 0.9534
-11.2883 -3.7024 -1.9571 0.9530
-10.5671 -5.7045 -1.9783 0.9525
0.0491 -11.0696 -2.0807 0.9559
2.0187 -10.9373 -2.0905 0.9557
5.9663 -8.2224 -1.9095 0.9595
5.2462 -6.0208 -1.5010 0.9680
5.5620 -4.4608 -1.3401 0.9714
5.7083 -3.7967 -1.2886 0.9725
10.2181 -4.4271 -2.0931 0.9557
10.5415 -3.4911 -2.0872 0.9558
10.7757 -2.5318 -2.0806 0.9559
10.9197 -1.5580 -2.0733 0.9561
10.9361 0.3978 -2.0569 0.9564
10.8106 1.3628 -2.0481 0.9566
10.5987 2.3082 -2.0388 0.9568
10.3032 3.2264 -2.0293 0.9570
9.9279 4.1101 -2.0196 0.9572
8.3672 6.4889 -1.9902 0.9578
7.7163 7.1694 -1.9798 0.9580
6.8857 7.6467 -1.9341 0.9590
5.8217 7.7535 -1.8224 0.9613
5.0575 8.1571 -1.8040 0.9617
4.2934 8.5374 -1.7962 0.9619
3.5028 8.8488 -1.7888 0.9620
2.6916 9.0899 -1.7819 0.9622
-1.5819 9.9720 -1.8978 0.9597
-2.4614 9.7882 -1.8971 0.9598
-3.3170 9.5161 -1.8942 0.9598
-4.9411 8.7619 -1.8907 0.9599
-6.4138 7.7466 -1.8904 0.9599
-7.0810 7.1493 -1.8913 0.9599
-8.2541 5.7950 -1.8956 0.9598
-8.7518 5.0468 -1.8989 0.9597
-10.0682 1.6964 -1.9191 0.9593
-10.2835 -0.1148 -1.9330 0.9590
-10.1843 -1.9506 -1.9490 0.9587
-9.0316 -5.4803 -1.9857 0.9579
-8.5502 -6.2924 -1.9954 0.9577
-7.9959 -7.0624 -2.0052 0.9575
-5.9333 -9.0523 -2.0344 0.9569
-4.2743 -10.0503 -2.0528 0.9565
-2.4463 -10.7357 -2.0696 0.9562
-0.5083 -11.0526 -2.0797 0.9560
1.4542 -10.9424 -2.0748 0.9561
2.4440 -10.8697 -2.0941 0.9557
3.4155 -10.6552 -2.1031 0.9555
4.3581 -10.3297 -2.1073 0.9554
5.2805 -5.6072 -1.4477 0.9691
6.2179 -5.5238 -1.5633 0.9667
5.6262 -4.1655 -1.3158 0.9719
5.7808 -3.5305 -1.2732 0.9728
6.1008 -3.0168 -1.2793 0.9727
10.9539 -1.1331 -2.0699 0.9562
10.4805 2.7106 -2.0347 0.9569
9.2587 5.3037 -2.0056 0.9575
8.7075 6.0761 -1.9958 0.9577
7.4031 7.4317 -1.9717 0.9582
6.4084 7.6949 -1.8822 0.9601
3.1528 8.9621 -1.7857 0.9621
2.3346 9.1724 -1.7790 0.9622
1.5045 9.3112 -1.7728 0.9623
-2.8358 9.6789 -1.8957 0.9598
-3.6802 9.3758 -1.8932 0.9598
-5.2750 8.5629 -1.8904 0.9599
-7.3545 6.8728 -1.8920 0.9599
-7.9453 6.1984 -1.8941 0.9598
-8.9481 4.7089 -1.9006 0.9597
-9.3526 3.9035 -1.9049 0.9596
-9.6881 3.0644 -1.9099 0.9595
-10.1412 1.3080 -1.9219 0.9592
-10.2890 -0.5129 -1.9363 0.9589
-10.2447 -1.4317 -1.9443 0.9588
-10.1206 -2.3472 -1.9528 0.9586
-9.9165 -3.2525 -1.9616 0.9584
-9.6328 -4.1406 -1.9708 0.9582
-9.2707 -5.0047 -1.9802 0.9580
0.0436 -9.8259 -2.0770 0.9606
1.7916 -9.7073 -2.0866 0.9604
2.6524 -9.5263 -2.0903 0.9604
3.4938 -9.2655 -2.0931 0.9603
5.0879 -8.5135 -2.0965 0.9603
5.5297 -4.4349 -1.4984 0.9714
9.0364 -3.9151 -2.0817 0.9605
9.3254 -3.0883 -2.0765 0.9606
9.6674 -1.3794 -2.0642 0.9609
9.7188 -0.5125 -2.0572 0.9610
9.6907 0.3525 -2.0498 0.9611
9.5842 1.2082 -2.0419 0.9613
9.4011 2.0474 -2.0338 0.9614
8.8155 3.6496 -2.0168 0.9617
8.4195 4.4000 -2.0081 0.9619
7.9602 5.1089 -1.9994 0.9621
7.4418 5.7713 -1.9907 0.9622
6.2479 6.9384 -1.9736 0.9625
5.5769 7.4274 -1.9633 0.9627
2.4059 8.1253 -1.7912 0.9659
1.6766 8.3204 -1.7941 0.9659
-0.6176 9.0311 -1.9134 0.9637
-3.7072 8.2034 -1.9029 0.9639
-4.4191 7.8362 -1.9017 0.9639
-5.0970 7.4102 -1.9011 0.9639
-8.7951 2.3017 -1.9217 0.9635
-9.1627 -0.9212 -1.9466 0.9631
-8.0348 -4.8755 -1.9866 0.9623
-6.5479 -6.9130 -2.0127 0.9618
-5.2642 -8.0315 -2.0299 0.9615
-4.5477 -8.5023 -2.0381 0.9613
-3.7884 -8.9078 -2.0461 0.9612
-2.1662 -9.5064 -2.0610 0.9609
-1.3165 -9.6928 -2.0677 0.9608
-0.4507 -9.8005 -2.0738 0.9607
0.4237 -9.8278 -2.0793 0.9606
1.2989 -9.7738 -2.0842 0.9605
2.1671 -9.6386 -2.0883 0.9604
3.0205 -9.4227 -2.0916 0.9604
4.6513 -8.7565 -2.0959 0.9603
5.4137 -8.3116 -2.0967 0.9603
6.7978 -7.2184 -2.0959 0.9603
6.2160 -5.5221 -1.7575 0.9666
5.7674 -3.5223 -1.4285 0.9727
6.0241 -2.9789 -1.4205 0.9729
9.1713 -3.5593 -2.0795 0.9606
9.4265 -2.7224 -2.0740 0.9607
9.6029 -1.8679 -2.0679 0.9608
9.7163 -0.1364 -2.0540 0.9611
9.0098 3.2087 -2.0217 0.9617
7.7421 5.4024 -1.9956 0.9621
7.1997 6.0431 -1.9869 0.9623
5.9643 7.1616 -1.9701 0.9626
4.4566 7.8498 -1.9081 0.9638
3.6114 7.9306 -1.8420 0.9650
1.3609 8.4228 -1.8035 0.9657
0.6222 8.7305 -1.8501 0.9648
-0.1618 9.0419 -1.9116 0.9637
-3.2910 8.3841 -1.9039 0.9638
-4.0201 8.0514 -1.9023 0.9639
-5.3795 7.2077 -1.9011 0.9639
-6.5771 6.1462 -1.9028 0.9639
-7.1046 5.5425 -1.9047 0.9638
-7.9983 4.2091 -1.9105 0.9637
-8.3579 3.4883 -1.9144 0.9637
-9.1513 0.3592 -1.9359 0.9632
-8.8338 -2.8974 -1.9652 0.9627
-8.5767 -3.6867 -1.9733 0.9626
-7.8552 -5.1921 -1.9904 0.9622
0.0390 -8.8006 -2.0684 0.9645
2.3741 -8.5266 -2.0802 0.9643
5.2128 -7.1839 -2.0860 0.9642
5.4902 -4.4032 -1.6540 0.9715
5.6795 -3.7775 -1.6031 0.9724
5.8662 -3.1886 -1.5692 0.9729
8.0916 -3.5058 -2.0725 0.9644
8.3526 -2.7662 -2.0679 0.9645
8.5438 -2.0074 -2.0627 0.9646
8.6643 -1.2362 -2.0569 0.9647
8.6915 0.3161 -2.0440 0.9649
8.2111 2.5713 -2.0222 0.9653
7.9196 3.2787 -2.0145 0.9654
7.1575 4.5938 -1.9988 0.9657
6.6944 5.1916 -1.9910 0.9658
5.6252 6.2469 -1.9757 0.9660
4.3971 7.0921 -1.9612 0.9663
2.3411 7.9061 -1.9379 0.9667
0.9000 8.1638 -1.9303 0.9668
0.1702 8.1947 -1.9264 0.9669
-0.5580 8.1600 -1.9223 0.9670
-1.2790 8.0631 -1.9187 0.9670
-1.9879 7.9053 -1.9158 0.9671
-3.3496 7.4123 -1.9117 0.9671
-4.6059 6.6962 -1.9101 0.9672
-5.7221 5.7773 -1.9111 0.9671
-6.2179 5.2496 -1.9125 0.9671
-7.7055 2.7692 -1.9244 0.9669
-7.9393 2.0777 -1.9288 0.9668
-8.1820 -1.5671 -1.9579 0.9663
-8.0389 -2.2966 -1.9649 0.9662
-7.5614 -3.7121 -1.9797 0.9660
-5.8837 -6.2118 -2.0108 0.9655
-5.3285 -6.7362 -2.0186 0.9653
-4.7261 -7.2105 -2.0262 0.9652
-2.6833 -8.2889 -2.0476 0.9648
-1.9417 -8.5214 -2.0541 0.9647
0.3794 -8.8013 -2.0704 0.9644
1.1630 -8.7509 -2.0747 0.9644
1.9399 -8.6280 -2.0784 0.9643
3.4463 -8.1685 -2.0836 0.9642
4.8441 -7.4370 -2.0859 0.9642
5.4575 -4.8483 -1.7157 0.9704
5.5936 -4.1414 -1.6357 0.9718
5.9886 -2.9613 -1.5701 0.9729
8.6049 -1.6737 -2.0602 0.9646
8.6944 -0.8993 -2.0543 0.9647
8.7126 -0.1223 -2.0479 0.9648
8.6600 0.6508 -2.0410 0.9649
8.3478 2.1590 -2.0265 0.9652
8.0922 2.8819 -2.0189 0.9653
7.7739 3.5763 -2.0111 0.9655
7.3962 4.2368 -2.0033 0.9656
5.3708 6.4490 -1.9725 0.9661
4.7585 6.8756 -1.9652 0.9662
2.7417 7.7934 -1.9417 0.9666
-0.1465 8.1873 -1.9245 0.9669
-2.2906 7.8181 -1.9147 0.9671
-2.9735 7.5752 -1.9126 0.9671
-3.6325 7.2752 -1.9111 0.9671
-5.4224 6.0565 -1.9105 0.9671
-6.4188 5.0075 -1.9133 0.9671
-6.8470 4.4223 -1.9157 0.9671
-7.5475 3.1501 -1.9221 0.9670
-7.8142 2.4717 -1.9262 0.9669
-8.0223 1.7713 -1.9308 0.9668
-8.1697 1.0537 -1.9360 0.9667
-8.2768 -0.4126 -1.9476 0.9665
-7.4247 -4.0082 -1.9830 0.9659
-7.0663 -4.6706 -1.9907 0.9658
0.7445 -7.9423 -2.0654 0.9676
1.4503 -7.8581 -2.0690 0.9675
3.4847 -7.2208 -2.0759 0.9674
5.4891 -4.4023 -1.8218 0.9713
5.6835 -3.7801 -1.7673 0.9722
7.3183 -3.1707 -2.0650 0.9676
7.5560 -2.5023 -2.0609 0.9676
7.7308 -1.8164 -2.0562 0.9677
7.8419 -1.1189 -2.0510 0.9678
7.8712 0.2863 -2.0393 0.9680
7.4436 2.3310 -2.0196 0.9683
7.1820 2.9733 -2.0126 0.9684
6.4956 4.1689 -1.9984 0.9686
5.6144 5.2165 -1.9843 0.9688
5.1105 5.6753 -1.9774 0.9689
3.9974 6.4474 -1.9642 0.9691
2.7749 7.0101 -1.9521 0.9693
1.4811 7.3503 -1.9414 0.9695
0.8197 7.4348 -1.9367 0.9696
-0.5082 7.4316 -1.9287 0.9697
-2.4415 7.0044 -1.9206 0.9698
-3.0522 6.7540 -1.9190 0.9698
-4.1972 6.1019 -1.9176 0.9699
-4.7235 5.7050 -1.9177 0.9699
-5.2141 5.2644 -1.9185 0.9698
-6.0743 4.2646 -1.9217 0.9698
-6.7527 3.1300 -1.9271 0.9697
-7.0171 2.5217 -1.9306 0.9697
-7.3852 1.2443 -1.9391 0.9695
-7.5286 -0.0840 -1.9494 0.9694
-6.8682 -3.3717 -1.9810 0.9689
-6.5642 -3.9831 -1.9880 0.9688
-6.2060 -4.5672 -1.9951 0.9687
-5.3366 -5.6342 -2.0093 0.9684
-2.4297 -7.5054 -2.0426 0.9679
-1.7576 -7.7136 -2.0484 0.9678
-1.0676 -7.8600 -2.0538 0.9678
0.3432 -7.9610 -2.0632 0.9676
1.0517 -7.9138 -2.0670 0.9676
1.7541 -7.8013 -2.0703 0.9675
3.1153 -7.3841 -2.0751 0.9674
3.7621 -7.0825 -2.0764 0.9674
4.3784 -6.7221 -2.0771 0.9674
4.9589 -6.3062 -2.0771 0.9674
5.9917 -5.3229 -2.0751 0.9674
5.5943 -4.1419 -1.8023 0.9716
7.6397 -2.2064 -2.0589 0.9677
7.8701 -0.8141 -2.0486 0.9678
7.8889 -0.1107 -2.0428 0.9679
7.8438 0.5894 -2.0366 0.9680
7.7357 1.2805 -2.0302 0.9681
7.5661 1.9568 -2.0235 0.9682
7.3370 2.6129 -2.0166 0.9683
7.0510 3.2437 -2.0095 0.9684
6.7108 3.8442 -2.0024 0.9685
6.3199 4.4100 -1.9953 0.9687
5.8817 4.9369 -1.9882 0.9688
4.8801 5.8598 -1.9744 0.9690
3.7401 6.5879 -1.9614 0.9692
3.1297 6.8730 -1.9554 0.9693
1.8522 7.2771 -1.9442 0.9694
1.1947 7.3941 -1.9393 0.9695
0.5312 7.4536 -1.9348 0.9696
-0.7944 7.4008 -1.9272 0.9697
-1.4471 7.2895 -1.9242 0.9698
-2.0869 7.1228 -1.9217 0.9698
-2.7093 6.9021 -1.9198 0.9698
-3.8848 6.3062 -1.9177 0.9699
-5.4151 5.0603 -1.9190 0.9698
-6.2378 4.0288 -1.9227 0.9698
-6.5805 3.4630 -1.9253 0.9697
-7.1155 2.2507 -1.9323 0.9696
-7.3034 1.6126 -1.9365 0.9696
-7.4358 0.9590 -1.9412 0.9695
-7.5114 0.2948 -1.9463 0.9694
-7.5292 -0.3753 -1.9519 0.9693
-7.4885 -1.0465 -1.9577 0.9692
-7.3891 -1.7137 -1.9639 0.9691
-7.2312 -2.3717 -1.9704 0.9690
-7.0155 -3.0156 -1.9771 0.9689
-6.7430 -3.6401 -1.9840 0.9688
0.0322 -7.2604 -2.0554 0.9703
1.3223 -7.1641 -2.0624 0.9702
1.9566 -7.0273 -2.0651 0.9701
2.5764 -6.8325 -2.0672 0.9701
3.7503 -6.2753 -2.0696 0.9701
4.2940 -5.9178 -2.0699 0.9701
4.8025 -5.5116 -2.0695 0.9701
5.4880 -4.4014 -1.9915 0.9712
5.9226 -3.2193 -1.9083 0.9724
7.0519 -1.6569 -2.0507 0.9703
7.1548 -1.0209 -2.0460 0.9704
7.1851 0.2613 -2.0354 0.9706
6.9845 1.5211 -2.0236 0.9707
6.8006 2.1296 -2.0174 0.9708
6.5635 2.7173 -2.0110 0.9709
5.5592 4.3112 -1.9916 0.9712
5.1371 4.7730 -1.9851 0.9713
4.6774 5.1944 -1.9788 0.9714
4.1839 5.5723 -1.9727 0.9714
3.6608 5.9044 -1.9667 0.9715
1.3577 6.7379 -1.9458 0.9718
-0.4661 6.8161 -1.9341 0.9720
-1.0687 6.7373 -1.9311 0.9720
-2.2401 6.4265 -1.9267 0.9721
-2.8006 6.1972 -1.9252 0.9721
-4.3343 5.2350 -1.9240 0.9721
-5.1982 4.3887 -1.9259 0.9721
-6.1939 2.8710 -1.9326 0.9720
-6.6281 1.7346 -1.9396 0.9719
-6.7705 1.1407 -1.9437 0.9719
-6.8611 0.5354 -1.9482 0.9718
-6.8989 -0.0770 -1.9532 0.9717
-6.8832 -0.6920 -1.9584 0.9717
-6.8138 -1.3051 -1.9640 0.9716
-6.6906 -1.9114 -1.9698 0.9715
-6.5141 -2.5065 -1.9759 0.9714
-6.2852 -3.0855 -1.9821 0.9713
-6.0052 -3.6439 -1.9885 0.9712
-5.6758 -4.1770 -1.9950 0.9711
-5.2991 -4.6804 -2.0015 0.9710
-3.3768 -6.3133 -2.0268 0.9707
-2.8102 -6.6077 -2.0327 0.9706
-2.2176 -6.8503 -2.0383 0.9705
-1.6038 -7.0386 -2.0436 0.9704
-0.9739 -7.1705 -2.0486 0.9704
0.3130 -7.2597 -2.0571 0.9702
0.9589 -7.2155 -2.0606 0.9702
1.5991 -7.1119 -2.0636 0.9702
2.8395 -6.7302 -2.0679 0.9701
3.4287 -6.4549 -2.0691 0.9701
4.5193 -5.7472 -2.0698 0.9701
6.2213 -3.7996 -2.0637 0.9701
5.9668 -2.9506 -1.8844 0.9727
6.7746 -2.6291 -2.0572 0.9702
6.9680 -2.0124 -2.0532 0.9703
7.1813 -0.7428 -2.0438 0.9704
7.1610 0.5381 -2.0329 0.9706
7.0642 1.1694 -2.0270 0.9707
5.7799 4.0332 -1.9952 0.9711
5.3808 4.5165 -1.9888 0.9712
4.9420 4.9611 -1.9824 0.9713
4.4671 5.3639 -1.9761 0.9714
3.4255 6.0338 -1.9642 0.9716
2.8672 6.2965 -1.9586 0.9716
2.2898 6.5090 -1.9533 0.9717
1.6976 6.6699 -1.9484 0.9718
0.4871 6.8345 -1.9397 0.9719
-0.7286 6.7883 -1.9328 0.9720
-1.3275 6.6870 -1.9300 0.9721
-1.9146 6.5348 -1.9277 0.9721
-2.4858 6.3329 -1.9260 0.9721
-3.5648 5.7866 -1.9240 0.9721
-4.0649 5.4462 -1.9239 0.9721
-4.5339 5.0642 -1.9242 0.9721
-5.3658 4.1861 -1.9266 0.9721
-6.3046 2.6313 -1.9340 0.9720
-6.6962 1.4785 -1.9413 0.9719
-6.8841 0.2702 -1.9503 0.9718
-6.8987 -0.3439 -1.9554 0.9717
-6.8597 -0.9586 -1.9608 0.9716
-6.6204 -2.1714 -1.9724 0.9715
-6.4211 -2.7601 -1.9786 0.9714
-5.8682 -3.8787 -1.9913 0.9712
0.6232 -6.6482 -2.0538 0.9724
1.2137 -6.5759 -2.0568 0.9724
2.9145 -6.0392 -2.0625 0.9723
3.9403 -5.4303 -2.0636 0.9723
4.4069 -5.0576 -2.0633 0.9723
4.8371 -4.6437 -2.0624 0.9723
5.5740 -3.7073 -2.0590 0.9724
6.4759 -1.5215 -2.0461 0.9725
6.5717 -0.9377 -2.0418 0.9726
6.6138 -0.3488 -2.0371 0.9727
6.5377 0.8241 -2.0268 0.9728
6.4209 1.3984 -2.0212 0.9729
5.4661 3.5082 -1.9977 0.9732
5.1171 3.9685 -1.9918 0.9733
4.7299 4.3947 -1.9858 0.9733
3.3731 5.4404 -1.9689 0.9736
2.8682 5.7035 -1.9636 0.9736
2.3437 5.9208 -1.9586 0.9737
1.8036 6.0911 -1.9539 0.9738
1.2520 6.2135 -1.9495 0.9738
0.6931 6.2873 -1.9456 0.9739
0.1311 6.3123 -1.9419 0.9739
-0.9861 6.2166 -1.9360 0.9740
-1.5332 6.0970 -1.9337 0.9740
-2.5847 5.7196 -1.9305 0.9741
-3.0817 5.4647 -1.9297 0.9741
-4.4157 4.4583 -1.9301 0.9741
-5.1429 3.6107 -1.9328 0.9740
-5.4495 3.1425 -1.9349 0.9740
-5.9369 2.1335 -1.9404 0.9739
-6.1138 1.6000 -1.9438 0.9739
-6.2441 1.0521 -1.9476 0.9738
-6.2789 -1.2026 -1.9664 0.9736
-5.2238 -3.8444 -1.9949 0.9732
-2.0375 -6.2938 -2.0348 0.9727
-1.4733 -6.4655 -2.0396 0.9726
-0.3059 -6.6522 -2.0482 0.9725
2.6057 -6.1762 -2.0618 0.9723
3.1464 -5.9233 -2.0630 0.9723
4.1471 -5.2738 -2.0636 0.9723
5.3833 -3.9857 -2.0602 0.9724
6.2197 -2.4138 -2.0521 0.9725
5.9282 2.7272 -2.0071 0.9731
5.6454 3.2339 -2.0011 0.9731
4.9536 4.1578 -1.9892 0.9733
2.6427 5.8035 -1.9614 0.9737
0.4493 6.3042 -1.9439 0.9739
-0.1128 6.3080 -1.9405 0.9739
-0.6723 6.2633 -1.9375 0.9740
-1.7669 6.0306 -1.9328 0.9740
-3.2902 5.3409 -1.9294 0.9741
-3.7518 5.0268 -1.9293 0.9741
-4.1847 4.6741 -1.9296 0.9741
-4.9520 3.8633 -1.9318 0.9741
-6.0193 1.9040 -1.9418 0.9739
-6.1762 1.3637 -1.9454 0.9739
-6.2858 0.8107 -1.9494 0.9738
-6.3471 0.2491 -1.9537 0.9738
-6.3220 -0.8835 -1.9634 0.9736
-6.2351 -1.4460 -1.9687 0.9736
0.0273 -6.1553 -2.0461 0.9744
0.5754 -6.1380 -2.0492 0.9743
1.1204 -6.0705 -2.0520 0.9743
1.6576 -5.9534 -2.0542 0.9743
3.6365 -5.0117 -2.0583 0.9742
4.0672 -4.6678 -2.0580 0.9742
4.4644 -4.2860 -2.0572 0.9743
4.8248 -3.8695 -2.0559 0.9743
5.4230 -2.9477 -2.0517 0.9743
5.6560 -2.4505 -2.0490 0.9744
5.8423 -1.9348 -2.0457 0.9744
6.0700 -0.8661 -2.0381 0.9745
6.0420 0.7616 -2.0243 0.9747
5.9354 1.2926 -2.0192 0.9747
5.5828 2.3112 -2.0085 0.9749
5.0572 3.2457 -1.9975 0.9750
4.3780 4.0677 -1.9865 0.9751
3.9881 4.4288 -1.9811 0.9752
2.6571 5.2835 -1.9659 0.9754
2.1716 5.4859 -1.9612 0.9754
1.6714 5.6447 -1.9569 0.9755
1.1605 5.7590 -1.9528 0.9755
-0.3987 5.8310 -1.9428 0.9757
-0.9145 5.7649 -1.9402 0.9757
-2.3974 5.3050 -1.9351 0.9758
-2.8584 5.0688 -1.9343 0.9758
-3.7107 4.4818 -1.9341 0.9758
-4.4497 3.7567 -1.9357 0.9758
-5.0537 2.9142 -1.9392 0.9757
-5.2993 2.4563 -1.9415 0.9757
-5.5046 1.9782 -1.9443 0.9756
-5.7878 0.9752 -1.9510 0.9756
-5.8633 0.4576 -1.9549 0.9755
-5.8935 -0.0658 -1.9591 0.9755
-5.7083 -1.6308 -1.9734 0.9753
-5.3576 -2.6302 -1.9839 0.9752
-5.1165 -3.1046 -1.9894 0.9751
-4.5105 -3.9839 -2.0004 0.9750
-3.7540 -4.7458 -2.0114 0.9748
-2.3865 -5.6113 -2.0269 0.9746
-1.8824 -5.8149 -2.0317 0.9746
-1.3609 -5.9724 -2.0361 0.9745
0.2653 -6.1539 -2.0475 0.9744
0.8126 -6.1148 -2.0505 0.9743
1.3548 -6.0258 -2.0530 0.9743
1.8872 -5.8873 -2.0551 0.9743
2.9039 -5.4668 -2.0577 0.9742
3.3794 -5.1883 -2.0582 0.9742
4.2440 -4.5065 -2.0577 0.9742
4.6256 -4.1092 -2.0567 0.9743
5.5297 -2.7344 -2.0506 0.9743
5.7427 -2.2287 -2.0476 0.9744
5.9083 -1.7064 -2.0442 0.9744
6.1119 -0.0858 -2.0318 0.9746
6.0811 0.4570 -2.0271 0.9746
6.0016 0.9935 -2.0221 0.9747
5.7008 2.0302 -2.0116 0.9748
5.2224 2.9916 -2.0006 0.9749
4.9220 3.4346 -1.9951 0.9750
3.8095 4.5743 -1.9788 0.9752
2.9239 5.1501 -1.9686 0.9753
1.4508 5.6998 -1.9551 0.9755
0.4165 5.8443 -1.9476 0.9756
-0.6234 5.8078 -1.9416 0.9757
-1.1360 5.7223 -1.9392 0.9757
-2.1279 5.4209 -1.9358 0.9758
-3.4800 4.6627 -1.9340 0.9758
-4.2534 3.9747 -1.9351 0.9758
-4.8976 3.1632 -1.9380 0.9757
-5.8261 0.7514 -1.9527 0.9755
-5.8820 0.2309 -1.9567 0.9755
-5.8923 -0.2937 -1.9611 0.9754
-5.8566 -0.8185 -1.9657 0.9754
-5.7749 -1.3393 -1.9706 0.9753
-5.4749 -2.3534 -1.9809 0.9752
-5.2582 -2.8386 -1.9863 0.9751
-4.9987 -3.3040 -1.9917 0.9751
1.5375 -5.5221 -2.0499 0.9759
2.4948 -5.1696 -2.0527 0.9759
2.9456 -4.9289 -2.0534 0.9759
4.1406 -3.9751 -2.0526 0.9759
4.4750 -3.5890 -2.0514 0.9759
4.7725 -3.1742 -2.0497 0.9759
5.2472 -2.2734 -2.0450 0.9760
5.4207 -1.7952 -2.0420 0.9760
5.6335 -0.8038 -2.0350 0.9761
5.3705 1.6818 -2.0125 0.9764
4.7002 3.0167 -1.9972 0.9766
4.4020 3.4139 -1.9921 0.9766
4.0706 3.7821 -1.9870 0.9767
3.7087 4.1186 -1.9820 0.9767
3.3196 4.4212 -1.9771 0.9768
2.9063 4.6876 -1.9724 0.9768
2.0209 5.1052 -1.9635 0.9769
1.5557 5.2538 -1.9594 0.9770
0.1131 5.4492 -1.9491 0.9771
-0.8517 5.3688 -1.9439 0.9772
-1.3243 5.2664 -1.9419 0.9772
-1.7859 5.1236 -1.9404 0.9772
-2.2331 4.9415 -1.9392 0.9772
-3.0714 4.4653 -1.9381 0.9772
-3.8151 3.8520 -1.9388 0.9772
-4.1446 3.4992 -1.9397 0.9772
-4.4426 3.1190 -1.9411 0.9772
-4.7067 2.7141 -1.9429 0.9772
-5.2772 1.3810 -1.9507 0.9771
-5.3882 0.9078 -1.9540 0.9771
-5.4694 -0.5499 -1.9658 0.9769
-5.1666 -1.9880 -1.9797 0.9768
-4.9818 -2.4457 -1.9846 0.9767
-4.7567 -2.8863 -1.9897 0.9766
-4.4928 -3.3064 -1.9948 0.9766
-4.1917 -3.7023 -2.0000 0.9765
-3.4873 -4.4086 -2.0102 0.9764
-2.6641 -4.9808 -2.0199 0.9763
-2.2157 -5.2099 -2.0246 0.9762
-1.2631 -5.5433 -2.0331 0.9761
-0.7666 -5.6443 -2.0370 0.9761
-0.2621 -5.7000 -2.0405 0.9761
0.2461 -5.7095 -2.0436 0.9760
0.7539 -5.6726 -2.0464 0.9760
1.7504 -5.4607 -2.0506 0.9759
2.6932 -5.0702 -2.0531 0.9759
3.5496 -4.5140 -2.0536 0.9759
3.9360 -4.1796 -2.0531 0.9759
4.2901 -3.8112 -2.0521 0.9759
4.8895 -2.9862 -2.0488 0.9760
5.1298 -2.5367 -2.0465 0.9760
5.3279 -2.0677 -2.0438 0.9760
5.4822 -1.5833 -2.0406 0.9761
5.6556 -0.5850 -2.0333 0.9761
5.5731 0.9225 -2.0201 0.9763
4.5750 3.1924 -1.9950 0.9766
2.2783 5.0031 -1.9659 0.9769
1.8204 5.1748 -1.9617 0.9770
1.3504 5.3055 -1.9578 0.9770
0.3878 5.4414 -1.9508 0.9771
-1.5263 5.2093 -1.9412 0.9772
-2.4219 4.8506 -1.9388 0.9772
-3.2417 4.3433 -1.9381 0.9772
-3.9619 3.7024 -1.9391 0.9772
-4.8103 2.5314 -1.9439 0.9772
-5.3304 1.1769 -1.9521 0.9771
-5.4494 -0.7615 -1.9677 0.9769
-5.3724 -1.2460 -1.9722 0.9768
-5.2529 -1.7229 -1.9769 0.9768
-5.0914 -2.1885 -1.9818 0.9767
0.0236 -5.3208 -2.0390 0.9775
0.4973 -5.3047 -2.0418 0.9774
1.4321 -5.1435 -2.0461 0.9774
1.8852 -4.9995 -2.0476 0.9774
2.3235 -4.8146 -2.0487 0.9774
2.7433 -4.5904 -2.0493 0.9774
3.1410 -4.3287 -2.0495 0.9774
3.5130 -4.0318 -2.0493 0.9774
3.8563 -3.7022 -2.0486 0.9774
4.4453 -2.9566 -2.0459 0.9774
4.8882 -2.1179 -2.0415 0.9774
5.2793 0.1920 -2.0245 0.9776
5.2304 0.6593 -2.0203 0.9777
5.1398 1.1194 -2.0158 0.9777
4.3857 2.8148 -1.9970 0.9779
2.7141 4.3775 -1.9738 0.9782
2.3091 4.5916 -1.9696 0.9782
1.4534 4.9084 -1.9617 0.9783
1.0094 5.0092 -1.9582 0.9783
0.1057 5.0927 -1.9520 0.9784
-1.2380 4.9231 -1.9453 0.9785
-1.6696 4.7898 -1.9439 0.9785
-2.4893 4.4142 -1.9421 0.9785
-2.8716 4.1748 -1.9418 0.9785
-3.8747 3.2713 -1.9433 0.9785
-4.3997 2.5371 -1.9463 0.9785
-4.6128 2.1381 -1.9484 0.9785
-4.7906 1.7216 -1.9508 0.9784
-5.0349 0.8483 -1.9566 0.9784
-2.3041 0.1798 -0.8857 0.9901
-2.3035 -0.2316 -0.8872 0.9901
-4.8237 -1.8561 -1.9806 0.9781
-4.4395 -2.6938 -1.9900 0.9780
-3.9108 -3.4542 -1.9996 0.9779
-2.8806 -4.3948 -2.0137 0.9777
-1.6288 -5.0314 -2.0266 0.9776
-1.1772 -5.1661 -2.0305 0.9776
-0.7144 -5.2596 -2.0341 0.9775
-0.2442 -5.3108 -2.0373 0.9775
0.2293 -5.3191 -2.0403 0.9775
0.7023 -5.2843 -2.0428 0.9774
1.1706 -5.2064 -2.0450 0.9774
1.6303 -5.0861 -2.0468 0.9774
2.9189 -4.4813 -2.0495 0.9774
3.3058 -4.2040 -2.0495 0.9774
3.9956 -3.5496 -2.0482 0.9774
4.2927 -3.1782 -2.0468 0.9774
4.7786 -2.3630 -2.0429 0.9774
4.9636 -1.9263 -2.0404 0.9775
5.2883 -0.0742 -2.0268 0.9776
5.2633 0.3955 -2.0227 0.9776
5.1962 0.8601 -2.0184 0.9777
4.9392 1.7590 -2.0093 0.9778
4.5280 2.5938 -1.9998 0.9779
4.2692 2.9790 -1.9950 0.9779
3.9778 3.3388 -1.9902 0.9780
2.9348 4.2406 -1.9763 0.9782
2.1280 4.6732 -1.9678 0.9782
1.2617 4.9570 -1.9602 0.9783
0.8145 5.0408 -1.9568 0.9784
-0.5426 5.0554 -1.9484 0.9785
-1.8529 4.7205 -1.9433 0.9785
-2.6578 4.3144 -1.9419 0.9785
-3.0307 4.0607 -1.9418 0.9785
-3.7040 3.4613 -1.9427 0.9785
-4.2641 2.7541 -1.9453 0.9785
-4.4964 2.3663 -1.9471 0.9785
-4.6944 1.9593 -1.9494 0.9784
-4.8564 1.5361 -1.9519 0.9784
-2.2991 0.0902 -0.8817 0.9902
-5.0171 -1.1635 -1.9737 0.9782
-4.9047 -1.6087 -1.9781 0.9781
-4.7531 -2.0431 -1.9826 0.9781
-4.5634 -2.4635 -1.9873 0.9780
-4.3366 -2.8664 -1.9921 0.9780
0.9051 -4.9037 -2.0409 0.9787
2.5642 -4.2906 -2.0457 0.9786
2.9358 -4.0460 -2.0459 0.9786
3.2836 -3.7685 -2.0457 0.9786
4.3807 -2.3812 -2.0407 0.9787
4.9096 -0.7005 -2.0297 0.9788
4.9440 -0.2607 -2.0263 0.9788
4.8933 0.6168 -2.0186 0.9789
4.6871 1.4678 -2.0102 0.9790
3.8468 2.9833 -1.9924 0.9792
3.5583 3.3061 -1.9879 0.9792
2.1638 4.3027 -1.9711 0.9794
1.3623 4.6007 -1.9638 0.9795
0.9462 4.6957 -1.9605 0.9795
0.5241 4.7538 -1.9574 0.9795
-0.7465 4.7060 -1.9501 0.9796
-1.5658 4.4921 -1.9470 0.9796
-2.3348 4.1401 -1.9453 0.9797
-2.6933 3.9155 -1.9450 0.9797
-3.0309 3.6607 -1.9451 0.9797
-3.3452 3.3775 -1.9456 0.9797
-3.6339 3.0680 -1.9465 0.9797
-4.1259 2.3792 -1.9493 0.9796
-4.6237 1.2100 -1.9561 0.9796
-2.0129 0.1571 -0.8263 0.9913
-2.0691 -0.3963 -0.8622 0.9909
-4.3555 -2.1382 -1.9858 0.9792
-4.1574 -2.5227 -1.9903 0.9792
-3.9254 -2.8889 -1.9947 0.9792
-3.6612 -3.2337 -1.9992 0.9791
-3.3667 -3.5544 -2.0037 0.9791
-3.0440 -3.8482 -2.0081 0.9790
-2.6955 -4.1125 -2.0125 0.9790
-1.5235 -4.7062 -2.0245 0.9788
-1.1009 -4.8316 -2.0281 0.9788
-0.2284 -4.9658 -2.0345 0.9787
0.2144 -4.9731 -2.0373 0.9787
0.6565 -4.9402 -2.0397 0.9787
1.9419 -4.6028 -2.0446 0.9786
2.7282 -4.1886 -2.0459 0.9786
3.7348 -3.3179 -2.0446 0.9786
4.0126 -2.9709 -2.0434 0.9787
4.2575 -2.6002 -2.0418 0.9787
4.4674 -2.2091 -2.0397 0.9787
4.6408 -1.8010 -2.0374 0.9787
4.9237 0.3700 -2.0208 0.9789
4.7608 1.2313 -2.0126 0.9790
4.4481 2.0462 -2.0039 0.9791
3.7250 3.1266 -1.9904 0.9792
3.0985 3.7206 -1.9817 0.9793
2.7495 3.9729 -1.9774 0.9793
2.3804 4.1929 -1.9733 0.9794
1.9942 4.3794 -1.9694 0.9794
1.1826 4.6464 -1.9623 0.9795
0.7635 4.7255 -1.9591 0.9795
-0.0854 4.7725 -1.9536 0.9796
-0.9274 4.6717 -1.9493 0.9796
-1.7378 4.4271 -1.9465 0.9797
-2.1236 4.2531 -1.9456 0.9797
-2.4928 4.0464 -1.9451 0.9797
-2.8425 3.8085 -1.9450 0.9797
-3.1704 3.5412 -1.9453 0.9797
-3.4738 3.2463 -1.9459 0.9797
-4.2165 2.2189 -1.9501 0.9796
-4.4018 1.8372 -1.9522 0.9796
-4.5534 1.4403 -1.9546 0.9796
-2.0884 0.4611 -0.8753 0.9908
-2.0204 0.2606 -0.8337 0.9912
-2.0046 -0.0999 -0.8214 0.9914
-2.0207 -0.2824 -0.8351 0.9912
-4.5948 -1.5070 -1.9791 0.9793
-4.4522 -1.9138 -1.9834 0.9793
-4.2738 -2.3072 -1.9878 0.9792
0.0207 -4.6660 -2.0335 0.9798
0.8487 -4.5985 -2.0380 0.9798
1.2553 -4.5086 -2.0397 0.9798
1.6523 -4.3820 -2.0410 0.9798
2.4042 -4.0230 -2.0425 0.9798
2.7527 -3.7936 -2.0427 0.9798
3.0788 -3.5334 -2.0425 0.9798
3.3798 -3.2447 -2.0419 0.9798
3.8966 -2.5917 -2.0395 0.9798
4.1081 -2.2330 -2.0378 0.9798
4.4289 -1.4667 -2.0333 0.9798
4.6056 -0.6571 -2.0275 0.9799
4.5919 0.5788 -2.0171 0.9800
4.5136 0.9830 -2.0132 0.9800
4.2509 1.7599 -2.0051 0.9801
3.8557 2.4746 -1.9967 0.9802
3.6127 2.8017 -1.9925 0.9802
3.3422 3.1054 -1.9883 0.9803
3.0465 3.3832 -1.9842 0.9803
1.6628 4.2007 -1.9689 0.9805
1.2805 4.3245 -1.9656 0.9805
0.8895 4.4143 -1.9625 0.9805
-0.7020 4.4254 -1.9528 0.9806
-1.0918 4.3417 -1.9511 0.9807
-2.8506 3.4429 -1.9480 0.9807
-3.1462 3.1765 -1.9485 0.9807
-3.4176 2.8854 -1.9493 0.9807
-1.4876 0.5346 -0.6889 0.9931
-1.4722 0.2480 -0.6506 0.9935
-1.4304 -0.0160 -0.6234 0.9938
-1.4690 -0.2814 -0.6519 0.9935
-1.4936 -0.4267 -0.6770 0.9932
-1.5388 -0.5921 -0.7186 0.9928
-4.0913 -2.0085 -1.9863 0.9803
-1.8131 -4.2633 -2.0191 0.9800
-1.0328 -4.5326 -2.0260 0.9799
-0.6267 -4.6136 -2.0292 0.9799
1.0262 -4.5640 -2.0387 0.9798
1.4290 -4.4581 -2.0403 0.9798
1.8208 -4.3158 -2.0415 0.9798
2.1982 -4.1384 -2.0422 0.9798
2.5580 -3.9273 -2.0426 0.9798
2.8971 -3.6843 -2.0427 0.9798
3.2127 -3.4114 -2.0423 0.9798
3.5020 -3.1111 -2.0415 0.9798
3.9924 -2.4383 -2.0388 0.9798
4.1895 -2.0717 -2.0369 0.9798
4.3524 -1.6891 -2.0347 0.9798
4.5706 -0.8890 -2.0293 0.9799
4.6244 -0.4783 -2.0262 0.9799
4.6409 -0.0651 -2.0228 0.9800
4.6201 0.3472 -2.0192 0.9800
4.4684 1.1557 -2.0115 0.9801
4.1759 1.9211 -2.0033 0.9801
3.9802 2.2800 -1.9991 0.9802
3.2168 3.2293 -1.9865 0.9803
2.9109 3.4953 -1.9824 0.9803
2.5834 3.7328 -1.9784 0.9804
2.2369 3.9401 -1.9746 0.9804
0.7178 4.4424 -1.9612 0.9806
0.3195 4.4824 -1.9585 0.9806
-0.0803 4.4874 -1.9560 0.9806
-0.8721 4.3932 -1.9520 0.9806
-1.9972 4.0001 -1.9485 0.9807
-2.3445 3.8057 -1.9480 0.9807
-2.6734 3.5820 -1.9479 0.9807
-2.9817 3.3305 -1.9482 0.9807
-3.2671 3.0531 -1.9488 0.9807
-4.1390 1.7275 -1.9547 0.9806
-1.4938 0.4725 -0.6828 0.9932
-1.4820 0.3272 -0.6614 0.9934
-1.4731 0.1900 -0.6473 0.9935
-1.4470 0.0568 -0.6311 0.9937
-4.1824 -1.7978 -1.9840 0.9803
-4.0143 -2.1671 -1.9881 0.9803
0.7981 -4.3240 -2.0353 0.9808
1.5536 -4.1201 -2.0382 0.9808
2.2604 -3.7824 -2.0396 0.9808
4.0304 -1.7462 -2.0332 0.9808
4.3632 -0.2301 -2.0225 0.9809
4.3593 0.1586 -2.0192 0.9810
4.1404 1.2966 -2.0083 0.9811
4.0010 1.6564 -2.0044 0.9811
3.8303 2.0017 -2.0005 0.9811
3.6300 2.3297 -1.9965 0.9812
3.4016 2.6380 -1.9926 0.9812
3.1473 2.9243 -1.9886 0.9812
2.2509 3.6305 -1.9773 0.9813
1.9157 3.8095 -1.9738 0.9814
1.5667 3.9580 -1.9704 0.9814
1.2067 4.0751 -1.9672 0.9814
0.8383 4.1600 -1.9643 0.9815
0.4644 4.2123 -1.9616 0.9815
0.0879 4.2316 -1.9592 0.9815
-0.2885 4.2180 -1.9570 0.9815
-0.6618 4.1717 -1.9551 0.9816
-1.0293 4.0930 -1.9536 0.9816
-2.0702 3.6710 -1.9508 0.9816
-2.6875 3.2460 -1.9507 0.9816
-3.4531 2.4243 -1.9530 0.9816
-3.6576 2.1092 -1.9544 0.9816
-1.2627 0.5853 -0.6442 0.9939
-1.2625 0.4537 -0.6210 0.9941
-1.2733 0.2145 -0.5977 0.9943
-1.2722 0.0993 -0.5907 0.9944
-1.2743 -0.1281 -0.5928 0.9944
-1.2705 -0.2433 -0.5988 0.9943
-3.8530 -1.8915 -1.9868 0.9813
-2.6893 -3.3998 -2.0065 0.9811
-2.3808 -3.6323 -2.0103 0.9810
-1.3447 -4.1538 -2.0210 0.9809
-0.2015 -4.3804 -2.0298 0.9809
0.1891 -4.3862 -2.0322 0.9808
2.0668 -3.8909 -2.0394 0.9808
2.4050 -3.6924 -2.0397 0.9808
2.7239 -3.4639 -2.0398 0.9808
3.0205 -3.2074 -2.0394 0.9808
3.7540 -2.2927 -2.0361 0.9808
4.0930 -1.5884 -2.0323 0.9808
4.2131 -1.2168 -2.0299 0.9809
4.2989 -0.8362 -2.0272 0.9809
4.3499 -0.4500 -2.0243 0.9809
4.3658 -0.0613 -2.0211 0.9809
4.3467 0.3266 -2.0177 0.9810
4.2050 1.0875 -2.0105 0.9810
3.7469 2.1464 -1.9988 0.9811
3.5342 2.4661 -1.9948 0.9812
3.0294 3.0411 -1.9869 0.9813
2.4335 3.5162 -1.9794 0.9813
1.7658 3.8777 -1.9723 0.9814
1.0476 4.1159 -1.9659 0.9815
0.3011 4.2247 -1.9605 0.9815
-0.0757 4.2297 -1.9582 0.9815
-0.4510 4.2019 -1.9562 0.9815
-1.5408 3.9253 -1.9519 0.9816
-1.8830 3.7712 -1.9511 0.9816
-2.8112 3.1400 -1.9508 0.9816
-1.2484 0.5210 -0.6262 0.9941
-1.2686 0.4013 -0.6159 0.9942
-1.2680 -0.0632 -0.5877 0.9944
-1.2690 -0.2943 -0.6030 0.9943
-1.2673 -0.4157 -0.6174 0.9941
-1.2446 -0.5350 -0.6271 0.9940
-3.7802 -2.0407 -1.9885 0.9812
0.7522 -4.0757 -2.0330 0.9817
1.1125 -3.9956 -2.0345 0.9817
1.8045 -3.7391 -2.0365 0.9817
2.7280 -3.1309 -2.0370 0.9817
2.9949 -2.8751 -2.0364 0.9817
3.4532 -2.2968 -2.0344 0.9817
4.0216 -0.9449 -2.0264 0.9818
4.0844 -0.5828 -2.0238 0.9818
4.1141 -0.2169 -2.0209 0.9818
4.1108 0.1495 -2.0178 0.9818
4.0746 0.5136 -2.0145 0.9819
3.9056 1.2230 -2.0075 0.9819
3.7745 1.5626 -2.0039 0.9820
3.6139 1.8886 -2.0002 0.9820
3.4252 2.1983 -1.9964 0.9820
2.9705 2.7599 -1.9889 0.9821
2.7083 3.0076 -1.9853 0.9821
2.4257 3.2307 -1.9817 0.9822
2.1251 3.4276 -1.9782 0.9822
1.8089 3.5969 -1.9749 0.9822
1.4795 3.7375 -1.9717 0.9823
0.0830 3.9971 -1.9611 0.9823
-0.2725 3.9845 -1.9591 0.9824
-0.6252 3.9410 -1.9573 0.9824
-0.9724 3.8668 -1.9558 0.9824
-1.6403 3.6296 -1.9538 0.9824
-1.9560 3.4684 -1.9532 0.9824
-2.5392 3.0669 -1.9531 0.9824
-2.8025 2.8295 -1.9535 0.9824
-3.4554 1.9926 -1.9566 0.9824
-1.0947 0.5074 -0.5918 0.9946
-1.1358 -0.0127 -0.5572 0.9950
-1.1393 -0.2182 -0.5690 0.9948
-3.4699 -2.1055 -1.9909 0.9821
-2.8068 -2.9633 -2.0021 0.9820
-2.5368 -3.2071 -2.0058 0.9819
-1.9354 -3.6185 -2.0129 0.9819
-1.6087 -3.7825 -2.0163 0.9819
-1.2680 -3.9168 -2.0194 0.9818
0.1782 -4.1346 -2.0300 0.9817
0.5457 -4.1064 -2.0320 0.9817
0.9095 -4.0449 -2.0337 0.9817
1.9479 -3.6670 -2.0368 0.9817
2.2666 -3.4799 -2.0371 0.9817
3.3344 -2.4687 -2.0351 0.9817
3.7134 -1.8363 -2.0321 0.9817
3.9717 -1.1470 -2.0278 0.9818
4.0529 -0.7883 -2.0253 0.9818
4.1013 -0.4242 -2.0225 0.9818
4.1167 -0.0578 -2.0195 0.9818
4.0991 0.3080 -2.0164 0.9819
4.0487 0.6702 -2.0130 0.9819
3.9662 1.0258 -2.0095 0.9819
3.3350 2.3271 -1.9948 0.9820
2.5880 3.1076 -1.9837 0.9821
2.2973 3.3194 -1.9802 0.9822
1.9896 3.5045 -1.9768 0.9822
1.3331 3.7893 -1.9704 0.9823
0.9894 3.8871 -1.9675 0.9823
0.6389 3.9543 -1.9648 0.9823
0.2844 3.9905 -1.9624 0.9823
-0.7767 3.9125 -1.9566 0.9824
-1.7790 3.5630 -1.9535 0.9824
-2.3814 3.1907 -1.9530 0.9824
-2.9101 2.7195 -1.9538 0.9824
-3.1418 2.4510 -1.9546 0.9824
-3.3493 2.1632 -1.9558 0.9824
-1.1090 0.4628 -0.5894 0.9947
-1.1292 0.3572 -0.5810 0.9947
-1.1343 0.2505 -0.5698 0.9948
-1.1442 0.1476 -0.5659 0.9949
-1.1439 -0.1599 -0.5666 0.9949
-1.1326 -0.2627 -0.5703 0.9948
-1.1054 -0.4751 -0.5902 0.9947
-1.1060 -0.5971 -0.6166 0.9944
-3.3887 -2.2398 -1.9925 0.9821
0.0173 -3.9075 -2.0271 0.9825
0.3651 -3.8942 -2.0291 0.9825
1.3829 -3.6674 -2.0334 0.9825
2.0120 -3.3666 -2.0346 0.9825
2.3035 -3.1746 -2.0348 0.9825
3.2616 -2.1693 -2.0321 0.9825
3.4391 -1.8694 -2.0307 0.9825
3.5886 -1.5548 -2.0289 0.9825
3.7992 -0.8926 -2.0246 0.9826
3.8872 -0.2050 -2.0194 0.9826
3.8844 0.1413 -2.0165 0.9826
3.8505 0.4854 -2.0134 0.9827
3.6915 1.1560 -2.0068 0.9827
3.5679 1.4771 -2.0033 0.9827
3.0354 2.3540 -1.9928 0.9828
2.5614 2.8445 -1.9858 0.9829
2.2944 3.0557 -1.9824 0.9829
2.0102 3.2423 -1.9791 0.9830
1.7112 3.4028 -1.9759 0.9830
1.0782 3.6413 -1.9701 0.9830
0.7492 3.7178 -1.9675 0.9831
0.0785 3.7828 -1.9629 0.9831
-1.2415 3.5617 -1.9568 0.9831
-1.5526 3.4358 -1.9559 0.9832
-2.1359 3.1052 -1.9552 0.9832
-2.4036 2.9031 -1.9553 0.9832
-2.6528 2.6784 -1.9557 0.9832
-3.0879 2.1679 -1.9573 0.9831
-0.9544 0.5503 -0.5715 0.9950
-0.9822 0.4553 -0.5616 0.9951
-1.0087 0.3625 -0.5561 0.9952
-1.0199 0.2669 -0.5469 0.9953
-1.0334 0.1741 -0.5437 0.9953
-1.0373 0.0810 -0.5398 0.9953
-1.0312 -0.0115 -0.5350 0.9954
-1.0377 -0.1043 -0.5410 0.9953
-1.0035 -0.3861 -0.5578 0.9952
-0.9732 -0.4777 -0.5624 0.9951
-2.6534 -2.8013 -2.0017 0.9828
-2.3979 -3.0314 -2.0052 0.9827
-2.1224 -3.2381 -2.0086 0.9827
-1.8291 -3.4196 -2.0119 0.9827
-1.5202 -3.5744 -2.0150 0.9826
-0.8654 -3.7981 -2.0209 0.9826
-0.5250 -3.8650 -2.0235 0.9826
-0.1794 -3.9010 -2.0259 0.9826
0.1684 -3.9056 -2.0280 0.9825
0.5155 -3.8787 -2.0299 0.9825
1.1961 -3.7313 -2.0328 0.9825
1.8396 -3.4633 -2.0344 0.9825
3.3420 -2.0411 -2.0315 0.9825
3.6445 -1.4144 -2.0281 0.9825
3.7519 -1.0836 -2.0260 0.9826
3.8735 0.2911 -2.0151 0.9826
3.7486 0.9695 -2.0087 0.9827
3.6414 1.2968 -2.0053 0.9827
3.1533 2.2004 -1.9948 0.9828
2.7041 2.7145 -1.9877 0.9829
2.1730 3.1398 -1.9809 0.9829
1.5774 3.4640 -1.9746 0.9830
1.2613 3.5852 -1.9717 0.9830
0.2691 3.7764 -1.9641 0.9831
-0.4033 3.7569 -1.9602 0.9831
-1.6840 3.3727 -1.9557 0.9832
-1.9768 3.2090 -1.9553 0.9832
-2.5142 2.8082 -1.9554 0.9832
-2.7547 2.5742 -1.9559 0.9832
-2.9739 2.3200 -1.9567 0.9831
-3.1702 2.0475 -1.9578 0.9831
-1.0155 0.3212 -0.5525 0.9952
-1.0259 0.2265 -0.5450 0.9953
-1.0368 0.1337 -0.5423 0.9953
-1.0347 0.0406 -0.5372 0.9953
-1.0357 -0.0516 -0.5380 0.9953
-0.9922 -0.4265 -0.5603 0.9951
-0.9554 -0.5157 -0.5632 0.9951
-3.2043 -2.1179 -1.9926 0.9828
0.3455 -3.6852 -2.0272 0.9833
1.3085 -3.4702 -2.0313 0.9832
1.6125 -3.3413 -2.0320 0.9832
1.9037 -3.1854 -2.0325 0.9832
2.1795 -3.0037 -2.0326 0.9832
2.4378 -2.7977 -2.0324 0.9832
2.6763 -2.5693 -2.0319 0.9832
2.8930 -2.3202 -2.0312 0.9832
3.0862 -2.0527 -2.0301 0.9832
3.2543 -1.7689 -2.0287 0.9832
3.3960 -1.4713 -2.0271 0.9833
1.8708 -0.6196 -1.0794 0.9911
1.8864 -0.4432 -1.0613 0.9912
1.8884 -0.2694 -1.0448 0.9913
1.8845 -0.0994 -1.0336 0.9914
1.8814 0.0684 -1.0312 0.9915
1.8863 0.4108 -1.0574 0.9912
3.3787 1.3988 -2.0029 0.9835
3.0673 1.9686 -1.9962 0.9835
2.8752 2.2298 -1.9928 0.9835
2.6611 2.4725 -1.9895 0.9836
2.4267 2.6949 -1.9862 0.9836
1.6216 3.2246 -1.9769 0.9837
1.3266 3.3512 -1.9740 0.9837
0.7101 3.5240 -1.9689 0.9837
0.3935 3.5690 -1.9666 0.9838
0.0745 3.5860 -1.9645 0.9838
-1.4721 3.2576 -1.9579 0.9838
-1.7555 3.1130 -1.9574 0.9838
-2.2790 2.7526 -1.9573 0.9838
-2.7320 2.3066 -1.9583 0.9838
-0.8793 0.6173 -0.5884 0.9951
-0.8704 0.5019 -0.5503 0.9954
-0.8965 0.4155 -0.5412 0.9955
-0.9265 0.2425 -0.5245 0.9956
-0.9472 0.0739 -0.5204 0.9957
-0.9400 -0.1800 -0.5242 0.9956
-0.9101 -0.3502 -0.5341 0.9956
-0.8908 -0.4373 -0.5435 0.9955
-0.8624 -0.5233 -0.5525 0.9954
-2.9331 -2.1586 -1.9946 0.9835
-2.5127 -2.6529 -2.0013 0.9835
-1.1341 -3.5032 -2.0168 0.9833
-0.8192 -3.5950 -2.0194 0.9833
-0.1698 -3.6919 -2.0242 0.9833
0.1593 -3.6960 -2.0262 0.9833
0.4878 -3.6704 -2.0280 0.9833
1.1318 -3.5307 -2.0307 0.9832
1.4419 -3.4176 -2.0316 0.9832
2.0254 -3.1096 -2.0326 0.9832
3.3192 -1.6413 -2.0280 0.9833
1.8816 -0.5434 -1.0727 0.9911
1.8891 -0.1954 -1.0402 0.9914
1.8875 0.1418 -1.0367 0.9914
1.8852 0.4876 -1.0665 0.9912
1.9370 0.6898 -1.1261 0.9907
3.1655 1.8133 -1.9981 0.9835
2.7849 2.3375 -1.9914 0.9836
2.5617 2.5716 -1.9881 0.9836
2.0590 2.9751 -1.9816 0.9836
1.7835 3.1415 -1.9786 0.9837
1.4949 3.2828 -1.9756 0.9837
0.2551 3.5798 -1.9657 0.9838
-0.0641 3.5847 -1.9637 0.9838
-0.6970 3.5109 -1.9605 0.9838
-1.3065 3.3283 -1.9583 0.9838
-1.5967 3.1979 -1.9577 0.9838
-2.6118 2.4407 -1.9579 0.9838
-2.8196 2.1997 -1.9587 0.9838
-0.8689 0.5612 -0.5665 0.9953
-0.9464 0.1221 -0.5226 0.9957
-0.9330 -0.2164 -0.5246 0.9956
0.0155 -3.5052 -2.0237 0.9839
0.3275 -3.4930 -2.0255 0.9839
2.9251 -1.9455 -2.0282 0.9839
3.0845 -1.6766 -2.0269 0.9839
3.2189 -1.3946 -2.0254 0.9839
1.7324 -0.4070 -1.0274 0.9918
1.7418 0.2196 -1.0136 0.9919
1.7328 0.3774 -1.0239 0.9918
1.8142 0.7511 -1.1337 0.9910
2.7277 2.1154 -1.9929 0.9842
2.5247 2.3458 -1.9897 0.9842
2.0629 2.7474 -1.9836 0.9843
1.8077 2.9156 -1.9806 0.9843
1.5391 3.0604 -1.9778 0.9843
0.6741 3.3452 -1.9702 0.9844
0.3735 3.3881 -1.9680 0.9844
0.0707 3.4045 -1.9660 0.9844
-0.5326 3.3576 -1.9628 0.9844
-1.3978 3.0932 -1.9598 0.9844
-1.6670 2.9560 -1.9593 0.9844
-2.1641 2.6137 -1.9592 0.9844
-0.7995 0.5613 -0.5640 0.9955
-0.8425 0.3905 -0.5361 0.9957
-0.8696 0.2276 -0.5190 0.9959
-0.8798 0.1482 -0.5151 0.9959
-0.8821 0.0688 -0.5108 0.9959
-0.8788 -0.0098 -0.5074 0.9959
-0.8780 -0.1681 -0.5161 0.9959
-0.8094 -0.4911 -0.5466 0.9956
-2.5935 -2.2907 -1.9978 0.9841
-2.3833 -2.5162 -2.0009 0.9841
-1.3645 -3.2083 -2.0129 0.9840
-0.7766 -3.4081 -2.0181 0.9840
-0.4710 -3.4677 -2.0205 0.9840
-0.1609 -3.4996 -2.0226 0.9839
0.1510 -3.5033 -2.0245 0.9839
0.4623 -3.4789 -2.0262 0.9839
0.7704 -3.4264 -2.0276 0.9839
1.0726 -3.3462 -2.0288 0.9839
1.9195 -2.9470 -2.0305 0.9839
2.1740 -2.7646 -2.0306 0.9839
2.4109 -2.5600 -2.0303 0.9839
2.6282 -2.3348 -2.0297 0.9839
2.8242 -2.0910 -2.0288 0.9839
1.7349 -0.3375 -1.0204 0.9919
1.7295 -0.0243 -0.9986 0.9920
1.7061 0.6076 -1.0456 0.9917
3.1487 1.4485 -2.0010 0.9841
1.6926 2.9814 -1.9794 0.9843
1.1346 3.2252 -1.9739 0.9843
0.8423 3.3092 -1.9715 0.9844
0.5440 3.3671 -1.9692 0.9844
0.2422 3.3985 -1.9671 0.9844
-0.0609 3.4033 -1.9652 0.9844
-0.9550 3.2596 -1.9610 0.9844
-1.2405 3.1603 -1.9601 0.9844
-1.7798 2.8892 -1.9592 0.9844
-2.2636 2.5283 -1.9593 0.9844
-2.4800 2.3176 -1.9597 0.9844
-2.6773 2.0886 -1.9605 0.9844
-0.7990 0.5160 -0.5491 0.9956
-0.8509 0.3551 -0.5323 0.9958
-0.8807 0.0346 -0.5089 0.9959
-0.8812 -0.0439 -0.5094 0.9959
-0.8737 -0.2026 -0.5178 0.9959
-0.8629 -0.2830 -0.5243 0.9958
-0.8487 -0.3648 -0.5334 0.9957
-0.8260 -0.4459 -0.5420 0.9957
