ply
format ascii 1.0
element vertex 1589
property float32 x
property float32 y
property float32 z
property float32 I
end_header
-3.4971 13.4012 2.4421 0.9453
-5.8856 12.7013 2.4683 0.9447
-7.1217 12.3446 2.5129 0.9438
-8.3433 11.8716 2.5585 0.9428
-11.0843 10.9550 2.7480 0.9387
-16.5017 9.2635 3.3368 0.9260
2.1232 -17.4159 2.6878 0.9315
6.4318 -15.6777 2.5960 0.9337
12.7921 -13.8240 2.8854 0.9266
5.8990 16.6624 2.7078 0.9310
4.1198 16.0720 2.5417 0.9351
-2.7618 13.9288 2.1753 0.9442
-3.9135 13.3542 2.1318 0.9452
-5.1563 13.1222 2.1599 0.9445
-6.2805 12.5580 2.1510 0.9448
-13.1855 10.2415 2.5577 0.9347
-17.0963 8.9379 2.9554 0.9249
0.0393 -18.1270 2.7770 0.9293
1.6147 -17.5978 2.7072 0.9310
10.5712 -14.5749 2.7583 0.9297
12.0158 -13.7877 2.8017 0.9287
6.5563 16.8999 2.7770 0.9293
4.7349 16.4204 2.6180 0.9332
3.0436 15.7067 2.4509 0.9373
0.1885 14.7976 2.2671 0.9419
-1.0978 14.3043 2.1978 0.9436
-3.4946 13.3915 2.1202 0.9455
-4.7429 13.2144 2.1508 0.9448
-7.1165 12.3356 2.1817 0.9440
-9.6956 11.4659 2.3003 0.9410
-11.0754 10.9462 2.3855 0.9389
-12.6289 10.4272 2.5089 0.9359
-16.5668 9.3000 2.9105 0.9260
2.1246 -17.4275 2.2862 0.9316
3.7067 -11.9836 1.6335 0.9507
6.4364 -15.6888 2.2083 0.9339
10.9365 -14.1699 2.3309 0.9303
5.8993 16.6632 2.3019 0.9312
4.1163 16.0583 2.1587 0.9353
2.5623 15.7178 2.0738 0.9378
-1.5117 14.1537 1.8536 0.9442
-2.7598 13.9187 1.8478 0.9444
-6.2760 12.5490 1.8271 0.9450
-8.7620 11.7093 1.9044 0.9427
-10.1101 11.2576 1.9704 0.9408
-14.9857 9.6276 2.3195 0.9307
-3.4418 -19.2972 2.5525 0.9240
0.0393 -18.1389 2.3621 0.9294
1.6158 -17.6096 2.3028 0.9312
5.9571 -15.8503 2.2050 0.9340
8.7169 17.6202 2.5599 0.9238
1.5560 15.1908 1.9885 0.9403
0.1884 14.7864 1.9257 0.9421
-1.0970 14.2938 1.8668 0.9438
-2.3465 14.0114 1.8500 0.9443
-5.8772 12.6830 1.8203 0.9452
-8.3308 11.8539 1.8867 0.9432
-12.6183 10.4185 2.1309 0.9361
-14.4113 9.8776 2.2751 0.9320
-16.5509 9.2911 2.4716 0.9263
2.1260 -17.4390 1.8865 0.9318
3.7061 -11.9817 1.3468 0.9508
10.9446 -14.1804 1.9235 0.9305
12.8101 -13.8434 2.0253 0.9269
7.9458 17.3439 2.0486 0.9261
2.5281 15.5083 1.6873 0.9387
-2.7232 13.7344 1.5035 0.9452
-3.9080 13.3352 1.4922 0.9456
-5.0844 12.9392 1.4929 0.9456
-6.2715 12.5400 1.5056 0.9452
-10.1022 11.2489 1.6235 0.9410
-11.7047 10.8979 1.7173 0.9377
-14.9721 9.6189 1.9109 0.9309
-3.4443 -19.3115 2.1064 0.9241
10.5852 -14.5942 1.9360 0.9300
8.7082 17.6025 2.1089 0.9240
4.6822 16.2376 1.8147 0.9343
0.1875 14.7168 1.5804 0.9425
-2.2675 13.5397 1.4742 0.9463
-3.4896 13.3724 1.4840 0.9459
-4.6916 13.0714 1.4913 0.9457
-5.8730 12.6740 1.5000 0.9454
-7.0780 12.2690 1.5210 0.9446
-9.7649 11.5479 1.6239 0.9410
-16.5351 9.2822 2.0362 0.9266
2.1274 -17.4505 1.4882 0.9319
10.9527 -14.1909 1.5175 0.9306
12.8190 -13.8531 1.5978 0.9270
7.8510 17.1369 1.5957 0.9271
-0.2486 14.5587 1.2326 0.9432
-1.5096 14.1332 1.2032 0.9445
-2.7012 13.6232 1.1757 0.9458
-3.9052 13.3258 1.1755 0.9458
-5.0808 12.9301 1.1760 0.9458
-7.4184 12.0166 1.1955 0.9449
-10.0945 11.2403 1.2789 0.9412
-13.1518 10.2153 1.4097 0.9353
-14.9586 9.6102 1.5051 0.9311
-17.0459 8.9115 1.6283 0.9257
-3.4469 -19.3258 1.6618 0.9242
0.0394 -18.1627 1.5375 0.9297
1.6179 -17.6330 1.4990 0.9314
7.5289 -15.6325 1.4688 0.9327
12.0433 -13.8192 1.5517 0.9291
8.6040 17.3919 1.6426 0.9251
3.0362 15.6683 1.3510 0.9379
1.5536 15.1673 1.2907 0.9406
0.1873 14.7058 1.2450 0.9427
-1.0954 14.2729 1.2118 0.9442
-2.2796 13.6122 1.1684 0.9461
-5.8311 12.5837 1.1741 0.9458
-8.2461 11.7333 1.2140 0.9441
-11.0491 10.9201 1.3151 0.9395
-16.5193 9.2734 1.6037 0.9268
10.9608 -14.2014 1.1124 0.9306
2.5561 15.6802 0.9852 0.9383
1.0857 14.9980 0.9325 0.9415
-6.2626 12.5222 0.8682 0.9454
-8.7425 11.6832 0.9049 0.9432
-11.4541 10.6646 0.9705 0.9392
-13.1408 10.2067 1.0318 0.9355
-14.7810 9.4961 1.0894 0.9320
-17.0293 8.9028 1.1916 0.9259
-3.4494 -19.3400 1.2182 0.9243
7.5338 -15.6425 1.0766 0.9328
10.5991 -14.6134 1.1194 0.9302
12.0524 -13.8297 1.1375 0.9291
8.6909 17.5676 1.2154 0.9245
3.0338 15.6557 0.9889 0.9381
1.5524 15.1556 0.9447 0.9408
0.1880 14.7533 0.9149 0.9426
-4.7295 13.1771 0.8682 0.9454
-5.8647 12.6560 0.8650 0.9456
-7.0679 12.2514 0.8771 0.9449
-8.3125 11.8277 0.8965 0.9437
3.7081 -11.9882 0.4948 0.9510
6.4545 -15.7329 0.6705 0.9342
12.8369 -13.8724 0.7453 0.9271
7.9229 17.2938 0.7501 0.9267
1.0848 14.9867 0.5925 0.9416
-10.0791 11.2232 0.5948 0.9414
-11.6172 10.8165 0.6259 0.9384
-14.9318 9.5929 0.6998 0.9314
0.0394 -18.1863 0.7171 0.9298
7.5386 -15.6526 0.6851 0.9328
-3.4743 13.3137 0.5426 0.9464
-4.7411 13.2095 0.5534 0.9454
-7.0909 12.2913 0.5595 0.9448
-9.6588 11.4225 0.5898 0.9419
-11.0317 10.9030 0.6116 0.9398
-12.5765 10.3840 0.6431 0.9368
-14.4267 9.8881 0.6897 0.9324
3.7098 -11.9937 0.2121 0.9510
10.9770 -14.2224 0.3035 0.9306
4.0991 15.9912 0.2789 0.9361
-0.2490 14.5844 0.2464 0.9433
-3.8970 13.2978 0.2341 0.9461
-5.1183 13.0256 0.2364 0.9456
-7.4675 12.0961 0.2401 0.9447
-8.7297 11.6661 0.2461 0.9434
-13.1188 10.1896 0.2806 0.9357
-14.9184 9.5844 0.2995 0.9315
0.0394 -18.1981 0.3074 0.9298
1.6212 -17.6680 0.2997 0.9315
5.9780 -15.9058 0.2870 0.9343
7.5434 -15.6626 0.2937 0.9328
12.0706 -13.8506 0.3103 0.9291
8.6737 17.5329 0.3304 0.9247
0.1893 14.8594 0.2510 0.9423
-3.4719 13.3044 0.2323 0.9465
-5.8564 12.6382 0.2353 0.9458
-9.6516 11.4139 0.2525 0.9420
-14.4272 9.8884 0.2954 0.9324
2.1330 -17.4962 -0.0992 0.9319
10.5757 -0.2130 -0.0596 0.9586
7.9077 17.2608 -0.1069 0.9269
5.8678 16.5743 -0.0990 0.9321
2.5501 15.6431 -0.0892 0.9386
-0.2510 14.7003 -0.0828 0.9429
-1.5052 14.0928 -0.0798 0.9449
-5.0881 12.9488 -0.0783 0.9459
-10.0638 11.2061 -0.0848 0.9415
-13.1078 10.1811 -0.0934 0.9358
-14.9051 9.5758 -0.0997 0.9316
-16.9800 8.8771 -0.1079 0.9262
-3.4570 -19.3827 -0.1109 0.9243
5.9821 -15.9169 -0.0957 0.9342
7.5483 -15.6727 -0.0979 0.9328
11.8035 -13.5441 -0.1012 0.9307
8.6652 17.5157 -0.1100 0.9248
6.5144 16.7919 -0.1014 0.9305
4.7215 16.3739 -0.0959 0.9341
0.1892 14.8485 -0.0836 0.9423
-1.0922 14.2318 -0.0804 0.9445
-2.3319 13.9246 -0.0795 0.9451
-3.4694 13.2951 -0.0774 0.9465
-4.7345 13.1911 -0.0789 0.9455
-7.0808 12.2738 -0.0798 0.9449
-8.2943 11.8019 -0.0812 0.9439
-9.7282 11.5045 -0.0848 0.9415
-11.0145 10.8860 -0.0872 0.9399
-14.4602 9.9110 -0.0987 0.9323
2.1344 -17.5076 -0.4966 0.9319
3.7135 -12.0056 -0.3539 0.9510
6.4680 -15.7659 -0.4798 0.9341
10.9932 -14.2434 -0.5066 0.9305
12.8204 -13.8546 -0.5315 0.9272
10.3488 -0.2085 -0.2915 0.9594
11.4176 0.7913 -0.3223 0.9552
7.9002 17.2443 -0.5341 0.9269
5.8626 16.5596 -0.4946 0.9321
4.0922 15.9646 -0.4641 0.9362
1.0824 14.9527 -0.4221 0.9418
-0.2508 14.6896 -0.4137 0.9429
-1.5042 14.0827 -0.3988 0.9449
-3.8916 13.2793 -0.3896 0.9461
-5.0631 12.8849 -0.3898 0.9461
-10.0562 11.1976 -0.4238 0.9416
-11.5897 10.7908 -0.4459 0.9386
-16.9636 8.8685 -0.5390 0.9263
-3.4596 -19.3970 -0.5548 0.9242
5.9863 -15.9280 -0.4791 0.9342
10.5913 -14.6027 -0.5079 0.9304
10.4450 -0.5222 -0.2945 0.9590
3.0240 15.6056 -0.4476 0.9384
1.5476 15.1092 -0.4277 0.9410
0.1890 14.8375 -0.4178 0.9424
-2.3303 13.9148 -0.3973 0.9451
-5.8482 12.6206 -0.3917 0.9459
-7.1373 12.3716 -0.4022 0.9444
-8.2883 11.7934 -0.4059 0.9440
-9.7209 11.4959 -0.4239 0.9415
-14.4476 9.9024 -0.4932 0.9323
-16.4418 9.2298 -0.5309 0.9273
2.1287 -17.4612 -0.8921 0.9320
3.7154 -12.0116 -0.6376 0.9509
6.4725 -15.7769 -0.8648 0.9340
12.8293 -13.8642 -0.9580 0.9271
7.8051 17.0367 -0.9504 0.9277
4.0889 15.9514 -0.8351 0.9362
2.5461 15.6185 -0.8025 0.9386
-1.5031 14.0727 -0.7177 0.9449
-2.6909 13.5714 -0.7017 0.9461
-5.0595 12.8759 -0.7016 0.9461
-7.4515 12.0701 -0.7194 0.9448
-11.5805 10.7822 -0.8024 0.9386
-13.0859 10.1641 -0.8403 0.9358
-14.8785 9.5587 -0.8969 0.9316
-16.9472 8.8599 -0.9698 0.9263
-3.4505 -19.3460 -0.9966 0.9243
0.0394 -18.1725 -0.9216 0.9298
5.9905 -15.9392 -0.8635 0.9341
7.5332 -15.6413 -0.8804 0.9328
10.5983 -14.6122 -0.9154 0.9303
11.8211 -13.5642 -0.9125 0.9305
9.2399 -1.2954 -0.4732 0.9633
9.9631 0.3926 -0.5057 0.9609
6.4236 16.5579 -0.9007 0.9313
4.6445 16.1069 -0.8501 0.9351
3.0216 15.5931 -0.8055 0.9384
1.5464 15.0976 -0.7697 0.9410
0.1889 14.8266 -0.7520 0.9423
-3.4646 13.2766 -0.6959 0.9465
-4.7279 13.1727 -0.7098 0.9455
-7.1097 12.3239 -0.7215 0.9446
-10.9973 10.8690 -0.7841 0.9400
-12.5353 10.3500 -0.8244 0.9370
-14.3895 9.8626 -0.8847 0.9325
-16.4263 9.2212 -0.9553 0.9273
2.1301 -17.4727 -1.2906 0.9318
6.4771 -15.7880 -1.2512 0.9338
7.8884 -15.2024 -1.2558 0.9336
9.1065 -14.2708 -1.2413 0.9344
11.3238 -12.2372 -1.2225 0.9353
9.0702 -0.9969 -0.6691 0.9641
8.8289 -0.1779 -0.6475 0.9652
5.8523 16.5303 -1.2858 0.9321
4.0737 15.8923 -1.2029 0.9363
2.4928 15.2916 -1.1360 0.9398
-0.2443 14.3083 -1.0493 0.9442
-1.4882 13.9331 -1.0274 0.9454
-2.6987 13.6104 -1.0174 0.9459
-5.0560 12.8670 -1.0137 0.9461
-6.2362 12.4694 -1.0222 0.9456
-7.4461 12.0615 -1.0393 0.9447
-11.5713 10.7737 -1.1592 0.9386
-13.0749 10.1556 -1.2139 0.9358
-16.7252 8.7438 -1.3838 0.9271
-1.7080 -19.5449 -1.4385 0.9243
0.0394 -18.1844 -1.3333 0.9297
5.9947 -15.9503 -1.2494 0.9339
9.8772 -13.6181 -1.2335 0.9348
12.9550 -10.3757 -1.2170 0.9356
14.6575 -7.9432 -1.2224 0.9353
17.4048 -5.7283 -1.3435 0.9291
18.0638 -4.2033 -1.3599 0.9283
9.1873 -1.2880 -0.6802 0.9635
6.4967 16.7462 -1.3170 0.9305
1.5291 14.9288 -1.1003 0.9416
-2.3270 13.8951 -1.0330 0.9451
-9.7063 11.4787 -1.1022 0.9415
-16.0398 9.0042 -1.3487 0.9289
1.8162 -14.8981 -1.4409 0.9415
5.4277 -13.2300 -1.3729 0.9442
6.5090 -12.5440 -1.3568 0.9448
8.4889 -10.9986 -1.3338 0.9457
9.3873 -10.1445 -1.3269 0.9460
11.0152 -8.2955 -1.3239 0.9461
13.3870 -6.7465 -1.4392 0.9415
14.0181 -5.5580 -1.4477 0.9412
14.5759 -4.3202 -1.4595 0.9407
15.0578 -3.0337 -1.4747 0.9401
9.0082 -0.9901 -0.8700 0.9642
8.7640 -0.1766 -0.8416 0.9654
16.1520 2.5822 -1.5704 0.9364
4.1667 1.0544 -0.4126 0.9829
3.9639 1.3897 -0.4033 0.9833
15.6583 8.8795 -1.7282 0.9302
15.2338 10.5386 -1.7784 0.9283
13.9291 13.8864 -1.8883 0.9240
4.0820 15.9248 -1.5783 0.9361
1.0799 14.9188 -1.4360 0.9417
-0.2471 14.4736 -1.3897 0.9435
-2.6958 13.5960 -1.3307 0.9458
-3.8618 13.1776 -1.3183 0.9463
-6.1847 12.3665 -1.3274 0.9460
-7.3831 11.9595 -1.3493 0.9451
-8.6332 11.5372 -1.3834 0.9437
-9.9685 11.1001 -1.4323 0.9418
-16.9145 8.8428 -1.8324 0.9262
-9.2664 -15.6770 -1.7483 0.9294
-7.5846 -15.9242 -1.6934 0.9316
-4.3682 -16.0430 -1.5963 0.9354
2.6660 -14.5819 -1.4231 0.9422
3.8903 -14.0475 -1.3994 0.9431
5.0532 -13.4453 -1.3790 0.9439
6.1550 -12.7797 -1.3618 0.9446
7.1957 -12.0541 -1.3478 0.9451
8.1755 -11.2718 -1.3368 0.9456
9.9518 -9.5467 -1.3240 0.9461
10.7477 -8.6079 -1.3220 0.9462
11.9848 -7.9545 -1.3810 0.9438
13.8155 -5.9602 -1.4445 0.9413
14.3981 -4.7387 -1.4552 0.9409
9.1208 -1.2787 -0.8842 0.9637
9.7338 0.3835 -0.9352 0.9616
16.1161 2.0859 -1.5601 0.9368
14.2152 13.3508 -1.8723 0.9246
11.4698 15.4672 -1.8487 0.9255
4.6465 16.1138 -1.6100 0.9348
3.0168 15.5680 -1.5224 0.9383
0.1862 14.6190 -1.4036 0.9429
-1.0886 14.1848 -1.3658 0.9444
-3.4748 13.3156 -1.3212 0.9462
-4.6320 12.9053 -1.3164 0.9464
-6.9783 12.0961 -1.3407 0.9454
-8.2075 11.6783 -1.3704 0.9443
-10.9204 10.7930 -1.4741 0.9402
-12.4738 10.2991 -1.5530 0.9371
-16.1898 9.0884 -1.7825 0.9281
1.5307 -12.5563 -1.5026 0.9503
3.6309 -11.7385 -1.4595 0.9517
4.6087 -11.2337 -1.4423 0.9523
5.5367 -10.6702 -1.4279 0.9527
7.3397 -9.5097 -1.4269 0.9528
9.4388 -8.5291 -1.5111 0.9500
10.1726 -7.6610 -1.5127 0.9500
12.4111 -3.6785 -1.5377 0.9492
9.0326 -0.9928 -1.0794 0.9641
3.9380 2.2331 -0.5378 0.9819
12.5636 8.6914 -1.8147 0.9403
8.1177 11.6577 -1.6874 0.9444
8.0050 14.0158 -1.9173 0.9371
5.7111 16.1316 -2.0327 0.9334
4.0786 15.9115 -1.9512 0.9360
2.5082 15.3861 -1.8518 0.9391
-0.2470 14.4629 -1.7182 0.9434
-1.4999 14.0425 -1.6775 0.9447
-3.8807 13.2422 -1.6391 0.9459
-6.2274 12.4517 -1.6538 0.9455
-8.6913 11.6147 -1.7232 0.9432
-11.5528 10.7565 -1.8751 0.9384
-13.0530 10.1385 -1.9633 0.9356
-16.7488 -9.1707 -2.2682 0.9260
-15.4050 -10.3210 -2.2026 0.9280
-14.0055 -11.3170 -2.1389 0.9300
-12.5686 -12.1620 -2.0775 0.9320
-11.1105 -12.8609 -2.0188 0.9338
-9.6450 -13.4200 -1.9631 0.9356
-6.7220 -14.1132 -1.8569 0.9390
-3.6202 -13.2958 -1.6369 0.9460
-2.3661 -13.2664 -1.6007 0.9472
-1.1490 -13.1477 -1.5677 0.9482
1.1622 -12.6660 -1.5109 0.9501
2.2513 -12.3136 -1.4869 0.9508
6.9866 -9.6327 -1.4135 0.9532
8.0701 -9.2601 -1.4591 0.9517
9.1726 -8.7992 -1.5099 0.9501
9.9398 -7.9608 -1.5127 0.9500
11.7816 -5.0827 -1.5242 0.9496
12.2650 -4.0367 -1.5338 0.9493
9.1467 -1.2823 -1.0971 0.9635
9.3907 0.3700 -1.1164 0.9629
4.2172 0.5458 -0.5051 0.9830
3.6344 1.5226 -0.4681 0.9843
12.7143 8.2464 -1.8001 0.9408
12.2243 9.5801 -1.8449 0.9394
7.2970 14.7500 -1.9548 0.9359
6.1290 15.7984 -2.0129 0.9340
3.0143 15.5555 -1.8821 0.9382
-1.0883 14.1806 -1.6894 0.9443
-5.8318 12.5851 -1.6476 0.9457
-9.5702 11.3176 -1.7606 0.9420
-12.5044 10.3244 -1.9262 0.9368
-14.2166 9.7441 -2.0473 0.9329
1.4015 -11.4962 -1.6409 0.9543
2.3862 -11.1598 -1.6170 0.9549
3.3494 -10.8286 -1.6060 0.9552
5.2011 -10.0235 -1.6000 0.9554
6.0447 -9.4727 -1.5922 0.9556
6.8295 -8.8487 -1.5838 0.9558
7.5624 -8.1724 -1.5776 0.9560
8.2430 -7.4486 -1.5741 0.9561
8.8697 -6.6797 -1.5733 0.9561
9.4406 -5.8682 -1.5750 0.9561
10.4072 -4.1263 -1.5863 0.9558
10.7986 -3.2006 -1.5958 0.9555
9.3007 -1.0223 -1.3257 0.9629
9.0278 -0.1819 -1.2794 0.9642
4.3804 0.3036 -0.6221 0.9824
3.7787 0.6041 -0.5422 0.9847
3.5707 1.6226 -0.5557 0.9843
3.8211 2.1669 -0.6224 0.9824
4.6133 3.1915 -0.7948 0.9776
10.1931 8.4906 -1.8797 0.9478
8.9023 10.6208 -1.9636 0.9456
6.6617 11.6637 -1.9032 0.9472
5.7314 12.5103 -1.9497 0.9459
3.5862 13.9903 -2.0464 0.9433
-0.2468 14.4522 -2.0480 0.9433
-2.7022 13.6282 -1.9686 0.9454
-3.8780 13.2329 -1.9538 0.9458
-5.0453 12.8398 -1.9547 0.9458
-6.2229 12.4429 -1.9712 0.9453
-8.6848 11.6061 -2.0539 0.9431
-10.0179 11.1550 -2.1244 0.9412
-11.1856 10.4146 -2.1655 0.9401
-13.0420 10.1299 -2.3398 0.9355
-14.7305 9.4637 -2.4808 0.9317
-15.9987 6.6209 -2.4533 0.9324
-16.3682 5.1180 -2.4299 0.9331
-16.5589 3.5938 -2.4008 0.9338
-17.7853 0.6236 -2.5215 0.9306
-16.3173 -3.8715 -2.3762 0.9345
-13.7255 -7.5153 -2.2172 0.9387
-12.6905 -8.5024 -2.1644 0.9402
-11.5968 -9.3707 -2.1125 0.9415
-10.4586 -10.1203 -2.0621 0.9429
-5.7064 -11.9810 -1.8803 0.9478
-4.5180 -12.1814 -1.8409 0.9489
-1.0655 -12.1921 -1.7341 0.9518
3.0294 -10.9389 -1.6083 0.9552
3.9879 -10.6107 -1.6061 0.9552
6.5736 -9.0633 -1.5864 0.9558
9.7890 -5.3049 -1.5776 0.9560
10.2626 -4.4274 -1.5836 0.9559
9.1170 -0.4558 -1.2934 0.9638
3.4977 1.4653 -0.5373 0.9848
3.7315 1.9715 -0.5980 0.9831
6.9504 11.3685 -1.8880 0.9476
5.0581 13.0381 -1.9815 0.9451
3.9696 13.7663 -2.0300 0.9438
-1.0875 14.1703 -2.0137 0.9442
-2.2814 13.6226 -1.9571 0.9457
-3.4875 13.3642 -1.9570 0.9457
-5.8276 12.5762 -1.9639 0.9455
-8.2581 11.7504 -2.0349 0.9436
-9.5629 11.3090 -2.0985 0.9419
-14.2040 9.7355 -2.4399 0.9328
-15.2294 8.5493 -2.4746 0.9319
-15.8356 7.1135 -2.4597 0.9323
-16.5150 4.1033 -2.4111 0.9336
-16.5882 2.5782 -2.3786 0.9344
1.2588 -10.3255 -1.7136 0.9587
2.1496 -10.0536 -1.6937 0.9592
3.8268 -9.3279 -1.6610 0.9600
4.6081 -8.8806 -1.6482 0.9603
5.3482 -8.3811 -1.6379 0.9605
6.0451 -7.8323 -1.6299 0.9607
6.6968 -7.2370 -1.6243 0.9608
7.3013 -6.5977 -1.6211 0.9609
7.8569 -5.9170 -1.6203 0.9609
9.5499 -2.8305 -1.6409 0.9604
9.8305 -1.9806 -1.6520 0.9602
10.0495 -1.1046 -1.6655 0.9598
10.2045 -0.2056 -1.6814 0.9595
3.9598 0.2744 -0.6539 0.9840
3.6027 0.5760 -0.6010 0.9853
3.3063 1.1591 -0.5772 0.9859
8.2981 8.2727 -1.9303 0.9536
3.0350 11.8402 -2.0136 0.9517
-0.2212 12.9550 -2.1345 0.9488
-1.4007 13.1144 -2.1727 0.9479
-5.0418 12.8307 -2.2711 0.9456
-8.5181 11.3833 -2.3422 0.9440
-9.5543 10.6388 -2.3556 0.9437
-10.5018 9.7779 -2.3639 0.9435
-11.3456 8.8124 -2.3666 0.9434
-12.6729 6.6253 -2.3558 0.9437
-14.7400 0.5168 -2.4298 0.9420
-14.1415 -2.0451 -2.3539 0.9437
-13.0677 -4.3637 -2.2696 0.9457
-4.9447 -10.3816 -1.8943 0.9545
-3.9259 -10.5849 -1.8598 0.9553
-2.9143 -10.7033 -1.8274 0.9560
0.9544 -10.4019 -1.7208 0.9585
1.8560 -10.1513 -1.7000 0.9590
2.7245 -9.8379 -1.6817 0.9595
3.5573 -9.4650 -1.6657 0.9598
4.3518 -9.0358 -1.6522 0.9602
5.8175 -8.0208 -1.6323 0.9606
7.6771 -6.1486 -1.6203 0.9609
8.1989 -5.4418 -1.6211 0.9609
9.4430 -3.1079 -1.6377 0.9605
9.7436 -2.2672 -1.6480 0.9603
9.9834 -1.3996 -1.6607 0.9600
4.2431 0.1672 -0.6996 0.9829
3.6920 0.4779 -0.6133 0.9850
3.4577 0.7661 -0.5834 0.9857
3.3252 1.0556 -0.5747 0.9860
3.4338 1.4385 -0.6133 0.9850
3.6559 1.9315 -0.6812 0.9834
4.3952 3.4445 -0.9199 0.9776
7.2142 9.7285 -1.9952 0.9521
6.1376 10.0390 -1.9384 0.9534
5.1660 10.4424 -1.9193 0.9539
4.3017 11.0883 -1.9593 0.9529
3.3637 11.6650 -2.0000 0.9520
1.2874 12.5692 -2.0815 0.9501
-1.0034 13.0743 -2.1602 0.9482
-2.2029 13.1542 -2.1972 0.9474
-4.6421 12.9335 -2.2637 0.9458
-5.8235 12.5672 -2.2818 0.9454
-7.0176 12.1642 -2.3135 0.9447
-9.2176 10.9006 -2.3517 0.9438
-10.1964 10.0775 -2.3617 0.9435
-11.8438 8.1178 -2.3654 0.9435
-12.9983 5.8389 -2.3475 0.9439
-14.8350 2.3057 -2.4733 0.9410
-14.7877 0.9604 -2.4413 0.9417
1.1222 -9.2056 -1.7431 0.9630
1.9189 -8.9745 -1.7250 0.9633
3.4231 -8.3440 -1.6952 0.9640
6.5477 -5.9167 -1.6588 0.9647
7.4982 -4.6608 -1.6594 0.9647
8.9869 -0.9878 -1.6994 0.9639
9.1163 -0.1836 -1.7139 0.9636
3.4611 0.5533 -0.6588 0.9858
3.2878 0.8320 -0.6375 0.9863
3.2512 1.1398 -0.6476 0.9861
3.4379 1.5623 -0.7098 0.9847
4.0430 2.7969 -0.9240 0.9802
7.7860 6.4855 -1.9047 0.9596
5.3826 9.4242 -2.0399 0.9568
4.3243 9.4390 -1.9515 0.9586
3.4702 9.8020 -1.9545 0.9586
-1.2002 11.2371 -2.1241 0.9550
-2.2294 11.2435 -2.1545 0.9544
-4.2963 10.9338 -2.2081 0.9533
-5.3080 10.6134 -2.2305 0.9528
-8.8866 8.2740 -2.2822 0.9518
-9.5988 7.4556 -2.2845 0.9517
-10.2159 6.5632 -2.2823 0.9518
-11.1331 4.6074 -2.2647 0.9521
-12.1804 3.8086 -2.3987 0.9494
-12.5620 2.7263 -2.4161 0.9490
-12.6274 1.5788 -2.3919 0.9495
-12.5715 0.4408 -2.3644 0.9501
-12.3991 -0.6738 -2.3340 0.9507
-12.1166 -1.7523 -2.3011 0.9514
-11.7321 -2.7836 -2.2664 0.9521
-11.2543 -3.7582 -2.2302 0.9529
-10.6929 -4.6681 -2.1930 0.9536
-9.3589 -6.2702 -2.1174 0.9552
-8.6064 -6.9543 -2.0798 0.9560
-7.8098 -7.5572 -2.0427 0.9567
-3.4680 -9.3503 -1.8745 0.9602
-2.5796 -9.4742 -1.8456 0.9608
-1.6989 -9.5251 -1.8186 0.9614
0.0204 -9.4198 -1.7705 0.9624
0.8505 -9.2695 -1.7496 0.9628
2.4339 -8.7886 -1.7141 0.9636
3.8950 -8.0872 -1.6872 0.9641
4.5731 -7.6609 -1.6770 0.9643
5.2133 -7.1878 -1.6690 0.9645
5.8134 -6.6706 -1.6631 0.9646
8.1419 -3.5125 -1.6667 0.9646
8.4595 -2.7842 -1.6739 0.9644
8.7230 -2.0298 -1.6834 0.9642
3.8728 0.1526 -0.7285 0.9843
3.2202 1.0222 -0.6350 0.9863
3.5827 1.8928 -0.7616 0.9836
3.9333 2.5511 -0.8812 0.9811
4.3391 3.4005 -1.0362 0.9778
7.4691 7.0150 -1.9260 0.9592
6.3191 8.5214 -1.9940 0.9577
3.7385 9.6365 -1.9428 0.9588
2.9153 10.1102 -1.9777 0.9581
1.1098 10.8350 -2.0472 0.9566
-2.9198 11.1889 -2.1735 0.9540
-4.9734 10.7326 -2.2234 0.9530
-5.9645 10.3388 -2.2435 0.9526
-6.9133 9.8369 -2.2599 0.9522
-8.6293 8.5287 -2.2805 0.9518
-10.0211 6.8685 -2.2835 0.9518
-12.6193 1.9614 -2.4004 0.9494
-12.6034 0.8186 -2.3739 0.9499
2.4266 -7.8450 -1.7358 0.9670
3.0940 -7.5417 -1.7231 0.9672
4.9051 -6.3553 -1.6970 0.9677
7.1546 -3.6056 -1.6935 0.9678
7.4713 -2.9623 -1.6989 0.9677
7.7391 -2.2938 -1.7062 0.9675
7.9563 -1.6030 -1.7156 0.9674
3.5562 0.2465 -0.7535 0.9855
3.1949 0.8085 -0.6966 0.9866
3.1975 1.1210 -0.7162 0.9862
3.3752 1.5338 -0.7837 0.9850
3.6168 2.0510 -0.8789 0.9831
6.9547 5.7931 -1.9133 0.9637
6.5071 6.4871 -1.9422 0.9631
5.4165 7.7786 -2.0036 0.9620
4.7762 8.3626 -2.0357 0.9614
4.0743 8.8933 -2.0677 0.9608
3.2052 9.0535 -2.0301 0.9615
-1.0488 9.8194 -2.0874 0.9604
-6.2554 8.3595 -2.2070 0.9582
-7.0056 7.8008 -2.2163 0.9580
-8.8440 5.6818 -2.2220 0.9579
-10.7316 3.3555 -2.3767 0.9551
-10.9081 2.3674 -2.3594 0.9554
-10.9472 0.3838 -2.3154 0.9562
-10.5877 -1.5312 -2.2613 0.9572
-9.8726 -3.2968 -2.2002 0.9583
-9.3994 -4.1034 -2.1679 0.9589
-8.8595 -4.8510 -2.1351 0.9595
-6.9225 -6.6985 -2.0362 0.9614
-3.8931 -8.1737 -1.9137 0.9637
-2.3119 -8.4908 -1.8601 0.9647
-0.7467 -8.5443 -1.8130 0.9655
0.0184 -8.4778 -1.7920 0.9659
0.7664 -8.3524 -1.7730 0.9663
1.4939 -8.1707 -1.7557 0.9666
2.8745 -7.6484 -1.7271 0.9671
4.1377 -6.9315 -1.7064 0.9675
5.2640 -6.0403 -1.6936 0.9678
5.7704 -5.5355 -1.6902 0.9678
7.0384 -3.8143 -1.6922 0.9678
7.3709 -3.1799 -1.6969 0.9677
8.0719 -1.1316 -1.7229 0.9672
3.9285 -0.1964 -0.8314 0.9840
3.4031 0.4405 -0.7254 0.9861
3.1405 0.9969 -0.6965 0.9866
3.3145 1.3885 -0.7596 0.9854
3.8894 2.5226 -0.9799 0.9812
4.3040 3.3730 -1.1559 0.9779
6.1725 6.9333 -1.9622 0.9628
5.6163 7.5737 -1.9931 0.9622
4.9968 8.1730 -2.0249 0.9616
4.3159 8.7241 -2.0574 0.9610
1.7919 9.2474 -1.9911 0.9622
0.9743 9.5116 -2.0211 0.9617
-0.7524 9.8036 -2.0784 0.9606
-1.6448 9.8215 -2.1050 0.9601
-3.4396 9.5831 -2.1522 0.9592
-5.1754 8.9709 -2.1892 0.9585
-5.9929 8.5272 -2.2031 0.9583
-6.7617 7.9964 -2.2136 0.9581
-8.1119 6.6977 -2.2236 0.9579
-9.1526 5.1380 -2.2187 0.9580
-10.0930 4.5338 -2.3388 0.9558
-10.6492 3.6817 -2.3817 0.9550
-10.8610 2.6985 -2.3656 0.9553
-10.9693 0.7125 -2.3236 0.9561
2.2104 -7.1462 -1.7580 0.9697
2.8203 -6.8744 -1.7463 0.9699
3.4029 -6.5580 -1.7364 0.9701
4.4771 -5.8008 -1.7221 0.9703
4.9641 -5.3646 -1.7178 0.9704
5.4151 -4.8932 -1.7153 0.9705
6.2006 -3.8542 -1.7159 0.9704
6.8187 -2.7036 -1.7239 0.9703
7.0605 -2.0927 -1.7307 0.9702
3.5966 -0.3953 -0.8504 0.9852
3.5417 -0.0714 -0.8325 0.9855
3.4174 0.2368 -0.8051 0.9860
3.5701 2.0245 -0.9646 0.9833
6.2780 5.2295 -1.9203 0.9670
5.3946 6.4360 -1.9737 0.9661
4.2849 7.5023 -2.0305 0.9651
3.6502 7.9676 -2.0597 0.9646
1.3793 8.4611 -2.0148 0.9654
-4.8091 7.7899 -2.1516 0.9631
-6.1711 6.8716 -2.1706 0.9628
-7.3161 5.6825 -2.1772 0.9627
-8.1255 5.2203 -2.2698 0.9611
-8.8544 4.6290 -2.3482 0.9598
-9.2094 3.8113 -2.3425 0.9599
-9.4644 2.9593 -2.3305 0.9601
-9.6841 0.3395 -2.2774 0.9610
-9.1243 -2.1649 -2.2040 0.9622
-6.2101 -6.0092 -2.0310 0.9651
-5.5693 -6.4467 -2.0022 0.9656
-4.9022 -6.8208 -1.9741 0.9661
-4.2152 -7.1313 -1.9469 0.9665
-2.8050 -7.5626 -1.8957 0.9674
-1.3819 -7.7482 -1.8497 0.9682
-0.6775 -7.7525 -1.8290 0.9685
0.6968 -7.5940 -1.7923 0.9692
1.3594 -7.4353 -1.7764 0.9694
2.6196 -6.9702 -1.7500 0.9699
3.2116 -6.6684 -1.7395 0.9700
3.7748 -6.3236 -1.7309 0.9702
4.3069 -5.9381 -1.7240 0.9703
4.8055 -5.5142 -1.7190 0.9704
5.2687 -5.0542 -1.7159 0.9704
6.0808 -4.0359 -1.7153 0.9705
6.4258 -3.4823 -1.7177 0.9704
6.9850 -2.2989 -1.7283 0.9702
3.7624 -0.8755 -0.9079 0.9843
3.6132 -0.5065 -0.8575 0.9851
3.5613 -0.1780 -0.8380 0.9855
3.4891 0.1375 -0.8207 0.9858
3.2769 0.4241 -0.7766 0.9865
3.1475 0.6974 -0.7577 0.9868
3.0985 0.9836 -0.7640 0.9867
3.2590 1.3653 -0.8304 0.9856
3.8644 2.5064 -1.0825 0.9813
6.0095 5.6441 -1.9376 0.9667
5.0494 6.8092 -1.9923 0.9658
4.4851 7.3362 -2.0209 0.9653
3.8676 7.8179 -2.0499 0.9648
2.4804 8.6020 -2.1040 0.9639
0.8673 8.4674 -2.0005 0.9656
0.1098 8.6204 -2.0262 0.9652
-0.6677 8.7003 -2.0508 0.9648
-2.2514 8.6277 -2.0956 0.9640
-3.0403 8.4708 -2.1152 0.9637
-4.5655 7.9138 -2.1473 0.9632
-5.2828 7.5168 -2.1593 0.9630
-5.9572 7.0449 -2.1683 0.9628
-6.5799 6.5031 -2.1743 0.9627
-7.7963 5.3436 -2.2214 0.9619
-8.7059 4.8872 -2.3464 0.9598
-9.3894 3.2461 -2.3349 0.9600
-9.6870 1.5058 -2.3040 0.9605
2.0279 -6.5560 -1.7768 0.9720
2.5888 -6.3102 -1.7660 0.9722
3.1250 -6.0225 -1.7568 0.9724
3.6343 -5.6953 -1.7493 0.9725
4.1143 -5.3307 -1.7435 0.9726
4.5628 -4.9308 -1.7394 0.9726
4.9778 -4.4981 -1.7371 0.9727
5.3575 -4.0347 -1.7365 0.9727
5.6998 -3.5430 -1.7376 0.9727
3.6307 -1.0761 -0.9805 0.9845
3.3434 -0.6736 -0.8831 0.9860
3.2752 -0.0660 -0.8482 0.9866
3.2421 0.2247 -0.8414 0.9867
3.0999 1.0868 -0.8505 0.9865
3.2601 1.4815 -0.9272 0.9853
3.5241 1.9985 -1.0490 0.9834
3.9414 2.7266 -1.2409 0.9804
5.7160 4.7613 -1.9262 0.9697
5.3337 5.3174 -1.9500 0.9694
4.8995 5.8453 -1.9748 0.9690
4.4147 6.3398 -2.0003 0.9686
2.0192 7.8774 -2.1055 0.9670
1.3227 8.1140 -2.1286 0.9666
-0.8350 7.8175 -2.0356 0.9680
-1.5442 7.7882 -2.0558 0.9677
-2.9534 7.5161 -2.0909 0.9672
-3.6373 7.2728 -2.1054 0.9670
-4.2964 6.9594 -2.1176 0.9668
-4.9226 6.5784 -2.1273 0.9666
-6.2898 5.8562 -2.2251 0.9651
-7.0489 5.4750 -2.3109 0.9638
-8.2231 3.4031 -2.3042 0.9639
-8.4553 2.6438 -2.2938 0.9641
-8.5880 -0.4667 -2.2269 0.9651
-8.1990 -1.9453 -2.1818 0.9658
-7.5463 -3.2944 -2.1320 0.9665
-6.6726 -4.4705 -2.0796 0.9674
-6.1676 -4.9836 -2.0531 0.9678
-5.6251 -5.4432 -2.0267 0.9682
-5.0514 -5.8472 -2.0007 0.9686
-4.4521 -6.1946 -1.9752 0.9690
-3.8330 -6.4848 -1.9504 0.9694
-3.1995 -6.7176 -1.9265 0.9697
-2.5568 -6.8935 -1.9037 0.9701
-1.9095 -7.0132 -1.8819 0.9704
-0.6195 -7.0887 -1.8424 0.9710
0.0153 -7.0473 -1.8247 0.9713
1.2461 -6.8153 -1.7939 0.9718
3.4675 -5.8088 -1.7516 0.9724
3.9575 -5.4564 -1.7452 0.9725
4.4167 -5.0680 -1.7406 0.9726
4.8432 -4.6460 -1.7377 0.9727
5.5898 -3.7101 -1.7371 0.9727
6.1826 -2.6673 -1.7434 0.9726
6.4171 -2.1120 -1.7492 0.9725
3.3065 -0.4636 -0.8645 0.9863
3.2831 -0.1641 -0.8511 0.9865
3.1721 0.4106 -0.8282 0.9869
5.0501 5.6726 -1.9664 0.9691
4.5820 6.1788 -1.9917 0.9687
4.0645 6.6482 -2.0175 0.9683
3.5002 7.0753 -2.0438 0.9679
1.5595 8.0478 -2.1225 0.9667
0.1023 8.0295 -2.0791 0.9674
-0.5999 7.8163 -2.0297 0.9681
-2.0170 7.7293 -2.0683 0.9675
-3.4114 7.3619 -2.1008 0.9670
-4.7178 6.7129 -2.1244 0.9667
-5.3177 6.2887 -2.1323 0.9665
-7.3781 5.0570 -2.3160 0.9637
-8.1281 3.6512 -2.3071 0.9639
1.3328 -6.2335 -1.8046 0.9738
1.8715 -6.0505 -1.7929 0.9740
2.3903 -5.8263 -1.7828 0.9742
2.8866 -5.5630 -1.7742 0.9743
3.3581 -5.2624 -1.7672 0.9744
3.8025 -4.9267 -1.7618 0.9745
4.9530 -3.7301 -1.7553 0.9746
3.1115 -1.2337 -0.9476 0.9862
3.3209 -0.9843 -0.9805 0.9857
3.0666 -0.3371 -0.8734 0.9873
3.0318 0.2101 -0.8603 0.9874
3.2150 1.4610 -0.9997 0.9854
3.5234 1.9980 -1.1467 0.9833
3.8326 2.6514 -1.3193 0.9808
5.2412 4.3658 -1.9311 0.9720
4.8857 4.8707 -1.9530 0.9717
3.5436 6.2045 -2.0227 0.9707
3.0113 6.5730 -2.0467 0.9704
1.2039 7.3850 -2.1183 0.9694
-0.8167 7.6458 -2.1768 0.9685
-1.4847 7.4877 -2.1610 0.9688
-2.1324 7.2765 -2.1466 0.9690
-2.7749 7.0619 -2.1480 0.9689
-5.9045 5.4975 -2.2839 0.9670
-7.6321 2.3864 -2.2637 0.9673
-7.7740 1.6872 -2.2520 0.9675
-7.8439 0.2750 -2.2219 0.9679
-7.7739 -0.4224 -2.2040 0.9682
-7.6369 -1.1044 -2.1845 0.9684
-7.4361 -1.7643 -2.1635 0.9687
-7.1752 -2.3960 -2.1415 0.9690
-6.0782 -4.0722 -2.0712 0.9700
-3.5110 -5.9400 -1.9534 0.9717
-2.9338 -6.1596 -1.9314 0.9720
-1.1608 -6.5081 -1.8715 0.9729
0.5882 -6.4104 -1.8224 0.9736
1.1491 -6.2851 -1.8088 0.9738
2.2195 -5.9056 -1.7860 0.9741
3.6573 -5.0425 -1.7635 0.9744
4.0826 -4.6846 -1.7591 0.9745
5.1677 -3.4299 -1.7558 0.9745
5.4598 -2.9588 -1.7580 0.9745
5.7142 -2.4652 -1.7618 0.9745
3.4095 -1.1221 -1.0161 0.9852
3.1940 -0.7432 -0.9284 0.9865
3.0718 -0.4306 -0.8781 0.9872
3.0631 -0.1531 -0.8682 0.9873
3.0349 0.1196 -0.8598 0.9875
3.0181 0.3906 -0.8615 0.9874
2.9794 0.6601 -0.8639 0.9874
3.1518 1.3204 -0.9674 0.9859
3.4303 1.8123 -1.0983 0.9840
3.8144 2.4740 -1.2871 0.9813
4.1896 5.6497 -1.9912 0.9712
3.7123 6.0721 -2.0148 0.9708
3.1933 6.4549 -2.0387 0.9705
2.6354 6.7933 -2.0628 0.9702
0.7680 7.4975 -2.1336 0.9692
0.0970 7.6105 -2.1547 0.9689
-0.5869 7.6475 -2.1713 0.9686
-1.2658 7.5582 -2.1695 0.9686
-3.2043 6.9150 -2.1575 0.9688
-3.8583 6.6880 -2.1858 0.9684
-4.5330 6.4499 -2.2318 0.9678
-6.2244 5.1393 -2.2851 0.9670
-6.6568 4.5626 -2.2847 0.9670
-7.0275 3.9450 -2.2815 0.9671
-7.3326 3.2938 -2.2756 0.9671
-7.7346 1.9217 -2.2562 0.9674
-7.8289 1.2168 -2.2429 0.9676
1.2357 -5.7792 -1.8177 0.9756
2.2180 -5.4064 -1.7974 0.9758
2.6795 -5.1638 -1.7894 0.9759
3.1180 -4.8863 -1.7828 0.9760
3.9178 -4.2338 -1.7742 0.9761
4.2749 -3.8629 -1.7722 0.9762
2.9645 -0.5973 -0.9301 0.9874
2.8790 -0.3165 -0.8909 0.9880
2.8791 -0.0580 -0.8857 0.9880
2.8349 0.4532 -0.8830 0.9881
2.9163 0.7380 -0.9253 0.9875
3.8388 2.6557 -1.4357 0.9807
4.8345 4.0271 -1.9353 0.9740
4.5026 4.4888 -1.9556 0.9737
4.1279 4.9247 -1.9765 0.9735
3.2567 5.7020 -2.0197 0.9729
2.7648 6.0349 -2.0417 0.9726
2.2392 6.3250 -2.0637 0.9723
1.6837 6.5683 -2.0856 0.9720
0.4995 6.9001 -2.1279 0.9715
-2.6324 6.6992 -2.2139 0.9703
-3.2384 6.4753 -2.2269 0.9702
-3.8233 6.1931 -2.2386 0.9700
-4.3770 5.8493 -2.2470 0.9699
-5.3702 5.0000 -2.2569 0.9698
-5.7981 4.5035 -2.2581 0.9697
-6.1734 3.9661 -2.2569 0.9698
-6.4921 3.3940 -2.2532 0.9698
-6.7507 2.7937 -2.2472 0.9699
-7.0795 1.5365 -2.2282 0.9701
-7.0929 -0.3854 -2.1849 0.9707
-6.5630 -2.1916 -2.1282 0.9715
-4.2471 -4.9162 -1.9982 0.9732
-3.7509 -5.2189 -1.9768 0.9735
-2.7061 -5.6815 -1.9356 0.9740
-1.6208 -5.9528 -1.8976 0.9745
-0.5275 -6.0360 -1.8636 0.9750
1.0652 -5.8261 -1.8217 0.9755
2.0593 -5.4793 -1.8004 0.9758
2.9744 -4.9827 -1.7849 0.9760
3.3964 -4.6828 -1.7793 0.9761
4.1591 -3.9898 -1.7727 0.9762
4.4958 -3.6007 -1.7717 0.9762
5.0714 -2.7483 -1.7742 0.9761
5.3069 -2.2895 -1.7777 0.9761
3.0105 -0.7005 -0.9507 0.9871
2.8896 -0.4051 -0.8975 0.9879
2.8785 -0.1439 -0.8865 0.9880
2.8458 0.3683 -0.8826 0.9881
3.4384 1.8166 -1.1961 0.9839
3.7692 2.4447 -1.3818 0.9814
4.9356 3.8680 -1.9287 0.9741
4.6182 4.3374 -1.9487 0.9738
4.2576 4.7824 -1.9694 0.9736
2.9328 5.9284 -2.0344 0.9727
2.4181 6.2332 -2.0564 0.9724
1.8722 6.4925 -2.0783 0.9721
0.0887 6.9613 -2.1413 0.9713
-0.5375 7.0042 -2.1607 0.9710
-1.1700 6.9865 -2.1788 0.9708
-1.8023 6.9066 -2.1955 0.9706
-2.4266 6.7610 -2.2094 0.9704
-3.0382 6.5565 -2.2226 0.9702
-3.6311 6.2942 -2.2350 0.9700
-4.1959 5.9703 -2.2445 0.9699
-5.6609 4.6740 -2.2580 0.9697
-6.3922 3.5884 -2.2547 0.9698
-6.8886 2.3815 -2.2418 0.9700
-7.1320 1.1085 -2.2200 0.9702
2.0670 -5.0383 -1.8102 0.9773
3.9876 -3.6033 -1.7865 0.9776
4.5657 -2.8380 -1.7870 0.9776
2.7306 -0.0550 -0.9078 0.9886
2.7291 0.1891 -0.9094 0.9885
2.7432 0.4385 -0.9234 0.9884
2.9748 1.0429 -1.0479 0.9868
3.2403 1.4725 -1.1831 0.9851
3.8452 2.6600 -1.5542 0.9805
3.8209 4.5585 -1.9771 0.9752
3.4330 4.9301 -1.9970 0.9750
3.0096 5.2694 -2.0171 0.9747
2.5529 5.5724 -2.0374 0.9745
1.0152 6.2277 -2.0974 0.9738
0.4597 6.3508 -2.1165 0.9735
-1.2687 6.3986 -2.1684 0.9729
-3.5044 5.6765 -2.2175 0.9723
-4.4839 4.9929 -2.2307 0.9721
-5.6546 3.6328 -2.2341 0.9721
-6.1856 2.5599 -2.2253 0.9722
-6.5643 0.2302 -2.1834 0.9727
-6.4087 -0.9268 -2.1525 0.9731
-6.2498 -1.4828 -2.1351 0.9733
-6.0404 -2.0171 -2.1168 0.9735
-5.7837 -2.5249 -2.0977 0.9737
-4.7682 -3.8529 -2.0377 0.9745
-4.3616 -4.2204 -2.0174 0.9747
-3.4719 -4.8307 -1.9774 0.9752
-2.9974 -5.0710 -1.9581 0.9755
-2.5087 -5.2671 -1.9393 0.9757
-2.0098 -5.4189 -1.9212 0.9759
-1.5047 -5.5265 -1.9039 0.9761
-0.9971 -5.5902 -1.8875 0.9763
0.0121 -5.5894 -1.8580 0.9767
1.9189 -5.1056 -1.8130 0.9773
2.3563 -4.8924 -1.8050 0.9774
2.7732 -4.6456 -1.7984 0.9775
4.1938 -3.3588 -1.7860 0.9776
4.4779 -2.9721 -1.7865 0.9776
4.7302 -2.5634 -1.7884 0.9776
4.9492 -2.1352 -1.7917 0.9775
2.7575 -0.3866 -0.9256 0.9883
2.7268 -0.1363 -0.9075 0.9886
2.7323 0.1076 -0.9089 0.9885
2.8502 0.6315 -0.9704 0.9878
3.1419 1.3162 -1.1323 0.9857
3.4468 1.8210 -1.2958 0.9837
3.5665 4.8095 -1.9903 0.9751
3.1547 5.1600 -2.0104 0.9748
1.7263 5.9867 -2.0711 0.9741
-0.4941 6.4386 -2.1465 0.9731
-1.6547 6.3410 -2.1784 0.9728
-2.2278 6.2071 -2.1921 0.9726
-2.7880 6.0166 -2.2042 0.9724
-3.3291 5.7706 -2.2145 0.9723
-3.8451 5.4711 -2.2228 0.9722
-4.3300 5.1206 -2.2291 0.9721
-5.1850 4.2810 -2.2351 0.9721
-5.8555 3.2871 -2.2321 0.9721
-6.3132 2.1826 -2.2204 0.9722
-6.4566 1.6042 -2.2115 0.9723
-6.5416 1.0167 -2.2006 0.9725
1.5121 -4.8885 -1.8299 0.9785
1.9333 -4.7125 -1.8215 0.9786
2.3369 -4.5037 -1.8145 0.9787
2.7207 -4.2636 -1.8087 0.9787
3.0825 -3.9939 -1.8042 0.9788
3.7330 -3.3732 -1.7992 0.9789
4.0180 -3.0260 -1.7988 0.9789
4.2741 -2.6567 -1.7996 0.9788
2.7832 -1.1035 -1.0707 0.9874
2.7613 -0.8184 -1.0299 0.9878
2.6857 -0.5411 -0.9797 0.9884
2.6083 0.1808 -0.9350 0.9890
2.7191 0.4347 -0.9847 0.9884
2.8613 0.7241 -1.0555 0.9875
2.9749 1.0429 -1.1273 0.9867
3.2535 1.4785 -1.2780 0.9849
3.8516 2.6645 -1.6748 0.9803
4.1730 3.4760 -1.9422 0.9772
3.8809 3.8690 -1.9597 0.9770
3.5526 4.2385 -1.9777 0.9768
3.1898 4.5808 -1.9962 0.9766
2.7943 4.8925 -2.0149 0.9763
0.9399 5.7659 -2.0891 0.9755
0.4253 5.8759 -2.1067 0.9753
-1.1717 5.9094 -2.1544 0.9747
-1.7049 5.8176 -2.1679 0.9746
-2.2295 5.6739 -2.1800 0.9744
-2.7400 5.4787 -2.1906 0.9743
-4.5323 4.2198 -2.2145 0.9740
-4.8929 3.8005 -2.2156 0.9740
-5.4804 2.8651 -2.2115 0.9741
-5.8704 1.8356 -2.1995 0.9742
-6.0592 0.2124 -2.1681 0.9746
-6.0161 -0.3269 -2.1546 0.9747
-5.9220 -0.8564 -2.1398 0.9749
-5.5886 -1.8662 -2.1070 0.9753
-5.3548 -2.3377 -2.0894 0.9755
-4.7688 -3.1950 -2.0527 0.9759
-3.6497 -4.2247 -1.9965 0.9766
-2.3357 -4.9040 -1.9424 0.9772
-1.8725 -5.0485 -1.9256 0.9774
-0.9300 -5.2144 -1.8941 0.9778
-0.4576 -5.2366 -1.8798 0.9779
0.0113 -5.2192 -1.8664 0.9781
2.5950 -4.3471 -1.8104 0.9787
3.3105 -3.7987 -1.8019 0.9788
3.9260 -3.1444 -1.7988 0.9789
4.1919 -2.7823 -1.7992 0.9789
4.4278 -2.3996 -1.8010 0.9788
3.0896 -1.3329 -1.2033 0.9858
2.7098 -0.6305 -0.9949 0.9883
2.6447 -0.3708 -0.9550 0.9887
2.5940 0.1022 -0.9284 0.9890
3.1541 1.3213 -1.2229 0.9856
3.7953 2.4616 -1.6177 0.9810
4.2622 3.3402 -1.9365 0.9773
3.9824 3.7403 -1.9538 0.9771
3.6661 4.1180 -1.9717 0.9769
2.5139 5.0815 -2.0274 0.9762
0.0755 5.9224 -2.1181 0.9752
-0.4567 5.9509 -2.1343 0.9750
-2.0557 5.7276 -2.1762 0.9745
-2.5716 5.5495 -2.1873 0.9744
-4.7772 3.9444 -2.2154 0.9740
-5.3956 3.0289 -2.2128 0.9741
-5.6332 2.5305 -2.2084 0.9741
-5.9538 1.4793 -2.1939 0.9743
-6.0619 0.3937 -2.1723 0.9745
1.0086 -4.7172 -1.8486 0.9795
1.4185 -4.5859 -1.8395 0.9796
1.8141 -4.4220 -1.8317 0.9797
2.5541 -4.0024 -1.8195 0.9799
2.8942 -3.7499 -1.8153 0.9799
3.2119 -3.4710 -1.8123 0.9799
3.5055 -3.1676 -1.8106 0.9800
4.0135 -2.4948 -1.8110 0.9800
4.2250 -2.1292 -1.8131 0.9799
2.6293 -0.7793 -1.0509 0.9883
2.5747 -0.5187 -1.0065 0.9888
2.5123 -0.2761 -0.9686 0.9892
2.4754 -0.0499 -0.9488 0.9895
2.6969 0.4312 -1.0466 0.9884
2.8339 0.7172 -1.1202 0.9876
2.9858 1.0468 -1.2125 0.9865
3.2669 1.4846 -1.3751 0.9847
3.8998 3.2484 -1.9450 0.9785
3.6247 3.6136 -1.9614 0.9783
2.6050 4.5611 -2.0129 0.9778
1.7834 5.0374 -2.0478 0.9774
1.3380 5.2199 -2.0650 0.9772
0.8741 5.3619 -2.0819 0.9770
-1.0872 5.4833 -2.1422 0.9763
-1.5812 5.3957 -2.1547 0.9762
-2.0670 5.2602 -2.1659 0.9761
-2.5394 5.0775 -2.1756 0.9760
-2.9933 4.8487 -2.1837 0.9759
-3.8267 4.2611 -2.1948 0.9758
-4.8247 3.0997 -2.1976 0.9757
-5.0756 2.6535 -2.1948 0.9758
-2.3020 -0.1251 -0.8835 0.9902
-5.4977 -0.7951 -2.1287 0.9765
-5.1939 -1.7344 -2.0984 0.9768
-4.9795 -2.1738 -2.0821 0.9770
-4.7271 -2.5883 -2.0653 0.9772
-4.4401 -2.9747 -2.0481 0.9774
-3.7752 -3.6530 -2.0131 0.9777
-3.4045 -3.9409 -1.9957 0.9779
-3.0131 -4.1924 -1.9785 0.9781
-2.6047 -4.4067 -1.9617 0.9783
-2.1828 -4.5829 -1.9453 0.9785
-0.4286 -4.9041 -1.8865 0.9791
0.4441 -4.8394 -1.8624 0.9794
0.8691 -4.7535 -1.8518 0.9795
2.0688 -4.2955 -1.8271 0.9798
2.4359 -4.0806 -1.8212 0.9798
2.7831 -3.8372 -1.8165 0.9799
3.4103 -3.2715 -1.8110 0.9800
4.1577 -2.2532 -1.8122 0.9799
3.0121 -1.2995 -1.2571 0.9860
2.5295 -0.8325 -1.0205 0.9887
2.5919 -0.6031 -1.0198 0.9887
2.5438 0.1002 -0.9756 0.9892
2.6610 0.3444 -1.0283 0.9886
2.8154 0.6238 -1.1051 0.9877
3.1666 1.3266 -1.3157 0.9854
3.4639 1.8301 -1.5013 0.9834
3.9201 2.5426 -1.7906 0.9802
3.9839 3.1221 -1.9397 0.9786
3.7203 3.4941 -1.9559 0.9784
3.4227 3.8446 -1.9726 0.9782
2.3426 4.7352 -2.0245 0.9776
1.4889 5.1634 -2.0593 0.9772
1.0307 5.3192 -2.0763 0.9771
0.5565 5.4327 -2.0928 0.9769
0.0701 5.5021 -2.1087 0.9767
-0.4241 5.5255 -2.1237 0.9765
-0.9214 5.5018 -2.1378 0.9764
-1.9061 5.3108 -2.1623 0.9761
-2.3835 5.1437 -2.1725 0.9760
-3.2832 4.6716 -2.1882 0.9758
-4.4237 3.6525 -2.1984 0.9757
-5.3915 1.8640 -2.1861 0.9759
-5.5172 1.3708 -2.1786 0.9759
2.0644 -3.9784 -1.8344 0.9808
2.7248 -3.5304 -1.8252 0.9809
3.5530 -2.6757 -1.8204 0.9810
3.7792 -2.3491 -1.8212 0.9810
3.9780 -2.0048 -1.8232 0.9809
2.4700 -0.4976 -1.0312 0.9892
2.4129 -0.2652 -0.9935 0.9896
2.4549 -0.0495 -1.0050 0.9894
2.5500 0.1767 -1.0462 0.9890
2.6805 0.4285 -1.1110 0.9883
2.8066 0.7102 -1.1849 0.9876
2.9971 1.0507 -1.2998 0.9864
3.5755 2.0276 -1.6823 0.9824
3.8835 2.6866 -1.9327 0.9798
2.4370 4.2669 -2.0111 0.9790
1.6665 4.7073 -2.0437 0.9786
1.2497 4.8752 -2.0598 0.9785
0.8159 5.0050 -2.0755 0.9783
-0.0878 5.1428 -2.1051 0.9780
-1.4726 5.0249 -2.1431 0.9776
-2.7851 4.5114 -2.1699 0.9773
-3.5592 3.9632 -2.1801 0.9772
-3.9033 3.6342 -2.1827 0.9772
-4.7207 2.4680 -2.1802 0.9772
-4.9125 2.0330 -2.1759 0.9773
-5.0604 1.5823 -2.1700 0.9773
-2.0861 0.4527 -0.8737 0.9908
-2.0061 -0.1090 -0.8222 0.9914
-2.0977 -0.4977 -0.8824 0.9907
-4.6481 -2.0292 -2.0757 0.9783
-3.5317 -3.4175 -2.0114 0.9790
-3.1867 -3.6888 -1.9951 0.9792
-2.4407 -4.1293 -1.9632 0.9795
-2.0465 -4.2966 -1.9478 0.9796
-1.6424 -4.4281 -1.9329 0.9798
-1.2316 -4.5234 -1.9187 0.9799
-0.8174 -4.5828 -1.9052 0.9801
0.0100 -4.5951 -1.8807 0.9803
0.4174 -4.5493 -1.8697 0.9804
0.8173 -4.4701 -1.8598 0.9806
1.2070 -4.3584 -1.8509 0.9806
1.9470 -4.0425 -1.8364 0.9808
2.6201 -3.6124 -1.8264 0.9809
2.9268 -3.3584 -1.8232 0.9809
3.2112 -3.0804 -1.8212 0.9810
3.4716 -2.7804 -1.8204 0.9810
3.7066 -2.4602 -1.8208 0.9810
3.9148 -2.1215 -1.8224 0.9809
2.5314 -0.8331 -1.0907 0.9885
2.4267 -0.3402 -1.0029 0.9895
2.4379 -0.1219 -0.9990 0.9895
2.5156 0.0991 -1.0304 0.9892
2.6377 0.3414 -1.0886 0.9886
2.9228 0.9278 -1.2550 0.9868
2.8954 3.9044 -1.9894 0.9792
2.5562 4.1810 -2.0057 0.9790
2.1907 4.4282 -2.0220 0.9789
1.8013 4.6432 -2.0383 0.9787
1.3908 4.8232 -2.0545 0.9785
0.9623 4.9660 -2.0703 0.9784
0.5193 5.0694 -2.0856 0.9782
-0.8585 5.1265 -2.1274 0.9778
-1.3199 5.0578 -2.1393 0.9777
-2.2185 4.7875 -2.1596 0.9775
-3.0543 4.3460 -2.1740 0.9773
-3.7920 3.7478 -2.1821 0.9772
-4.4001 3.0158 -2.1832 0.9772
-2.1035 0.5226 -0.8871 0.9907
-2.0094 0.1305 -0.8241 0.9913
1.2584 -4.0685 -1.8560 0.9816
1.9477 -3.7535 -1.8429 0.9817
2.2687 -3.5553 -1.8380 0.9818
2.5715 -3.3318 -1.8342 0.9818
2.8543 -3.0846 -1.8316 0.9818
3.3536 -2.5256 -1.8296 0.9818
3.5670 -2.2172 -1.8304 0.9818
2.5058 -0.9935 -1.1748 0.9883
2.5638 -0.7599 -1.1654 0.9884
2.4095 -0.4854 -1.0712 0.9893
2.5221 0.1748 -1.1018 0.9890
2.7958 0.7075 -1.2568 0.9875
3.0110 1.0556 -1.3906 0.9862
3.8371 2.1759 -1.9224 0.9809
2.2868 4.0039 -2.0095 0.9801
1.5622 4.4127 -2.0401 0.9798
0.7641 4.6873 -2.0698 0.9795
-0.0822 4.8119 -2.0974 0.9792
-0.9470 4.7760 -2.1220 0.9790
-1.3763 4.6962 -2.1328 0.9789
-2.2074 4.4137 -2.1507 0.9787
-2.6008 4.2128 -2.1577 0.9786
-3.3226 3.6998 -2.1672 0.9785
-3.9331 3.0549 -2.1704 0.9785
-4.1884 2.6909 -2.1696 0.9785
-4.4069 2.3039 -2.1672 0.9785
-4.5865 1.8981 -2.1633 0.9786
-1.4939 0.4671 -0.6822 0.9932
-1.4728 0.1841 -0.6469 0.9935
-1.4447 0.0506 -0.6300 0.9937
-1.4737 -0.2131 -0.6490 0.9935
-4.3529 -1.9003 -2.0700 0.9795
-4.1366 -2.2650 -2.0553 0.9796
-3.8894 -2.6058 -2.0403 0.9798
-3.6142 -2.9204 -2.0251 0.9799
-3.3140 -3.2068 -2.0098 0.9801
-2.6506 -3.6880 -1.9794 0.9804
-2.2937 -3.8804 -1.9645 0.9805
-1.9240 -4.0396 -1.9500 0.9807
-1.5448 -4.1651 -1.9361 0.9808
-1.1590 -4.2566 -1.9226 0.9809
-0.7695 -4.3143 -1.9099 0.9811
-0.3791 -4.3383 -1.8979 0.9812
0.0094 -4.3291 -1.8867 0.9813
0.3934 -4.2875 -1.8764 0.9814
1.1382 -4.1099 -1.8586 0.9816
2.1635 -3.6243 -1.8396 0.9818
2.7623 -3.1696 -1.8323 0.9818
3.2768 -2.6244 -1.8296 0.9818
3.6949 -2.0023 -1.8315 0.9818
2.9343 -1.2659 -1.3927 0.9862
2.5335 -0.8338 -1.1624 0.9884
2.4395 -0.5677 -1.0916 0.9891
2.4217 -0.1211 -1.0567 0.9895
2.6104 0.3379 -1.1472 0.9886
2.9371 0.9324 -1.3430 0.9866
3.1925 1.3374 -1.5085 0.9850
3.4818 1.8395 -1.7162 0.9830
3.7179 2.4114 -1.9313 0.9808
3.5129 2.7530 -1.9451 0.9807
3.2772 3.0779 -1.9594 0.9806
2.7187 3.6662 -1.9892 0.9803
2.3990 3.9240 -2.0044 0.9801
0.9014 4.6515 -2.0649 0.9795
0.4861 4.7461 -2.0793 0.9794
-0.8028 4.7934 -2.1181 0.9790
-1.6583 4.6201 -2.1393 0.9788
-2.0723 4.4721 -2.1481 0.9787
-2.4715 4.2841 -2.1555 0.9787
-3.2091 3.7951 -2.1660 0.9785
-1.4905 0.5153 -0.6873 0.9931
-1.4734 0.2290 -0.6498 0.9935
-1.4587 0.0947 -0.6371 0.9936
1.1894 -3.8452 -1.8631 0.9824
2.1454 -3.3620 -1.8461 0.9826
2.4320 -3.1510 -1.8424 0.9826
2.6997 -2.9174 -1.8399 0.9826
2.9468 -2.6628 -1.8385 0.9826
3.1720 -2.3888 -1.8381 0.9826
3.5509 -1.7895 -1.8406 0.9826
2.3986 -0.4832 -1.1326 0.9893
2.3801 -0.2616 -1.1084 0.9895
2.4200 -0.0488 -1.1204 0.9894
2.5430 0.1762 -1.1800 0.9888
2.6474 0.4232 -1.2410 0.9883
2.8089 0.7108 -1.3412 0.9873
3.0265 1.0610 -1.4845 0.9860
3.2400 2.6988 -1.9519 0.9816
2.7471 3.2774 -1.9795 0.9813
2.1516 3.7671 -2.0081 0.9811
1.8199 3.9723 -2.0225 0.9809
1.1002 4.2919 -2.0509 0.9807
-0.4824 4.5164 -2.1024 0.9802
-1.2902 4.4025 -2.1236 0.9800
-2.0682 4.1355 -2.1403 0.9798
-2.4363 3.9464 -2.1468 0.9798
-2.7853 3.7222 -2.1519 0.9797
-3.1117 3.4649 -2.1557 0.9797
-3.9222 2.5198 -2.1579 0.9797
-4.1271 2.1576 -2.1557 0.9797
-1.2657 0.0444 -0.5862 0.9944
-1.2749 -0.1844 -0.5963 0.9943
-1.2695 -0.3012 -0.6039 0.9943
-1.2665 -0.4229 -0.6181 0.9941
-1.2475 -0.5446 -0.6301 0.9940
-3.8867 -2.1281 -2.0511 0.9807
-3.6561 -2.4495 -2.0370 0.9808
-3.1180 -3.0171 -2.0083 0.9811
-2.8161 -3.2597 -1.9940 0.9812
-2.4961 -3.4730 -1.9797 0.9813
-2.1609 -3.6558 -1.9657 0.9815
-1.8134 -3.8074 -1.9521 0.9816
-1.0932 -4.0152 -1.9262 0.9818
-0.7261 -4.0711 -1.9142 0.9819
-0.3579 -4.0952 -1.9028 0.9820
0.7280 -3.9815 -1.8735 0.9823
1.0757 -3.8841 -1.8656 0.9824
1.4125 -3.7584 -1.8585 0.9825
1.7366 -3.6057 -1.8525 0.9825
2.3384 -3.2240 -1.8435 0.9826
2.8667 -2.7500 -1.8388 0.9826
3.0994 -2.4823 -1.8381 0.9826
3.3091 -2.1963 -1.8384 0.9826
2.8958 -1.2493 -1.4598 0.9862
2.4387 -0.5675 -1.1590 0.9890
2.3706 -0.3323 -1.1080 0.9895
2.4697 0.0973 -1.1441 0.9892
2.9131 0.3770 -1.3597 0.9871
2.7442 0.6080 -1.3010 0.9877
2.9517 0.9370 -1.4335 0.9864
3.2043 1.3424 -1.6081 0.9848
3.6712 1.9396 -1.9219 0.9819
3.5061 2.2740 -1.9344 0.9817
3.3114 2.5951 -1.9474 0.9816
2.8368 3.1865 -1.9748 0.9814
2.5594 3.4514 -1.9890 0.9812
1.9329 3.9070 -2.0177 0.9810
1.5878 4.0928 -2.0321 0.9808
0.0574 4.5070 -2.0864 0.9803
-0.7529 4.4956 -2.1099 0.9801
-1.1566 4.4322 -2.1203 0.9800
-2.6712 3.8008 -2.1504 0.9797
-3.5960 2.9691 -2.1586 0.9797
-4.0627 2.2807 -2.1566 0.9797
-1.2548 0.5637 -0.6367 0.9940
-1.2701 0.3156 -0.6058 0.9942
-1.2743 0.1981 -0.5969 0.9943
0.4650 -3.8147 -1.8851 0.9830
0.8000 -3.7417 -1.8769 0.9831
1.1263 -3.6412 -1.8696 0.9832
1.4417 -3.5142 -1.8632 0.9832
2.0325 -3.1852 -1.8534 0.9833
2.3043 -2.9856 -1.8500 0.9833
2.5581 -2.7645 -1.8475 0.9834
2.7925 -2.5233 -1.8462 0.9834
3.1970 -1.9873 -1.8465 0.9834
3.3647 -1.6957 -1.8482 0.9834
2.4606 -0.9756 -1.2984 0.9883
2.5478 -0.7552 -1.3035 0.9882
2.3902 -0.4816 -1.1960 0.9892
2.3719 -0.2607 -1.1705 0.9894
3.0424 1.0666 -1.5814 0.9857
3.5596 1.6176 -1.9179 0.9827
3.0603 2.5492 -1.9537 0.9824
2.8393 2.8306 -1.9666 0.9823
2.5927 3.0933 -1.9798 0.9822
2.3221 3.3347 -1.9933 0.9821
1.3838 3.9086 -2.0339 0.9817
0.6757 4.1449 -2.0600 0.9815
-0.0725 4.2486 -2.0843 0.9812
-1.2127 4.1382 -2.1153 0.9810
-1.5834 4.0295 -2.1237 0.9809
-1.9432 3.8854 -2.1309 0.9808
-2.2886 3.7071 -2.1370 0.9808
-2.6160 3.4960 -2.1418 0.9807
-3.6832 2.3663 -2.1474 0.9807
-1.0952 0.5726 -0.6062 0.9945
-1.1099 0.4593 -0.5892 0.9947
-1.1296 0.3532 -0.5806 0.9947
-1.1443 0.1431 -0.5657 0.9949
-1.1396 0.0400 -0.5593 0.9949
-1.1419 -0.0621 -0.5609 0.9949
-1.1437 -0.1654 -0.5668 0.9949
-1.1327 -0.2688 -0.5711 0.9948
-1.1269 -0.3763 -0.5828 0.9947
-1.1034 -0.4817 -0.5905 0.9947
-1.1108 -0.6082 -0.6212 0.9944
-3.4450 -2.3081 -2.0341 0.9817
-2.9404 -2.8453 -2.0070 0.9819
-2.0403 -3.4517 -1.9668 0.9823
-1.7129 -3.5963 -1.9539 0.9824
-1.0334 -3.7953 -1.9295 0.9826
-0.6866 -3.8495 -1.9181 0.9827
-0.3385 -3.8735 -1.9073 0.9828
0.3517 -3.8328 -1.8880 0.9830
0.6891 -3.7692 -1.8795 0.9831
1.6449 -3.4154 -1.8595 0.9833
1.9381 -3.2467 -1.8548 0.9833
2.4755 -2.8406 -1.8482 0.9834
2.9371 -2.3523 -1.8458 0.9834
3.3114 -1.7945 -1.8475 0.9834
2.3624 -0.3312 -1.1701 0.9894
2.3906 -0.1195 -1.1741 0.9894
2.5842 0.3345 -1.2782 0.9885
2.9667 0.9418 -1.5268 0.9862
3.3134 2.1490 -1.9372 0.9826
3.1282 2.4515 -1.9495 0.9824
2.1292 3.4826 -2.0023 0.9820
1.8223 3.6835 -2.0159 0.9819
0.7973 4.1144 -2.0558 0.9815
0.4297 4.1947 -2.0684 0.9814
0.0540 4.2409 -2.0804 0.9813
-0.3263 4.2520 -2.0918 0.9812
-0.7079 4.2273 -2.1025 0.9811
-1.0873 4.1665 -2.1122 0.9810
-1.8245 3.9373 -2.1286 0.9809
-2.5090 3.5700 -2.1404 0.9807
-2.8226 3.3380 -2.1443 0.9807
-3.1129 3.0766 -2.1469 0.9807
-3.3768 2.7881 -2.1480 0.9807
-3.8153 2.1418 -2.1462 0.9807
-1.0994 0.4939 -0.5912 0.9946
-1.1250 0.3889 -0.5839 0.9947
-1.1330 0.2815 -0.5726 0.9948
-1.1428 0.0742 -0.5618 0.9949
0.7587 -3.5485 -1.8825 0.9838
1.0683 -3.4539 -1.8756 0.9838
1.9288 -3.0226 -1.8601 0.9840
2.4280 -2.6238 -1.8546 0.9840
2.6505 -2.3951 -1.8532 0.9840
2.4408 -0.0492 -1.2665 0.9891
2.4968 0.1730 -1.2984 0.9888
2.8364 0.7178 -1.5179 0.9869
2.6860 2.6778 -1.9676 0.9831
2.4519 2.9252 -1.9801 0.9829
2.1952 3.1524 -1.9928 0.9828
1.9174 3.3571 -2.0057 0.9827
1.3067 3.6908 -2.0312 0.9825
0.9782 3.8160 -2.0437 0.9824
0.6376 3.9112 -2.0558 0.9823
-0.0684 4.0063 -2.0787 0.9821
-1.4915 3.7956 -2.1156 0.9818
-2.4630 3.2915 -2.1327 0.9816
-2.7510 3.0633 -2.1359 0.9816
-3.0161 2.8082 -2.1379 0.9816
-3.2556 2.5287 -2.1386 0.9816
-0.9965 0.4124 -0.5595 0.9952
-1.0159 0.3177 -0.5522 0.9952
-1.0265 0.2228 -0.5449 0.9953
-1.0370 0.1297 -0.5422 0.9953
-1.0342 0.0363 -0.5369 0.9953
-1.0360 -0.0563 -0.5383 0.9953
-1.0358 -0.1498 -0.5429 0.9953
-1.0227 -0.2426 -0.5453 0.9953
-1.0130 -0.3383 -0.5541 0.9952
-3.2530 -2.1795 -2.0314 0.9825
-3.0266 -2.4456 -2.0187 0.9826
-2.7786 -2.6887 -2.0059 0.9827
-2.2278 -3.0998 -1.9803 0.9829
-1.9301 -3.2654 -1.9678 0.9831
-1.6210 -3.4033 -1.9556 0.9832
-1.3030 -3.5130 -1.9438 0.9833
-0.9786 -3.5941 -1.9324 0.9834
0.0079 -3.6660 -1.9019 0.9836
0.6535 -3.5743 -1.8850 0.9838
0.9661 -3.4883 -1.8778 0.9838
1.2691 -3.3768 -1.8714 0.9839
1.5607 -3.2406 -1.8660 0.9839
2.3495 -2.6960 -1.8552 0.9840
2.7878 -2.2327 -1.8529 0.9840
2.9764 -1.9755 -1.8532 0.9840
2.5398 -0.8359 -1.3871 0.9880
2.4373 -0.5671 -1.2982 0.9888
2.3831 -0.1191 -1.2378 0.9893
2.5869 0.3348 -1.3532 0.9883
2.7726 0.6143 -1.4733 0.9873
3.1370 2.0347 -1.9398 0.9833
2.9607 2.3203 -1.9514 0.9832
2.2833 3.0790 -1.9886 0.9829
2.0123 3.2914 -2.0014 0.9828
1.4132 3.6426 -2.0269 0.9825
-2.0482 3.5504 -2.1264 0.9817
-3.1787 2.6245 -2.1385 0.9816
-0.9496 0.5331 -0.5650 0.9951
-1.0112 0.3496 -0.5550 0.9952
-1.0367 0.0673 -0.5390 0.9953
0.4187 -3.4346 -1.8951 0.9843
0.7206 -3.3703 -1.8877 0.9844
1.2996 -3.1677 -1.8753 0.9845
1.8331 -2.8726 -1.8664 0.9846
2.0785 -2.6931 -1.8632 0.9846
2.8843 -1.7929 -1.8601 0.9846
3.0353 -1.5297 -1.8616 0.9846
2.4648 -0.9773 -1.4522 0.9880
1.8802 -0.5573 -1.0741 0.9911
1.8854 -0.3799 -1.0534 0.9913
1.8892 -0.2077 -1.0409 0.9914
1.8776 -0.0378 -1.0286 0.9915
1.8872 0.3017 -1.0468 0.9913
1.9146 0.6712 -1.1112 0.9908
3.0732 1.7427 -1.9350 0.9840
2.9216 2.0212 -1.9458 0.9839
2.5454 2.5376 -1.9686 0.9837
2.3228 2.7711 -1.9804 0.9836
2.0788 2.9854 -1.9925 0.9835
1.5336 3.3475 -2.0167 0.9833
1.2362 3.4917 -2.0287 0.9832
0.6028 3.6977 -2.0520 0.9831
-0.4040 3.7824 -2.0834 0.9828
-0.7431 3.7477 -2.0926 0.9827
-1.0788 3.6811 -2.1009 0.9827
-1.4078 3.5828 -2.1084 0.9826
-2.3238 3.1055 -2.1244 0.9825
-2.5953 2.8899 -2.1274 0.9824
-2.8453 2.6492 -2.1293 0.9824
-3.0712 2.3855 -2.1299 0.9824
-0.8682 0.5578 -0.5652 0.9953
-0.9056 0.3748 -0.5368 0.9955
-0.9466 0.1183 -0.5225 0.9957
-0.9448 0.0331 -0.5178 0.9957
-0.9463 -0.0514 -0.5190 0.9957
-0.9319 -0.2211 -0.5246 0.9956
-0.8735 -0.5852 -0.5759 0.9952
-2.8642 -2.3144 -2.0169 0.9833
-2.3784 -2.7531 -1.9926 0.9835
-1.8291 -3.0944 -1.9688 0.9837
-1.5366 -3.2262 -1.9572 0.9838
-0.9282 -3.4091 -1.9352 0.9840
-0.3044 -3.4835 -1.9152 0.9842
0.0075 -3.4801 -1.9061 0.9843
0.3166 -3.4503 -1.8977 0.9843
0.6206 -3.3946 -1.8901 0.9844
0.9177 -3.3136 -1.8832 0.9844
1.2057 -3.2082 -1.8771 0.9845
1.9984 -2.7552 -1.8642 0.9846
2.6499 -2.1223 -1.8595 0.9846
3.1236 -1.3476 -1.8632 0.9846
1.8885 -0.2648 -1.0445 0.9913
1.8841 -0.0942 -1.0332 0.9914
1.8821 0.0742 -1.0316 0.9914
3.2357 1.3555 -1.9214 0.9841
3.1181 1.6474 -1.9315 0.9840
2.9750 1.9296 -1.9421 0.9840
1.3371 3.4465 -2.0247 0.9833
0.7114 3.6713 -2.0482 0.9831
0.3831 3.7405 -2.0594 0.9830
0.0481 3.7793 -2.0701 0.9829
-0.2906 3.7869 -2.0802 0.9828
-0.6302 3.7629 -2.0896 0.9828
