ply
format ascii 1.0
element vertex 1394
property float32 x
property float32 y
property float32 z
property float32 I
end_header
11.6510 13.8502 3.1913 0.9291
9.6969 13.8693 2.9840 0.9336
8.0687 14.0608 2.8585 0.9363
6.4051 13.9014 2.6989 0.9397
3.6193 13.9786 2.5461 0.9430
1.0605 14.1243 2.4975 0.9441
-0.1991 13.9609 2.4619 0.9449
-1.4692 14.1490 2.5083 0.9439
-2.7285 13.9857 2.5125 0.9438
-8.1271 -16.7730 3.2864 0.9271
-6.6218 -17.4863 3.2970 0.9269
-3.1757 -17.1034 3.0673 0.9318
-1.6272 -17.1895 3.0445 0.9323
12.5938 13.8410 3.2996 0.9268
7.0694 13.8949 2.7489 0.9386
0.3480 14.1312 2.4925 0.9442
-0.9034 13.9678 2.4680 0.9447
-2.1875 14.1119 2.5180 0.9436
-3.4687 13.9929 2.5420 0.9431
13.9162 13.8280 3.0054 0.9237
4.9625 13.9155 2.2633 0.9420
2.3084 13.9365 2.1641 0.9444
1.0605 14.1243 2.1698 0.9443
-0.1991 13.9609 2.1390 0.9451
-2.7285 13.9857 2.1829 0.9440
-5.4523 14.0123 2.3034 0.9410
-6.4070 -16.9190 2.7715 0.9294
-1.6130 -17.0395 2.6220 0.9331
1.4970 -17.7736 2.7325 0.9304
2.9540 -16.8812 2.6254 0.9330
4.5902 -17.0875 2.7105 0.9309
12.5938 13.8410 2.8667 0.9271
7.0694 13.8949 2.3883 0.9389
5.6490 14.0844 2.3247 0.9404
4.1872 13.9181 2.2266 0.9429
2.8792 13.9858 2.1875 0.9439
-3.4687 13.9929 2.2085 0.9433
13.9162 13.8280 2.5547 0.9239
9.6969 13.8693 2.2037 0.9340
7.9684 13.8862 2.0848 0.9375
6.4051 13.9014 1.9932 0.9401
2.3084 13.9364 1.8395 0.9446
1.0298 13.7152 1.7910 0.9460
-2.7285 13.9857 1.8556 0.9441
-6.4602 -17.0596 2.3755 0.9291
4.6136 -17.1744 2.3158 0.9308
12.5938 13.8410 2.4368 0.9273
8.7124 13.9012 2.1364 0.9360
7.0694 13.8949 2.0301 0.9391
4.1872 13.9181 1.8927 0.9431
1.5940 13.9434 1.8276 0.9450
0.3379 13.7219 1.7874 0.9461
-4.8319 14.0062 1.9294 0.9420
7.8818 13.7351 1.7005 0.9383
2.3084 13.9365 1.5169 0.9448
1.0445 13.9115 1.4980 0.9454
-1.4510 13.9732 1.5085 0.9451
-2.7285 13.9857 1.5301 0.9443
-11.1599 -6.0268 1.3620 0.9503
-11.1683 -7.3871 1.4379 0.9476
-8.1271 -16.7730 2.0014 0.9278
-1.6209 -17.1226 1.8469 0.9331
2.9540 -16.8812 1.8403 0.9334
4.6132 -17.1732 1.9095 0.9310
8.1230 -17.2167 2.0442 0.9263
2.8679 13.9310 1.5273 0.9444
1.5940 13.9434 1.5070 0.9451
-3.4687 13.9929 1.5481 0.9437
-4.8319 14.0062 1.5910 0.9421
13.9162 13.8281 1.6607 0.9243
11.6510 13.8502 1.5321 0.9299
6.4051 13.9014 1.2957 0.9404
4.9625 13.9155 1.2507 0.9424
3.6193 13.9786 1.2223 0.9437
1.0551 14.0530 1.1930 0.9450
-0.1991 13.9609 1.1820 0.9455
-2.7285 13.9857 1.2062 0.9444
-4.1048 14.1747 1.2492 0.9425
-16.6723 -5.4651 1.4852 0.9320
-12.6800 -5.4503 1.1684 0.9461
-11.1394 -6.0158 1.0717 0.9504
-11.1467 -7.3728 1.1313 0.9478
-8.1271 -16.7730 1.5778 0.9279
-6.4592 -17.0571 1.5440 0.9294
-1.6208 -17.1214 1.4559 0.9333
2.9540 -16.8812 1.4508 0.9335
4.6129 -17.1720 1.5052 0.9311
8.1224 -17.2154 1.6114 0.9264
12.5938 13.8410 1.5841 0.9276
8.6985 13.8790 1.3866 0.9364
7.0694 13.8949 1.3197 0.9393
5.6008 13.9642 1.2736 0.9414
4.1872 13.9181 1.2304 0.9433
2.8792 13.9858 1.2088 0.9443
1.5940 13.9434 1.1880 0.9452
0.3462 14.0599 1.1906 0.9451
13.9162 13.8280 1.2165 0.9244
9.6969 13.8693 1.0494 0.9344
4.9625 13.9155 0.9161 0.9425
2.3084 13.9364 0.8760 0.9450
1.0551 14.0530 0.8739 0.9451
-1.4692 14.1490 0.8821 0.9446
-2.7285 13.9857 0.8836 0.9445
-4.0920 14.1305 0.9122 0.9427
-5.4523 14.0123 0.9324 0.9415
-16.6115 -5.4452 1.0840 0.9323
-12.6435 -5.4347 0.8534 0.9463
-11.1191 -6.0048 0.7836 0.9506
-6.4588 -17.0559 1.1309 0.9295
-3.1762 -17.1058 1.0789 0.9326
-1.6207 -17.1203 1.0664 0.9334
2.9540 -16.8812 1.0627 0.9336
8.1218 -17.2141 1.1803 0.9266
10.5952 13.9648 1.0870 0.9322
8.7151 13.9055 1.0176 0.9363
2.8792 13.9858 0.8855 0.9444
1.5940 13.9434 0.8703 0.9453
0.3462 14.0599 0.8721 0.9452
13.9162 13.8280 0.7736 0.9245
11.6510 13.8502 0.7137 0.9301
8.0687 14.0608 0.6392 0.9372
6.4051 13.9014 0.6035 0.9406
3.6504 14.0990 0.5743 0.9434
2.3084 13.9364 0.5570 0.9450
1.0551 14.0530 0.5557 0.9451
-0.1991 13.9609 0.5506 0.9456
-1.4692 14.1490 0.5609 0.9446
-16.5434 -5.4228 0.6865 0.9327
-11.0990 -5.9939 0.4974 0.9508
-8.1271 -16.7730 0.7349 0.9281
2.9539 -16.8812 0.6758 0.9337
10.0952 -17.2279 0.7874 0.9232
10.5952 13.9648 0.6912 0.9322
8.7160 13.9070 0.6472 0.9364
7.0694 13.8949 0.6147 0.9395
5.6008 13.9642 0.5933 0.9415
1.5940 13.9434 0.5534 0.9454
-2.1875 14.1119 0.5631 0.9444
-3.4687 13.9929 0.5685 0.9439
13.9162 13.8281 0.3314 0.9245
9.6969 13.8693 0.2859 0.9345
8.0687 14.0608 0.2738 0.9372
6.4051 13.9014 0.2585 0.9406
4.9625 13.9155 0.2496 0.9426
2.3084 13.9365 0.2386 0.9451
1.0551 14.0530 0.2380 0.9452
-0.1991 13.9609 0.2359 0.9457
-1.4692 14.1490 0.2403 0.9447
-4.1048 14.1747 0.2493 0.9427
-5.4523 14.0123 0.2540 0.9416
-12.5833 -5.4088 0.2314 0.9467
-11.0789 -5.9831 0.2127 0.9509
-8.1271 -16.7730 0.3148 0.9281
-6.4578 -17.0534 0.3080 0.9296
-3.1757 -17.1034 0.2938 0.9328
-1.6204 -17.1180 0.2904 0.9335
2.9540 -16.8812 0.2895 0.9337
4.6120 -17.1684 0.3003 0.9314
10.0945 -17.2266 0.3373 0.9232
8.7169 13.9084 0.2773 0.9364
4.1872 13.9181 0.2455 0.9435
1.5940 13.9434 0.2371 0.9454
0.3462 14.0599 0.2376 0.9453
-3.4687 13.9929 0.2435 0.9440
-4.8319 14.0062 0.2503 0.9424
13.9162 13.8280 -0.1105 0.9245
11.6510 13.8502 -0.1019 0.9302
8.0687 14.0608 -0.0913 0.9372
4.9625 13.9155 -0.0832 0.9426
2.3084 13.9365 -0.0795 0.9451
1.0551 14.0530 -0.0793 0.9452
-0.1992 13.9609 -0.0786 0.9457
-1.4692 14.1490 -0.0801 0.9447
-4.1048 14.1747 -0.0831 0.9427
-5.4523 14.0123 -0.0847 0.9416
-12.5723 -5.4041 -0.0770 0.9467
-11.0683 -5.9774 -0.0708 0.9509
-11.0713 -7.3230 -0.0747 0.9483
-1.6203 -17.1168 -0.0968 0.9335
2.9539 -16.8812 -0.0965 0.9337
4.6116 -17.1672 -0.1001 0.9314
8.1199 -17.2101 -0.1071 0.9267
10.0937 -17.2253 -0.1124 0.9232
12.5938 13.8410 -0.1054 0.9279
8.7178 13.9098 -0.0924 0.9364
5.6490 14.0844 -0.0854 0.9411
4.1872 13.9181 -0.0818 0.9435
2.9040 14.1063 -0.0811 0.9440
1.5940 13.9434 -0.0790 0.9454
-2.1875 14.1119 -0.0804 0.9445
-3.4687 13.9929 -0.0812 0.9440
-4.8319 14.0062 -0.0834 0.9425
-18.8222 -5.3691 -0.1102 0.9247
13.9162 13.8281 -0.5524 0.9245
8.0687 14.0608 -0.4565 0.9372
4.9625 13.9155 -0.4160 0.9426
1.0551 14.0530 -0.3968 0.9452
-5.4523 14.0123 -0.4234 0.9416
-16.4370 -5.3879 -0.4871 0.9331
-8.1271 -16.7730 -0.5248 0.9281
-3.1753 -17.1010 -0.4898 0.9328
2.9540 -16.8812 -0.4826 0.9337
4.6113 -17.1660 -0.5005 0.9313
10.0929 -17.2239 -0.5621 0.9232
10.5952 13.9648 -0.4936 0.9323
7.0694 13.8949 -0.4390 0.9395
5.6490 14.0844 -0.4273 0.9411
4.1872 13.9181 -0.4093 0.9435
0.3462 14.0599 -0.3960 0.9453
-2.1875 14.1119 -0.4021 0.9445
-3.4687 13.9929 -0.4059 0.9439
11.6006 13.7903 -0.9139 0.9304
9.6238 13.7647 -0.8518 0.9349
4.9028 13.7481 -0.7402 0.9432
3.5617 13.7562 -0.7206 0.9447
1.0551 14.0530 -0.7147 0.9451
-1.4335 13.8050 -0.7039 0.9459
-2.6957 13.8173 -0.7139 0.9452
-4.0050 13.8301 -0.7302 0.9440
-12.5811 -5.4079 -0.6945 0.9466
-11.0663 -5.9763 -0.6378 0.9509
-11.0692 -7.3216 -0.6731 0.9482
-8.1271 -16.7730 -0.9452 0.9281
-3.1751 -17.0998 -0.8820 0.9327
10.0921 -17.2226 -1.0123 0.9232
18.4933 -4.4847 -0.9651 0.9266
18.4947 -2.7707 -0.9484 0.9278
13.3387 0.3963 -0.6768 0.9480
13.2811 1.5867 -0.6783 0.9478
12.5605 13.8044 -0.9465 0.9280
8.6199 13.7536 -0.8232 0.9371
5.5117 13.7421 -0.7509 0.9424
1.5748 13.7756 -0.7032 0.9460
-3.4270 13.8245 -0.7223 0.9446
-4.7737 13.8376 -0.7424 0.9431
-19.0063 -5.4216 -1.0023 0.9239
13.9162 13.8281 -1.4385 0.9243
11.6510 13.8502 -1.3271 0.9300
4.9625 13.9155 -1.0833 0.9425
2.3084 13.9364 -1.0358 0.9449
1.0551 14.0530 -1.0333 0.9450
-2.7285 13.9857 -1.0448 0.9445
-5.4523 14.0123 -1.1024 0.9415
-19.3851 -4.4889 -1.4590 0.9233
-11.0653 -5.9757 -0.9221 0.9508
-11.0682 -7.3209 -0.9730 0.9482
-6.4349 -16.9930 -1.3323 0.9297
-1.6145 -17.0546 -1.2561 0.9336
1.5422 -18.3109 -1.3473 0.9290
2.9540 -16.8812 -1.2566 0.9336
4.5955 -17.1070 -1.2988 0.9314
18.7519 -4.5474 -1.4148 0.9255
18.4388 -2.7624 -1.3671 0.9279
12.6530 0.3759 -0.9282 0.9505
12.9632 1.5487 -0.9573 0.9490
12.5938 13.8410 -1.3721 0.9277
8.6985 13.8790 -1.2010 0.9364
7.0694 13.8949 -1.1431 0.9394
5.5788 13.9095 -1.0988 0.9417
4.1872 13.9181 -1.0657 0.9434
1.5940 13.9434 -1.0290 0.9453
0.3462 14.0599 -1.0312 0.9452
-2.1671 13.9802 -1.0373 0.9448
-19.3793 -3.7003 -1.4466 0.9239
-19.0063 -5.4216 -1.4492 0.9238
16.3648 9.2531 -1.8049 0.9272
15.4936 10.6867 -1.8070 0.9272
14.4992 12.0404 -1.8094 0.9271
13.3888 13.3040 -1.8121 0.9270
9.6970 13.8693 -1.6247 0.9343
7.9684 13.8862 -1.5370 0.9377
6.4051 13.9014 -1.4695 0.9403
1.0551 14.0530 -1.3530 0.9449
-1.4510 13.9732 -1.3487 0.9451
-4.0538 13.9986 -1.3992 0.9431
-11.6237 15.6545 -1.8719 0.9246
-14.2648 13.3878 -1.8782 0.9244
-15.4233 12.0814 -1.8809 0.9243
-16.4596 10.6732 -1.8834 0.9242
-19.3341 -4.4771 -1.9053 0.9233
-11.0643 -5.9752 -1.2072 0.9507
-11.0671 -7.3202 -1.2739 0.9481
-14.1358 -13.5103 -1.8773 0.9244
-12.8548 -14.6917 -1.8742 0.9246
-10.0068 -16.6786 -1.8673 0.9248
-3.1637 -17.0389 -1.6638 0.9327
-0.0994 -19.2027 -1.8436 0.9257
1.5433 -18.3236 -1.7654 0.9288
2.9540 -16.8812 -1.6453 0.9335
4.5951 -17.1058 -1.7005 0.9313
6.5572 -17.8726 -1.8277 0.9264
8.0895 -17.1457 -1.8201 0.9266
9.5869 -16.3605 -1.8205 0.9266
13.5026 -13.1755 -1.8112 0.9270
18.8549 -2.8247 -1.8304 0.9262
11.5564 0.3434 -1.1100 0.9546
12.8560 1.5359 -1.2430 0.9493
16.7045 8.6060 -1.8040 0.9273
15.8889 10.0710 -1.8060 0.9272
14.9474 11.4608 -1.8083 0.9271
13.8866 12.7649 -1.8109 0.9270
8.6985 13.8790 -1.5725 0.9363
7.0694 13.8949 -1.4967 0.9393
5.5788 13.9095 -1.4388 0.9416
4.1872 13.9181 -1.3954 0.9433
2.8679 13.9310 -1.3655 0.9444
0.3462 14.0599 -1.3502 0.9451
-0.9034 13.9678 -1.3438 0.9453
-2.1671 13.9802 -1.3582 0.9447
-4.8319 14.0062 -1.4224 0.9422
-12.4087 15.0650 -1.8738 0.9246
-13.7243 13.9228 -1.8769 0.9244
-14.9327 12.6640 -1.8797 0.9243
-17.8141 8.2944 -1.8865 0.9241
13.4957 7.6308 -1.8416 0.9395
12.5703 8.6703 -1.8139 0.9403
11.7606 9.7662 -1.8159 0.9403
10.8568 10.7881 -1.8181 0.9402
8.7940 12.5778 -1.8230 0.9401
7.6501 13.3313 -1.8258 0.9400
6.4051 13.9014 -1.8181 0.9402
3.6051 13.9238 -1.7085 0.9437
1.0222 13.6139 -1.6217 0.9465
-0.1991 13.9610 -1.6585 0.9453
-5.4523 14.0123 -1.7860 0.9412
-6.9582 14.0342 -1.8607 0.9389
-8.1937 13.3796 -1.8637 0.9388
-12.4174 9.7268 -1.8737 0.9384
-13.2484 8.5909 -1.8756 0.9384
-14.6686 7.7504 -1.9707 0.9354
-16.3281 5.1885 -2.0351 0.9333
-17.0026 2.2101 -2.0367 0.9333
-14.2525 -9.4271 -2.0298 0.9335
-13.3415 -10.6477 -2.0276 0.9336
-11.7003 -11.1826 -1.9225 0.9369
-9.2478 -12.6941 -1.8656 0.9387
-8.0679 -13.4470 -1.8628 0.9388
-2.8435 -15.3144 -1.8502 0.9392
-1.4653 -15.4791 -1.8469 0.9393
2.6657 -15.2338 -1.8371 0.9396
7.7671 -13.2549 -1.8249 0.9400
8.9039 -12.4917 -1.8222 0.9401
9.9675 -11.6327 -1.8197 0.9402
13.6884 -9.2592 -1.9630 0.9356
15.0890 -6.6718 -1.9598 0.9357
16.0159 -3.8839 -1.9576 0.9358
16.2929 -2.4409 -1.9570 0.9358
11.4880 0.3413 -1.3652 0.9548
12.8946 1.5405 -1.5426 0.9490
15.7634 4.8299 -1.9584 0.9357
14.6271 7.5357 -1.9545 0.9359
12.8923 8.1716 -1.8131 0.9404
12.1255 9.2971 -1.8150 0.9403
11.2619 10.3523 -1.8171 0.9402
10.3080 11.3287 -1.8194 0.9402
9.2705 12.2187 -1.8219 0.9401
8.1571 13.0152 -1.8246 0.9400
6.9760 13.7114 -1.8274 0.9399
1.5940 13.9434 -1.6671 0.9450
-2.1671 13.9802 -1.6805 0.9446
-4.8319 14.0062 -1.7600 0.9421
-7.6622 13.6787 -1.8624 0.9388
-12.8987 9.0955 -1.8748 0.9384
-15.5171 7.2249 -2.0332 0.9334
-16.1100 5.8178 -2.0346 0.9333
-16.5730 4.3618 -2.0357 0.9333
-16.9019 2.8691 -2.0364 0.9333
-17.0939 1.3522 -2.0369 0.9333
-17.0613 -1.7026 -2.0367 0.9333
12.0859 6.8337 -1.9672 0.9455
11.0991 7.6556 -1.9104 0.9470
9.1224 9.0647 -1.8222 0.9494
6.4236 11.1940 -1.8287 0.9492
5.4080 11.7374 -1.8311 0.9491
4.3469 12.1895 -1.8337 0.9491
3.2484 12.5462 -1.8363 0.9490
2.1209 12.8045 -1.8390 0.9489
-0.1857 13.0166 -1.8445 0.9488
-1.3466 12.9678 -1.8473 0.9487
-2.5002 12.8154 -1.8500 0.9486
-3.6372 12.5600 -1.8527 0.9485
-4.7485 12.2035 -1.8554 0.9485
-5.8248 11.7482 -1.8580 0.9484
-7.8373 10.5551 -1.8627 0.9483
-10.3830 8.1332 -1.8688 0.9481
-12.6448 6.6811 -2.0263 0.9439
-13.1982 5.5316 -2.0276 0.9438
-14.3171 0.5738 -2.0302 0.9438
-13.9526 -3.2309 -2.0292 0.9438
-13.1449 -5.6502 -2.0273 0.9438
-10.3083 -9.8522 -2.0204 0.9440
-6.7526 -11.2546 -1.8597 0.9484
-5.7154 -11.7956 -1.8572 0.9484
-0.0674 -13.0117 -1.8436 0.9488
1.0904 -12.9465 -1.8409 0.9489
2.2361 -12.7789 -1.8381 0.9489
3.3607 -12.5106 -1.8355 0.9490
4.4555 -12.1441 -1.8328 0.9491
5.5121 -11.6829 -1.8303 0.9492
9.0652 -10.5798 -1.9741 0.9453
9.9610 -9.7196 -1.9719 0.9453
12.1448 -6.7221 -1.9668 0.9455
13.4688 -3.2662 -1.9637 0.9455
13.7025 -2.0528 -1.9632 0.9456
11.4837 0.3412 -1.6278 0.9546
13.7573 1.6436 -1.9631 0.9456
13.5596 2.8634 -1.9636 0.9456
13.2557 4.0615 -1.9644 0.9455
12.8477 5.2289 -1.9654 0.9455
12.3386 6.3567 -1.9666 0.9455
8.6603 9.5179 -1.8233 0.9493
4.8145 12.0039 -1.8325 0.9491
3.7313 12.4027 -1.8351 0.9490
-0.8409 13.0018 -1.8461 0.9487
-1.9988 12.8945 -1.8488 0.9487
-3.1442 12.6839 -1.8516 0.9486
-4.2678 12.3712 -1.8542 0.9485
-5.3605 11.9586 -1.8569 0.9484
-7.4171 10.8460 -1.8617 0.9483
-12.3716 7.1653 -2.0257 0.9439
-12.9697 6.0388 -2.0271 0.9438
-13.4638 4.8622 -2.0283 0.9438
-14.2835 1.1299 -2.0301 0.9438
-14.2564 -1.4227 -2.0300 0.9438
-14.0697 -2.6865 -2.0295 0.9438
-13.7694 -3.9278 -2.0288 0.9438
10.4159 5.8894 -1.9712 0.9527
9.8566 6.7986 -1.9726 0.9526
9.1869 7.6290 -1.9672 0.9527
7.8589 7.8092 -1.8252 0.9561
6.3609 9.0978 -1.8288 0.9560
5.5312 9.6388 -1.8308 0.9559
3.7416 10.4920 -1.8351 0.9558
-0.1597 11.1948 -1.8444 0.9556
-1.1578 11.1504 -1.8468 0.9556
-2.1493 11.0170 -1.8492 0.9555
-4.0805 10.4868 -1.8538 0.9554
-5.8904 9.6185 -1.8581 0.9553
-8.2640 7.7560 -1.8671 0.9551
-10.2918 6.6737 -2.0207 0.9515
-11.3264 4.7471 -2.0232 0.9514
-11.7094 3.7208 -2.0240 0.9514
-11.9983 2.6637 -2.0247 0.9514
-12.2844 0.4924 -2.0253 0.9514
-12.1749 -1.6952 -2.0250 0.9514
-11.9725 -2.7724 -2.0245 0.9514
-11.2810 -4.8490 -2.0228 0.9514
-9.5776 -7.6438 -2.0187 0.9515
-8.8508 -8.4592 -2.0169 0.9516
-7.1949 -9.8761 -2.0129 0.9517
-5.3061 -10.9509 -2.0047 0.9519
-4.2363 -11.1870 -1.9706 0.9527
-3.1331 -11.1991 -1.9158 0.9540
-2.0811 -11.2080 -1.8780 0.9548
-0.0581 -11.2195 -1.8483 0.9555
5.1320 -10.8773 -1.9814 0.9524
7.8089 -9.1135 -1.9771 0.9525
10.9353 -4.8352 -1.9697 0.9527
11.3175 -3.8401 -1.9688 0.9527
11.8125 -1.7697 -1.9677 0.9527
11.9375 0.3547 -1.9674 0.9527
11.8597 1.4169 -1.9677 0.9527
11.6889 2.4683 -1.9681 0.9527
11.0738 4.5070 -1.9696 0.9527
9.5007 7.2846 -1.9723 0.9526
7.4601 8.1989 -1.8261 0.9561
5.0426 9.9112 -1.8319 0.9559
4.1444 10.3332 -1.8341 0.9559
3.2113 10.6743 -1.8363 0.9558
2.2504 10.9316 -1.8386 0.9558
1.2693 11.1028 -1.8410 0.9557
-0.7231 11.1807 -1.8457 0.9556
-1.7185 11.0861 -1.8481 0.9555
-2.7027 10.9028 -1.8505 0.9555
-4.6059 10.2752 -1.8550 0.9554
-5.5093 9.8354 -1.8572 0.9553
-7.1827 8.7202 -1.8611 0.9552
-9.1215 7.7357 -1.9703 0.9527
-10.0214 7.0665 -2.0201 0.9515
-10.6185 6.1499 -2.0215 0.9515
-11.1307 5.1826 -2.0227 0.9514
-11.5538 4.1724 -2.0237 0.9514
-11.8841 3.1277 -2.0244 0.9514
-12.1187 2.0572 -2.0250 0.9514
-12.2325 -1.2208 -2.0252 0.9514
-12.0727 -2.3052 -2.0248 0.9514
-11.8156 -3.3705 -2.0241 0.9514
8.6514 5.9673 -1.9754 0.9581
7.4549 7.4077 -1.9754 0.9581
5.5807 7.9819 -1.8306 0.9611
4.0836 8.8629 -1.8342 0.9611
3.2812 9.2011 -1.8361 0.9610
2.4512 9.4671 -1.8381 0.9610
1.5998 9.6585 -1.8402 0.9609
0.7338 9.7737 -1.8422 0.9609
-0.1237 8.6754 -1.6308 0.9653
-1.8831 9.6524 -1.8485 0.9608
-3.5740 9.1850 -1.8525 0.9607
-4.3826 8.8393 -1.8544 0.9606
-6.8921 7.7340 -1.9472 0.9587
-8.4448 6.6150 -2.0163 0.9573
-9.9104 4.1536 -2.0198 0.9572
-10.2449 3.2555 -2.0205 0.9572
-10.6651 1.3863 -2.0215 0.9572
-10.7472 0.4307 -2.0217 0.9572
-10.4748 -2.4256 -2.0210 0.9572
-10.2138 -3.3480 -2.0203 0.9572
-8.9513 -5.9207 -2.0172 0.9573
-7.7473 -7.4045 -2.0143 0.9573
-7.0510 -8.0585 -2.0126 0.9574
-0.0550 -10.6184 -1.9959 0.9577
0.8902 -10.5691 -1.9936 0.9577
2.7456 -10.2206 -1.9892 0.9578
4.5062 -9.5510 -1.9850 0.9579
6.1178 -8.5831 -1.9812 0.9580
7.5312 -7.3487 -1.9778 0.9581
8.7035 -5.8873 -1.9750 0.9581
9.1881 -5.0856 -1.9739 0.9582
9.5999 -4.2447 -1.9729 0.9582
9.9359 -3.3713 -1.9721 0.9582
10.1937 -2.4720 -1.9715 0.9582
10.3713 -1.5537 -1.9711 0.9582
10.4673 -0.6236 -1.9709 0.9582
10.4812 0.3114 -1.9709 0.9582
10.4127 1.2440 -1.9711 0.9582
10.2625 2.1671 -1.9715 0.9582
10.0315 3.0736 -1.9721 0.9582
8.8744 5.6249 -1.9749 0.9581
8.3434 6.3973 -1.9762 0.9581
7.7460 7.1203 -1.9776 0.9581
6.9967 7.6896 -1.9541 0.9586
5.8844 7.7558 -1.8299 0.9612
5.1749 8.2569 -1.8316 0.9611
3.6348 9.0624 -1.8353 0.9610
1.9731 9.5844 -1.8393 0.9610
-2.3677 9.5515 -1.8496 0.9607
-3.2127 9.3127 -1.8517 0.9607
-4.0338 8.9990 -1.8536 0.9607
-4.8244 8.6126 -1.8555 0.9606
-5.5778 8.1564 -1.8573 0.9606
-7.5011 7.6096 -2.0084 0.9574
-8.1788 6.9362 -2.0157 0.9573
-8.7702 6.1842 -2.0171 0.9573
-9.7395 4.5348 -2.0194 0.9572
-10.6024 1.7998 -2.0214 0.9572
-10.7220 0.8482 -2.0216 0.9572
-10.7553 -0.1104 -2.0217 0.9572
8.1399 4.6025 -1.9766 0.9625
7.2022 5.9809 -1.9789 0.9624
6.6453 6.6032 -1.9802 0.9624
6.0351 7.1742 -1.9817 0.9624
5.3572 7.6623 -1.9763 0.9625
3.6333 7.8855 -1.8353 0.9651
2.9191 8.1855 -1.8370 0.9651
2.1803 8.4211 -1.8387 0.9651
1.4229 8.5903 -1.8406 0.9650
0.6526 8.6916 -1.8424 0.9650
-0.9020 8.6870 -1.8461 0.9649
-2.4342 8.4056 -1.8498 0.9649
-3.8945 7.8550 -1.8533 0.9648
-6.3303 7.1036 -2.0113 0.9618
-6.9429 6.5161 -2.0127 0.9618
-8.4336 4.4560 -2.0162 0.9618
-9.4701 1.2310 -2.0186 0.9617
-9.5389 -0.4692 -2.0188 0.9617
-9.4581 -1.3169 -2.0185 0.9617
-9.0700 -2.9731 -2.0176 0.9617
-8.3915 -4.5318 -2.0159 0.9618
-7.9502 -5.2585 -2.0149 0.9618
-7.4456 -5.9422 -2.0136 0.9618
-6.8820 -6.5775 -2.0123 0.9618
-5.5968 -7.6825 -2.0092 0.9619
-4.8860 -8.1437 -2.0075 0.9619
-3.3571 -8.8652 -2.0038 0.9620
-1.7272 -9.3021 -1.9999 0.9621
-0.8907 -9.4096 -1.9979 0.9621
-0.0489 -9.4420 -1.9959 0.9621
1.6242 -9.2822 -1.9919 0.9622
2.4423 -9.0917 -1.9899 0.9622
3.2394 -8.8295 -1.9880 0.9623
4.0094 -8.4980 -1.9862 0.9623
4.7464 -8.0998 -1.9844 0.9623
6.7035 -6.5411 -1.9798 0.9624
7.2548 -5.9140 -1.9785 0.9625
7.7483 -5.2411 -1.9773 0.9625
8.1801 -4.5277 -1.9763 0.9625
8.5473 -3.7793 -1.9755 0.9625
9.2349 -1.3835 -1.9739 0.9625
9.3206 -0.5552 -1.9737 0.9625
9.3329 0.2773 -1.9737 0.9625
9.2719 1.1077 -1.9738 0.9625
9.1379 1.9296 -1.9742 0.9625
8.9320 2.7367 -1.9747 0.9625
8.6556 3.5228 -1.9754 0.9625
8.3109 4.2817 -1.9762 0.9625
7.9004 5.0076 -1.9772 0.9625
7.4272 5.6948 -1.9783 0.9625
3.9355 7.7353 -1.8345 0.9651
3.2337 8.0625 -1.8362 0.9651
2.5050 8.3264 -1.8380 0.9651
0.9895 8.6559 -1.8416 0.9650
0.2147 8.7184 -1.8435 0.9650
-0.5634 8.7116 -1.8453 0.9649
-1.3386 8.6354 -1.8472 0.9649
-4.3359 7.7405 -1.8754 0.9644
-6.0440 7.3377 -2.0095 0.9619
-7.2647 6.1609 -2.0135 0.9618
-7.7894 5.4927 -2.0147 0.9618
-9.4145 1.5981 -2.0185 0.9617
-9.5027 -0.9483 -2.0187 0.9617
-9.3790 -1.7908 -2.0183 0.9617
-9.1799 -2.6186 -2.0179 0.9617
7.3282 4.1435 -1.9785 0.9660
6.4833 5.3838 -1.9806 0.9660
4.8385 6.9204 -1.9846 0.9659
3.5270 7.6549 -1.9809 0.9660
0.5870 7.8178 -1.8425 0.9683
-0.8112 7.8121 -1.8459 0.9682
-1.5098 7.7388 -1.8531 0.9681
-3.7785 7.6210 -1.9992 0.9657
-4.4589 7.2809 -2.0066 0.9655
-5.0942 6.8607 -2.0083 0.9655
-7.1874 4.6607 -2.0133 0.9654
-7.5774 4.0036 -2.0142 0.9654
-7.9070 3.3140 -2.0149 0.9654
-8.5077 1.1059 -2.0163 0.9654
-8.1487 -2.6711 -2.0154 0.9654
-7.1436 -4.7250 -2.0129 0.9654
-6.1846 -5.9109 -2.0106 0.9655
-5.6296 -6.4341 -2.0093 0.9655
-4.3920 -7.3202 -2.0063 0.9655
-3.7194 -7.6761 -2.0047 0.9656
-3.0182 -7.9703 -2.0030 0.9656
-0.8011 -8.4622 -1.9977 0.9657
-0.0440 -8.4922 -1.9959 0.9657
0.7121 -8.4547 -1.9941 0.9657
1.4611 -8.3501 -1.9923 0.9658
2.1973 -8.1795 -1.9905 0.9658
4.2714 -7.2892 -1.9856 0.9659
5.4891 -6.4062 -1.9827 0.9659
6.0341 -5.8879 -1.9814 0.9660
6.5307 -5.3238 -1.9802 0.9660
6.9753 -4.7183 -1.9792 0.9660
7.3645 -4.0762 -1.9783 0.9660
7.6954 -3.4026 -1.9775 0.9660
7.9654 -2.7027 -1.9769 0.9660
8.3152 -1.2457 -1.9761 0.9660
8.4035 0.2497 -1.9759 0.9660
8.3485 0.9974 -1.9760 0.9660
7.1124 4.5081 -1.9791 0.9660
6.2063 5.7050 -1.9813 0.9660
5.6771 6.2393 -1.9825 0.9659
4.4862 7.1581 -1.9854 0.9659
3.0910 7.7066 -1.9515 0.9665
1.5910 7.7286 -1.8545 0.9681
0.8901 7.7860 -1.8418 0.9683
-0.5067 7.8346 -1.8452 0.9683
-1.2037 7.7653 -1.8468 0.9682
-3.4593 7.7174 -1.9876 0.9658
-4.1655 7.4364 -2.0032 0.9656
-5.4350 6.5984 -2.0091 0.9655
-7.7710 3.6183 -2.0146 0.9654
-8.0652 2.9126 -2.0153 0.9654
-8.4578 1.4357 -2.0162 0.9654
-8.5530 0.6766 -2.0164 0.9654
-8.5370 -0.8520 -2.0164 0.9654
-8.4260 -1.6089 -2.0161 0.9654
6.6573 3.7642 -1.9801 0.9689
4.9335 5.8647 -1.9843 0.9688
3.8196 6.6561 -1.9870 0.9688
3.2138 6.9751 -1.9884 0.9688
2.5816 7.2391 -1.9900 0.9687
1.2545 7.5739 -1.9877 0.9688
0.5749 7.6566 -1.9880 0.9688
-0.7944 7.6502 -1.9914 0.9687
-1.4751 7.5610 -1.9946 0.9687
-2.1472 7.4148 -1.9987 0.9686
-2.8050 7.2089 -2.0028 0.9685
-3.4387 6.9356 -2.0043 0.9685
-4.0458 6.6064 -2.0058 0.9685
-5.1608 5.7912 -2.0084 0.9685
-5.6595 5.3115 -2.0096 0.9684
-6.1134 4.7888 -2.0107 0.9684
-6.5188 4.2272 -2.0116 0.9684
-7.1710 3.0055 -2.0132 0.9684
-7.4123 2.3554 -2.0137 0.9684
-7.7153 1.0029 -2.0144 0.9684
-7.7744 0.3116 -2.0146 0.9684
-7.7712 -0.3822 -2.0145 0.9684
-7.7056 -1.0729 -2.0144 0.9684
-7.5782 -1.7548 -2.0140 0.9684
-6.4792 -4.2856 -2.0114 0.9684
-5.6100 -5.3618 -2.0093 0.9684
-3.3747 -6.9649 -2.0039 0.9685
-0.0399 -7.7085 -1.9959 0.9687
0.6464 -7.6751 -1.9943 0.9687
2.6466 -7.2137 -1.9895 0.9687
3.2762 -6.9440 -1.9880 0.9688
3.8790 -6.6197 -1.9865 0.9688
5.4809 -5.3481 -1.9827 0.9689
5.9324 -4.8360 -1.9817 0.9689
6.6904 -3.7031 -1.9799 0.9689
7.4250 -1.8006 -1.9782 0.9689
7.5547 -1.1318 -1.9779 0.9689
7.6351 0.2268 -1.9777 0.9689
7.5850 0.9062 -1.9779 0.9689
7.4752 1.5785 -1.9781 0.9689
7.0799 2.8815 -1.9791 0.9689
6.0734 4.6568 -1.9816 0.9689
5.1564 5.6670 -1.9838 0.9688
4.6339 6.1077 -1.9850 0.9688
4.0742 6.5006 -1.9864 0.9688
3.4814 6.8426 -1.9878 0.9688
2.8601 7.1309 -1.9893 0.9688
2.2132 7.3566 -1.9891 0.9688
1.5481 7.5202 -1.9879 0.9688
0.1891 7.6780 -1.9886 0.9688
-0.4961 7.6712 -1.9903 0.9687
-1.1792 7.6069 -1.9931 0.9687
-2.5209 7.3073 -2.0014 0.9686
-3.1654 7.0617 -2.0037 0.9685
-3.7847 6.7566 -2.0052 0.9685
-5.9213 5.0217 -2.0102 0.9684
-6.7248 3.8948 -2.0121 0.9684
-7.5223 1.9798 -2.0140 0.9684
-7.7418 -0.7726 -2.0145 0.9684
-7.4794 -2.1335 -2.0138 0.9684
6.0929 3.4451 -1.9815 0.9713
5.7641 3.9758 -1.9823 0.9713
5.3894 4.4755 -1.9832 0.9713
4.5144 5.3666 -1.9853 0.9713
4.0208 5.7509 -1.9865 0.9712
3.4947 6.0901 -1.9878 0.9712
2.9403 6.3815 -1.9891 0.9712
2.3617 6.6226 -1.9905 0.9712
1.1506 6.9468 -1.9934 0.9712
0.5276 7.0269 -1.9949 0.9711
-0.7289 7.0196 -1.9979 0.9711
-1.9659 6.7888 -2.0008 0.9710
-2.5647 6.5914 -2.0022 0.9710
-3.6987 6.0397 -2.0049 0.9710
-4.2247 5.6897 -2.0062 0.9710
-5.9582 3.8636 -2.0103 0.9709
-7.0509 0.9165 -2.0128 0.9709
-7.1019 -0.3493 -2.0129 0.9709
-7.0420 -0.9805 -2.0128 0.9709
-6.7538 -2.2139 -2.0121 0.9709
-6.5280 -2.8060 -2.0115 0.9709
-5.1280 -4.9011 -2.0081 0.9709
-3.6430 -6.0718 -2.0045 0.9710
-2.5042 -6.6129 -2.0018 0.9710
-1.9038 -6.8048 -2.0004 0.9711
-1.2890 -6.9423 -1.9989 0.9711
-0.0365 -7.0502 -1.9959 0.9711
1.2134 -6.9344 -1.9929 0.9712
2.4213 -6.5995 -1.9900 0.9712
2.9975 -6.3531 -1.9887 0.9712
4.5622 -5.3244 -1.9849 0.9713
5.4291 -4.4257 -1.9829 0.9713
5.7992 -3.9227 -1.9820 0.9713
6.1232 -3.3892 -1.9813 0.9713
6.7961 -1.6481 -1.9797 0.9713
6.9885 0.2076 -1.9793 0.9714
6.6874 2.0490 -1.9800 0.9713
5.9132 3.7480 -1.9819 0.9713
4.7185 5.1858 -1.9848 0.9713
3.7278 5.9479 -1.9872 0.9712
3.1852 6.2605 -1.9885 0.9712
2.6166 6.5238 -1.9899 0.9712
1.4194 6.8946 -1.9927 0.9712
0.8001 6.9988 -1.9942 0.9711
0.1735 7.0475 -1.9957 0.9711
-0.4553 7.0403 -1.9972 0.9711
-1.0815 6.9769 -1.9987 0.9711
-2.8942 6.4565 -2.0030 0.9710
-3.4602 6.1772 -2.0044 0.9710
-3.9993 5.8481 -2.0057 0.9710
-4.5071 5.4719 -2.0069 0.9710
-5.4124 4.5901 -2.0090 0.9709
-5.8024 4.0915 -2.0099 0.9709
-6.4412 2.9991 -2.0114 0.9709
-6.8747 1.8093 -2.0124 0.9709
-7.0096 1.1899 -2.0128 0.9709
-7.0883 0.5607 -2.0129 0.9709
-7.1102 -0.0730 -2.0130 0.9709
-7.0751 -0.7061 -2.0129 0.9709
-6.8355 -1.9499 -2.0123 0.9709
5.6111 3.1726 -1.9826 0.9734
4.9629 4.1213 -1.9842 0.9734
4.1568 4.9415 -1.9861 0.9733
3.7021 5.2951 -1.9872 0.9733
2.1742 6.0968 -1.9909 0.9733
1.6235 6.2704 -1.9922 0.9733
0.4856 6.4678 -1.9950 0.9732
-0.0926 6.4898 -1.9963 0.9732
-1.2445 6.3792 -1.9991 0.9732
-1.8091 6.2471 -2.0004 0.9731
-2.8927 5.8345 -2.0030 0.9731
-3.4031 5.5569 -2.0042 0.9731
-6.4852 0.8430 -2.0115 0.9730
-6.5349 0.2619 -2.0116 0.9730
-6.4771 -0.9019 -2.0114 0.9730
-6.2122 -2.0363 -2.0108 0.9730
-6.0046 -2.5810 -2.0103 0.9730
-5.7490 -3.1047 -2.0096 0.9730
-5.4476 -3.6032 -2.0089 0.9730
-5.1028 -4.0725 -2.0081 0.9730
-4.7175 -4.5088 -2.0071 0.9731
-2.3043 -6.0851 -2.0013 0.9731
-1.1863 -6.3889 -1.9987 0.9732
-0.6120 -6.4647 -1.9973 0.9732
-0.0336 -6.4890 -1.9959 0.9732
1.1170 -6.3832 -1.9932 0.9732
2.7597 -5.8491 -1.9892 0.9733
3.2678 -5.5766 -1.9880 0.9733
4.2009 -4.9027 -1.9858 0.9733
5.3405 -3.6124 -1.9831 0.9734
5.8929 -2.6056 -1.9818 0.9734
6.1002 -2.0698 -1.9813 0.9734
6.4279 -0.3829 -1.9806 0.9734
6.4365 0.1912 -1.9806 0.9734
6.3015 1.3307 -1.9809 0.9734
6.1590 1.8871 -1.9813 0.9734
5.9678 2.4288 -1.9818 0.9734
5.4455 3.4516 -1.9830 0.9734
4.7506 4.3669 -1.9847 0.9734
3.4322 5.4764 -1.9879 0.9733
1.8655 6.2007 -1.9916 0.9733
0.1597 6.4866 -1.9957 0.9732
-0.4191 6.4795 -1.9971 0.9732
-2.1218 6.1505 -2.0012 0.9731
-3.1836 5.6835 -2.0037 0.9731
-3.6795 5.3805 -2.0049 0.9731
-4.1465 5.0341 -2.0060 0.9731
-4.5808 4.6471 -2.0070 0.9731
-4.9789 4.2225 -2.0080 0.9730
-5.9248 2.7587 -2.0102 0.9730
-6.3232 1.6642 -2.0111 0.9730
-6.5196 0.5157 -2.0116 0.9730
-6.5075 -0.6494 -2.0115 0.9730
-6.4231 -1.2264 -2.0113 0.9730
-6.2872 -1.7935 -2.0110 0.9730
4.9140 3.3894 -1.9843 0.9752
4.5943 3.8152 -1.9851 0.9751
2.9781 5.1898 -1.9890 0.9751
2.5054 5.4376 -1.9901 0.9751
2.0122 5.6425 -1.9913 0.9751
0.9801 5.9174 -1.9938 0.9750
-0.6207 5.9773 -1.9976 0.9750
-1.1514 5.9020 -1.9989 0.9750
-1.6737 5.7796 -2.0001 0.9750
-3.1479 5.1403 -2.0036 0.9749
-4.0143 4.5047 -2.0057 0.9749
-4.7541 3.7240 -2.0074 0.9749
-5.5750 2.3366 -2.0093 0.9748
-5.7623 1.8310 -2.0098 0.9748
-5.9034 1.3106 -2.0101 0.9748
-5.9973 0.7796 -2.0103 0.9748
-5.8910 -1.3641 -2.0100 0.9748
-5.5531 -2.3869 -2.0092 0.9748
-5.3169 -2.8713 -2.0086 0.9749
-5.0382 -3.3325 -2.0079 0.9749
-3.9726 -4.5403 -2.0054 0.9749
-3.5505 -4.8737 -2.0043 0.9749
-2.6264 -5.4204 -2.0021 0.9749
-1.6208 -5.7934 -1.9997 0.9750
0.5036 -5.9794 -1.9946 0.9750
1.0336 -5.9070 -1.9934 0.9750
2.5542 -5.4136 -1.9897 0.9751
3.4706 -4.8691 -1.9876 0.9751
3.8886 -4.5382 -1.9866 0.9751
4.2754 -4.1719 -1.9857 0.9751
4.6282 -3.7728 -1.9848 0.9751
4.9440 -3.3442 -1.9841 0.9752
5.6476 -1.9163 -1.9824 0.9752
5.8964 -0.8833 -1.9819 0.9752
5.9592 0.1771 -1.9817 0.9752
5.7021 1.7471 -1.9824 0.9752
5.5250 2.2486 -1.9828 0.9752
4.7383 3.6331 -1.9847 0.9751
4.0218 4.4201 -1.9865 0.9751
3.6139 4.7632 -1.9874 0.9751
2.7142 5.3347 -1.9896 0.9751
2.2294 5.5585 -1.9908 0.9751
1.7264 5.7385 -1.9920 0.9751
1.2091 5.8732 -1.9932 0.9750
0.6815 5.9613 -1.9945 0.9750
0.1478 6.0021 -1.9958 0.9750
-0.3877 5.9953 -1.9970 0.9750
-0.9209 5.9407 -1.9983 0.9750
-1.4474 5.8387 -1.9996 0.9750
-1.9630 5.6900 -2.0008 0.9749
-2.4635 5.4958 -2.0020 0.9749
-3.4035 4.9769 -2.0042 0.9749
-4.2369 4.2982 -2.0062 0.9749
-5.2288 3.0284 -2.0085 0.9749
-5.6862 2.0535 -2.0096 0.9748
-5.8476 1.5390 -2.0100 0.9748
-6.0478 -0.0621 -2.0104 0.9748
-5.9400 -1.1342 -2.0101 0.9748
4.8306 2.7314 -1.9845 0.9767
4.5695 3.1518 -1.9851 0.9767
3.5778 4.2531 -1.9875 0.9767
1.3967 5.3946 -1.9928 0.9766
0.9111 5.5008 -1.9939 0.9766
-0.0796 5.5818 -1.9963 0.9766
-2.0290 5.2145 -2.0009 0.9765
-2.9253 4.7767 -2.0031 0.9765
-5.1797 2.1709 -2.0084 0.9764
-5.4847 1.2177 -2.0091 0.9764
-5.5719 0.7243 -2.0093 0.9764
-5.6145 0.2250 -2.0094 0.9764
-5.5649 -0.7749 -2.0093 0.9764
-5.3376 -1.7496 -2.0087 0.9764
-5.1594 -2.2177 -2.0083 0.9764
-4.6812 -3.0963 -2.0071 0.9764
-1.9812 -5.2318 -2.0006 0.9765
-1.5064 -5.3844 -1.9994 0.9765
-1.0201 -5.4940 -1.9983 0.9765
-0.5263 -5.5598 -1.9971 0.9766
-0.0289 -5.5812 -1.9959 0.9766
0.4681 -5.5583 -1.9947 0.9766
2.3747 -5.0332 -1.9902 0.9766
3.2269 -4.5273 -1.9882 0.9767
3.6157 -4.2198 -1.9872 0.9767
3.9756 -3.8793 -1.9864 0.9767
4.8548 -2.6871 -1.9843 0.9767
5.4836 -0.8215 -1.9828 0.9767
5.4256 1.1457 -1.9830 0.9767
4.0892 3.7589 -1.9863 0.9767
3.3602 4.4288 -1.9880 0.9767
2.9537 4.7129 -1.9890 0.9766
2.5235 4.9599 -1.9900 0.9766
0.6335 5.5415 -1.9946 0.9766
0.1374 5.5792 -1.9958 0.9766
-0.8559 5.5216 -1.9981 0.9765
-1.3452 5.4265 -1.9993 0.9765
-1.8243 5.2881 -2.0004 0.9765
-2.2894 5.1074 -2.0016 0.9765
-3.5639 4.3268 -2.0046 0.9765
-3.9369 3.9938 -2.0055 0.9765
-4.2788 3.6287 -2.0063 0.9764
-4.5867 3.2343 -2.0070 0.9764
-4.8581 2.8137 -2.0076 0.9764
-5.0908 2.3704 -2.0082 0.9764
-5.2830 1.9078 -2.0086 0.9764
-5.4328 1.4299 -2.0090 0.9764
-5.5393 0.9403 -2.0092 0.9764
-5.6014 0.4431 -2.0094 0.9764
-5.5910 -0.5580 -2.0093 0.9764
4.5095 2.5498 -1.9852 0.9781
4.2657 2.9423 -1.9858 0.9780
3.3396 3.9700 -1.9881 0.9780
2.9740 4.2536 -1.9890 0.9780
2.5844 4.5037 -1.9899 0.9780
2.1740 4.7184 -1.9909 0.9780
0.3898 5.1917 -1.9952 0.9779
-0.0743 5.2087 -1.9963 0.9779
-0.5383 5.1842 -1.9974 0.9779
-1.4514 5.0119 -1.9996 0.9779
-2.7291 4.4564 -2.0026 0.9779
-3.1167 4.1975 -2.0035 0.9779
-4.3932 2.8488 -2.0065 0.9778
-5.1159 1.1358 -2.0082 0.9778
-2.3011 -0.1132 -0.8829 0.9902
-5.1907 -0.7228 -2.0084 0.9778
-4.9787 -1.6320 -2.0078 0.9778
-4.8126 -2.0686 -2.0074 0.9778
-4.3667 -2.8883 -2.0063 0.9778
-4.0907 -3.2647 -2.0057 0.9778
-3.0780 -4.2251 -2.0032 0.9779
-1.8485 -4.8814 -2.0003 0.9779
-1.4055 -5.0240 -1.9992 0.9779
-0.0270 -5.2082 -1.9959 0.9779
0.8967 -5.1247 -1.9937 0.9780
1.3490 -5.0217 -1.9926 0.9780
3.0121 -4.2258 -1.9887 0.9780
3.7111 -3.6212 -1.9870 0.9780
4.7364 -2.0943 -1.9846 0.9781
4.9032 -1.6637 -1.9842 0.9781
5.1739 0.1537 -1.9836 0.9781
5.0652 1.0696 -1.9839 0.9781
4.9505 1.5168 -1.9842 0.9781
4.6047 2.3723 -1.9850 0.9781
4.3763 2.7738 -1.9856 0.9780
3.8172 3.5088 -1.9869 0.9780
3.4908 3.8365 -1.9877 0.9780
3.1365 4.1340 -1.9886 0.9780
2.7570 4.3989 -1.9895 0.9780
2.3553 4.6293 -1.9904 0.9780
1.9345 4.8232 -1.9915 0.9780
1.4979 4.9790 -1.9925 0.9780
1.0490 5.0953 -1.9936 0.9780
0.1282 5.2064 -1.9958 0.9779
-0.7986 5.1522 -1.9980 0.9779
-2.5533 4.5582 -2.0022 0.9779
-3.6726 3.7257 -2.0048 0.9778
-4.2786 3.0170 -2.0063 0.9778
-5.1668 0.8771 -2.0083 0.9778
-2.3041 0.1823 -0.8857 0.9901
-2.2905 -0.0235 -0.8778 0.9902
-2.3036 -0.2299 -0.8871 0.9901
-5.1475 -0.9829 -2.0083 0.9778
3.9954 2.7558 -1.9865 0.9792
3.7352 3.1018 -1.9871 0.9792
1.6350 4.5847 -1.9922 0.9792
-0.0696 4.8770 -1.9962 0.9791
-0.5040 4.8540 -1.9973 0.9791
-0.9349 4.7922 -1.9983 0.9791
-1.3588 4.6922 -1.9993 0.9791
-2.1721 4.3809 -2.0013 0.9791
-3.5714 3.3518 -2.0046 0.9791
-3.8571 3.0213 -2.0053 0.9790
-4.3345 2.2902 -2.0064 0.9790
-4.5222 1.8953 -2.0068 0.9790
-4.6739 1.4852 -2.0072 0.9790
-2.0891 0.4638 -0.8759 0.9908
-2.0204 0.2626 -0.8339 0.9912
-2.0010 0.0802 -0.8196 0.9914
-2.0207 -0.2814 -0.8350 0.9912
-2.0946 -0.4850 -0.8800 0.9908
-4.6600 -1.5275 -2.0071 0.9790
-4.3131 -2.3293 -2.0062 0.9790
-4.0874 -2.7035 -2.0057 0.9790
-3.8291 -3.0559 -2.0051 0.9790
-3.2236 -3.6843 -2.0036 0.9791
-2.1319 -4.3998 -2.0010 0.9791
-0.8912 -4.7997 -1.9980 0.9791
-0.4598 -4.8575 -1.9970 0.9791
-0.0253 -4.8767 -1.9959 0.9791
0.8397 -4.7988 -1.9939 0.9792
1.2632 -4.7025 -1.9928 0.9792
1.6763 -4.5690 -1.9919 0.9792
2.0757 -4.3994 -1.9909 0.9792
2.8210 -3.9577 -1.9891 0.9792
3.4758 -3.3916 -1.9876 0.9792
4.0199 -2.7192 -1.9863 0.9792
4.2450 -2.3496 -1.9858 0.9792
4.5928 -1.5583 -1.9850 0.9793
4.8400 -0.2883 -1.9844 0.9793
4.7446 1.0019 -1.9846 0.9793
4.6371 1.4208 -1.9849 0.9793
4.3130 2.2220 -1.9857 0.9792
4.0990 2.5981 -1.9862 0.9792
3.8524 2.9538 -1.9868 0.9792
3.5752 3.2864 -1.9875 0.9792
3.2694 3.5931 -1.9882 0.9792
2.9375 3.8717 -1.9890 0.9792
2.2057 4.3354 -1.9908 0.9792
1.8116 4.5168 -1.9917 0.9792
1.4027 4.6625 -1.9927 0.9792
0.9823 4.7713 -1.9937 0.9792
0.5536 4.8423 -1.9948 0.9792
0.1200 4.8749 -1.9958 0.9791
-0.3149 4.8688 -1.9968 0.9791
-0.7478 4.8239 -1.9979 0.9791
-2.7621 4.0391 -2.0027 0.9791
-3.4378 3.4875 -2.0043 0.9791
-4.6123 1.6657 -2.0070 0.9790
-2.0465 0.3474 -0.8496 0.9911
3.9678 2.2435 -1.9865 0.9803
3.5087 2.9137 -1.9876 0.9803
2.9379 3.4925 -1.9890 0.9803
2.2733 3.9616 -1.9906 0.9803
0.3428 4.5653 -1.9953 0.9802
-1.6641 4.2768 -2.0000 0.9802
-2.0394 4.1134 -2.0009 0.9802
-2.3988 3.9170 -2.0018 0.9802
-2.7393 3.6893 -2.0026 0.9801
-3.0582 3.4318 -2.0034 0.9801
-3.3530 3.1468 -2.0041 0.9801
-3.6211 2.8365 -2.0047 0.9801
-3.8605 2.5034 -2.0053 0.9801
-4.0692 2.1500 -2.0057 0.9801
-1.4825 0.3291 -0.6618 0.9934
-1.4732 0.1915 -0.6474 0.9935
-1.4737 -0.2052 -0.6484 0.9935
-1.4930 -0.4894 -0.6848 0.9932
-3.8373 -2.5381 -2.0051 0.9801
-3.3239 -3.1768 -2.0038 0.9801
-3.0266 -3.4591 -2.0031 0.9801
-2.7054 -3.7135 -2.0024 0.9802
-2.3628 -3.9381 -2.0015 0.9802
-0.8369 -4.5072 -1.9979 0.9802
-0.0237 -4.5797 -1.9959 0.9802
0.7886 -4.5068 -1.9940 0.9802
1.5744 -4.2913 -1.9921 0.9803
1.9496 -4.1321 -1.9912 0.9803
2.3089 -3.9403 -1.9904 0.9803
2.9692 -3.4653 -1.9888 0.9803
3.2650 -3.1859 -1.9881 0.9803
3.9878 -2.2072 -1.9864 0.9803
4.1677 -1.8428 -1.9860 0.9803
4.5048 -0.6749 -1.9852 0.9803
4.5229 0.5404 -1.9852 0.9803
3.8505 2.4406 -1.9868 0.9803
3.0710 3.3751 -1.9887 0.9803
2.7592 3.6367 -1.9895 0.9803
2.0717 4.0720 -1.9911 0.9803
1.3174 4.3790 -1.9929 0.9802
0.9225 4.4810 -1.9939 0.9802
0.5199 4.5476 -1.9948 0.9802
0.1127 4.5781 -1.9958 0.9802
-0.2957 4.5721 -1.9968 0.9802
-1.1035 4.4514 -1.9987 0.9802
-1.4963 4.3374 -1.9996 0.9802
-2.5934 3.7923 -2.0023 0.9802
-3.2276 3.2743 -2.0038 0.9801
-3.5077 2.9748 -2.0044 0.9801
-3.9821 2.3063 -2.0055 0.9801
-4.1727 1.9428 -2.0060 0.9801
-1.4923 0.3928 -0.6725 0.9933
-1.4720 0.2499 -0.6507 0.9935
-1.4638 0.1158 -0.6399 0.9936
-1.4687 -0.2804 -0.6516 0.9935
3.7368 2.1129 -1.9871 0.9813
3.3043 2.7440 -1.9881 0.9812
2.7667 3.2889 -1.9894 0.9812
2.1407 3.7306 -1.9909 0.9812
1.4459 4.0546 -1.9926 0.9812
0.7041 4.2507 -1.9944 0.9812
0.3227 4.2985 -1.9953 0.9812
-0.0615 4.3121 -1.9962 0.9812
-0.8265 4.2366 -1.9980 0.9812
-1.2012 4.1480 -1.9989 0.9811
-3.4085 2.6700 -2.0042 0.9811
-3.8301 2.0237 -2.0052 0.9811
-1.2681 0.2815 -0.6013 0.9943
-1.2752 0.1658 -0.5952 0.9943
-1.2679 -0.0624 -0.5876 0.9944
-3.3838 -2.7006 -2.0040 0.9811
-3.1288 -2.9904 -2.0034 0.9811
-2.5467 -3.4957 -2.0020 0.9811
-2.2243 -3.7073 -2.0012 0.9811
-1.5298 -4.0398 -1.9995 0.9811
-0.7879 -4.2434 -1.9978 0.9812
-0.4066 -4.2947 -1.9968 0.9812
-0.0223 -4.3119 -1.9959 0.9812
0.3617 -4.2947 -1.9950 0.9812
1.1171 -4.1586 -1.9932 0.9812
1.8358 -3.8910 -1.9915 0.9812
2.4952 -3.5007 -1.9899 0.9812
2.7962 -3.2633 -1.9892 0.9812
3.0748 -3.0002 -1.9886 0.9812
3.3288 -2.7136 -1.9880 0.9812
3.7556 -2.0787 -1.9869 0.9813
4.0634 -1.3787 -1.9862 0.9813
4.2427 -0.6356 -1.9858 0.9813
4.2823 -0.2551 -1.9857 0.9813
4.2880 0.1274 -1.9857 0.9813
3.8158 1.9658 -1.9869 0.9813
3.6263 2.2985 -1.9874 0.9813
3.4081 2.6131 -1.9879 0.9812
3.1627 2.9072 -1.9885 0.9812
2.8920 3.1784 -1.9891 0.9812
2.2838 3.6439 -1.9906 0.9812
1.9508 3.8344 -1.9914 0.9812
1.6022 3.9946 -1.9922 0.9812
0.4895 4.2818 -1.9949 0.9812
0.1061 4.3104 -1.9958 0.9812
-0.2784 4.3047 -1.9967 0.9812
-0.6611 4.2647 -1.9976 0.9812
-1.4087 4.0833 -1.9994 0.9811
-2.1127 3.7717 -2.0011 0.9811
-2.4413 3.5699 -2.0019 0.9811
-2.7506 3.3394 -2.0026 0.9811
-3.0382 3.0821 -2.0033 0.9811
-3.3017 2.8001 -2.0039 0.9811
-3.5390 2.4955 -2.0045 0.9811
-1.2621 0.4558 -0.6212 0.9941
-1.2731 0.2161 -0.5977 0.9943
-1.2724 0.1007 -0.5908 0.9944
-1.2706 -0.2426 -0.5987 0.9943
-1.2705 -0.3624 -0.6116 0.9942
3.5272 1.9944 -1.9876 0.9821
2.6113 3.1042 -1.9898 0.9821
2.3252 3.3256 -1.9905 0.9821
2.0204 3.5209 -1.9912 0.9821
0.6644 4.0113 -1.9945 0.9820
0.3046 4.0563 -1.9953 0.9820
-0.0580 4.0691 -1.9962 0.9820
-0.4205 4.0495 -1.9971 0.9820
-0.7799 3.9977 -1.9979 0.9820
-1.4782 3.7990 -1.9996 0.9820
-2.1306 3.4790 -2.0011 0.9820
-2.7160 3.0478 -2.0025 0.9820
-3.4282 2.2230 -2.0042 0.9820
-1.1085 0.4646 -0.5895 0.9947
-1.1291 0.3588 -0.5811 0.9947
-1.1341 0.2518 -0.5699 0.9948
-1.1442 0.1487 -0.5660 0.9949
-1.1403 0.0457 -0.5598 0.9949
-1.1413 -0.0561 -0.5605 0.9949
-1.1325 -0.2623 -0.5702 0.9948
-1.1054 -0.4751 -0.5902 0.9947
-1.1062 -0.5974 -0.6167 0.9944
-2.0986 -3.4979 -2.0009 0.9820
-1.0977 -3.9236 -1.9985 0.9820
-0.7435 -4.0041 -1.9977 0.9820
-0.3836 -4.0526 -1.9968 0.9820
-0.0211 -4.0689 -1.9959 0.9820
0.3414 -4.0529 -1.9951 0.9820
1.7326 -3.6722 -1.9917 0.9821
2.3550 -3.3040 -1.9903 0.9821
2.6391 -3.0800 -1.9896 0.9821
2.9021 -2.8318 -1.9890 0.9821
3.1419 -2.5613 -1.9884 0.9821
3.8355 -1.3014 -1.9868 0.9821
3.9358 -0.9544 -1.9865 0.9821
3.7520 1.5270 -1.9870 0.9821
3.6017 1.8556 -1.9874 0.9821
3.2168 2.4664 -1.9883 0.9821
2.7296 2.9999 -1.9895 0.9821
2.4523 3.2322 -1.9902 0.9821
2.1554 3.4391 -1.9909 0.9821
1.5121 3.7699 -1.9924 0.9821
0.4619 4.0407 -1.9950 0.9820
-0.2627 4.0620 -1.9967 0.9820
-1.6678 3.7207 -2.0000 0.9820
-1.9934 3.5587 -2.0008 0.9820
-2.3033 3.3682 -2.0016 0.9820
-2.5951 3.1507 -2.0022 0.9820
-3.3388 2.3544 -2.0040 0.9820
-1.1222 0.4053 -0.5853 0.9947
-1.1329 0.2982 -0.5746 0.9948
-1.1419 0.1938 -0.5681 0.9949
-1.1437 0.0905 -0.5628 0.9949
-1.1443 -0.1142 -0.5641 0.9949
-1.1320 -0.3229 -0.5774 0.9948
3.3358 1.8862 -1.9880 0.9829
3.1552 2.1763 -1.9885 0.9829
1.9106 3.3295 -1.9915 0.9829
1.6070 3.4878 -1.9922 0.9828
1.2904 3.6184 -1.9930 0.9828
0.6283 3.7930 -1.9946 0.9828
0.2880 3.8355 -1.9954 0.9828
-0.0549 3.8475 -1.9962 0.9828
-0.7374 3.7797 -1.9978 0.9828
-1.3976 3.5917 -1.9994 0.9828
-2.5677 2.8813 -2.0022 0.9828
-3.0399 2.3812 -2.0033 0.9827
-3.2407 2.1015 -2.0038 0.9827
-0.9597 0.5071 -0.5631 0.9951
-0.9951 0.4171 -0.5598 0.9951
-1.0256 0.2277 -0.5450 0.9953
-1.0368 0.1348 -0.5424 0.9953
-1.0348 0.0415 -0.5372 0.9953
-1.0356 -0.0509 -0.5379 0.9953
-1.0362 -0.1443 -0.5427 0.9953
-1.0139 -0.3324 -0.5536 0.9952
-0.9553 -0.5159 -0.5632 0.9951
-3.0179 -2.4086 -2.0031 0.9828
-2.7906 -2.6671 -2.0026 0.9828
-1.0378 -3.7096 -1.9984 0.9828
-0.0199 -3.8473 -1.9959 0.9828
0.3228 -3.8322 -1.9951 0.9828
0.6626 -3.7867 -1.9943 0.9828
1.3230 -3.6061 -1.9927 0.9828
1.6384 -3.4726 -1.9920 0.9828
2.2271 -3.1245 -1.9906 0.9829
2.4958 -2.9128 -1.9899 0.9829
3.3526 -1.8557 -1.9879 0.9829
3.5040 -1.5493 -1.9876 0.9829
3.6275 -1.2308 -1.9873 0.9829
3.7224 -0.9027 -1.9871 0.9829
3.7877 -0.5674 -1.9869 0.9829
3.8230 -0.2277 -1.9868 0.9829
3.8029 0.4543 -1.9869 0.9829
3.6625 1.1222 -1.9872 0.9829
3.5485 1.4442 -1.9875 0.9829
3.0422 2.3326 -1.9887 0.9829
2.5814 2.8370 -1.9899 0.9829
2.0383 3.2522 -1.9912 0.9829
1.7411 3.4221 -1.9919 0.9828
0.7751 3.7651 -1.9942 0.9828
-0.5898 3.8049 -1.9975 0.9828
-1.2567 3.6427 -1.9991 0.9828
-1.5768 3.5176 -1.9998 0.9828
-1.8846 3.3644 -2.0005 0.9828
-2.7098 2.7490 -2.0025 0.9828
-3.1563 2.2256 -2.0036 0.9827
-0.9815 0.4570 -0.5617 0.9951
-1.0199 0.2684 -0.5471 0.9953
-1.0374 0.0821 -0.5399 0.9953
-1.0310 -0.0106 -0.5349 0.9954
-1.0377 -0.1036 -0.5410 0.9953
-1.0186 -0.2906 -0.5495 0.9952
3.1603 1.7869 -1.9885 0.9836
2.5771 2.5608 -1.9899 0.9836
2.3394 2.7810 -1.9904 0.9836
2.0830 2.9793 -1.9911 0.9836
1.8099 3.1541 -1.9917 0.9836
0.9125 3.5242 -1.9939 0.9835
-0.0520 3.6443 -1.9962 0.9835
-1.3236 3.4017 -1.9992 0.9835
-1.9076 3.1150 -2.0006 0.9835
-2.4317 2.7287 -2.0018 0.9835
-2.6658 2.5019 -2.0024 0.9835
-2.8788 2.2551 -2.0029 0.9835
-0.9047 0.3792 -0.5373 0.9955
-0.9349 0.2076 -0.5245 0.9956
-0.9453 0.0379 -0.5181 0.9957
-0.9459 -0.0465 -0.5187 0.9957
-0.9457 -0.1317 -0.5230 0.9957
-0.9330 -0.2161 -0.5246 0.9956
-0.9190 -0.3012 -0.5297 0.9956
-0.9028 -0.3881 -0.5382 0.9955
-0.8719 -0.5767 -0.5726 0.9952
-2.6428 -2.5258 -2.0022 0.9835
-2.4065 -2.7504 -2.0017 0.9835
-2.1513 -2.9530 -2.0010 0.9835
-1.5920 -3.2857 -1.9997 0.9835
-0.0189 -3.6441 -1.9959 0.9835
0.6277 -3.5869 -1.9944 0.9835
0.9443 -3.5154 -1.9936 0.9835
1.5521 -3.2896 -1.9922 0.9835
2.1098 -2.9600 -1.9909 0.9836
2.6001 -2.5371 -1.9897 0.9836
2.8150 -2.2948 -1.9892 0.9836
3.0076 -2.0344 -1.9887 0.9836
3.3197 -1.4678 -1.9880 0.9836
1.8862 -0.4574 -1.0630 0.9912
1.8880 -0.2829 -1.0456 0.9913
1.8860 0.3983 -1.0558 0.9912
1.8779 0.5754 -1.0757 0.9911
3.2271 1.6626 -1.9883 0.9836
2.8821 2.2098 -1.9891 0.9836
2.4455 2.6876 -1.9902 0.9836
1.0486 3.4855 -1.9935 0.9835
0.7342 3.5664 -1.9943 0.9835
-0.2353 3.6378 -1.9966 0.9835
-0.5586 3.6038 -1.9974 0.9835
-1.1902 3.4501 -1.9989 0.9835
-2.0623 3.0156 -2.0010 0.9835
-2.3235 2.8208 -2.0016 0.9835
-0.8697 0.5037 -0.5505 0.9954
-0.8961 0.4172 -0.5414 0.9955
-0.9429 0.1601 -0.5238 0.9956
-0.9238 -0.2635 -0.5262 0.9956
2.9986 1.6955 -1.9888 0.9842
2.8362 1.9563 -1.9892 0.9842
1.7172 2.9924 -1.9919 0.9842
1.4442 3.1345 -1.9926 0.9842
1.1597 3.2519 -1.9933 0.9842
0.8657 3.3434 -1.9940 0.9842
-0.9628 3.3246 -1.9983 0.9841
-1.5385 3.1031 -1.9997 0.9841
-2.0661 2.7826 -2.0010 0.9841
-2.3065 2.5882 -2.0015 0.9841
-2.7305 2.1389 -2.0025 0.9841
-0.7982 0.5176 -0.5493 0.9956
-0.8817 0.1146 -0.5133 0.9959
-0.8808 0.0353 -0.5089 0.9959
-0.8812 -0.0433 -0.5094 0.9959
-0.8630 -0.2829 -0.5243 0.9958
-0.8487 -0.3648 -0.5334 0.9957
-0.7949 -0.5258 -0.5502 0.9956
-2.7108 -2.1634 -2.0024 0.9841
-2.0406 -2.8010 -2.0008 0.9841
-1.7824 -2.9707 -2.0002 0.9841
-1.2261 -3.2377 -1.9988 0.9841
-0.3259 -3.4429 -1.9967 0.9842
-0.0179 -3.4570 -1.9959 0.9842
0.5954 -3.4028 -1.9945 0.9842
0.8959 -3.3350 -1.9938 0.9842
1.1890 -3.2408 -1.9931 0.9842
1.7441 -2.9764 -1.9917 0.9842
2.2433 -2.6181 -1.9905 0.9842
2.6710 -2.1773 -1.9895 0.9842
2.8537 -1.9303 -1.9891 0.9842
3.0137 -1.6681 -1.9887 0.9842
1.7375 -0.1035 -1.0049 0.9920
1.7329 0.0515 -1.0009 0.9920
1.7919 0.7293 -1.1170 0.9911
3.0620 1.5775 -1.9887 0.9842
2.5375 2.3325 -1.9900 0.9842
2.3202 2.5500 -1.9905 0.9842
2.0844 2.7473 -1.9910 0.9842
1.8320 2.9230 -1.9917 0.9842
1.2850 3.2038 -1.9930 0.9842
0.6965 3.3834 -1.9944 0.9842
0.3925 3.4333 -1.9951 0.9842
0.0851 3.4558 -1.9958 0.9842
-1.1290 3.2727 -1.9987 0.9841
-1.4165 3.1601 -1.9994 0.9841
-1.6930 3.0224 -2.0001 0.9841
-2.2038 2.6756 -2.0013 0.9841
-2.4341 2.4693 -2.0018 0.9841
-0.8165 0.4729 -0.5448 0.9957
-0.8591 0.3103 -0.5274 0.9958
-0.8694 0.2288 -0.5190 0.9959
-0.8797 0.1493 -0.5151 0.9959
-0.8821 0.0698 -0.5109 0.9959
-0.8822 -0.0880 -0.5119 0.9959
