ply
format ascii 1.0
element vertex 1460
property float32 x
property float32 y
property float32 z
property float32 I
end_header
7.8691 13.3720 2.7358 0.9389
3.5885 13.3069 2.4302 0.9456
2.3799 13.5466 2.4252 0.9457
-1.2683 13.3681 2.3677 0.9469
-3.7504 13.3643 2.4475 0.9452
-5.1431 13.5369 2.5534 0.9429
-8.1227 13.4867 2.7761 0.9381
-9.8070 13.4059 2.9288 0.9348
-14.0235 13.3344 3.4121 0.9244
-6.6161 -17.4696 3.2939 0.9269
-5.0669 -18.1293 3.3192 0.9264
4.7264 -17.4531 3.1883 0.9292
1.3775 13.3708 2.3701 0.9469
0.1783 13.5449 2.3885 0.9465
-1.0225 13.3684 2.3641 0.9470
-13.5220 13.3358 3.3488 0.9258
7.8722 13.3774 2.3778 0.9391
6.3371 13.3774 2.2677 0.9419
2.3499 13.3761 2.0805 0.9465
1.1316 13.3752 2.0563 0.9471
-0.0681 13.3740 2.0489 0.9473
-5.0785 13.3668 2.1905 0.9438
-6.4508 13.2664 2.2599 0.9421
-8.1257 13.4918 2.4128 0.9383
-11.7319 13.3470 2.7223 0.9306
-6.6137 -17.4632 2.8607 0.9272
-5.0891 -18.2087 2.8964 0.9263
-0.0704 -17.4504 2.6733 0.9318
8.2046 13.3773 2.4041 0.9385
2.6025 13.3762 2.0876 0.9463
1.3780 13.3754 2.0599 0.9470
0.1760 13.3743 2.0490 0.9473
-1.0229 13.3730 2.0546 0.9472
-3.4899 13.3695 2.1168 0.9456
-7.8196 13.5365 2.3949 0.9387
-11.3119 13.3530 2.6810 0.9316
-13.5286 13.3423 2.9109 0.9260
3.5910 13.3164 1.7960 0.9459
2.3507 13.3807 1.7691 0.9467
1.1320 13.3798 1.7485 0.9473
-1.2692 13.3772 1.7498 0.9472
-2.4905 13.3757 1.7717 0.9466
-3.7308 13.2944 1.7981 0.9458
-5.0124 13.1929 1.8378 0.9447
-6.4533 13.2714 1.9217 0.9422
-6.6113 -17.4568 2.4308 0.9275
-4.9298 -17.6388 2.3850 0.9288
3.3036 -18.6885 2.4714 0.9263
6.5660 13.2309 1.9234 0.9422
5.1493 13.2305 1.8488 0.9443
3.8720 13.3816 1.8140 0.9454
2.6034 13.3809 1.7751 0.9465
1.3784 13.3800 1.7516 0.9472
-3.4911 13.3742 1.8000 0.9458
-4.7389 13.1934 1.8255 0.9450
-6.1461 13.2495 1.9020 0.9428
-11.3169 13.3590 2.2799 0.9318
-13.5352 13.3488 2.4755 0.9262
7.8785 13.3879 1.6681 0.9394
6.3419 13.3875 1.5907 0.9421
3.5838 13.2897 1.4780 0.9461
-0.0691 13.5585 1.4560 0.9469
-2.5016 13.4351 1.4675 0.9465
-9.7212 13.2886 1.7680 0.9359
-11.7425 13.3590 1.9099 0.9309
-14.0443 13.3541 2.0810 0.9250
-6.6089 -17.4504 2.0037 0.9277
-4.9520 -17.7183 1.9755 0.9287
3.8734 13.3863 1.4964 0.9455
-1.0236 13.3821 1.4412 0.9474
-4.7682 13.2749 1.5146 0.9448
-6.2042 13.3746 1.5832 0.9424
-9.4102 13.3688 1.7555 0.9363
-11.2202 13.2448 1.8640 0.9325
7.8815 13.3932 1.3155 0.9395
6.3443 13.3925 1.2545 0.9422
3.5851 13.2943 1.1656 0.9462
-0.0688 13.5190 1.1444 0.9472
-2.5025 13.4398 1.1573 0.9466
-3.7557 13.3832 1.1767 0.9457
-5.1236 13.4854 1.2212 0.9437
-6.4429 13.2501 1.2472 0.9426
-8.1354 13.5078 1.3348 0.9387
-9.8235 13.4285 1.4085 0.9354
-11.7477 13.3650 1.5063 0.9311
-14.0512 13.3607 1.6414 0.9251
-6.6065 -17.4441 1.5790 0.9279
-4.9499 -17.7108 1.5567 0.9288
-1.6627 -17.7246 1.5070 0.9310
-0.0703 -17.4325 1.4757 0.9324
4.7197 -17.4284 1.5285 0.9301
6.6463 13.3926 1.2657 0.9417
3.8747 13.3910 1.1801 0.9456
2.6159 13.4450 1.1595 0.9465
0.1779 13.5192 1.1445 0.9472
-1.0239 13.3866 1.1365 0.9475
-4.8439 13.4859 1.2130 0.9441
-6.2065 13.3796 1.2485 0.9425
-7.8287 13.5524 1.3249 0.9391
-11.3270 13.3708 1.4834 0.9321
-13.5482 13.3616 1.6108 0.9265
7.8846 13.3984 0.9640 0.9396
4.9989 13.5721 0.8969 0.9437
3.5863 13.2990 0.8541 0.9463
2.3628 13.4494 0.8468 0.9467
-0.0691 13.5677 0.8413 0.9471
-1.2705 13.3909 0.8341 0.9475
-2.5033 13.4444 0.8480 0.9467
-3.7570 13.3879 0.8623 0.9458
-5.1254 13.4903 0.8949 0.9438
-6.4453 13.2550 0.9140 0.9426
-8.1386 13.5131 0.9782 0.9387
-14.0581 13.3672 1.2029 0.9252
-4.9478 -17.7033 1.1399 0.9290
-1.6620 -17.7174 1.1035 0.9312
-0.0703 -17.4267 1.0806 0.9325
8.2176 13.3986 0.9747 0.9390
6.6488 13.3977 0.9275 0.9418
3.8761 13.3957 0.8647 0.9456
2.6168 13.4496 0.8497 0.9466
0.1786 13.5679 0.8414 0.9471
-2.2503 13.4447 0.8453 0.9468
-4.8457 13.4907 0.8889 0.9442
-9.4179 13.3798 1.0146 0.9365
-11.3320 13.3767 1.0871 0.9322
-13.5547 13.3680 1.1805 0.9265
7.8877 13.4036 0.6132 0.9396
6.3490 13.4024 0.5848 0.9424
2.3848 13.5746 0.5435 0.9463
1.1336 13.3979 0.5302 0.9476
-0.0691 13.5722 0.5352 0.9471
-1.2709 13.3954 0.5306 0.9476
-2.5266 13.5695 0.5443 0.9462
-3.7583 13.3925 0.5485 0.9458
-5.1272 13.4951 0.5692 0.9438
-9.8317 13.4396 0.6566 0.9355
-6.6017 -17.4315 0.7350 0.9281
-1.6613 -17.7101 0.7014 0.9313
4.7164 -17.4163 0.7115 0.9303
8.2208 13.4039 0.6200 0.9390
6.6513 13.4027 0.5900 0.9419
5.2629 13.5226 0.5722 0.9436
2.6411 13.5749 0.5453 0.9461
1.3803 13.3981 0.5311 0.9475
0.1786 13.5725 0.5352 0.9471
-1.0246 13.3956 0.5297 0.9476
-2.2639 13.5257 0.5407 0.9466
-3.4960 13.3929 0.5458 0.9461
-4.8474 13.4955 0.5654 0.9442
-11.3369 13.3826 0.6916 0.9322
7.8908 13.4088 0.2628 0.9397
5.0025 13.5818 0.2445 0.9437
2.3856 13.5792 0.2329 0.9463
-0.0691 13.5768 0.2293 0.9471
-1.2713 13.3999 0.2274 0.9476
-2.5275 13.5742 0.2332 0.9463
-3.7596 13.3972 0.2350 0.9459
-6.4501 13.2649 0.2492 0.9427
-14.0717 13.3802 0.3280 0.9253
-0.0702 -17.4150 0.2942 0.9327
8.2241 13.4091 0.2657 0.9390
6.6538 13.4077 0.2528 0.9419
0.1787 13.5770 0.2294 0.9471
-1.0249 13.4002 0.2270 0.9477
-3.4972 13.3975 0.2339 0.9461
-4.8491 13.5003 0.2423 0.9442
-6.2134 13.3945 0.2494 0.9426
-7.8378 13.5682 0.2647 0.9392
-11.3419 13.3885 0.2964 0.9322
3.5901 13.3128 -0.0776 0.9463
2.3864 13.5839 -0.0776 0.9463
1.1343 13.4069 -0.0758 0.9476
-1.2717 13.4044 -0.0758 0.9476
-2.5284 13.5788 -0.0778 0.9462
-8.1439 13.5220 -0.0889 0.9388
-11.7687 13.3889 -0.1004 0.9312
-6.5970 -17.4190 -0.1049 0.9282
-4.9416 -17.6810 -0.1034 0.9292
-0.0702 -17.4091 -0.0980 0.9327
4.7132 -17.4042 -0.1015 0.9304
3.8801 13.4098 -0.0786 0.9457
2.6429 13.5841 -0.0779 0.9461
1.3812 13.4071 -0.0759 0.9475
0.1788 13.5816 -0.0765 0.9471
-1.0253 13.4046 -0.0757 0.9476
-2.2728 13.5790 -0.0775 0.9464
-4.8508 13.5051 -0.0808 0.9442
-11.3469 13.3943 -0.0988 0.9322
-13.5741 13.3872 -0.1073 0.9266
7.8294 13.3045 -0.4347 0.9401
3.5998 13.3489 -0.3893 0.9462
2.3795 13.5443 -0.3872 0.9465
1.1347 13.4114 -0.3790 0.9476
-0.0690 13.5417 -0.3813 0.9473
-1.2722 13.4089 -0.3793 0.9475
-6.4702 13.3062 -0.4166 0.9425
-8.1421 13.5190 -0.4444 0.9388
-13.9680 13.2815 -0.5427 0.9258
-7.8093 -12.9976 -0.4270 0.9411
-6.5946 -17.4128 -0.5243 0.9282
-4.9395 -17.6736 -0.5167 0.9292
-1.6593 -17.6886 -0.5003 0.9314
-0.0702 -17.4033 -0.4900 0.9327
4.7115 -17.3981 -0.5075 0.9304
8.1526 13.2926 -0.4391 0.9395
2.6352 13.5446 -0.3885 0.9463
1.3817 13.4117 -0.3796 0.9475
-1.0256 13.4092 -0.3787 0.9476
-4.8526 13.5099 -0.4042 0.9442
6.3429 13.3896 -0.7514 0.9424
4.9219 13.3630 -0.7222 0.9446
2.3412 13.3266 -0.6862 0.9473
-0.0678 13.3080 -0.6749 0.9481
-6.4726 13.3112 -0.7506 0.9424
-11.7792 13.4009 -0.9048 0.9310
-14.0923 13.3997 -0.9862 0.9251
-8.0161 -3.4201 -0.4420 0.9657
-4.9374 -17.6662 -0.9303 0.9292
-0.0702 -17.3975 -0.8823 0.9327
4.7099 -17.3921 -0.9138 0.9304
6.6479 13.3958 -0.7584 0.9419
5.2027 13.3679 -0.7275 0.9442
3.8617 13.3461 -0.7046 0.9459
1.3720 13.3172 -0.6789 0.9478
0.1752 13.3092 -0.6750 0.9481
-6.1833 13.3296 -0.7452 0.9428
-7.7108 13.3482 -0.7818 0.9401
-11.3569 13.4061 -0.8910 0.9320
7.9031 13.4297 -1.1425 0.9394
3.6023 13.3582 -1.0144 0.9460
2.3580 13.4219 -0.9992 0.9468
1.1355 13.4204 -0.9875 0.9474
-0.0683 13.4192 -0.9839 0.9476
-2.4982 13.4169 -1.0007 0.9467
-8.0784 13.4133 -1.1481 0.9391
-7.8974 -4.2406 -0.6573 0.9647
-7.7967 -12.9765 -1.1100 0.9411
-4.9354 -17.6588 -1.3444 0.9291
-0.0701 -17.3916 -1.2752 0.9326
4.7083 -17.3860 -1.3207 0.9303
6.6638 13.4278 -1.0991 0.9416
5.2252 13.4257 -1.0563 0.9439
3.8842 13.4238 -1.0246 0.9455
-1.0263 13.4182 -0.9867 0.9475
-3.5021 13.4161 -1.0167 0.9459
-4.8560 13.5196 -1.0533 0.9440
19.5758 1.0661 -1.8822 0.9242
14.1947 11.4998 -1.7539 0.9292
12.0333 11.6776 -1.6098 0.9348
10.8833 12.6389 -1.6013 0.9352
6.3632 13.4324 -1.4270 0.9420
4.9466 13.4301 -1.3740 0.9441
2.3588 13.4265 -1.3087 0.9467
-5.0986 13.4198 -1.3782 0.9439
-9.8160 13.4182 -1.5961 0.9354
-11.7186 13.3319 -1.7041 0.9312
-15.4120 10.1242 -1.7703 0.9286
-16.4815 8.8274 -1.7950 0.9276
-17.4512 7.4239 -1.8207 0.9266
-18.9103 -2.5643 -1.8321 0.9262
-9.8702 -3.2028 -0.9962 0.9592
-7.7538 -12.9052 -1.4454 0.9413
-6.5875 -17.3940 -1.7857 0.9280
-1.6518 -17.6083 -1.6979 0.9314
4.7066 -17.3800 -1.7287 0.9302
17.3308 7.2081 -1.8020 0.9273
12.2593 11.4699 -1.6118 0.9348
9.9215 13.3352 -1.5957 0.9354
3.8856 13.4286 -1.3421 0.9454
2.6123 13.4268 -1.3132 0.9465
0.1767 13.4239 -1.2889 0.9475
-3.5033 13.4208 -1.3316 0.9458
-7.7515 13.4187 -1.4878 0.9396
-15.1826 10.3752 -1.7654 0.9288
-16.2711 9.1007 -1.7899 0.9278
-17.2622 7.7185 -1.8154 0.9268
15.2007 -7.9637 -2.0384 0.9332
15.9908 -5.0095 -1.9905 0.9347
16.1841 -3.5188 -1.9674 0.9355
15.6934 2.2741 -1.8836 0.9381
14.7586 4.9384 -1.8487 0.9392
14.1390 6.1856 -1.8332 0.9397
11.7201 9.4950 -1.7917 0.9411
9.9681 9.6735 -1.6500 0.9456
8.0226 11.2044 -1.6369 0.9460
6.9708 11.8456 -1.6327 0.9461
3.8651 8.1590 -1.0724 0.9643
1.1363 13.4296 -1.6009 0.9472
-0.0684 13.4282 -1.5951 0.9473
-1.2739 13.4271 -1.6021 0.9471
-2.4999 13.4261 -1.6222 0.9465
-6.2032 12.7573 -1.6850 0.9445
-7.3771 12.2487 -1.6985 0.9440
-10.6545 10.1308 -1.7464 0.9425
-11.6378 9.2336 -1.7647 0.9419
-12.5522 8.2456 -1.7840 0.9413
-13.4518 7.2047 -1.8126 0.9404
-17.0817 2.2979 -2.0474 0.9329
-17.4243 0.7710 -2.0718 0.9322
-17.6285 -0.7987 -2.0962 0.9314
-17.5959 -4.0139 -2.1438 0.9299
-9.7442 -3.1620 -1.2169 0.9596
-7.4798 -4.0163 -1.0085 0.9664
-12.7253 -12.1256 -2.0879 0.9316
-10.4710 -14.3453 -2.1097 0.9310
-7.7948 -16.0737 -2.1220 0.9306
-6.3341 -16.7248 -2.1244 0.9305
1.5077 -17.5986 -2.0981 0.9313
3.0566 -17.2912 -2.0858 0.9317
7.3597 -15.4936 -2.0375 0.9332
8.6331 -14.6349 -2.0183 0.9338
9.8070 -13.6659 -1.9981 0.9345
11.2239 -13.0066 -2.0407 0.9331
12.7990 -12.3944 -2.1164 0.9307
13.6974 -11.0729 -2.0922 0.9315
14.4616 -9.6900 -2.0678 0.9323
15.0895 -8.2599 -2.0434 0.9331
15.5804 -6.7966 -2.0192 0.9338
15.9351 -5.3133 -1.9953 0.9346
16.2059 -0.8654 -1.9278 0.9367
16.0442 0.5803 -1.9071 0.9374
15.7645 1.9913 -1.8875 0.9380
15.3721 3.3593 -1.8691 0.9386
13.5787 7.1323 -1.8219 0.9401
12.7960 8.2587 -1.8091 0.9405
11.9315 9.3107 -1.7978 0.9409
9.2211 10.3214 -1.6441 0.9458
4.9732 12.7782 -1.6288 0.9463
0.1767 13.4285 -1.5953 0.9473
-2.2472 13.4263 -1.6170 0.9466
-3.5045 13.4255 -1.6482 0.9456
-4.6945 13.0698 -1.6496 0.9456
-9.3914 11.0860 -1.7259 0.9432
-12.3717 8.4543 -1.7799 0.9414
-15.1414 6.7703 -1.9702 0.9354
-15.8781 5.4559 -1.9943 0.9346
-16.9956 2.6029 -2.0424 0.9331
-17.3654 1.0863 -2.0668 0.9323
-17.6876 -2.0704 -2.1154 0.9308
13.4120 -4.2016 -1.9914 0.9448
13.6471 -0.4791 -1.9348 0.9463
13.5126 0.7359 -1.9174 0.9468
13.2775 1.9240 -1.9009 0.9472
12.0119 5.2551 -1.8577 0.9484
11.4193 6.2666 -1.8456 0.9487
10.7501 7.2196 -1.8348 0.9490
10.0008 8.1022 -1.8237 0.9493
8.5013 8.2500 -1.6785 0.9533
7.7008 8.9431 -1.6722 0.9534
6.8501 9.5668 -1.6672 0.9536
3.8596 8.1474 -1.2774 0.9642
4.0492 10.9935 -1.6600 0.9538
2.0294 11.5514 -1.6618 0.9537
-0.0600 11.7781 -1.6689 0.9535
-2.1719 11.6644 -1.6811 0.9532
-3.2211 11.4781 -1.6891 0.9530
-5.2739 10.8461 -1.7088 0.9524
-6.2644 10.4013 -1.7204 0.9521
-9.8248 7.7951 -1.7770 0.9506
-10.9835 7.2151 -1.8620 0.9483
-12.8526 5.4676 -1.9790 0.9451
-14.2613 1.9184 -2.0389 0.9435
-14.5186 0.6424 -2.0592 0.9430
-14.5771 -3.3253 -2.1185 0.9414
-9.6824 -3.1419 -1.4423 0.9597
-7.4691 -4.0106 -1.2012 0.9663
-12.1573 -9.6668 -2.2007 0.9392
-10.2554 -11.6922 -2.2036 0.9391
-8.5784 -11.7526 -2.0616 0.9429
-7.5152 -12.5080 -2.0675 0.9428
-5.1827 -13.6847 -2.0734 0.9426
-3.9385 -14.0921 -2.0732 0.9426
-1.3623 -14.5225 -2.0667 0.9428
-0.0587 -14.5421 -2.0605 0.9429
1.2365 -14.4321 -2.0524 0.9432
2.5093 -14.1950 -2.0425 0.9434
3.7467 -13.8352 -2.0309 0.9437
4.9363 -13.3586 -2.0179 0.9441
6.0670 -12.7723 -2.0035 0.9445
7.1286 -12.0843 -1.9879 0.9449
8.5320 -11.8892 -2.0734 0.9426
10.6265 -10.2906 -2.0959 0.9420
12.6020 -6.8983 -2.0356 0.9436
13.3600 -4.4547 -1.9954 0.9447
13.5704 -3.2110 -1.9759 0.9452
13.6618 -0.7295 -1.9385 0.9462
13.3334 1.6842 -1.9042 0.9472
13.0212 2.8455 -1.8885 0.9476
12.6160 3.9669 -1.8738 0.9480
11.5466 6.0649 -1.8480 0.9487
10.8925 7.0302 -1.8369 0.9490
7.8684 8.8073 -1.6734 0.9534
7.0274 9.4454 -1.6681 0.9536
6.1404 10.0117 -1.6641 0.9537
4.2494 10.9185 -1.6601 0.9538
2.2393 11.5094 -1.6613 0.9537
-0.9006 11.7740 -1.6731 0.9534
-4.0473 11.2679 -1.6964 0.9528
-5.0685 10.9263 -1.7066 0.9525
-6.0648 10.4989 -1.7180 0.9522
-8.8359 8.7142 -1.7584 0.9511
-9.6632 7.9586 -1.7738 0.9507
-13.8056 3.4000 -2.0146 0.9442
-14.1951 2.1740 -2.0347 0.9436
-14.4754 0.9055 -2.0550 0.9431
11.5392 -3.6149 -1.9920 0.9522
11.7166 -2.5475 -1.9753 0.9526
11.7882 -0.4139 -1.9432 0.9533
11.6863 0.6364 -1.9281 0.9537
11.2216 2.6678 -1.9002 0.9543
9.9262 5.4472 -1.8653 0.9551
8.7133 7.0591 -1.8474 0.9556
6.7108 7.7933 -1.6943 0.9592
5.9717 8.3400 -1.6898 0.9593
5.1922 8.8232 -1.6865 0.9593
3.5319 9.5891 -1.6834 0.9594
1.7699 10.0743 -1.6850 0.9594
0.8636 10.2076 -1.6876 0.9593
-0.0523 10.2665 -1.6913 0.9592
-0.9725 10.2500 -1.6962 0.9591
-1.8914 10.1577 -1.7021 0.9590
-2.8033 9.9893 -1.7092 0.9588
-5.4388 9.0305 -1.7367 0.9582
-7.0522 8.0231 -1.7597 0.9576
-9.8876 6.4952 -1.9489 0.9532
-10.5141 5.6313 -1.9649 0.9528
-11.0675 4.7082 -1.9814 0.9524
-11.5417 3.7317 -1.9983 0.9520
-11.9307 2.7083 -2.0155 0.9516
-12.4322 0.5501 -2.0501 0.9508
-12.5360 -1.6999 -2.0841 0.9500
-12.4308 -2.8357 -2.1005 0.9496
-7.6044 -3.2445 -1.3620 0.9670
-10.9408 -7.2037 -2.1580 0.9483
-10.3083 -8.1966 -2.1696 0.9480
-9.5793 -9.1279 -2.1798 0.9478
-8.7599 -9.9872 -2.1885 0.9476
-7.8574 -10.7647 -2.1955 0.9474
-2.2493 -12.1518 -2.0359 0.9511
1.0469 -12.2194 -2.0204 0.9515
3.1785 -11.7375 -2.0033 0.9519
4.3315 -11.7217 -2.0586 0.9506
8.3195 -9.6409 -2.0978 0.9497
9.0761 -8.7892 -2.0814 0.9501
10.3240 -6.9176 -2.0473 0.9509
10.8088 -5.9167 -2.0300 0.9513
11.6881 -2.7656 -1.9787 0.9525
11.5421 1.4579 -1.9165 0.9539
10.9446 3.4414 -1.8900 0.9546
10.5268 4.3782 -1.8782 0.9548
10.0351 5.2710 -1.8674 0.9551
9.4741 6.1148 -1.8576 0.9553
8.1361 7.6123 -1.8355 0.9558
6.8561 7.6742 -1.6953 0.9591
6.1258 8.2336 -1.6906 0.9593
5.3542 8.7299 -1.6871 0.9593
4.5461 9.1607 -1.6847 0.9594
3.7065 9.5236 -1.6835 0.9594
2.8405 9.8166 -1.6835 0.9594
1.9530 10.0380 -1.6847 0.9594
1.0494 10.1864 -1.6870 0.9593
0.1350 10.2605 -1.6905 0.9593
-0.7847 10.2595 -1.6951 0.9591
-1.7043 10.1827 -1.7008 0.9590
-3.5204 9.8010 -1.7156 0.9587
-4.4052 9.4964 -1.7246 0.9584
-6.0985 8.6639 -1.7454 0.9580
-9.7514 6.6636 -1.9457 0.9532
-11.4517 3.9349 -1.9948 0.9521
-12.5228 -0.3385 -2.0638 0.9505
-12.5445 -1.4684 -2.0807 0.9501
9.5319 -4.9938 -2.0226 0.9571
9.8659 -4.0911 -2.0075 0.9575
10.1160 -3.1691 -1.9925 0.9578
10.3651 -1.2981 -1.9635 0.9584
10.3657 -0.3639 -1.9495 0.9587
9.2120 4.0301 -1.8899 0.9599
8.7709 4.8132 -1.8805 0.9601
8.2681 5.5527 -1.8720 0.9603
7.7077 6.2444 -1.8645 0.9604
7.0941 6.8844 -1.8581 0.9606
3.1292 8.4957 -1.7017 0.9638
1.5679 8.9246 -1.7032 0.9638
0.7650 9.0411 -1.7054 0.9637
-0.0463 9.0910 -1.7088 0.9637
-2.4793 8.8349 -1.7248 0.9633
-4.0486 8.3261 -1.7402 0.9630
-5.5256 7.5534 -1.7591 0.9626
-7.4160 7.0516 -1.9235 0.9592
-8.0897 6.4185 -1.9410 0.9588
-9.2329 4.9451 -1.9687 0.9583
-9.7090 4.1303 -1.9832 0.9580
-10.1143 3.2702 -1.9980 0.9577
-10.4442 2.3708 -2.0130 0.9573
-10.6940 1.4386 -2.0282 0.9570
-10.9387 -0.4956 -2.0582 0.9564
-10.6299 -3.4494 -2.1006 0.9555
-8.3014 -7.9102 -2.1553 0.9544
-5.9549 -9.9112 -2.1733 0.9540
-5.0523 -10.4183 -2.1763 0.9540
-2.1048 -11.3708 -2.1736 0.9540
-0.0464 -11.5080 -2.1631 0.9542
0.9801 -11.4398 -2.1581 0.9543
1.9943 -11.2817 -2.1534 0.9544
3.9368 -10.6538 -2.1348 0.9548
4.8477 -10.2053 -2.1236 0.9551
6.5090 -9.0702 -2.0984 0.9556
7.2460 -8.3969 -2.0847 0.9559
7.9130 -7.6629 -2.0704 0.9562
9.8045 -4.2770 -2.0106 0.9574
10.0718 -3.3583 -1.9956 0.9577
10.3722 -0.5539 -1.9523 0.9586
10.1662 1.2842 -1.9260 0.9592
9.9476 2.1739 -1.9139 0.9594
9.6558 3.0361 -1.9025 0.9596
8.3754 5.4056 -1.8737 0.9602
7.8265 6.1074 -1.8660 0.9604
6.5255 7.3042 -1.8410 0.9609
4.7425 7.7326 -1.7050 0.9638
3.2839 8.4376 -1.7018 0.9638
1.7302 8.8927 -1.7028 0.9638
0.9295 9.0227 -1.7049 0.9638
-0.6947 9.0825 -1.7121 0.9636
-1.5082 9.0110 -1.7173 0.9635
-3.1122 8.6645 -1.7305 0.9632
-3.8920 8.3902 -1.7384 0.9631
-5.3805 7.6439 -1.7570 0.9627
-7.2691 7.1690 -1.9190 0.9593
-8.5733 5.8586 -1.9518 0.9586
-9.1276 5.1052 -1.9658 0.9583
-9.6175 4.3003 -1.9802 0.9580
-10.3832 2.5571 -2.0100 0.9574
-10.6497 1.6310 -2.0251 0.9571
-10.8331 0.6776 -2.0402 0.9568
8.7672 -3.6355 -2.0062 0.9619
8.9970 -2.8185 -1.9929 0.9622
8.8392 2.1014 -1.9205 0.9635
8.5709 2.8679 -1.9104 0.9637
8.2399 3.6048 -1.9011 0.9639
7.8494 4.3076 -1.8926 0.9641
6.9042 5.5934 -1.8782 0.9643
6.3568 6.1689 -1.8724 0.9644
5.7650 6.6950 -1.8675 0.9645
5.1154 7.1441 -1.8573 0.9647
4.2416 7.2078 -1.7678 0.9664
2.8064 7.6195 -1.7164 0.9673
2.1144 7.8406 -1.7166 0.9673
1.4060 8.0035 -1.7177 0.9673
0.6859 8.1068 -1.7197 0.9673
-0.0415 8.1499 -1.7227 0.9672
-0.7715 8.1320 -1.7267 0.9672
-1.4995 8.0529 -1.7315 0.9671
-2.2205 7.9127 -1.7372 0.9670
-3.6226 7.4500 -1.7511 0.9667
-6.6352 6.3091 -1.9354 0.9633
-7.7462 5.0885 -1.9591 0.9628
-9.2783 2.1062 -2.0111 0.9618
-9.6934 -0.4392 -2.0511 0.9611
-9.6758 -1.3121 -2.0640 0.9609
-9.5774 -2.1848 -2.0765 0.9606
-9.3977 -3.0495 -2.0884 0.9604
-9.1368 -3.8983 -2.0998 0.9602
-8.7958 -4.7230 -2.1103 0.9600
-7.8826 -6.2678 -2.1288 0.9597
-7.3170 -6.9722 -2.1364 0.9595
-5.9915 -8.2085 -2.1482 0.9593
-5.2436 -8.7273 -2.1521 0.9592
-1.8551 -10.0220 -2.1544 0.9592
-0.9507 -10.1342 -2.1516 0.9592
1.7584 -9.9472 -2.1352 0.9595
3.4739 -9.4010 -2.1185 0.9599
4.2803 -9.0108 -2.1087 0.9600
5.0428 -8.5486 -2.0980 0.9602
5.7552 -8.0197 -2.0865 0.9604
6.4117 -7.4300 -2.0745 0.9607
8.0007 -5.3609 -2.0357 0.9614
8.3924 -4.5940 -2.0224 0.9616
8.9562 -2.9863 -1.9956 0.9621
9.1267 -2.1595 -1.9825 0.9624
9.1956 0.3326 -1.9450 0.9631
8.6308 2.7138 -1.9124 0.9637
8.3123 3.4572 -1.9030 0.9639
7.0100 5.4702 -1.8795 0.9643
6.4722 6.0554 -1.8735 0.9644
4.4185 7.2042 -1.7864 0.9660
1.5516 7.9750 -1.7174 0.9673
-1.3514 8.0741 -1.7304 0.9671
-2.0742 7.9462 -1.7360 0.9670
-2.7864 7.7574 -1.7423 0.9669
-3.4829 7.5082 -1.7495 0.9667
-4.1815 7.2386 -1.7670 0.9664
-5.8701 6.9292 -1.9196 0.9636
-6.5112 6.4215 -1.9331 0.9633
-7.1010 5.8484 -1.9446 0.9631
-7.6423 5.2224 -1.9566 0.9629
-9.4546 1.4480 -2.0218 0.9617
-9.6093 0.6011 -2.0352 0.9614
-9.6871 -0.2619 -2.0484 0.9612
-9.6859 -1.1338 -2.0614 0.9609
7.6029 -3.9832 -2.0172 0.9653
8.2758 0.4507 -1.9479 0.9665
8.1590 1.1823 -1.9376 0.9667
7.4466 3.2578 -1.9103 0.9672
7.0968 3.8945 -1.9025 0.9673
6.2467 5.0607 -1.8895 0.9675
4.6475 6.4907 -1.8762 0.9677
3.3973 7.1716 -1.8651 0.9679
2.6541 7.2058 -1.8048 0.9689
1.9459 7.2159 -1.7565 0.9698
1.2734 7.2482 -1.7296 0.9702
0.6211 7.3410 -1.7315 0.9702
-0.0376 7.3788 -1.7342 0.9701
-0.6984 7.3610 -1.7378 0.9701
-2.7440 7.2224 -1.8158 0.9688
-4.1931 6.9621 -1.9101 0.9672
-4.8284 6.6003 -1.9220 0.9670
-5.4253 6.1722 -1.9313 0.9668
-6.5057 5.1617 -1.9518 0.9665
-6.9800 4.5852 -1.9627 0.9663
-7.7748 3.3075 -1.9857 0.9659
-8.0874 2.6149 -1.9976 0.9657
-8.6444 0.3825 -2.0336 0.9651
-8.6941 -0.3939 -2.0454 0.9649
-8.6727 -1.1760 -2.0569 0.9647
-8.5792 -1.9570 -2.0681 0.9645
-7.0425 -5.5998 -2.1146 0.9637
-6.5347 -6.2267 -2.1214 0.9636
-4.6793 -7.7880 -2.1353 0.9634
-3.9688 -8.1840 -2.1377 0.9633
-3.2231 -8.5105 -2.1388 0.9633
-1.6553 -8.9424 -2.1374 0.9633
-0.0366 -9.0677 -2.1311 0.9634
0.7723 -9.0141 -2.1263 0.9635
1.5705 -8.8842 -2.1204 0.9636
2.3505 -8.6797 -2.1134 0.9637
5.7439 -6.6563 -2.0663 0.9645
6.2816 -6.0830 -2.0551 0.9647
7.1815 -4.8120 -2.0317 0.9651
7.8298 -3.4156 -2.0077 0.9655
8.0554 -2.6860 -1.9957 0.9657
8.2142 -1.9436 -1.9838 0.9659
8.3317 -0.4449 -1.9609 0.9663
8.1879 1.0343 -1.9396 0.9667
7.5113 3.1240 -1.9119 0.9671
7.1724 3.7673 -1.9041 0.9673
6.7815 4.3769 -1.8969 0.9674
6.3420 4.9490 -1.8906 0.9675
5.3309 5.9671 -1.8806 0.9677
4.7668 6.4070 -1.8768 0.9677
3.5299 7.1130 -1.8663 0.9679
2.8035 7.2034 -1.8167 0.9687
1.4061 7.2271 -1.7304 0.9702
0.7548 7.3265 -1.7310 0.9702
-0.5636 7.3692 -1.7370 0.9701
-1.8868 7.2280 -1.7557 0.9698
-5.3064 6.2639 -1.9294 0.9668
-5.8748 5.7939 -1.9392 0.9667
-6.4032 5.2737 -1.9496 0.9665
-6.8872 4.7064 -1.9605 0.9663
-7.3221 4.0954 -1.9717 0.9661
-8.4924 1.3006 -2.0192 0.9653
-8.6256 0.5396 -2.0312 0.9651
-8.6897 -0.2349 -2.0430 0.9649
-8.6829 -1.0164 -2.0546 0.9647
7.1508 -2.9652 -2.0043 0.9685
7.4831 -1.6270 -1.9828 0.9689
7.5733 -0.2659 -1.9621 0.9692
7.5288 0.4100 -1.9522 0.9693
6.4698 3.5504 -1.9108 0.9700
6.1062 4.1008 -1.9044 0.9701
5.6983 4.6165 -1.8988 0.9702
4.7628 5.5311 -1.8899 0.9703
4.2421 5.9245 -1.8866 0.9703
3.6909 6.2719 -1.8842 0.9704
2.5107 6.8165 -1.8808 0.9704
1.2543 7.1396 -1.8769 0.9705
-0.6834 7.2032 -1.8734 0.9705
-1.9786 7.0505 -1.8960 0.9702
-2.6128 6.8771 -1.9048 0.9701
-3.2315 6.6457 -1.9133 0.9699
-4.3979 6.0117 -1.9286 0.9697
-4.9394 5.6194 -1.9371 0.9696
-5.4473 5.1796 -1.9462 0.9694
-6.3456 4.1684 -1.9658 0.9691
-7.8330 0.3466 -2.0301 0.9681
-7.8738 -0.3568 -2.0408 0.9680
-7.8502 -1.0645 -2.0512 0.9678
-7.7615 -1.7705 -2.0612 0.9676
-7.6076 -2.4686 -2.0708 0.9675
-6.3577 -5.0553 -2.1031 0.9670
-5.3847 -6.1391 -2.1143 0.9668
-4.8240 -6.6089 -2.1185 0.9668
-2.2088 -7.9031 -2.1247 0.9667
-1.4928 -8.0644 -2.1235 0.9667
0.6968 -8.1333 -2.1136 0.9668
1.4174 -8.0182 -2.1082 0.9669
2.8045 -7.5895 -2.0949 0.9671
3.4586 -7.2810 -2.0870 0.9672
4.0787 -6.9142 -2.0785 0.9674
4.6597 -6.4932 -2.0693 0.9675
5.6864 -5.5066 -2.0495 0.9678
7.1034 -3.0987 -2.0066 0.9685
7.4603 -1.7653 -1.9849 0.9688
7.5751 -0.4045 -1.9641 0.9691
7.4517 0.9413 -1.9447 0.9694
7.1007 2.2327 -1.9273 0.9697
6.8448 2.8468 -1.9194 0.9698
6.5383 3.4343 -1.9122 0.9699
6.1840 3.9912 -1.9057 0.9700
5.3441 5.0000 -1.8949 0.9702
4.8649 5.4455 -1.8906 0.9703
4.3509 5.8479 -1.8872 0.9703
2.0165 6.9692 -1.8785 0.9705
0.7417 7.1992 -1.8739 0.9705
-1.8480 7.0796 -1.8944 0.9702
-2.4844 6.9166 -1.9029 0.9701
-3.1073 6.6986 -1.9119 0.9699
-4.2837 6.0857 -1.9269 0.9697
-5.3467 5.2730 -1.9443 0.9694
-5.8248 4.7973 -1.9538 0.9693
-7.5233 1.8528 -2.0061 0.9685
-7.7004 1.1793 -2.0170 0.9683
-7.8169 0.4890 -2.0279 0.9682
-7.8603 -0.9201 -2.0491 0.9678
6.3005 -3.3009 -2.0136 0.9709
6.5378 -2.7111 -2.0036 0.9710
6.7205 -2.1054 -1.9937 0.9711
6.8479 -1.4889 -1.9839 0.9713
6.9199 -0.8667 -1.9743 0.9714
6.4700 2.1649 -1.9314 0.9720
6.2276 2.7245 -1.9243 0.9721
5.6067 3.7654 -1.9119 0.9723
5.2334 4.2399 -1.9067 0.9724
4.8222 4.6796 -1.9023 0.9725
3.8981 5.4440 -1.8955 0.9725
2.8610 6.0394 -1.8918 0.9726
2.3089 6.2688 -1.8912 0.9726
-0.0341 6.6992 -1.8965 0.9725
-0.6338 6.6808 -1.8998 0.9725
-1.2310 6.6114 -1.9038 0.9724
-1.8216 6.4911 -1.9086 0.9724
-2.9660 6.0997 -1.9201 0.9722
-3.5116 5.8306 -1.9268 0.9721
-4.0340 5.5143 -1.9342 0.9720
-5.4214 4.3014 -1.9592 0.9716
-5.8112 3.8174 -1.9683 0.9715
-6.1586 3.2985 -1.9778 0.9714
-6.4603 2.7483 -1.9875 0.9712
-6.9146 1.5696 -2.0073 0.9710
-7.0790 -1.6148 -2.0555 0.9703
-6.4737 -3.4761 -2.0802 0.9699
-6.1579 -4.0545 -2.0872 0.9698
-5.3678 -5.1149 -2.0990 0.9696
-4.9001 -5.5866 -2.1037 0.9696
-4.3890 -6.0130 -2.1075 0.9695
-3.8392 -6.3899 -2.1103 0.9695
-3.2556 -6.7135 -2.1122 0.9695
-1.3579 -7.3358 -2.1120 0.9695
-0.6961 -7.4205 -2.1099 0.9695
-0.0300 -7.4424 -2.1069 0.9695
0.6341 -7.4015 -2.1030 0.9696
1.2902 -7.2984 -2.0982 0.9697
2.5542 -6.9121 -2.0861 0.9698
3.1510 -6.6334 -2.0790 0.9699
3.7173 -6.3015 -2.0712 0.9700
4.7403 -5.4932 -2.0540 0.9703
5.1889 -5.0249 -2.0448 0.9704
6.2455 -3.4188 -2.0156 0.9708
6.4939 -2.8328 -2.0057 0.9710
6.9097 -0.9938 -1.9762 0.9714
6.8304 0.8628 -1.9490 0.9718
6.6974 1.4636 -1.9407 0.9719
6.5135 2.0481 -1.9329 0.9720
6.2808 2.6123 -1.9257 0.9721
5.6779 3.6646 -1.9131 0.9723
5.3127 4.1458 -1.9077 0.9724
4.4696 5.0030 -1.8992 0.9725
3.4973 5.7022 -1.8937 0.9726
2.9711 5.9869 -1.8921 0.9726
1.8569 6.4174 -1.8912 0.9726
1.2764 6.5604 -1.8920 0.9726
0.0881 6.6967 -1.8959 0.9725
-0.5116 6.6887 -1.8991 0.9725
-1.1096 6.6297 -1.9029 0.9724
-2.2841 6.3592 -1.9128 0.9723
-2.8522 6.1487 -1.9188 0.9722
-3.4021 5.8894 -1.9254 0.9721
-6.0914 3.4070 -1.9758 0.9714
-6.6657 2.2904 -1.9953 0.9711
-7.0365 1.0777 -2.0152 0.9708
-7.1854 -0.1942 -2.0349 0.9706
-7.1728 -0.8396 -2.0444 0.9704
6.1861 -1.9380 -1.9939 0.9732
6.3598 0.3464 -1.9590 0.9737
6.1474 1.4615 -1.9435 0.9739
5.7482 2.5148 -1.9298 0.9741
5.4833 3.0091 -1.9238 0.9742
5.1777 3.4773 -1.9184 0.9742
4.8340 3.9163 -1.9136 0.9743
3.6022 5.0308 -1.9031 0.9744
3.1347 5.3269 -1.9011 0.9745
1.0689 6.0846 -1.9001 0.9745
0.5213 6.1609 -1.9017 0.9745
-1.1372 6.1076 -1.9108 0.9743
-2.2174 5.8362 -1.9203 0.9742
-3.7220 5.0878 -1.9390 0.9740
-4.1775 4.7526 -1.9462 0.9739
-4.6037 4.3775 -1.9539 0.9738
-4.9972 3.9648 -1.9620 0.9737
-5.9480 2.5303 -1.9882 0.9733
-6.3613 1.4440 -2.0064 0.9731
-6.4944 0.8736 -2.0155 0.9729
-6.3663 -2.0658 -2.0586 0.9724
-6.1787 -2.6362 -2.0662 0.9723
-5.9385 -3.1887 -2.0732 0.9722
-5.6471 -3.7182 -2.0796 0.9721
-4.9203 -4.6884 -2.0904 0.9720
-4.4907 -5.1199 -2.0947 0.9719
-4.0218 -5.5098 -2.0981 0.9719
-3.5175 -5.8545 -2.1007 0.9718
-1.8406 -6.5857 -2.1032 0.9718
-0.6378 -6.7989 -2.1004 0.9718
-0.0275 -6.8198 -2.0976 0.9719
0.5812 -6.7833 -2.0941 0.9719
1.1826 -6.6902 -2.0897 0.9720
3.4111 -5.7826 -2.0650 0.9723
5.4644 -3.6614 -2.0232 0.9728
5.7439 -3.1442 -2.0141 0.9730
6.1554 -2.0525 -1.9958 0.9732
6.3647 -0.9154 -1.9778 0.9734
6.3928 -0.3414 -1.9691 0.9736
6.3705 0.2304 -1.9607 0.9737
6.2984 0.7956 -1.9527 0.9738
5.7971 2.4111 -1.9311 0.9741
5.5407 2.9103 -1.9250 0.9741
4.5350 4.2430 -1.9102 0.9743
4.1298 4.6226 -1.9066 0.9744
3.2320 5.2698 -1.9014 0.9745
2.7459 5.5332 -1.8999 0.9745
1.1797 6.0633 -1.8999 0.9745
0.6335 6.1492 -1.9014 0.9745
-1.5719 6.0220 -1.9143 0.9743
-2.1093 5.8724 -1.9192 0.9742
-2.6333 5.6767 -1.9247 0.9742
-3.1401 5.4358 -1.9309 0.9741
-4.9198 4.0519 -1.9604 0.9737
-5.2847 3.6113 -1.9687 0.9736
-5.6110 3.1383 -1.9774 0.9735
-5.8954 2.6360 -1.9863 0.9733
-6.4714 0.9911 -2.0137 0.9730
5.5648 -2.3076 -2.0025 0.9749
5.8373 -1.2692 -1.9857 0.9751
5.9029 -0.7393 -1.9775 0.9752
5.8187 0.8432 -1.9544 0.9755
4.8050 3.2269 -1.9240 0.9759
2.4556 5.1836 -1.9066 0.9761
0.9927 5.6504 -1.9070 0.9761
0.4840 5.7210 -1.9085 0.9761
-1.0556 5.6695 -1.9170 0.9760
-1.5615 5.5643 -1.9210 0.9759
-2.0576 5.4156 -1.9257 0.9759
-2.5403 5.2243 -1.9310 0.9758
-3.0061 4.9913 -1.9368 0.9757
-3.4514 4.7179 -1.9431 0.9757
-3.8727 4.4058 -1.9499 0.9756
-4.2666 4.0569 -1.9570 0.9755
-4.9593 3.2578 -1.9724 0.9753
-5.7168 1.8484 -1.9971 0.9750
-5.8839 1.3356 -2.0056 0.9749
-6.0050 0.8078 -2.0141 0.9748
-6.0023 -1.3692 -2.0464 0.9744
-5.8770 -1.9071 -2.0538 0.9743
-5.7023 -2.4329 -2.0608 0.9742
-5.4791 -2.9420 -2.0672 0.9741
-4.8941 -3.8915 -2.0784 0.9740
-4.1400 -4.7201 -2.0870 0.9739
-3.2421 -5.3961 -2.0925 0.9738
-2.2321 -5.8937 -2.0949 0.9738
-1.1465 -6.1941 -2.0939 0.9738
-0.0254 -6.2865 -2.0897 0.9738
1.0905 -6.1689 -2.0824 0.9739
1.6338 -6.0329 -2.0776 0.9740
3.1482 -5.3369 -2.0597 0.9742
4.0197 -4.6582 -2.0452 0.9744
4.7478 -3.8381 -2.0294 0.9746
5.0512 -3.3845 -2.0211 0.9747
5.3113 -2.9074 -2.0127 0.9748
5.6957 -1.8992 -1.9958 0.9750
5.9025 0.2135 -1.9633 0.9754
5.5734 1.7525 -1.9420 0.9757
4.2098 3.9387 -1.9163 0.9760
3.4303 4.6106 -1.9102 0.9761
3.0013 4.8935 -1.9082 0.9761
1.5938 5.5083 -1.9061 0.9761
1.0955 5.6307 -1.9068 0.9761
-0.9516 5.6855 -1.9162 0.9760
-3.3624 4.7769 -1.9418 0.9757
-4.1886 4.1309 -1.9555 0.9755
-4.5584 3.7543 -1.9630 0.9754
-4.8950 3.3450 -1.9708 0.9753
-5.4571 2.4400 -1.9870 0.9751
-5.6772 1.9507 -1.9954 0.9750
-5.8535 1.4416 -2.0039 0.9749
-5.9841 0.9165 -2.0123 0.9748
-6.0673 0.3795 -2.0208 0.9747
-6.0868 -0.7125 -2.0371 0.9745
4.9786 -2.6083 -2.0099 0.9764
5.1715 -2.1445 -2.0020 0.9765
5.3215 -1.6671 -1.9942 0.9766
5.4905 -0.6876 -1.9788 0.9768
5.5091 -0.1934 -1.9713 0.9769
5.4843 0.2987 -1.9641 0.9769
5.1566 1.7255 -1.9445 0.9772
4.1819 3.3880 -1.9247 0.9774
2.2897 4.8335 -1.9126 0.9775
0.9256 5.2687 -1.9130 0.9775
0.4513 5.3343 -1.9144 0.9775
-0.5069 5.3424 -1.9191 0.9775
-0.9840 5.2847 -1.9223 0.9774
-2.3667 4.8673 -1.9355 0.9773
-3.6056 4.1020 -1.9530 0.9771
-4.3083 3.4183 -1.9667 0.9769
-5.1187 2.1775 -1.9893 0.9766
-5.3137 1.7180 -1.9971 0.9766
-5.4674 1.2411 -2.0049 0.9765
-5.6658 -0.2567 -2.0282 0.9762
-5.5694 -1.2705 -2.0428 0.9760
-5.2883 -2.2563 -2.0561 0.9759
-5.0802 -2.7279 -2.0620 0.9758
-4.8288 -3.1794 -2.0675 0.9757
-4.5360 -3.6068 -2.0724 0.9757
-3.8359 -4.3734 -2.0803 0.9756
-3.4345 -4.7053 -2.0832 0.9756
-3.0034 -4.9988 -2.0854 0.9755
-1.5713 -5.6221 -2.0875 0.9755
0.4964 -5.7945 -2.0798 0.9756
3.3399 -4.6541 -2.0486 0.9760
4.6910 -3.1432 -2.0193 0.9763
5.1356 -2.2403 -2.0037 0.9765
5.4813 -0.7884 -1.9803 0.9768
5.5089 -0.2942 -1.9728 0.9768
5.4338 0.6864 -1.9586 0.9770
5.3326 1.1654 -1.9520 0.9771
5.0089 2.0832 -1.9400 0.9772
4.5340 2.9263 -1.9298 0.9773
3.5744 4.0010 -1.9186 0.9775
3.1983 4.2987 -1.9161 0.9775
2.3778 4.7914 -1.9128 0.9775
1.0215 5.2504 -1.9128 0.9775
0.5485 5.3242 -1.9141 0.9775
-0.4091 5.3491 -1.9185 0.9775
-0.8871 5.2998 -1.9216 0.9774
-1.3598 5.2093 -1.9253 0.9774
-1.8240 5.0782 -1.9296 0.9773
-2.2763 4.9071 -1.9344 0.9773
-2.7132 4.6968 -1.9397 0.9772
-3.1314 4.4488 -1.9455 0.9772
-4.5541 3.1121 -1.9725 0.9768
-4.8323 2.7028 -1.9800 0.9768
-5.0741 2.2688 -1.9877 0.9767
-5.2772 1.8133 -1.9955 0.9766
-5.6652 -0.1532 -2.0267 0.9762
4.6437 -2.4329 -2.0090 0.9778
4.8249 -2.0007 -2.0016 0.9779
4.9661 -1.5558 -1.9943 0.9780
5.0668 -1.1016 -1.9871 0.9780
5.1265 -0.6421 -1.9799 0.9781
5.1452 -0.1806 -1.9730 0.9782
5.1232 0.2790 -1.9662 0.9783
4.4327 2.4325 -1.9376 0.9786
4.1879 2.8125 -1.9332 0.9786
3.2744 3.8026 -1.9231 0.9787
2.5398 4.3160 -1.9191 0.9788
0.8662 4.9303 -1.9183 0.9788
0.4223 4.9914 -1.9196 0.9788
-0.9205 4.9437 -1.9271 0.9787
-1.7931 4.7196 -1.9348 0.9786
-2.6178 4.3466 -1.9445 0.9785
-3.0043 4.1068 -1.9500 0.9784
-3.3695 3.8334 -1.9559 0.9784
-3.7105 3.5281 -1.9621 0.9783
-4.0244 3.1930 -1.9687 0.9782
-4.5604 2.4425 -1.9825 0.9781
-4.7777 2.0325 -1.9897 0.9780
-5.1005 1.1578 -2.0043 0.9778
-2.3002 0.1018 -0.8823 0.9902
-5.1890 -1.1837 -2.0396 0.9775
-5.0782 -1.6479 -2.0460 0.9774
-4.9250 -2.1013 -2.0519 0.9773
-3.5695 -4.0696 -2.0745 0.9771
-2.3690 -4.8851 -2.0806 0.9770
-0.9881 -5.3381 -2.0804 0.9770
-0.5067 -5.4012 -2.0789 0.9770
-0.0219 -5.4193 -2.0768 0.9771
0.4620 -5.3922 -2.0739 0.9771
0.9405 -5.3204 -2.0705 0.9771
2.3027 -4.8476 -2.0566 0.9773
3.1112 -4.3355 -2.0450 0.9774
3.8088 -3.6884 -2.0318 0.9775
4.1091 -3.3218 -2.0249 0.9776
4.3741 -2.9309 -2.0177 0.9777
4.6019 -2.5191 -2.0105 0.9778
4.7911 -2.0900 -2.0031 0.9779
4.9406 -1.6474 -1.9958 0.9779
5.1310 0.1856 -1.9676 0.9782
3.3442 3.7433 -1.9236 0.9787
2.6186 4.2695 -1.9194 0.9788
2.2251 4.4837 -1.9182 0.9788
1.3908 4.8066 -1.9175 0.9788
0.5133 4.9821 -1.9193 0.9788
0.0660 5.0127 -1.9211 0.9788
-0.3828 5.0047 -1.9235 0.9787
-0.8298 4.9580 -1.9264 0.9787
-2.1285 4.5886 -1.9384 0.9786
-3.6430 3.5929 -1.9608 0.9783
-3.9627 3.2636 -1.9673 0.9782
-4.7363 2.1178 -1.9882 0.9780
-5.0747 1.2498 -2.0028 0.9779
-2.3030 0.1441 -0.8843 0.9902
4.7456 -1.0318 -1.9876 0.9792
4.8212 -0.1693 -1.9744 0.9794
4.8016 0.2615 -1.9681 0.9794
4.3558 1.9056 -1.9459 0.9797
4.1582 2.2819 -1.9413 0.9797
3.3845 3.2844 -1.9302 0.9798
2.7388 3.8250 -1.9254 0.9799
1.6234 4.4074 -1.9223 0.9799
1.2230 4.5351 -1.9224 0.9799
0.3964 4.6851 -1.9243 0.9799
-0.0240 4.7061 -1.9261 0.9799
-0.4450 4.6908 -1.9285 0.9798
-0.8638 4.6391 -1.9313 0.9798
-1.2772 4.5513 -1.9347 0.9798
-2.4552 4.0766 -1.9477 0.9796
-2.8172 3.8510 -1.9528 0.9796
-3.1590 3.5939 -1.9584 0.9795
-3.4780 3.3071 -1.9642 0.9795
-3.7714 2.9923 -1.9704 0.9794
-4.0369 2.6518 -1.9768 0.9793
-4.6426 1.5011 -1.9969 0.9791
-2.0206 0.2718 -0.8344 0.9912
-2.0026 0.0886 -0.8204 0.9914
-4.7474 -1.5405 -2.0427 0.9787
-4.4204 -2.3736 -2.0535 0.9785
-3.3339 -3.8010 -2.0693 0.9784
-2.2122 -4.5618 -2.0750 0.9783
-1.3650 -4.8841 -2.0755 0.9783
-0.9227 -4.9848 -2.0748 0.9783
-0.4732 -5.0440 -2.0734 0.9783
-0.0204 -5.0612 -2.0714 0.9784
0.4315 -5.0364 -2.0688 0.9784
0.8785 -4.9699 -2.0656 0.9784
1.7425 -4.7155 -2.0575 0.9785
2.1519 -4.5302 -2.0527 0.9786
2.5417 -4.3087 -2.0474 0.9786
2.9086 -4.0531 -2.0418 0.9787
3.2497 -3.7658 -2.0358 0.9787
3.5623 -3.4497 -2.0295 0.9788
4.0928 -2.7424 -2.0163 0.9789
4.4851 -1.9565 -2.0027 0.9791
4.6261 -1.5425 -1.9958 0.9791
4.7941 -0.6895 -1.9823 0.9793
4.8087 0.1739 -1.9694 0.9794
4.7591 0.6012 -1.9633 0.9795
4.6724 1.0211 -1.9574 0.9795
4.3921 1.8267 -1.9469 0.9797
3.7256 2.9073 -1.9341 0.9798
3.4450 3.2231 -1.9308 0.9798
2.8087 3.7751 -1.9258 0.9799
2.4579 4.0075 -1.9241 0.9799
1.3055 4.5119 -1.9224 0.9799
0.8973 4.6119 -1.9229 0.9799
-0.3593 4.6969 -1.9279 0.9798
-0.7787 4.6526 -1.9307 0.9798
-1.1935 4.5721 -1.9340 0.9798
-1.9967 4.3044 -1.9420 0.9797
-2.3791 4.1186 -1.9467 0.9797
-3.0911 3.6488 -1.9572 0.9795
-3.4149 3.3679 -1.9630 0.9795
-3.9851 2.7232 -1.9755 0.9794
-2.1024 0.5178 -0.8862 0.9907
-2.0087 0.1257 -0.8237 0.9913
-1.9970 -0.0540 -0.8176 0.9914
-2.0195 -0.2364 -0.8322 0.9913
4.0801 -2.1376 -2.0074 0.9801
4.3672 -1.3681 -1.9945 0.9802
4.4577 -0.9692 -1.9881 0.9803
4.3724 1.0395 -1.9587 0.9806
4.0968 1.7923 -1.9488 0.9807
3.4536 2.7979 -1.9371 0.9808
2.5776 3.5998 -1.9296 0.9809
2.2437 3.8128 -1.9281 0.9809
1.8930 3.9961 -1.9271 0.9809
-0.0226 4.4290 -1.9302 0.9809
-0.8128 4.3652 -1.9351 0.9808
-1.5826 4.1654 -1.9420 0.9807
-2.3091 3.8339 -1.9505 0.9807
-2.9701 3.3789 -1.9606 0.9806
-3.5445 2.8123 -1.9719 0.9805
-3.7932 2.4918 -1.9779 0.9804
-4.0133 2.1495 -1.9841 0.9803
-1.4841 0.3369 -0.6633 0.9934
-1.4734 0.1982 -0.6479 0.9935
-1.4500 -0.0657 -0.6326 0.9937
-4.3160 -1.8415 -2.0450 0.9797
-4.1439 -2.2251 -2.0499 0.9797
-3.9369 -2.5922 -2.0543 0.9796
-3.6966 -2.9393 -2.0583 0.9796
-3.4249 -3.2635 -2.0617 0.9796
-2.7963 -3.8309 -2.0670 0.9795
-1.2788 -4.5755 -2.0705 0.9795
-0.4433 -4.7257 -2.0686 0.9795
-0.0191 -4.7421 -2.0667 0.9795
0.4043 -4.7192 -2.0642 0.9795
0.8233 -4.6573 -2.0612 0.9796
1.2341 -4.5572 -2.0577 0.9796
1.6333 -4.4200 -2.0536 0.9796
2.0174 -4.2470 -2.0491 0.9797
2.7277 -3.8010 -2.0389 0.9798
3.3419 -3.2363 -2.0275 0.9799
3.6069 -2.9158 -2.0214 0.9800
3.8412 -2.5738 -2.0151 0.9800
4.0430 -2.2131 -2.0087 0.9801
4.2111 -1.8370 -2.0023 0.9802
4.3444 -1.4486 -1.9958 0.9802
4.4422 -1.0511 -1.9894 0.9803
4.5040 -0.6478 -1.9831 0.9803
4.5297 -0.2419 -1.9769 0.9804
4.4737 0.5651 -1.9652 0.9805
4.2784 1.3453 -1.9546 0.9806
3.7427 2.4156 -1.9413 0.9808
3.5053 2.7354 -1.9378 0.9808
3.2416 3.0329 -1.9347 0.9808
2.9535 3.3060 -1.9320 0.9808
2.6433 3.5528 -1.9299 0.9809
1.9658 3.9612 -1.9272 0.9809
1.6034 4.1199 -1.9267 0.9809
1.2288 4.2467 -1.9267 0.9809
0.4534 4.4012 -1.9283 0.9809
0.0583 4.4277 -1.9299 0.9809
-0.3381 4.4200 -1.9320 0.9808
-0.7328 4.3780 -1.9346 0.9808
-1.1229 4.3018 -1.9376 0.9808
-1.8782 4.0489 -1.9452 0.9807
-2.9063 3.4307 -1.9595 0.9806
-1.4894 0.3668 -0.6685 0.9933
-1.4735 0.2257 -0.6497 0.9935
-1.4578 0.0912 -0.6366 0.9936
-1.4402 -0.0389 -0.6279 0.9937
-1.4721 -0.1723 -0.6459 0.9936
3.8402 -2.0119 -2.0067 0.9811
3.9925 -1.6556 -2.0007 0.9811
4.1120 -1.2882 -1.9946 0.9812
4.1980 -0.9128 -1.9886 0.9812
4.2682 -0.1498 -1.9769 0.9814
4.0073 1.3409 -1.9560 0.9815
3.8626 1.6898 -1.9515 0.9816
3.6883 2.0240 -1.9474 0.9816
3.4860 2.3411 -1.9437 0.9817
3.2573 2.6389 -1.9405 0.9817
2.7280 3.1681 -1.9352 0.9817
2.4316 3.3959 -1.9333 0.9818
2.1168 3.5970 -1.9319 0.9818
1.0860 4.0271 -1.9307 0.9818
-0.0213 4.1780 -1.9340 0.9818
-0.3950 4.1639 -1.9360 0.9817
-0.7666 4.1173 -1.9386 0.9817
-1.4924 3.9281 -1.9450 0.9816
-1.8412 3.7864 -1.9489 0.9816
-2.4972 3.4135 -1.9577 0.9815
-3.0809 2.9295 -1.9679 0.9814
-3.3396 2.6497 -1.9733 0.9814
-3.7799 2.0245 -1.9848 0.9813
-1.2460 0.5300 -0.6268 0.9940
-1.2678 0.4099 -0.6168 0.9941
-1.2686 0.2880 -0.6022 0.9943
-1.2751 0.1715 -0.5956 0.9943
-1.2687 -0.2894 -0.6024 0.9943
-3.8955 -2.0917 -2.0467 0.9807
-2.9353 -3.3466 -2.0605 0.9806
-2.6273 -3.5994 -2.0627 0.9805
-2.2969 -3.8229 -2.0644 0.9805
-1.9471 -4.0151 -2.0655 0.9805
-1.2014 -4.2986 -2.0660 0.9805
-0.8121 -4.3874 -2.0654 0.9805
-0.4165 -4.4399 -2.0642 0.9805
-0.0180 -4.4555 -2.0624 0.9806
0.3799 -4.4343 -2.0601 0.9806
0.7737 -4.3766 -2.0573 0.9806
1.1599 -4.2830 -2.0539 0.9806
2.2407 -3.7984 -2.0413 0.9807
2.5650 -3.5742 -2.0364 0.9808
3.3935 -2.7433 -2.0199 0.9810
3.6145 -2.4219 -2.0140 0.9810
4.1832 -0.9898 -1.9898 0.9812
4.2422 -0.6101 -1.9839 0.9813
4.2672 -0.2279 -1.9781 0.9813
4.2159 0.5325 -1.9670 0.9814
4.1406 0.9048 -1.9618 0.9815
3.8945 1.6198 -1.9524 0.9816
3.3060 2.5798 -1.9411 0.9817
3.0575 2.8607 -1.9382 0.9817
2.7861 3.1185 -1.9357 0.9817
2.4936 3.3516 -1.9337 0.9818
2.1823 3.5582 -1.9322 0.9818
1.8546 3.7371 -1.9311 0.9818
1.1593 4.0065 -1.9306 0.9818
0.4278 4.1521 -1.9321 0.9818
0.0550 4.1769 -1.9336 0.9818
-1.4199 3.9531 -1.9443 0.9817
-2.4332 3.4568 -1.9568 0.9815
-3.2888 2.7087 -1.9722 0.9814
-3.5278 2.4107 -1.9778 0.9813
-1.2700 0.3128 -0.6054 0.9943
-1.2701 0.0794 -0.5891 0.9944
-1.2751 -0.1493 -0.5942 0.9944
3.6227 -1.8980 -2.0061 0.9819
3.7671 -1.5621 -2.0004 0.9820
4.0299 -0.1415 -1.9780 0.9822
3.9698 0.5752 -1.9676 0.9823
3.8929 0.9255 -1.9628 0.9823
3.7858 1.2668 -1.9582 0.9824
3.6495 1.5966 -1.9540 0.9824
3.4853 1.9126 -1.9501 0.9824
3.2944 2.2125 -1.9466 0.9825
3.0786 2.4941 -1.9435 0.9825
2.0011 3.4005 -1.9354 0.9826
1.0267 3.8072 -1.9342 0.9826
0.3327 3.9324 -1.9358 0.9826
-0.0201 3.9495 -1.9374 0.9826
-1.0711 3.8169 -1.9446 0.9825
-1.4103 3.7121 -1.9479 0.9825
-2.0568 3.4150 -1.9555 0.9824
-2.6440 3.0080 -1.9645 0.9823
-3.1535 2.5020 -1.9746 0.9822
-3.3736 2.2161 -1.9799 0.9822
-1.1034 0.5910 -0.6140 0.9944
-1.1067 0.4708 -0.5899 0.9947
-1.1441 0.1539 -0.5663 0.9949
-1.1440 -0.1551 -0.5663 0.9949
-1.1329 -0.2584 -0.5700 0.9948
-1.1063 -0.4720 -0.5900 0.9947
-1.1042 -0.5929 -0.6148 0.9944
-3.2730 -2.6025 -2.0511 0.9815
-1.8338 -3.7814 -2.0615 0.9815
-1.4888 -3.9311 -2.0620 0.9814
-0.7649 -4.1321 -2.0613 0.9815
0.3579 -4.1769 -2.0564 0.9815
1.0927 -4.0351 -2.0506 0.9815
1.4465 -3.9145 -2.0470 0.9816
2.1117 -3.5798 -2.0387 0.9817
2.4177 -3.3690 -2.0341 0.9817
3.4091 -2.2843 -2.0129 0.9819
3.5895 -1.9649 -2.0073 0.9819
3.7401 -1.6316 -2.0016 0.9820
3.9482 -0.9342 -1.9902 0.9821
4.0046 -0.5760 -1.9845 0.9821
4.0211 0.1454 -1.9737 0.9822
3.8100 1.1980 -1.9591 0.9824
2.8900 2.7039 -1.9413 0.9825
2.3572 3.1683 -1.9371 0.9826
2.0631 3.3638 -1.9356 0.9826
1.7533 3.5330 -1.9347 0.9826
0.4044 3.9252 -1.9356 0.9826
0.0520 3.9485 -1.9370 0.9826
-0.6533 3.9032 -1.9412 0.9825
-1.0010 3.8346 -1.9440 0.9825
-1.3419 3.7359 -1.9472 0.9825
-1.6735 3.6076 -1.9507 0.9824
-1.9932 3.4505 -1.9547 0.9824
-3.1056 2.5578 -1.9735 0.9822
-3.3307 2.2761 -1.9788 0.9822
-1.1000 0.4919 -0.5911 0.9946
-1.1254 0.3867 -0.5837 0.9947
-1.1329 0.2790 -0.5723 0.9948
-1.1443 -0.1340 -0.5651 0.9949
3.4244 -1.7941 -2.0056 0.9827
3.5615 -1.4768 -2.0002 0.9828
3.6693 -1.1495 -1.9948 0.9828
3.7472 -0.8147 -1.9894 0.9829
3.7564 0.5443 -1.9691 0.9830
3.6842 0.8759 -1.9645 0.9831
3.4547 1.5114 -1.9562 0.9832
3.1192 2.0948 -1.9492 0.9832
2.1769 3.0403 -1.9399 0.9833
1.8952 3.2206 -1.9386 0.9833
1.5991 3.3757 -1.9378 0.9833
-0.3536 3.7273 -1.9423 0.9833
-1.0142 3.6141 -1.9473 0.9832
-2.5022 2.8467 -1.9662 0.9831
-2.9835 2.3671 -1.9757 0.9830
-1.0146 0.3280 -0.5532 0.9952
-1.0247 0.2326 -0.5451 0.9953
-1.0365 0.1394 -0.5426 0.9953
-1.0352 0.0458 -0.5376 0.9953
-1.0353 -0.0469 -0.5376 0.9953
-1.0364 -0.1405 -0.5426 0.9953
-1.0144 -0.3292 -0.5533 0.9952
-0.9565 -0.5136 -0.5632 0.9951
-3.2920 -2.1675 -2.0448 0.9824
-3.0900 -2.4570 -2.0481 0.9824
-2.8621 -2.7272 -2.0509 0.9823
-2.6100 -2.9756 -2.0534 0.9823
-1.7308 -3.5691 -2.0578 0.9823
-1.0679 -3.8210 -2.0582 0.9823
-0.7219 -3.9001 -2.0577 0.9823
-0.0160 -3.9613 -2.0550 0.9823
1.0317 -3.8096 -2.0475 0.9824
1.6876 -3.5527 -2.0404 0.9824
2.2836 -3.1822 -2.0319 0.9825
2.8004 -2.7119 -2.0224 0.9826
3.3930 -1.8573 -2.0067 0.9827
3.6497 -1.2170 -1.9959 0.9828
3.7337 -0.8835 -1.9905 0.9829
3.7876 -0.5448 -1.9852 0.9829
3.8112 -0.2035 -1.9800 0.9829
3.8044 0.1376 -1.9749 0.9830
3.7013 0.8088 -1.9655 0.9831
3.6062 1.1339 -1.9611 0.9831
2.9586 2.3087 -1.9469 0.9832
2.7367 2.5604 -1.9442 0.9833
2.2324 3.0006 -1.9402 0.9833
1.6606 3.3462 -1.9379 0.9833
1.3545 3.4804 -1.9375 0.9833
1.0380 3.5875 -1.9374 0.9833
0.7134 3.6667 -1.9379 0.9833
0.0492 3.7395 -1.9401 0.9833
-1.2705 3.5371 -1.9498 0.9832
-1.5843 3.4153 -1.9531 0.9832
-1.8868 3.2663 -1.9569 0.9831
-2.4487 2.8905 -1.9653 0.9831
-2.7035 2.6663 -1.9699 0.9830
-0.9495 0.5311 -0.5644 0.9951
-1.0115 0.3476 -0.5549 0.9952
-1.0350 0.1585 -0.5432 0.9953
-1.0366 0.0648 -0.5388 0.9953
-1.0333 -0.0279 -0.5363 0.9954
3.2428 -1.6989 -2.0051 0.9834
3.3730 -1.3987 -2.0000 0.9835
1.8863 -0.4101 -1.0573 0.9912
1.8888 -0.2366 -1.0426 0.9914
1.8883 0.2736 -1.0450 0.9913
1.8697 0.6256 -1.0799 0.9910
3.2757 1.4331 -1.9583 0.9838
3.1289 1.7171 -1.9548 0.9839
2.7648 2.2399 -1.9489 0.9839
2.0650 2.8840 -1.9428 0.9840
1.7979 3.0552 -1.9416 0.9840
0.6132 3.4905 -1.9410 0.9840
-0.6508 3.4953 -1.9473 0.9839
-0.9619 3.4276 -1.9498 0.9839
-1.8460 3.0650 -1.9597 0.9838
-2.1167 2.8935 -1.9636 0.9838
-2.8274 2.2433 -1.9768 0.9837
-0.8711 0.5722 -0.5708 0.9953
-0.9036 0.3844 -0.5378 0.9955
-0.9196 0.2973 -0.5294 0.9956
-0.9339 0.2120 -0.5245 0.9956
-0.9460 0.1273 -0.5228 0.9957
-0.9456 0.0418 -0.5184 0.9957
-0.9456 -0.0428 -0.5185 0.9957
-0.9337 -0.2130 -0.5245 0.9956
-0.9034 -0.3854 -0.5379 0.9955
-0.8713 -0.5737 -0.5714 0.9953
-2.7070 -2.5794 -2.0480 0.9831
-2.4684 -2.8142 -2.0503 0.9831
-1.6367 -3.3751 -2.0544 0.9830
-1.3288 -3.5086 -2.0549 0.9830
-0.6827 -3.6881 -2.0543 0.9830
-0.0151 -3.7462 -2.0518 0.9831
0.6508 -3.6813 -2.0475 0.9831
0.9759 -3.6035 -2.0448 0.9831
2.6507 -2.5669 -2.0210 0.9833
3.2129 -1.7587 -2.0061 0.9834
3.3487 -1.4608 -2.0010 0.9835
1.8701 -0.6236 -1.0797 0.9910
1.8884 -0.2716 -1.0449 0.9913
3.3026 1.3736 -1.9591 0.9838
3.1609 1.6603 -1.9555 0.9838
1.8536 3.0222 -1.9418 0.9840
0.9847 3.4033 -1.9405 0.9840
0.3633 3.5266 -1.9417 0.9840
-0.5868 3.5057 -1.9468 0.9839
-1.2049 3.3544 -1.9521 0.9839
-1.5023 3.2386 -1.9554 0.9838
-1.7890 3.0970 -1.9589 0.9838
-2.0627 2.9304 -1.9627 0.9838
-2.3212 2.7401 -1.9669 0.9838
-2.7846 2.2934 -1.9758 0.9837
-0.8748 0.4893 -0.5490 0.9954
-0.9467 0.0592 -0.5195 0.9957
-0.9469 -0.1108 -0.5222 0.9957
1.7196 -0.5387 -1.0404 0.9917
1.7418 -0.2181 -1.0135 0.9919
1.7369 0.0946 -1.0043 0.9920
1.7411 0.2523 -1.0157 0.9919
1.7134 0.5733 -1.0431 0.9917
2.6260 2.1274 -1.9512 0.9845
2.4225 2.3509 -1.9489 0.9845
2.2005 2.5554 -1.9470 0.9845
1.7080 2.9024 -1.9443 0.9846
1.4412 3.0422 -1.9435 0.9846
0.2840 3.3563 -1.9447 0.9846
-0.0172 3.3705 -1.9460 0.9846
-0.3186 3.3583 -1.9477 0.9845
-0.6182 3.3200 -1.9497 0.9845
-1.2026 3.1653 -1.9549 0.9845
-2.0097 2.7472 -1.9652 0.9844
-2.4770 2.3553 -1.9734 0.9843
-0.8270 0.4430 -0.5417 0.9957
-0.8634 0.2792 -0.5239 0.9958
-0.8743 0.1985 -0.5176 0.9959
-0.8815 0.1186 -0.5135 0.9959
-0.8815 -0.1195 -0.5136 0.9959
-0.8741 -0.1994 -0.5176 0.9959
-0.8633 -0.2801 -0.5240 0.9958
-0.8493 -0.3624 -0.5331 0.9957
-0.7955 -0.5238 -0.5499 0.9956
-2.7693 -2.2020 -2.0427 0.9838
-2.5646 -2.4437 -2.0452 0.9838
-2.0925 -2.8668 -2.0492 0.9837
-1.8291 -3.0443 -2.0505 0.9837
-1.2587 -3.3234 -2.0518 0.9837
-0.9566 -3.4226 -2.0517 0.9837
0.3027 -3.5327 -2.0471 0.9838
0.6165 -3.4877 -2.0448 0.9838
0.9246 -3.4142 -2.0422 0.9838
2.2904 -2.6542 -2.0241 0.9839
2.5130 -2.4335 -2.0197 0.9840
2.8927 -1.9383 -2.0104 0.9840
3.0471 -1.6680 -2.0056 0.9841
3.1763 -1.3856 -2.0007 0.9841
1.7138 -0.5714 -1.0430 0.9917
1.7323 -0.4099 -1.0278 0.9918
1.7367 -0.0927 -1.0041 0.9920
1.7341 0.0627 -1.0018 0.9920
1.7418 0.2200 -1.0136 0.9919
1.7193 0.5406 -1.0406 0.9917
3.0017 1.5766 -1.9575 0.9845
2.8443 1.8357 -1.9545 0.9845
2.6651 2.0797 -1.9517 0.9845
2.2472 2.5153 -1.9473 0.9845
2.0117 2.7038 -1.9457 0.9846
1.7608 2.8710 -1.9445 0.9846
1.4965 3.0156 -1.9437 0.9846
0.9355 3.2331 -1.9432 0.9846
0.6429 3.3045 -1.9436 0.9846
0.3451 3.3502 -1.9444 0.9846
-0.2572 3.3629 -1.9473 0.9845
-0.5573 3.3299 -1.9493 0.9845
-1.1443 3.1858 -1.9544 0.9845
-1.6988 2.9408 -1.9608 0.9844
-1.9585 2.7823 -1.9644 0.9844
-2.4325 2.3990 -1.9725 0.9843
-2.6430 2.1768 -1.9769 0.9843
-0.8456 0.3781 -0.5348 0.9957
-0.8612 0.2959 -0.5258 0.9958
-0.8807 0.1349 -0.5144 0.9959
-0.8817 0.0552 -0.5101 0.9959
-0.8800 -0.0238 -0.5082 0.9959
