ply
format ascii 1.0
element vertex 1575
property float32 x
property float32 y
property float32 z
property float32 I
end_header
9.7978 12.7634 0.9978 0.9375
6.7408 13.0868 0.9128 0.9427
5.3473 13.1540 0.8805 0.9447
4.1070 13.4394 0.8714 0.9452
2.8100 13.3770 0.8476 0.9467
0.3806 13.5908 0.8431 0.9470
-0.8505 13.8040 0.8576 0.9461
-2.1022 13.8096 0.8662 0.9456
-4.8140 14.0489 0.9209 0.9422
-7.9974 14.3250 1.0174 0.9364
-9.8871 14.4921 1.0879 0.9321
-0.6327 -17.5332 1.0879 0.9321
5.9486 -17.8285 1.1655 0.9274
-10.0367 -16.7084 0.7686 0.9249
-6.0011 -12.3788 0.5424 0.9464
4.8838 -18.0086 0.7357 0.9280
11.3058 12.6825 0.6699 0.9342
9.4913 12.7867 0.6279 0.9382
3.8632 13.4133 0.5504 0.9457
2.5883 13.3934 0.5379 0.9469
-1.0759 13.8207 0.5466 0.9460
-5.0762 14.0686 0.5897 0.9419
-10.2541 14.5205 0.7009 0.9313
-10.2949 -16.5273 0.7678 0.9250
-5.0074 -16.8721 0.6940 0.9320
-3.7331 -18.5132 0.7447 0.9272
-0.3499 -17.5667 0.6928 0.9321
4.6634 -18.3651 0.7471 0.9270
9.7951 12.7600 0.6343 0.9376
8.1819 12.9017 0.6024 0.9407
6.7391 13.0836 0.5803 0.9428
4.1061 13.4363 0.5540 0.9453
0.3805 13.5877 0.5360 0.9470
-3.4600 14.1025 0.5726 0.9435
-7.9952 14.3211 0.6467 0.9365
-9.8842 14.4878 0.6916 0.9322
-5.2974 -16.8465 0.6963 0.9317
-3.7691 -17.2491 0.6962 0.9318
-0.6328 -17.5361 0.6919 0.9322
5.9501 -17.8329 0.7413 0.9275
-10.0385 -16.7113 0.3293 0.9250
-6.0018 -12.3802 0.2324 0.9464
-4.7204 -16.9014 0.2964 0.9322
-0.0651 -17.3112 0.2924 0.9331
11.4028 12.7913 0.2895 0.9337
9.4888 12.7833 0.2689 0.9383
3.8623 13.4102 0.2357 0.9457
2.5877 13.3903 0.2304 0.9469
1.3907 13.6720 0.2321 0.9465
-1.0757 13.8175 0.2341 0.9461
-2.3159 13.7199 0.2350 0.9459
-6.6127 14.2005 0.2646 0.9393
-8.4234 14.5314 0.2837 0.9350
-12.4320 14.6289 0.3243 0.9261
-6.7480 -16.9918 0.3088 0.9295
-0.3500 -17.5695 0.2968 0.9321
1.2147 -17.4205 0.2950 0.9325
6.2839 -17.8665 0.3199 0.9270
9.7925 12.7565 0.2717 0.9377
8.1798 12.8984 0.2580 0.9407
6.7375 13.0804 0.2485 0.9428
2.8087 13.3709 0.2308 0.9468
1.6119 13.6526 0.2322 0.9465
0.3804 13.5846 0.2296 0.9471
-3.4591 14.0991 0.2452 0.9436
-7.9930 14.3171 0.2770 0.9365
-12.0696 14.6764 0.3210 0.9268
-10.5777 -16.3854 0.3295 0.9249
-5.2986 -16.8504 0.2984 0.9318
-3.7697 -17.2518 0.2983 0.9318
-0.6329 -17.5389 0.2965 0.9322
-10.0403 -16.7142 -0.1098 0.9250
-6.0025 -12.3817 -0.0775 0.9464
-6.4457 -17.0275 -0.1025 0.9298
-4.7214 -16.9053 -0.0988 0.9322
1.5245 -17.7315 -0.1002 0.9313
6.6227 -17.9007 -0.1075 0.9265
9.4862 12.7798 -0.0896 0.9383
7.9033 12.9192 -0.0853 0.9412
6.5392 13.2156 -0.0830 0.9427
3.8615 13.4071 -0.0786 0.9457
2.5871 13.3873 -0.0768 0.9469
1.3904 13.6689 -0.0774 0.9465
-3.7065 14.1175 -0.0822 0.9433
-5.0736 14.0615 -0.0842 0.9420
-10.2480 14.5118 -0.1000 0.9314
-5.5188 -2.8489 -0.0350 0.9755
-5.4817 -3.4832 -0.0366 0.9744
-10.3008 -16.5368 -0.1097 0.9250
-5.0097 -16.8799 -0.0991 0.9320
4.6600 -18.3519 -0.1066 0.9271
11.7363 12.7448 -0.0975 0.9330
6.7737 13.1507 -0.0833 0.9425
4.1041 13.4300 -0.0791 0.9454
0.3803 13.5815 -0.0765 0.9471
-0.8499 13.7945 -0.0778 0.9462
-2.1007 13.7999 -0.0786 0.9457
-3.4583 14.0957 -0.0817 0.9436
-4.8104 14.0384 -0.0835 0.9424
-6.4045 14.3550 -0.0885 0.9391
-7.9908 14.3132 -0.0923 0.9365
-10.5804 -16.3896 -0.1098 0.9249
-3.7703 -17.2545 -0.0994 0.9318
0.9310 -17.3996 -0.0981 0.9327
-5.3294 -2.8611 -0.1703 0.9761
-5.3733 -3.5375 -0.1811 0.9746
-10.0420 -16.7172 -0.5491 0.9249
-6.0032 -12.3831 -0.3875 0.9464
-0.0651 -17.3191 -0.4877 0.9330
4.8864 -18.0179 -0.5257 0.9280
11.3964 12.7841 -0.4822 0.9338
9.4837 12.7765 -0.4480 0.9383
6.5166 13.1700 -0.4138 0.9429
5.1046 13.1624 -0.3975 0.9451
3.8606 13.4040 -0.3928 0.9457
-1.0752 13.8112 -0.3901 0.9461
-2.3183 13.7340 -0.3922 0.9458
-5.0723 14.0580 -0.4208 0.9419
-6.6093 14.1931 -0.4409 0.9393
-8.4187 14.5234 -0.4727 0.9350
-12.4970 14.7053 -0.5434 0.9257
-15.5785 -1.8534 -0.4418 0.9392
-6.7031 -2.7319 -0.2038 0.9715
-5.3649 -3.4090 -0.1790 0.9749
-6.7503 -16.9975 -0.5150 0.9294
-5.0108 -16.8838 -0.4959 0.9320
1.2152 -17.4285 -0.4919 0.9325
9.7872 12.7497 -0.4526 0.9377
5.3422 13.1415 -0.3994 0.9448
4.0900 13.3838 -0.3941 0.9455
2.8075 13.3648 -0.3845 0.9468
0.3802 13.5785 -0.3825 0.9471
-0.8497 13.7914 -0.3891 0.9462
-3.4575 14.0923 -0.4086 0.9436
-4.8092 14.0349 -0.4178 0.9424
-6.4029 14.3512 -0.4425 0.9391
-7.9886 14.3093 -0.4615 0.9365
-15.5982 -1.6007 -0.4415 0.9392
-5.6572 -2.8055 -0.1778 0.9750
-10.5831 -16.3938 -0.5494 0.9249
-3.7709 -17.2572 -0.4974 0.9318
0.9312 -17.4035 -0.4907 0.9326
-5.2561 -2.8217 -0.3025 0.9764
-5.2978 -3.4877 -0.3217 0.9749
-10.0103 -16.6643 -0.9859 0.9251
-6.0039 -12.3846 -0.6980 0.9464
-4.7236 -16.9131 -0.8906 0.9321
-0.0652 -17.3230 -0.8785 0.9330
1.5250 -17.7371 -0.9028 0.9312
9.4728 12.7617 -0.8060 0.9383
7.8993 12.9127 -0.7677 0.9412
6.5360 13.2092 -0.7474 0.9427
5.1033 13.1593 -0.7158 0.9450
2.5859 13.3812 -0.6912 0.9469
1.3897 13.6627 -0.6965 0.9465
-2.3317 13.8139 -0.7105 0.9454
-3.6542 13.9185 -0.7298 0.9440
-8.2058 14.1560 -0.8298 0.9366
-10.1362 14.3535 -0.8911 0.9320
-12.4224 14.6176 -0.9729 0.9260
-5.3746 -2.7744 -0.3067 0.9761
-6.7298 -16.9460 -0.9247 0.9296
4.6567 -18.3389 -0.9596 0.9270
11.5013 12.4896 -0.8611 0.9343
9.7670 12.7234 -0.8135 0.9378
6.7704 13.1442 -0.7498 0.9425
4.1023 13.4238 -0.7119 0.9453
0.3801 13.5754 -0.6887 0.9471
-0.8495 13.7882 -0.7006 0.9462
-2.0997 13.7935 -0.7076 0.9457
-4.7847 13.9634 -0.7486 0.9426
-6.2509 14.0107 -0.7781 0.9404
-11.9787 14.5659 -0.9564 0.9272
-14.5983 -1.4980 -0.7442 0.9429
-6.8230 -2.6530 -0.3713 0.9711
-5.5808 -2.7676 -0.3159 0.9754
-5.2825 -3.2380 -0.3142 0.9755
-5.3246 -3.9597 -0.3365 0.9738
-10.5859 -16.3980 -0.9898 0.9248
-7.0356 -16.9141 -0.9290 0.9293
-0.6332 -17.5474 -0.8905 0.9321
0.9314 -17.4075 -0.8841 0.9326
5.9560 -17.8506 -0.9543 0.9274
-10.0121 -16.6673 -1.4256 0.9250
-5.9626 -12.2994 -1.0022 0.9467
-6.4279 -16.9804 -1.3313 0.9298
-0.0652 -17.3270 -1.2705 0.9329
4.8723 -17.9661 -1.3649 0.9281
6.6277 -17.9142 -1.4005 0.9263
9.4549 12.7376 -1.1631 0.9384
7.8581 12.8453 -1.1041 0.9414
3.7883 13.1530 -1.0036 0.9466
0.1595 13.4763 -0.9882 0.9474
-3.6407 13.8672 -1.0512 0.9441
-6.6058 14.1857 -1.1474 0.9392
-8.3064 14.3297 -1.2144 0.9357
-10.2389 14.4989 -1.3014 0.9313
-12.4889 14.6958 -1.4141 0.9256
-7.6674 -2.3506 -0.5880 0.9683
-5.2742 -2.7226 -0.4352 0.9765
-5.2054 -3.3076 -0.4522 0.9756
-3.6833 -18.2667 -1.3663 0.9280
1.2158 -17.4366 -1.2816 0.9323
4.6061 -18.1396 -1.3722 0.9277
11.5874 12.5831 -1.2542 0.9337
9.7625 12.7175 -1.1755 0.9377
6.6603 12.9306 -1.0665 0.9433
4.0138 13.1345 -1.0070 0.9464
1.5755 13.3442 -0.9852 0.9475
0.3768 13.4555 -0.9870 0.9474
-0.8493 13.7850 -1.0127 0.9461
-3.3957 13.8405 -1.0449 0.9444
-6.3177 14.1604 -1.1369 0.9397
-7.9842 14.3014 -1.2010 0.9364
-6.6837 -2.5989 -0.5258 0.9716
-5.2000 -3.1875 -0.4472 0.9758
-4.8593 -3.6137 -0.4440 0.9760
-7.0368 -16.9169 -1.3434 0.9291
-3.7601 -17.2076 -1.2915 0.9318
-0.6312 -17.4922 -1.2834 0.9322
4.5224 -19.0982 -1.4390 0.9243
5.9575 -17.8550 -1.3801 0.9273
-5.1040 -2.7401 -0.5562 0.9770
-4.8668 -3.8695 -0.5969 0.9753
-8.8193 -14.6816 -1.6443 0.9335
-5.9411 -12.2551 -1.3075 0.9467
-6.0817 -16.0659 -1.6492 0.9333
-4.6338 -16.5914 -1.6538 0.9331
-3.1431 -17.0005 -1.6598 0.9329
1.5043 -17.4958 -1.6859 0.9319
3.0831 -17.4072 -1.6972 0.9314
6.2290 -16.8365 -1.7235 0.9304
7.7759 -16.3520 -1.7383 0.9298
10.7635 -14.9834 -1.7712 0.9285
11.2411 12.6099 -1.6218 0.9344
6.4493 13.0340 -1.3961 0.9432
1.3713 13.4819 -1.3010 0.9470
0.1609 13.5884 -1.3046 0.9469
-5.0685 14.0475 -1.4337 0.9418
-6.6041 14.1819 -1.5019 0.9391
-8.3041 14.3257 -1.5897 0.9356
-10.2358 14.4946 -1.7036 0.9312
-12.4848 14.6910 -1.8509 0.9255
-14.9779 12.2951 -1.8604 0.9251
-16.5667 9.2295 -1.8207 0.9266
-19.5123 1.1847 -1.8767 0.9245
-19.3764 -0.5599 -1.8610 0.9251
-18.6852 -3.9425 -1.8334 0.9261
-7.8696 -2.4126 -0.7902 0.9675
-4.8567 -3.7351 -0.5882 0.9757
-11.5070 -12.7002 -1.6453 0.9335
-9.0544 -14.5357 -1.6441 0.9335
-6.1771 -12.2343 -1.3158 0.9464
-3.4149 -16.9355 -1.6586 0.9329
1.2160 -17.4406 -1.6785 0.9322
2.7979 -17.4328 -1.6950 0.9315
4.3770 -17.2372 -1.7074 0.9310
11.5841 12.5795 -1.6418 0.9336
9.7793 12.7394 -1.5418 0.9375
8.1693 12.8819 -1.4644 0.9405
5.3384 13.1321 -1.3609 0.9446
1.5895 13.4627 -1.3015 0.9470
0.3800 13.5692 -1.3032 0.9469
-3.4108 13.9021 -1.3743 0.9441
-4.8056 14.0244 -1.4233 0.9422
-6.3161 14.1567 -1.4882 0.9396
-7.9820 14.2975 -1.5721 0.9363
-16.4470 9.5142 -1.8242 0.9265
-19.4844 3.2710 -1.8968 0.9237
-19.5213 1.5021 -1.8797 0.9243
-14.1398 -1.4510 -1.3646 0.9445
-5.1124 -3.1338 -0.5757 0.9762
-4.8469 -3.6045 -0.5799 0.9760
-12.8088 -11.4390 -1.6487 0.9333
-11.7135 -12.5156 -1.6457 0.9334
-10.5374 -13.4998 -1.6441 0.9335
-9.2873 -14.3865 -1.6440 0.9335
-7.9699 -15.1709 -1.6452 0.9335
-3.6855 -16.8665 -1.6575 0.9330
-2.1717 -17.1994 -1.6643 0.9327
0.9319 -17.4156 -1.6744 0.9323
2.5128 -17.4541 -1.6930 0.9316
4.0924 -17.2822 -1.7051 0.9311
5.6651 -16.9787 -1.7184 0.9306
7.2207 -16.5423 -1.7328 0.9300
-5.0592 -3.3307 -0.7195 0.9759
-4.8540 -3.8594 -0.7366 0.9753
-9.4790 -10.8077 -1.7076 0.9437
-8.3307 -11.4147 -1.6786 0.9447
-5.9261 -12.2241 -1.6137 0.9467
-3.8202 -13.6782 -1.6869 0.9444
-2.5896 -14.0065 -1.6920 0.9442
-1.3317 -14.2337 -1.6981 0.9440
-0.0540 -14.3572 -1.7054 0.9438
2.5301 -14.2849 -1.7233 0.9432
3.8201 -14.0863 -1.7337 0.9429
5.0976 -13.7783 -1.7451 0.9425
7.5789 -12.8345 -1.7705 0.9417
8.9567 -12.4683 -1.8236 0.9400
10.7181 -12.4076 -1.9476 0.9361
11.8839 -11.4957 -1.9640 0.9356
12.9750 -10.4767 -1.9810 0.9350
13.9811 -9.3559 -1.9983 0.9345
14.8918 -8.1395 -2.0159 0.9339
17.3864 -2.4873 -2.0863 0.9317
17.8282 0.6593 -2.1192 0.9307
17.6691 3.8774 -2.1488 0.9297
17.3572 5.4750 -2.1619 0.9293
16.8902 7.0433 -2.1738 0.9289
16.2702 8.5660 -2.1842 0.9286
14.3187 9.2616 -2.0256 0.9336
13.4769 10.5389 -2.0322 0.9334
12.5110 11.7301 -2.0372 0.9332
7.8933 12.9028 -1.7967 0.9409
3.8200 13.2630 -1.6395 0.9459
2.5841 13.3720 -1.6178 0.9466
1.3710 13.4788 -1.6094 0.9469
-1.0660 13.6931 -1.6315 0.9462
-3.6547 13.9202 -1.7096 0.9437
-6.6023 14.1782 -1.8578 0.9389
-14.5287 8.0941 -1.9756 0.9352
-15.0651 6.7052 -1.9588 0.9357
-15.9167 2.4084 -1.9122 0.9372
-15.9511 0.9685 -1.8983 0.9377
-5.0443 -2.6039 -0.6743 0.9774
-4.8441 -3.7254 -0.7259 0.9757
-9.7678 -10.7806 -1.7280 0.9431
-8.5144 -11.2791 -1.6787 0.9447
-7.4722 -11.9958 -1.6788 0.9447
-6.1633 -12.2070 -1.6244 0.9464
-5.2279 -13.1642 -1.6825 0.9445
-2.8139 -13.9547 -1.6910 0.9443
-1.5604 -14.2003 -1.6970 0.9441
-0.2857 -14.3427 -1.7040 0.9439
6.1289 -13.4443 -1.7551 0.9422
8.6317 -12.4350 -1.7981 0.9408
11.6787 -11.6683 -1.9610 0.9357
13.8063 -9.5654 -1.9951 0.9346
14.7350 -8.3657 -2.0127 0.9340
17.3183 -2.7637 -2.0832 0.9318
17.7088 3.5873 -2.1463 0.9298
17.4250 5.1884 -2.1596 0.9294
12.6941 11.5222 -2.0364 0.9333
7.2417 7.8640 -1.2699 0.9579
8.1672 12.8786 -1.8115 0.9404
6.7004 13.0084 -1.7382 0.9428
5.3371 13.1290 -1.6835 0.9445
4.0470 13.2429 -1.6449 0.9457
2.8049 13.3525 -1.6207 0.9465
1.5891 13.4596 -1.6099 0.9469
0.3799 13.5661 -1.6121 0.9468
-0.8425 13.6735 -1.6273 0.9463
-2.0982 13.7837 -1.6562 0.9454
-3.4100 13.8988 -1.6999 0.9440
-6.3144 14.1530 -1.8409 0.9395
-7.8994 14.1495 -1.9250 0.9368
-9.0570 13.2753 -1.9090 0.9373
-10.1206 12.3065 -1.8927 0.9378
-12.6860 8.9417 -1.8436 0.9394
-14.3929 8.3259 -1.9751 0.9352
-15.4104 5.5448 -1.9454 0.9362
-15.7168 4.1113 -1.9297 0.9367
-15.8888 -0.2023 -1.8875 0.9380
-8.0835 -2.3360 -0.9995 0.9667
-6.4275 -2.4993 -0.8192 0.9726
-5.2336 -2.5954 -0.6939 0.9767
-5.0790 -3.1133 -0.7076 0.9763
-4.8345 -3.5952 -0.7157 0.9760
-4.2562 -13.5353 -1.6854 0.9444
-3.0372 -13.8996 -1.6900 0.9443
0.7695 -14.3808 -1.7107 0.9436
2.0630 -14.3298 -1.7197 0.9434
3.3556 -14.1706 -1.7298 0.9430
4.6386 -13.9021 -1.7409 0.9427
7.1408 -13.0370 -1.7657 0.9419
10.2468 -12.6671 -1.9353 0.9365
13.6285 -9.7717 -1.9920 0.9347
14.5748 -8.5890 -2.0095 0.9341
15.4192 -7.3155 -2.0273 0.9336
16.7636 -4.5301 -2.0627 0.9324
17.7919 0.0828 -2.1135 0.9308
-4.8412 -3.8492 -0.8763 0.9753
-7.6699 -10.5092 -1.8434 0.9488
-6.6241 -11.0273 -1.8227 0.9494
-5.4028 -11.1447 -1.7549 0.9512
-4.2651 -11.2670 -1.7070 0.9525
-2.2001 -11.8996 -1.7146 0.9523
-1.1308 -12.0860 -1.7199 0.9521
-0.0458 -12.1829 -1.7262 0.9520
1.0480 -12.1888 -1.7334 0.9518
3.2408 -11.9499 -1.7543 0.9512
4.4572 -12.0474 -1.8201 0.9494
6.9225 -11.7228 -1.9290 0.9465
9.0201 -10.4419 -1.9551 0.9458
10.8898 -8.7930 -1.9832 0.9450
12.4632 -6.8121 -2.0125 0.9442
13.1183 -5.7122 -2.0273 0.9438
13.6753 -4.5494 -2.0421 0.9434
14.1275 -3.3321 -2.0566 0.9430
14.6303 3.2106 -2.1223 0.9413
11.8144 7.6418 -1.9936 0.9447
11.1135 8.6907 -1.9990 0.9446
10.3126 9.6689 -2.0030 0.9445
9.4191 10.5661 -2.0056 0.9444
8.4418 11.3727 -2.0068 0.9444
6.2754 12.6825 -2.0049 0.9444
2.5835 13.3689 -1.9293 0.9465
0.1608 13.5822 -1.9246 0.9466
-1.0394 13.3517 -1.8975 0.9473
-2.2989 13.6194 -1.9570 0.9457
-3.4875 13.2837 -1.9459 0.9460
-4.6330 12.8403 -1.9341 0.9463
-5.7254 12.2951 -1.9217 0.9467
-7.7169 10.9276 -1.8955 0.9474
-8.6011 10.1210 -1.8819 0.9478
-10.1170 8.3049 -1.8546 0.9485
-13.2843 3.2467 -1.9376 0.9463
-13.4337 2.0327 -1.9251 0.9466
-13.4781 0.8183 -1.9132 0.9469
-12.9997 -2.7429 -1.8825 0.9477
-7.6486 -2.3448 -1.1335 0.9682
-5.0182 -2.5904 -0.8002 0.9774
-5.0577 -3.2138 -0.8490 0.9761
-8.7427 -9.6492 -1.8449 0.9488
-3.4330 -11.5673 -1.7096 0.9524
0.8503 -12.1946 -1.7320 0.9518
1.9460 -12.1249 -1.7400 0.9516
3.0376 -11.9624 -1.7487 0.9514
5.5316 -12.1340 -1.8895 0.9476
6.7227 -11.8165 -1.9263 0.9466
7.8051 -11.2442 -1.9394 0.9462
10.7323 -8.9561 -1.9806 0.9451
11.5742 -8.0189 -1.9951 0.9447
12.3352 -7.0032 -2.0098 0.9443
13.5824 -4.7635 -2.0394 0.9435
14.0540 -3.5553 -2.0540 0.9431
14.4156 -2.3005 -2.0684 0.9427
14.6616 -1.0091 -2.0823 0.9424
14.7898 1.6385 -2.1084 0.9417
14.4157 4.2923 -2.1312 0.9410
14.0388 5.5898 -2.1410 0.9408
11.2476 8.5064 -1.9981 0.9446
7.2068 7.8261 -1.5074 0.9579
8.6239 11.2342 -2.0067 0.9444
4.0460 13.2398 -1.9616 0.9456
0.3798 13.5629 -1.9225 0.9467
-4.4299 12.9280 -1.9363 0.9463
-6.5750 11.7772 -1.9111 0.9470
-7.5490 11.0650 -1.8979 0.9473
-9.2645 9.4070 -1.8707 0.9481
-9.9948 8.4785 -1.8571 0.9484
-11.4917 8.0999 -1.9921 0.9448
-12.1036 7.0016 -1.9812 0.9451
-13.2460 3.4650 -1.9400 0.9462
-13.4373 -0.1710 -1.9041 0.9472
-7.9977 -2.3112 -1.1796 0.9669
-6.3489 -2.4687 -0.9652 0.9729
-5.0525 -3.0970 -0.8397 0.9763
-4.8221 -3.5860 -0.8515 0.9760
-9.7258 -8.6856 -1.8476 0.9487
-8.8989 -9.5083 -1.8452 0.9487
-8.0077 -10.2590 -1.8440 0.9488
-4.6659 -11.2171 -1.7214 0.9521
-3.6181 -11.5060 -1.7090 0.9524
-1.5189 -12.0290 -1.7179 0.9522
1.7484 -12.1443 -1.7385 0.9516
2.8413 -11.9986 -1.7471 0.9514
5.2880 -12.1145 -1.8729 0.9480
6.5179 -11.8997 -1.9224 0.9467
10.5724 -9.1163 -1.9780 0.9452
11.4281 -8.1940 -1.9924 0.9448
12.2042 -7.1920 -2.0071 0.9444
12.8928 -6.1169 -2.0219 0.9440
13.4860 -4.9758 -2.0367 0.9436
13.9769 -3.7771 -2.0514 0.9432
14.7738 0.0687 -2.0933 0.9421
-5.0401 -3.3181 -0.9941 0.9758
-4.8284 -3.8390 -1.0162 0.9753
-8.2002 -7.8138 -1.8660 0.9551
-7.4618 -8.5079 -1.8643 0.9552
-5.8257 -9.6982 -1.8638 0.9552
-4.0127 -10.6002 -1.8672 0.9551
-1.0605 -11.3346 -1.8754 0.9549
-0.0430 -11.4209 -1.8815 0.9548
2.0113 -11.3562 -1.8999 0.9543
3.0320 -11.1803 -1.9084 0.9541
4.0389 -10.9167 -1.9175 0.9539
5.0245 -10.5660 -1.9274 0.9537
8.6059 -8.3248 -1.9725 0.9526
10.0761 -6.7427 -1.9973 0.9520
11.2571 -4.9018 -2.0227 0.9514
11.7230 -3.8999 -2.0353 0.9511
12.6352 0.4673 -2.0829 0.9500
12.6069 1.6032 -2.0936 0.9498
12.4717 2.7369 -2.1035 0.9496
12.2296 3.8576 -2.1125 0.9493
11.8813 4.9546 -2.1207 0.9492
11.4290 6.0172 -2.1278 0.9490
10.1921 6.5925 -1.9997 0.9520
8.7629 8.2160 -1.9789 0.9525
7.1712 9.6610 -1.9821 0.9524
6.2780 10.2625 -1.9819 0.9524
5.3316 10.7751 -1.9805 0.9524
2.2682 11.7373 -1.9694 0.9527
0.1406 11.8760 -1.9566 0.9530
-0.9181 11.7938 -1.9488 0.9532
-1.9602 11.6129 -1.9402 0.9534
-3.9572 10.9674 -1.9208 0.9538
-4.8949 10.5116 -1.9102 0.9541
-5.7817 9.9741 -1.8992 0.9543
-6.6106 9.3610 -1.8879 0.9546
-7.3756 8.6790 -1.8763 0.9549
-10.0014 6.8103 -1.9933 0.9521
-10.9177 4.8593 -1.9687 0.9527
-11.4715 2.8036 -1.9454 0.9533
-11.6109 1.7568 -1.9345 0.9535
-11.6590 0.7079 -1.9242 0.9538
-11.6169 -0.3357 -1.9146 0.9540
-11.4864 -1.3666 -1.9056 0.9542
-7.6453 -2.3438 -1.3173 0.9681
-7.5993 -8.3873 -1.8645 0.9552
-6.8156 -9.0287 -1.8636 0.9552
-5.1017 -10.1043 -1.8647 0.9552
0.7972 -11.4330 -1.8880 0.9546
2.8487 -11.2185 -1.9068 0.9542
6.7392 -9.7086 -1.9469 0.9532
7.6249 -9.1206 -1.9584 0.9529
8.4609 -8.4534 -1.9703 0.9527
9.2399 -7.7106 -1.9825 0.9524
10.5981 -6.0170 -2.0077 0.9518
12.0375 -3.0452 -2.0455 0.9509
12.6291 0.2628 -2.0810 0.9501
12.6199 1.3981 -2.0917 0.9498
12.5040 2.5330 -2.1017 0.9496
12.2812 3.6568 -2.1110 0.9494
9.5609 7.2308 -1.9748 0.9526
8.8922 8.0712 -1.9783 0.9525
7.1777 7.7945 -1.7456 0.9580
3.5036 11.4650 -1.9750 0.9526
-1.7738 11.6527 -1.9418 0.9533
-2.7952 11.3929 -1.9325 0.9536
-3.7832 11.0405 -1.9226 0.9538
-4.7292 10.6000 -1.9122 0.9540
-7.9595 8.0820 -1.8687 0.9551
-10.4200 6.0277 -1.9831 0.9524
-10.8498 5.0406 -1.9709 0.9527
-11.4366 2.9917 -1.9475 0.9532
-11.5925 1.9461 -1.9365 0.9535
-11.6311 -0.1481 -1.9163 0.9539
-11.3150 -2.1971 -1.8988 0.9543
-7.9445 -2.2958 -1.3623 0.9670
-6.2757 -2.4402 -1.1093 0.9731
-5.1553 -2.5566 -0.9480 0.9769
-6.9609 -8.9179 -1.8637 0.9552
-5.2635 -10.0191 -1.8644 0.9552
-3.4034 -10.8234 -1.8691 0.9550
-1.4248 -11.2844 -1.8737 0.9549
0.6119 -11.4349 -1.8865 0.9546
1.6400 -11.3917 -1.8960 0.9544
2.6649 -11.2539 -1.9052 0.9542
3.6776 -11.0219 -1.9141 0.9540
5.6399 -10.2967 -1.9341 0.9535
7.4685 -9.2327 -1.9563 0.9530
9.1038 -7.8500 -1.9803 0.9524
11.0677 -5.2510 -2.0181 0.9516
11.9737 -3.2357 -2.0433 0.9510
12.2884 -2.1652 -2.0556 0.9507
12.5049 -1.0639 -2.0675 0.9504
-4.9601 -3.9437 -1.1911 0.9745
-6.5933 -7.5175 -1.8795 0.9601
-5.1478 -8.5696 -1.8790 0.9601
-4.3635 -9.0007 -1.8801 0.9601
-3.5449 -9.3646 -1.8821 0.9601
-0.9382 -10.0276 -1.8930 0.9598
-0.0380 -10.0994 -1.8983 0.9597
1.7733 -10.0120 -1.9111 0.9595
5.2610 -8.9093 -1.9448 0.9588
10.5689 -2.4928 -2.0411 0.9568
10.8052 -1.5458 -2.0516 0.9565
10.9545 -0.5764 -2.0619 0.9563
10.8578 2.3827 -2.0894 0.9558
2.8815 10.0047 -1.9569 0.9585
1.9712 10.2004 -1.9528 0.9586
0.1223 10.3298 -1.9417 0.9588
-1.7069 10.1119 -1.9275 0.9591
-2.5932 9.8771 -1.9194 0.9593
-4.2708 9.1713 -1.9016 0.9597
-8.2432 6.7667 -2.0046 0.9575
-10.2145 1.5456 -1.9418 0.9588
-10.2634 0.6232 -1.9327 0.9590
-10.1232 -1.2044 -1.9162 0.9594
-9.9372 -2.0967 -1.9089 0.9595
-6.0639 -2.4714 -1.2308 0.9737
-4.9785 -2.5700 -1.0531 0.9775
-4.8063 -3.6963 -1.1397 0.9756
-6.7146 -7.4108 -1.8797 0.9601
-6.0225 -7.9780 -1.8789 0.9601
-5.2852 -8.4848 -1.8789 0.9601
-3.6949 -9.3040 -1.8816 0.9601
-2.8523 -9.6107 -1.8843 0.9600
-1.9853 -9.8455 -1.8878 0.9599
-0.2010 -10.0921 -1.8973 0.9597
1.6102 -10.0326 -1.9099 0.9595
2.5104 -9.8864 -1.9172 0.9593
4.2678 -9.3618 -1.9339 0.9590
7.4268 -7.4202 -1.9733 0.9582
8.1044 -6.7631 -1.9840 0.9579
9.2813 -5.2694 -2.0061 0.9575
10.5173 -2.6606 -2.0391 0.9568
10.7690 -1.7185 -2.0498 0.9566
10.9341 -0.7526 -2.0600 0.9564
11.0100 0.2291 -2.0699 0.9562
10.6870 3.1821 -2.0959 0.9556
8.6974 6.5777 -2.0497 0.9566
7.7232 7.0102 -1.9605 0.9584
4.7814 9.2827 -1.9626 0.9584
3.9282 9.6630 -1.9606 0.9584
3.0438 9.9601 -1.9576 0.9585
1.2156 10.2959 -1.9487 0.9587
0.2893 10.3325 -1.9429 0.9588
-0.6335 10.2820 -1.9363 0.9589
-1.5444 10.1455 -1.9289 0.9591
-2.4352 9.9255 -1.9209 0.9593
-3.2981 9.6248 -1.9124 0.9594
-4.1257 9.2473 -1.9033 0.9596
-5.6488 8.2798 -1.8840 0.9600
-6.5372 7.9492 -1.9345 0.9590
-7.5272 7.6430 -2.0163 0.9573
-8.1409 6.9059 -2.0066 0.9575
-8.6776 6.1164 -1.9955 0.9577
-9.5234 4.4244 -1.9738 0.9582
-10.0531 2.6298 -1.9532 0.9586
-10.1971 1.7119 -1.9435 0.9588
-10.2605 0.7895 -1.9343 0.9590
-10.2440 -0.1304 -1.9256 0.9592
-10.1487 -1.0414 -1.9176 0.9593
-9.9763 -1.9372 -1.9102 0.9595
-7.9022 -2.2836 -1.5461 0.9671
-6.2291 -2.4221 -1.2562 0.9732
-5.1418 -2.5499 -1.0788 0.9769
-4.9421 -3.0294 -1.0895 0.9767
-7.4672 -6.6686 -1.8818 0.9601
-6.1509 -7.8801 -1.8789 0.9601
-5.4214 -8.3980 -1.8788 0.9601
-4.6507 -8.8528 -1.8796 0.9601
-3.0063 -9.5606 -1.8838 0.9600
-0.3639 -10.0823 -1.8963 0.9598
3.2394 -9.7087 -1.9238 0.9592
6.5614 -8.1113 -1.9610 0.9584
7.2989 -7.5319 -1.9714 0.9582
8.6172 -6.1786 -1.9930 0.9578
9.6864 -4.5956 -2.0152 0.9573
10.4629 -2.8275 -2.0372 0.9568
10.9108 -0.9283 -2.0582 0.9564
11.0030 0.0512 -2.0682 0.9562
-4.9449 -3.9317 -1.3354 0.9745
-5.9006 -6.7277 -1.8916 0.9641
-2.4134 -8.6411 -1.8965 0.9640
-1.6339 -8.8376 -1.8998 0.9639
1.5842 -8.9443 -1.9201 0.9635
6.0861 -7.0455 -1.9680 0.9627
8.3298 -4.5529 -2.0066 0.9619
8.7462 -3.8085 -2.0164 0.9617
9.0955 -3.0258 -2.0262 0.9616
9.3739 -2.2109 -2.0358 0.9614
9.7046 -0.5106 -2.0542 0.9610
9.7189 1.2360 -2.0709 0.9607
8.3478 5.3995 -2.1015 0.9602
7.8452 6.1350 -2.1052 0.9601
4.0877 8.2611 -1.9483 0.9630
1.7413 9.0106 -1.9399 0.9632
0.1081 9.1309 -1.9302 0.9634
-2.2952 8.7424 -1.9106 0.9637
-3.0554 8.4681 -1.9029 0.9639
-5.5272 7.8269 -2.0254 0.9616
-6.1980 7.2932 -2.0231 0.9616
-6.7922 6.6773 -2.0133 0.9618
-7.7958 5.3085 -1.9936 0.9622
-8.1990 4.5678 -1.9839 0.9624
-8.5333 3.7980 -1.9744 0.9625
-8.9894 2.1970 -1.9561 0.9629
-9.1579 0.5560 -1.9394 0.9632
-9.1347 -0.2640 -1.9317 0.9633
-9.0411 -1.0756 -1.9246 0.9635
-8.8786 -1.8733 -1.9181 0.9636
-5.9275 -2.4158 -1.3530 0.9742
-4.9120 -2.5356 -1.1685 0.9777
-4.8895 -3.1069 -1.2246 0.9766
-6.5833 -6.0732 -1.8933 0.9640
-6.0091 -6.6322 -1.8918 0.9641
-5.3900 -7.1401 -1.8910 0.9641
-4.7301 -7.5937 -1.8911 0.9641
-4.0340 -7.9897 -1.8919 0.9641
-3.3063 -8.3255 -1.8935 0.9640
-0.9833 -8.9489 -1.9030 0.9639
4.5586 -8.0127 -1.9486 0.9630
7.7579 -5.3748 -1.9950 0.9621
8.2478 -4.6827 -2.0048 0.9620
8.6759 -3.9458 -2.0147 0.9618
9.3291 -2.3600 -2.0341 0.9614
9.5467 -1.5235 -2.0435 0.9612
9.6876 -0.6668 -2.0526 0.9611
9.7495 0.2029 -2.0613 0.9609
9.6311 1.9510 -2.0772 0.9606
9.1882 3.6584 -2.0905 0.9604
8.8477 4.4771 -2.0960 0.9603
7.3546 6.6756 -2.0995 0.9602
6.2677 6.8062 -1.9558 0.9629
5.6157 7.3155 -1.9494 0.9630
4.9392 7.7884 -1.9495 0.9630
4.2211 8.1951 -1.9486 0.9630
3.4683 8.5319 -1.9468 0.9630
2.6879 8.7958 -1.9441 0.9631
1.8873 8.9846 -1.9406 0.9632
0.2557 9.1327 -1.9312 0.9633
-1.3662 8.9749 -1.9190 0.9636
-2.1552 8.7844 -1.9119 0.9637
-6.0846 7.3988 -2.0249 0.9616
-6.6893 6.7922 -2.0151 0.9618
-7.2342 6.1367 -2.0053 0.9620
-8.7548 3.1500 -1.9667 0.9627
-8.9600 2.3438 -1.9577 0.9628
-9.0933 1.5265 -1.9490 0.9630
-9.0632 -0.9300 -1.9258 0.9634
-6.1898 -2.4068 -1.4038 0.9732
-5.0866 -2.5226 -1.2002 0.9771
-4.8817 -2.9924 -1.2103 0.9769
-5.5048 -7.0524 -1.8911 0.9641
-4.8520 -7.5160 -1.8910 0.9641
-3.4398 -8.2695 -1.8932 0.9640
-1.1273 -8.9283 -1.9022 0.9639
1.2929 -8.9801 -1.9178 0.9636
2.0977 -8.8585 -1.9243 0.9635
2.8919 -8.6672 -1.9314 0.9633
3.6697 -8.4070 -1.9390 0.9632
4.4252 -8.0790 -1.9471 0.9630
5.8455 -7.2262 -1.9647 0.9627
7.1064 -6.1277 -1.9835 0.9624
9.5130 -1.6761 -2.0418 0.9613
-4.8706 -2.6148 -1.2992 0.9775
-6.3435 -5.0437 -1.9047 0.9672
-5.8611 -5.5849 -1.9027 0.9673
-5.3347 -6.0826 -1.9015 0.9673
-4.1653 -6.9341 -1.9011 0.9673
-1.4766 -7.9868 -1.9089 0.9672
-0.7581 -8.1024 -1.9126 0.9671
1.4302 -8.0749 -1.9273 0.9669
2.8642 -7.7417 -1.9400 0.9667
3.5578 -7.4818 -1.9471 0.9665
4.2287 -7.1612 -1.9546 0.9664
4.8716 -6.7816 -1.9624 0.9663
5.4812 -6.3453 -1.9706 0.9661
6.0525 -5.8548 -1.9791 0.9660
6.5804 -5.3133 -1.9878 0.9658
7.4873 -4.0924 -2.0054 0.9655
7.8578 -3.4216 -2.0142 0.9654
8.1676 -2.7171 -2.0230 0.9652
8.5925 -1.2292 -2.0400 0.9650
8.7023 -0.4579 -2.0481 0.9648
8.6018 1.8876 -2.0697 0.9645
8.4236 2.6570 -2.0759 0.9644
8.1739 3.4085 -2.0814 0.9643
7.8545 4.1352 -2.0862 0.9642
7.0169 5.4872 -2.0935 0.9641
6.5058 6.0998 -2.0960 0.9640
5.9245 6.6459 -2.0925 0.9641
5.1191 6.8964 -2.0185 0.9653
4.3033 7.0344 -1.9381 0.9667
3.6553 7.3874 -1.9371 0.9667
2.2762 7.9030 -1.9329 0.9668
0.8291 8.1515 -1.9257 0.9669
0.0968 8.1732 -1.9210 0.9670
-0.6326 8.1267 -1.9158 0.9671
-1.3526 8.0131 -1.9099 0.9672
-3.5811 7.6903 -1.9938 0.9657
-4.3404 7.4878 -2.0341 0.9651
-4.9798 7.0517 -2.0289 0.9651
-6.5860 5.4064 -2.0026 0.9656
-7.3782 4.1105 -1.9850 0.9659
-7.6828 3.4195 -1.9764 0.9660
-8.1008 1.9798 -1.9599 0.9663
-8.2420 -0.2382 -1.9379 0.9667
-8.1605 -0.9709 -1.9314 0.9668
-8.0164 -1.6914 -1.9255 0.9669
-5.9307 -2.4171 -1.5052 0.9740
-4.9063 -2.5327 -1.2977 0.9776
-5.9515 -5.4904 -1.9030 0.9673
-5.4328 -5.9961 -1.9016 0.9673
-4.2766 -6.8656 -1.9010 0.9673
-3.6471 -7.2234 -1.9018 0.9673
-1.6050 -7.9595 -1.9083 0.9672
-0.8885 -8.0861 -1.9118 0.9671
-0.1624 -8.1510 -1.9160 0.9671
0.5685 -8.1533 -1.9209 0.9670
1.2989 -8.0926 -1.9263 0.9669
2.0235 -7.9687 -1.9323 0.9668
2.7370 -7.7820 -1.9388 0.9667
3.4342 -7.5332 -1.9458 0.9666
4.7579 -6.8544 -1.9610 0.9663
5.3739 -6.4281 -1.9691 0.9662
5.9525 -5.9472 -1.9776 0.9660
6.9773 -4.8341 -1.9950 0.9657
7.4143 -4.2095 -2.0038 0.9656
7.7953 -3.5453 -2.0126 0.9654
8.1163 -2.8465 -2.0214 0.9653
8.3740 -2.1184 -2.0301 0.9651
8.5652 -1.3669 -2.0385 0.9650
8.7394 0.1819 -2.0544 0.9647
8.6263 1.7474 -2.0686 0.9645
8.4611 2.5193 -2.0748 0.9644
8.2241 3.2746 -2.0804 0.9643
7.1029 5.3718 -2.0930 0.9641
5.2800 6.8782 -2.0379 0.9650
4.4248 6.9773 -1.9418 0.9666
3.7746 7.3283 -1.9374 0.9667
3.1018 7.6301 -1.9358 0.9667
2.4042 7.8673 -1.9334 0.9668
1.6884 8.0378 -1.9303 0.9668
0.2289 8.1744 -1.9219 0.9670
-0.5015 8.1401 -1.9167 0.9670
-1.2237 8.0385 -1.9110 0.9671
-3.4265 7.6801 -1.9765 0.9660
-4.2191 7.5574 -2.0342 0.9651
-4.8689 7.1367 -2.0305 0.9651
-8.0737 2.1120 -1.9614 0.9663
-8.1974 1.3761 -1.9535 0.9664
-8.2560 0.6353 -1.9461 0.9665
-8.2499 -0.1050 -1.9391 0.9667
-6.0404 -5.3944 -1.9033 0.9673
-5.5295 -5.9082 -1.9018 0.9673
-4.9770 -6.3763 -1.9010 0.9673
-1.0187 -8.0678 -1.9112 0.9671
0.4365 -8.1575 -1.9199 0.9670
1.1673 -8.1082 -1.9253 0.9669
2.6093 -7.8203 -1.9376 0.9667
3.3098 -7.5826 -1.9445 0.9666
4.6432 -6.9253 -1.9596 0.9663
5.2654 -6.5091 -1.9677 0.9662
5.8511 -6.0379 -1.9760 0.9660
6.3952 -5.5144 -1.9846 0.9659
7.7309 -3.6678 -2.0111 0.9655
8.7353 0.0406 -2.0530 0.9647
-6.5271 -3.5041 -1.9181 0.9699
-5.3429 -5.0912 -1.9109 0.9700
-4.3470 -5.9562 -1.9092 0.9700
-3.7974 -6.3216 -1.9094 0.9700
-0.6907 -7.3827 -1.9199 0.9698
-0.0280 -7.4301 -1.9238 0.9698
0.6380 -7.4202 -1.9283 0.9697
2.6065 -7.0451 -1.9449 0.9694
3.2366 -6.8063 -1.9514 0.9693
3.8456 -6.5124 -1.9582 0.9692
4.4287 -6.1650 -1.9654 0.9691
4.9810 -5.7661 -1.9728 0.9690
7.4041 -2.4631 -2.0204 0.9683
7.7832 -1.1135 -2.0357 0.9680
7.9120 0.2924 -2.0500 0.9678
7.8793 1.0020 -2.0565 0.9677
7.7810 1.7075 -2.0626 0.9676
7.6176 2.4028 -2.0681 0.9675
7.0996 3.7378 -2.0774 0.9674
6.7488 4.3653 -2.0811 0.9673
6.3404 4.9582 -2.0840 0.9673
2.0699 7.1869 -1.9365 0.9696
0.0875 7.3899 -1.9135 0.9699
-1.9806 7.5441 -2.0195 0.9683
-4.5131 6.3908 -2.0257 0.9682
-5.0468 5.9386 -2.0179 0.9683
-5.5356 5.4421 -2.0099 0.9684
-6.3651 4.3342 -1.9938 0.9687
-6.7003 3.7328 -1.9859 0.9688
-7.2016 2.4605 -1.9705 0.9690
-7.3651 1.8000 -1.9631 0.9692
-7.5148 0.4563 -1.9493 0.9694
-7.3000 -1.5403 -1.9317 0.9696
-5.9340 -2.4184 -1.6591 0.9739
-6.5850 -3.3992 -1.9187 0.9698
-6.2444 -3.9679 -1.9156 0.9699
-5.8568 -4.5043 -1.9130 0.9699
-5.4252 -5.0049 -1.9111 0.9700
-4.9528 -5.4663 -1.9099 0.9700
-3.8989 -6.2592 -1.9093 0.9700
-2.7247 -6.8608 -1.9113 0.9700
-1.4627 -7.2539 -1.9160 0.9699
-0.8096 -7.3681 -1.9192 0.9698
0.5178 -7.4262 -1.9275 0.9697
1.1827 -7.3691 -1.9324 0.9696
1.8420 -7.2543 -1.9379 0.9695
3.1243 -6.8535 -1.9502 0.9694
3.7375 -6.5694 -1.9570 0.9693
4.3256 -6.2315 -1.9641 0.9691
5.4074 -5.4026 -1.9791 0.9689
5.8921 -4.9169 -1.9870 0.9688
6.7273 -3.8194 -2.0030 0.9685
7.0700 -3.2154 -2.0110 0.9684
7.7591 -1.2382 -2.0344 0.9681
7.8670 -0.5415 -2.0417 0.9679
7.9110 0.1646 -2.0487 0.9678
7.6519 2.2784 -2.0672 0.9675
7.4357 2.9606 -2.0722 0.9675
7.1565 3.6214 -2.0767 0.9674
6.4182 4.8540 -2.0835 0.9673
4.3089 6.7944 -2.0831 0.9673
2.8876 7.1033 -1.9853 0.9688
2.1925 7.1746 -1.9424 0.9695
-0.4573 7.4226 -1.9255 0.9697
-1.8485 7.5341 -2.0086 0.9685
-2.5583 7.4659 -2.0434 0.9679
-4.4123 6.4674 -2.0271 0.9682
-4.9537 6.0237 -2.0193 0.9683
-5.4509 5.5347 -2.0113 0.9684
-6.2989 4.4397 -1.9953 0.9687
-6.9335 3.2212 -1.9795 0.9689
-7.1659 2.5783 -1.9718 0.9690
-7.3400 1.9200 -1.9644 0.9691
-7.5110 0.5779 -1.9505 0.9694
-7.3274 -1.4228 -1.9326 0.9696
-6.9230 -2.6919 -1.9232 0.9698
-5.3068 -2.6317 -1.5337 0.9758
-6.3094 -3.8675 -1.9161 0.9699
-5.9301 -4.4100 -1.9134 0.9699
-5.5062 -4.9174 -1.9114 0.9700
-5.0409 -5.3861 -1.9100 0.9700
-4.5374 -5.8130 -1.9093 0.9700
-3.9993 -6.1952 -1.9092 0.9700
-3.4305 -6.5299 -1.9098 0.9700
-1.5793 -7.2274 -1.9154 0.9699
1.0630 -7.3837 -1.9315 0.9696
2.3748 -7.1174 -1.9427 0.9695
5.8077 -5.0079 -1.9855 0.9688
7.5515 -2.0407 -2.0254 0.9682
7.8522 -0.6681 -2.0404 0.9680
7.9079 0.0368 -2.0475 0.9679
-5.9894 -3.2154 -1.9244 0.9721
-5.6696 -3.7325 -1.9216 0.9722
-4.9043 -4.6732 -1.9177 0.9722
-4.4643 -5.0901 -1.9167 0.9722
-3.9904 -5.4676 -1.9162 0.9723
-2.9542 -6.0938 -1.9171 0.9722
-2.3992 -6.3380 -1.9185 0.9722
-1.2349 -6.6794 -1.9230 0.9722
-0.6338 -6.7740 -1.9260 0.9721
-0.0256 -6.8163 -1.9297 0.9721
0.5852 -6.8059 -1.9338 0.9720
1.1942 -6.7425 -1.9384 0.9719
2.3890 -6.4572 -1.9491 0.9718
4.0556 -5.6456 -1.9679 0.9715
4.5599 -5.2787 -1.9747 0.9714
5.0315 -4.8671 -1.9817 0.9713
5.8604 -3.9217 -1.9962 0.9711
6.7644 -2.2503 -2.0181 0.9708
6.9630 -1.6423 -2.0253 0.9707
7.1920 -0.3784 -2.0388 0.9705
7.0959 1.5572 -2.0566 0.9703
6.9453 2.1907 -2.0616 0.9702
5.3550 5.0207 -2.0781 0.9699
4.8877 5.4829 -2.0794 0.9699
4.3792 5.8996 -2.0800 0.9699
3.8339 6.2672 -2.0799 0.9699
3.2570 6.5823 -2.0790 0.9699
1.3844 7.1639 -2.0656 0.9701
-0.5635 7.2379 -2.0552 0.9703
-1.8382 7.0015 -2.0493 0.9704
-3.0371 6.5221 -2.0367 0.9705
-4.1223 5.8374 -2.0230 0.9707
-4.6113 5.4261 -2.0159 0.9708
-5.0596 4.9741 -2.0086 0.9709
-5.4641 4.4854 -2.0013 0.9710
-5.8218 3.9643 -1.9939 0.9711
-6.3882 2.8433 -1.9795 0.9713
-6.8430 1.0354 -1.9593 0.9716
-6.8864 0.4181 -1.9531 0.9717
-6.8758 -0.1987 -1.9473 0.9718
-6.3083 -2.5710 -1.9285 0.9721
-4.5463 -5.0178 -1.9168 0.9722
-3.5790 -5.7457 -1.9163 0.9723
-3.0520 -6.0447 -1.9170 0.9722
-1.9297 -6.5021 -1.9200 0.9722
-0.1357 -6.8125 -1.9290 0.9721
1.0846 -6.7578 -1.9376 0.9719
1.6889 -6.6510 -1.9426 0.9719
2.2831 -6.4915 -1.9481 0.9718
2.8630 -6.2802 -1.9539 0.9717
3.4239 -6.0182 -1.9601 0.9716
3.9614 -5.7069 -1.9667 0.9715
4.4712 -5.3482 -1.9734 0.9714
4.9490 -4.9446 -1.9805 0.9713
5.3907 -4.4985 -1.9876 0.9712
5.7925 -4.0132 -1.9949 0.9711
6.1506 -3.4920 -2.0023 0.9710
6.9312 -1.7534 -2.0240 0.9707
7.0844 -1.1306 -2.0309 0.9706
7.1168 1.4417 -2.0556 0.9703
6.9768 2.0774 -2.0608 0.9702
5.4346 4.9329 -2.0778 0.9699
4.9752 5.4027 -2.0792 0.9699
4.4738 5.8279 -2.0799 0.9699
3.9348 6.2046 -2.0799 0.9699
3.3632 6.5294 -2.0792 0.9699
1.5005 7.1431 -2.0663 0.9701
0.8542 7.2349 -2.0624 0.9702
-0.4466 7.2478 -2.0557 0.9703
-1.0914 7.1695 -2.0530 0.9703
-2.3408 6.8314 -2.0443 0.9704
-2.9331 6.5742 -2.0379 0.9705
-3.4976 6.2650 -2.0312 0.9706
-4.0299 5.9069 -2.0243 0.9707
-4.5259 5.5035 -2.0172 0.9708
-4.9819 5.0585 -2.0099 0.9709
-5.7608 4.0605 -1.9952 0.9711
-6.3455 2.9480 -1.9808 0.9713
-6.5604 2.3605 -1.9738 0.9714
-6.7219 1.7584 -1.9670 0.9715
-6.8294 1.1465 -1.9604 0.9716
-6.8817 -0.0876 -1.9483 0.9718
-6.5605 -1.8959 -1.9332 0.9720
-5.3932 -2.6746 -1.7042 0.9753
-5.7901 -3.5492 -1.9226 0.9722
-4.1652 -5.3361 -1.9163 0.9723
-3.1490 -5.9941 -1.9168 0.9722
-1.4493 -6.6327 -1.9220 0.9722
0.3647 -6.8158 -1.9323 0.9720
0.9749 -6.7715 -1.9367 0.9720
4.8653 -5.0206 -1.9792 0.9714
5.3138 -4.5820 -1.9863 0.9713
5.7231 -4.1035 -1.9936 0.9711
6.0894 -3.5885 -2.0009 0.9710
6.4093 -3.0408 -2.0083 0.9709
6.8976 -1.8640 -2.0227 0.9707
7.0610 -1.2441 -2.0297 0.9706
7.1677 -0.6098 -2.0364 0.9705
7.2163 0.0336 -2.0429 0.9704
-4.8993 -3.8954 -1.9252 0.9741
-4.5278 -4.3144 -1.9237 0.9742
-3.6843 -5.0482 -1.9223 0.9742
-2.7275 -5.6261 -1.9231 0.9742
-2.2150 -5.8512 -1.9243 0.9742
-1.6845 -6.0315 -1.9261 0.9741
-1.1399 -6.1654 -1.9285 0.9741
-0.5849 -6.2518 -1.9313 0.9741
-0.0237 -6.2900 -1.9347 0.9740
2.7340 -5.7493 -1.9581 0.9737
3.2466 -5.4980 -1.9639 0.9736
3.7367 -5.2018 -1.9700 0.9736
4.6333 -4.4820 -1.9828 0.9734
5.3936 -3.6093 -1.9961 0.9732
5.9904 -2.6085 -2.0096 0.9730
6.4009 -1.5097 -2.0228 0.9729
6.5306 -0.9343 -2.0291 0.9728
6.6078 -0.3477 -2.0352 0.9727
6.6004 0.8394 -2.0465 0.9725
6.5150 1.4297 -2.0515 0.9725
6.3753 2.0110 -2.0562 0.9724
5.9375 3.1260 -2.0639 0.9723
5.6425 3.6497 -2.0669 0.9723
5.2998 4.1444 -2.0693 0.9722
4.9124 4.6057 -2.0712 0.9722
4.0169 5.4116 -2.0729 0.9722
3.5168 5.7487 -2.0728 0.9722
2.9876 6.0380 -2.0721 0.9722
2.4342 6.2767 -2.0707 0.9722
1.8614 6.4629 -2.0686 0.9722
0.0792 6.6938 -2.0590 0.9724
-1.1093 6.5720 -2.0500 0.9725
-1.6882 6.4301 -2.0448 0.9726
-2.7907 5.9929 -2.0333 0.9727
-3.3053 5.7020 -2.0272 0.9728
-3.7898 5.3666 -2.0207 0.9729
-4.6543 4.5756 -2.0075 0.9731
-5.0278 4.1272 -2.0007 0.9731
-5.6443 3.1445 -1.9873 0.9733
-6.2155 1.5191 -1.9680 0.9736
-6.3072 0.9543 -1.9620 0.9737
-6.3488 0.3855 -1.9563 0.9737
-6.2825 -0.7475 -1.9460 0.9739
-6.1759 -1.3031 -1.9414 0.9739
-6.0218 -1.8461 -1.9373 0.9740
-5.8215 -2.3726 -1.9336 0.9740
-5.2897 -3.3612 -1.9277 0.9741
-4.9624 -3.8164 -1.9255 0.9741
-4.1975 -4.6327 -1.9228 0.9742
-2.8178 -5.5808 -1.9229 0.9742
-0.1252 -6.2867 -1.9340 0.9740
1.0006 -6.2341 -1.9420 0.9739
3.1557 -5.5467 -1.9628 0.9736
3.6501 -5.2585 -1.9689 0.9736
4.1187 -4.9267 -1.9751 0.9735
4.5576 -4.5535 -1.9816 0.9734
5.3313 -3.6937 -1.9949 0.9732
6.1822 -2.1682 -2.0151 0.9730
6.5111 -1.0391 -2.0280 0.9728
6.5978 -0.4541 -2.0342 0.9727
6.5344 1.3237 -2.0507 0.9725
6.2211 2.4770 -2.0596 0.9724
5.6993 3.5572 -2.0664 0.9723
5.3650 4.0575 -2.0690 0.9722
4.1037 5.3458 -2.0729 0.9722
3.6093 5.6914 -2.0729 0.9722
2.5356 6.2374 -2.0710 0.9722
0.1874 6.6940 -2.0597 0.9724
-0.4110 6.6704 -2.0556 0.9724
-1.0034 6.5919 -2.0509 0.9725
-2.1503 6.2751 -2.0403 0.9726
-2.6950 6.0404 -2.0344 0.9727
-3.2145 5.7578 -2.0283 0.9728
-3.7048 5.4303 -2.0219 0.9729
-4.1619 5.0608 -2.0154 0.9730
-4.9635 4.2105 -2.0020 0.9731
-5.3021 3.7372 -1.9952 0.9732
-6.2944 1.0567 -1.9631 0.9736
-6.1987 -1.2036 -1.9422 0.9739
-6.0531 -1.7492 -1.9380 0.9740
-5.8610 -2.2790 -1.9342 0.9740
-4.2721 -4.5647 -1.9230 0.9742
-3.8456 -4.9267 -1.9223 0.9742
-3.3896 -5.2507 -1.9223 0.9742
-2.9073 -5.5341 -1.9228 0.9742
-1.3378 -6.1225 -1.9276 0.9741
0.3365 -6.2889 -1.9371 0.9740
0.8994 -6.2469 -1.9412 0.9739
1.4577 -6.1559 -1.9458 0.9739
2.5442 -5.8286 -1.9561 0.9737
3.0640 -5.5940 -1.9618 0.9737
3.5627 -5.3138 -1.9678 0.9736
4.0363 -4.9897 -1.9740 0.9735
4.4808 -4.6238 -1.9804 0.9734
4.8925 -4.2187 -1.9870 0.9733
5.2677 -3.7770 -1.9937 0.9732
5.8959 -2.7972 -2.0072 0.9731
6.1427 -2.2664 -2.0139 0.9730
6.5861 -0.5603 -2.0331 0.9727
-4.5452 -3.6139 -1.9302 0.9758
-4.2008 -4.0028 -1.9288 0.9758
-3.8243 -4.3603 -1.9279 0.9758
-2.9861 -4.9711 -1.9276 0.9759
-1.5627 -5.5954 -1.9311 0.9758
-0.5425 -5.7987 -1.9359 0.9757
-0.0219 -5.8333 -1.9390 0.9757
0.5006 -5.8226 -1.9426 0.9757
1.5362 -5.6647 -1.9510 0.9756
2.0415 -5.5180 -1.9557 0.9755
3.4608 -4.8177 -1.9718 0.9753
4.6574 -3.7606 -1.9898 0.9751
4.9905 -3.3395 -1.9960 0.9750
5.2856 -2.8890 -2.0023 0.9749
5.5399 -2.4123 -2.0085 0.9749
5.7509 -1.9132 -2.0146 0.9748
5.9166 -1.3955 -2.0207 0.9747
6.0351 -0.8634 -2.0265 0.9746
6.1050 -0.3212 -2.0322 0.9746
6.1254 0.2265 -2.0375 0.9745
6.0956 0.7752 -2.0425 0.9744
5.7066 2.3797 -2.0552 0.9743
5.4798 2.8850 -2.0585 0.9742
5.2070 3.3680 -2.0613 0.9742
2.7565 5.5709 -2.0661 0.9741
2.2460 5.7914 -2.0648 0.9742
-0.4787 6.1490 -2.0501 0.9743
-1.5592 5.9388 -2.0410 0.9745
-2.0787 5.7610 -2.0358 0.9745
-3.0547 5.2697 -2.0247 0.9747
-3.5033 4.9609 -2.0188 0.9747
-3.9210 4.6139 -2.0127 0.9748
-4.6512 3.8181 -2.0003 0.9750
-5.2242 2.9104 -1.9878 0.9751
-5.4467 2.4242 -1.9817 0.9752
-5.6247 1.9217 -1.9758 0.9753
-5.7571 1.4070 -1.9700 0.9753
-5.8433 0.8841 -1.9644 0.9754
-5.8831 0.3572 -1.9592 0.9755
-5.8239 -0.6929 -1.9496 0.9756
-5.5841 -1.7119 -1.9414 0.9757
-5.3991 -2.2004 -1.9380 0.9757
-4.9070 -3.1180 -1.9325 0.9758
-4.6037 -3.5406 -1.9305 0.9758
-3.8945 -4.2983 -1.9280 0.9758
-3.4937 -4.6281 -1.9275 0.9759
-2.6143 -5.1779 -1.9281 0.9758
-2.1421 -5.3939 -1.9292 0.9758
-1.6526 -5.5684 -1.9308 0.9758
-0.1161 -5.8304 -1.9385 0.9757
0.4064 -5.8279 -1.9419 0.9757
0.9277 -5.7799 -1.9459 0.9756
1.4439 -5.6864 -1.9502 0.9756
1.9512 -5.5478 -1.9548 0.9755
2.9235 -5.1386 -1.9652 0.9754
4.2193 -4.2155 -1.9826 0.9752
4.5934 -3.8332 -1.9887 0.9751
4.9331 -3.4178 -1.9949 0.9750
5.4971 -2.5001 -2.0074 0.9749
5.7161 -2.0047 -2.0135 0.9748
6.1254 0.1275 -2.0366 0.9745
6.1047 0.6763 -2.0417 0.9744
5.9127 1.7605 -2.0507 0.9743
5.7425 2.2865 -2.0546 0.9743
5.2595 3.2827 -2.0609 0.9742
4.9506 3.7440 -2.0632 0.9742
4.6000 4.1753 -2.0650 0.9742
4.2107 4.5725 -2.0662 0.9741
3.7861 4.9321 -2.0668 0.9741
2.8464 5.5261 -2.0662 0.9741
2.3396 5.7551 -2.0651 0.9742
1.2746 6.0678 -2.0610 0.9742
0.7260 6.1489 -2.0581 0.9742
0.1730 6.1790 -2.0547 0.9743
-0.3794 6.1582 -2.0509 0.9743
-0.9266 6.0868 -2.0466 0.9744
-2.4900 5.5810 -2.0314 0.9746
-2.9707 5.3211 -2.0257 0.9746
-3.4246 5.0196 -2.0199 0.9747
-4.2380 4.3032 -2.0076 0.9749
-4.5915 3.8949 -2.0014 0.9749
-5.8312 0.9789 -1.9654 0.9754
-5.8793 0.4524 -1.9601 0.9755
-5.8811 -0.0749 -1.9551 0.9755
-5.7471 -1.1159 -1.9460 0.9756
-5.4356 -2.1136 -1.9386 0.9757
-5.2166 -2.5870 -1.9355 0.9758
-4.9578 -3.0390 -1.9330 0.9758
-4.3289 -3.8660 -1.9292 0.9758
-3.9637 -4.2351 -1.9281 0.9758
-1.2410 -5.6795 -1.9324 0.9758
-0.2103 -5.8260 -1.9379 0.9757
0.3120 -5.8317 -1.9413 0.9757
2.3576 -5.4011 -1.9589 0.9755
2.8387 -5.1826 -1.9642 0.9754
3.2999 -4.9218 -1.9697 0.9753
4.1483 -4.2808 -1.9815 0.9752
5.6799 -2.0956 -2.0124 0.9748
6.0855 -0.5177 -2.0302 0.9746
-4.7765 -2.5642 -1.9387 0.9772
-3.9139 -3.7294 -1.9333 0.9773
-3.1851 -4.3641 -1.9321 0.9773
-2.7823 -4.6317 -1.9322 0.9773
-2.3578 -4.8635 -1.9328 0.9773
-1.9146 -5.0576 -1.9339 0.9773
1.4302 -5.2736 -1.9540 0.9771
1.9003 -5.1362 -1.9584 0.9770
3.2196 -4.4818 -1.9734 0.9768
3.6173 -4.1875 -1.9788 0.9768
3.9885 -3.8582 -1.9844 0.9767
4.3299 -3.4962 -1.9901 0.9766
4.6386 -3.1040 -1.9959 0.9766
4.9118 -2.6847 -2.0017 0.9765
5.4946 -1.2959 -2.0188 0.9763
5.6673 -0.2982 -2.0295 0.9762
5.5813 1.2248 -2.0434 0.9760
4.8287 3.1233 -2.0565 0.9759
3.8354 4.3024 -2.0611 0.9758
3.0083 4.9176 -2.0615 0.9758
2.5558 5.1653 -2.0609 0.9758
1.5927 5.5300 -2.0580 0.9758
0.5809 5.7115 -2.0530 0.9759
-0.4441 5.7045 -2.0461 0.9760
-0.9504 5.6307 -2.0421 0.9760
-1.4469 5.5112 -2.0377 0.9761
-2.3938 5.1406 -2.0278 0.9762
-3.6424 4.2860 -2.0114 0.9764
-3.9996 3.9320 -2.0057 0.9765
-4.3226 3.5483 -1.9999 0.9765
-5.2318 1.7875 -1.9771 0.9768
-5.3560 1.3090 -1.9717 0.9768
-5.4373 0.8227 -1.9666 0.9769
-5.4754 0.3324 -1.9616 0.9770
-5.4221 -0.6451 -1.9527 0.9771
-5.0287 -2.0495 -1.9419 0.9772
-4.8184 -2.4873 -1.9391 0.9772
-4.5712 -2.9046 -1.9368 0.9773
-3.2552 -4.3122 -1.9321 0.9773
-2.8567 -4.5860 -1.9321 0.9773
-2.4358 -4.8244 -1.9327 0.9773
-1.9958 -5.0254 -1.9337 0.9773
-1.0707 -5.3099 -1.9371 0.9773
-0.1082 -5.4303 -1.9423 0.9772
0.3784 -5.4273 -1.9456 0.9772
0.8638 -5.3819 -1.9492 0.9771
1.3443 -5.2940 -1.9532 0.9771
1.8163 -5.1641 -1.9576 0.9770
2.2761 -4.9929 -1.9623 0.9770
2.7203 -4.7815 -1.9672 0.9769
3.5474 -4.2433 -1.9778 0.9768
4.5854 -3.1769 -1.9949 0.9766
5.5872 -0.8916 -2.0233 0.9763
5.6853 0.1183 -2.0336 0.9761
5.5983 1.1341 -2.0427 0.9760
5.3265 2.1208 -2.0503 0.9759
5.1234 2.5926 -2.0534 0.9759
4.5906 3.4718 -2.0582 0.9758
4.2652 3.8714 -2.0599 0.9758
3.9041 4.2396 -2.0610 0.9758
1.6822 5.5045 -2.0583 0.9758
0.6733 5.7028 -2.0535 0.9759
-0.3520 5.7128 -2.0468 0.9760
-1.3583 5.5361 -2.0385 0.9761
-1.8435 5.3801 -2.0338 0.9761
-3.1804 4.6617 -2.0181 0.9763
-4.8154 2.7856 -1.9894 0.9766
-5.3368 1.3960 -1.9727 0.9768
-5.4258 0.9109 -1.9675 0.9769
-5.4743 -0.0697 -1.9578 0.9770
-5.3513 -1.0391 -1.9494 0.9771
-5.2271 -1.5105 -1.9457 0.9772
-4.6185 -2.8310 -1.9372 0.9773
-4.0332 -3.6019 -1.9337 0.9773
-3.6930 -3.9459 -1.9327 0.9773
-3.3245 -4.2591 -1.9322 0.9773
-2.5133 -4.7841 -1.9325 0.9773
-2.0765 -4.9920 -1.9334 0.9773
-1.6230 -5.1614 -1.9348 0.9773
-0.6792 -5.3795 -1.9390 0.9772
-0.1958 -5.4264 -1.9418 0.9772
1.2581 -5.3129 -1.9525 0.9771
4.2103 -3.6304 -1.9881 0.9767
5.4445 -1.4713 -2.0168 0.9763
5.5693 -0.9813 -2.0223 0.9763
5.6495 -0.4807 -2.0276 0.9762
-4.2288 -2.7840 -1.9402 0.9785
-2.9784 -4.0810 -1.9361 0.9786
-2.6018 -4.3312 -1.9363 0.9786
-2.2048 -4.5479 -1.9368 0.9786
-0.0191 -5.0787 -1.9463 0.9785
0.8887 -5.0178 -1.9529 0.9784
1.7754 -4.7988 -1.9608 0.9783
2.6138 -4.4263 -1.9699 0.9782
3.3774 -3.9097 -1.9799 0.9781
3.7232 -3.6016 -1.9851 0.9781
4.0411 -3.2630 -1.9905 0.9780
4.8009 -2.0905 -2.0067 0.9778
5.2238 -0.7473 -2.0223 0.9776
5.2981 0.1959 -2.0317 0.9775
5.0861 1.6043 -2.0437 0.9774
4.9301 2.0559 -2.0470 0.9774
4.2226 3.3020 -2.0542 0.9773
3.9132 3.6689 -2.0556 0.9773
3.5711 4.0059 -2.0566 0.9773
2.3797 4.8094 -2.0563 0.9773
1.9391 5.0002 -2.0552 0.9773
1.4832 5.1496 -2.0536 0.9773
0.5411 5.3194 -2.0490 0.9774
0.0632 5.3387 -2.0460 0.9774
-0.4137 5.3141 -2.0426 0.9774
-0.8855 5.2461 -2.0388 0.9775
-1.7981 4.9835 -2.0303 0.9776
-2.2313 4.7917 -2.0256 0.9776
-2.6444 4.5619 -2.0207 0.9777
-3.0340 4.2963 -2.0156 0.9777
-3.3971 3.9974 -2.0103 0.9778
-4.0330 3.3106 -1.9996 0.9779
-4.3012 2.9288 -1.9941 0.9780
-4.5336 2.5257 -1.9888 0.9780
-4.7286 2.1046 -1.9835 0.9781
-4.8850 1.6690 -1.9783 0.9781
-5.0019 1.2225 -1.9732 0.9782
-2.3028 0.1398 -0.8841 0.9902
-4.9832 -1.0515 -1.9517 0.9784
-4.8609 -1.4902 -1.9483 0.9785
-4.5048 -2.3254 -1.9427 0.9785
-3.7161 -3.4281 -1.9375 0.9786
-2.2778 -4.5113 -1.9367 0.9786
-1.4396 -4.8507 -1.9390 0.9786
-0.5538 -5.0401 -1.9431 0.9785
-0.1011 -5.0763 -1.9457 0.9785
0.3537 -5.0730 -1.9488 0.9785
1.6970 -4.8250 -1.9600 0.9783
2.1263 -4.6643 -1.9644 0.9783
2.9372 -4.2314 -1.9739 0.9782
3.3122 -3.9619 -1.9790 0.9781
3.9860 -3.3263 -1.9895 0.9780
4.2790 -2.9646 -1.9949 0.9779
5.2985 0.1103 -2.0309 0.9776
5.2788 0.5848 -2.0353 0.9775
5.1097 1.5214 -2.0431 0.9774
4.2747 3.2329 -2.0539 0.9773
3.9715 3.6048 -2.0554 0.9773
2.0199 4.9688 -2.0555 0.9773
0.6271 5.3112 -2.0495 0.9774
0.1495 5.3384 -2.0466 0.9774
-0.3279 5.3218 -2.0433 0.9774
-0.8009 5.2616 -2.0396 0.9775
-1.2656 5.1586 -2.0355 0.9775
-1.7181 5.0140 -2.0311 0.9776
-2.5715 4.6061 -2.0216 0.9777
-3.3336 4.0537 -2.0113 0.9778
-4.2554 2.9994 -1.9951 0.9779
-4.9838 1.3037 -1.9741 0.9782
-2.3041 0.1773 -0.8856 0.9901
-2.2914 -0.0292 -0.8782 0.9902
-2.3033 -0.2364 -0.8873 0.9901
-5.0012 -0.9711 -1.9524 0.9784
-4.8858 -1.4119 -1.9489 0.9785
-4.3181 -2.6469 -1.9409 0.9785
-3.4534 -3.6899 -1.9367 0.9786
-3.1089 -3.9828 -1.9362 0.9786
-2.7402 -4.2447 -1.9362 0.9786
-1.9417 -4.6679 -1.9374 0.9786
-1.0810 -4.9469 -1.9405 0.9785
-0.6350 -5.0294 -1.9426 0.9785
-0.1831 -5.0727 -1.9452 0.9785
0.7257 -5.0406 -1.9516 0.9784
1.1757 -4.9649 -1.9553 0.9784
2.0499 -4.6961 -1.9636 0.9783
2.4673 -4.5045 -1.9682 0.9782
2.8672 -4.2764 -1.9730 0.9782
3.9298 -3.3886 -1.9885 0.9780
4.2284 -3.0318 -1.9939 0.9780
4.4947 -2.6488 -1.9993 0.9779
5.2974 0.0246 -2.0301 0.9776
-3.9665 -2.6113 -1.9436 0.9797
-3.4331 -3.2713 -1.9408 0.9797
-2.7941 -3.8284 -1.9398 0.9797
-2.4407 -4.0631 -1.9399 0.9797
-2.0682 -4.2662 -1.9404 0.9797
-1.2769 -4.5718 -1.9427 0.9797
-0.8638 -4.6720 -1.9445 0.9797
-0.4431 -4.7358 -1.9467 0.9797
0.4086 -4.7524 -1.9522 0.9796
0.8333 -4.7047 -1.9555 0.9796
2.0641 -4.3405 -1.9671 0.9794
2.4493 -4.1478 -1.9715 0.9794
2.8169 -3.9213 -1.9761 0.9793
3.4872 -3.3733 -1.9857 0.9792
4.0527 -2.7120 -1.9958 0.9791
4.7936 -1.1306 -2.0158 0.9789
4.8870 -0.6991 -2.0205 0.9789
4.9550 0.1832 -2.0293 0.9788
4.9286 0.6268 -2.0334 0.9788
4.8617 1.0669 -2.0371 0.9787
4.7548 1.4998 -2.0405 0.9787
4.6086 1.9218 -2.0436 0.9787
3.6569 3.4287 -2.0516 0.9786
2.9897 4.0277 -2.0529 0.9786
2.6175 4.2787 -2.0529 0.9786
1.8122 4.6729 -2.0513 0.9786
0.9494 4.9127 -2.0478 0.9786
0.0591 4.9906 -2.0427 0.9787
-0.3868 4.9682 -2.0395 0.9787
-0.8280 4.9052 -2.0360 0.9787
-1.2608 4.8024 -2.0321 0.9788
-2.0872 4.4822 -2.0236 0.9789
-2.4740 4.2679 -2.0190 0.9789
-2.8389 4.0201 -2.0142 0.9790
-3.4922 3.4332 -2.0043 0.9791
-3.7757 3.0994 -1.9992 0.9791
-4.2457 2.3653 -1.9891 0.9792
-2.0823 -0.4394 -0.8710 0.9908
-4.5581 -1.3974 -1.9512 0.9796
-4.4086 -1.7967 -1.9484 0.9796
-4.0088 -2.5473 -1.9439 0.9797
-3.4858 -3.2158 -1.9410 0.9797
-3.1830 -3.5131 -1.9402 0.9797
-2.8556 -3.7828 -1.9398 0.9797
-2.5060 -4.0230 -1.9398 0.9797
-2.1367 -4.2320 -1.9403 0.9797
-1.7506 -4.4081 -1.9412 0.9797
-0.0948 -4.7606 -1.9488 0.9796
0.3317 -4.7570 -1.9516 0.9796
0.7569 -4.7160 -1.9549 0.9796
1.5907 -4.5228 -1.9622 0.9795
2.3810 -4.1851 -1.9707 0.9794
2.7520 -3.9646 -1.9752 0.9794
3.7328 -3.1150 -1.9898 0.9792
4.2494 -2.4126 -1.9999 0.9791
4.4594 -2.0281 -2.0050 0.9790
4.7727 -1.2074 -2.0149 0.9789
4.8730 -0.7777 -2.0196 0.9789
4.9554 0.1031 -2.0286 0.9788
4.9363 0.5469 -2.0327 0.9788
4.4601 2.2569 -2.0458 0.9786
4.2452 2.6496 -2.0481 0.9786
3.9950 3.0214 -2.0500 0.9786
3.7115 3.3688 -2.0514 0.9786
3.3970 3.6889 -2.0524 0.9786
3.0543 3.9788 -2.0529 0.9786
2.6863 4.2359 -2.0529 0.9786
1.8876 4.6435 -2.0515 0.9786
1.4639 4.7904 -2.0501 0.9786
0.5861 4.9644 -2.0459 0.9786
-0.3066 4.9752 -2.0401 0.9787
-0.7489 4.9195 -2.0366 0.9787
-1.1835 4.8239 -2.0329 0.9788
-2.0154 4.5172 -2.0244 0.9788
-2.4057 4.3091 -2.0198 0.9789
-2.7748 4.0672 -2.0151 0.9789
-3.1198 3.7936 -2.0102 0.9790
-3.4379 3.4908 -2.0052 0.9790
-4.3987 2.0435 -1.9851 0.9793
-2.0445 0.3432 -0.8485 0.9911
-2.0126 0.1549 -0.8261 0.9913
-1.9935 -0.0254 -0.8160 0.9914
-2.0177 -0.2071 -0.8301 0.9913
-4.0502 -2.4827 -1.9443 0.9797
-3.5377 -3.1593 -1.9412 0.9797
-2.9164 -3.7362 -1.9398 0.9797
-2.5706 -3.9819 -1.9398 0.9797
-2.2047 -4.1967 -1.9402 0.9797
-1.8214 -4.3788 -1.9410 0.9797
-0.5956 -4.7170 -1.9459 0.9797
0.6804 -4.7262 -1.9542 0.9796
1.9213 -4.4015 -1.9656 0.9795
2.3122 -4.2213 -1.9699 0.9794
2.6865 -4.0069 -1.9744 0.9794
3.0412 -3.7596 -1.9791 0.9793
3.3734 -3.4811 -1.9840 0.9793
3.6803 -3.1735 -1.9889 0.9792
3.9593 -2.8389 -1.9940 0.9792
4.7505 -1.2838 -2.0140 0.9790
4.8578 -0.8559 -2.0188 0.9789
4.9546 0.0231 -2.0278 0.9788
-3.9392 -2.1147 -1.9485 0.9807
-3.2294 -3.0772 -1.9440 0.9807
-2.6283 -3.6013 -1.9430 0.9807
-2.2959 -3.8220 -1.9431 0.9807
-1.2010 -4.3002 -1.9458 0.9807
1.1778 -4.3432 -1.9612 0.9806
1.5644 -4.2283 -1.9648 0.9805
1.9400 -4.0796 -1.9688 0.9805
2.6469 -3.6846 -1.9772 0.9804
2.9724 -3.4410 -1.9817 0.9804
3.5543 -2.8700 -1.9910 0.9803
3.8058 -2.5467 -1.9957 0.9802
4.2185 -1.8369 -2.0052 0.9801
4.3760 -1.4558 -2.0099 0.9801
4.5858 -0.6560 -2.0189 0.9800
4.5597 1.0006 -2.0345 0.9798
4.1481 2.1839 -2.0430 0.9798
3.9402 2.5486 -2.0451 0.9797
3.1284 3.5093 -2.0489 0.9797
2.8026 3.7757 -2.0493 0.9797
2.4537 4.0110 -2.0492 0.9797
0.8901 4.6060 -2.0445 0.9797
0.0554 4.6798 -2.0397 0.9798
-1.1827 4.5048 -2.0298 0.9799
-2.3216 4.0050 -2.0175 0.9800
-2.6644 3.7730 -2.0130 0.9800
-2.9843 3.5116 -2.0084 0.9801
-3.5452 2.9102 -1.9990 0.9802
-4.1607 1.8519 -1.9848 0.9803
-1.4570 0.0885 -0.6362 0.9937
-1.4723 -0.1752 -0.6462 0.9936
-4.1460 -1.6897 -1.9512 0.9807
-3.2789 -3.0249 -1.9442 0.9807
-2.0099 -3.9808 -1.9435 0.9807
-1.6467 -4.1464 -1.9443 0.9807
-1.2701 -4.2797 -1.9456 0.9807
-0.4885 -4.4457 -1.9492 0.9807
-0.0892 -4.4770 -1.9515 0.9807
0.3119 -4.4732 -1.9542 0.9806
1.1072 -4.3602 -1.9606 0.9806
1.8731 -4.1089 -1.9680 0.9805
2.2377 -3.9331 -1.9721 0.9804
2.5860 -3.7254 -1.9764 0.9804
2.9152 -3.4871 -1.9809 0.9804
3.5060 -2.9258 -1.9901 0.9803
3.7625 -2.6068 -1.9949 0.9802
3.9900 -2.2653 -1.9996 0.9802
4.3501 -1.5256 -2.0091 0.9801
4.4793 -1.1332 -2.0136 0.9800
4.5728 -0.7297 -2.0181 0.9800
4.6295 -0.3186 -2.0224 0.9800
4.6303 0.5130 -2.0303 0.9799
4.5739 0.9265 -2.0339 0.9798
4.4799 1.3339 -2.0371 0.9798
3.9802 2.4842 -2.0448 0.9797
3.1845 3.4581 -2.0488 0.9797
2.8632 3.7298 -2.0493 0.9797
2.5183 3.9709 -2.0493 0.9797
2.1527 4.1793 -2.0488 0.9797
1.7696 4.3531 -2.0479 0.9797
0.5496 4.6548 -2.0427 0.9798
-1.8909 4.2382 -2.0226 0.9800
-2.2575 4.0436 -2.0183 0.9800
-2.9284 3.5609 -2.0093 0.9801
-4.1320 1.9196 -1.9857 0.9803
-1.4722 0.2472 -0.6506 0.9935
-1.4631 0.1126 -0.6395 0.9936
