ply
format ascii 1.0
element vertex 1582
property float32 x
property float32 y
property float32 z
property float32 I
end_header
18.2975 -7.2255 3.0137 0.9235
1.2904 19.4146 2.9808 0.9243
-0.4151 17.9054 2.7437 0.9301
-3.1719 15.4666 2.4187 0.9381
-5.4089 13.4884 2.2263 0.9429
-7.3748 11.7508 2.1253 0.9454
-8.4139 11.0674 2.1298 0.9453
-9.2273 10.1143 2.0974 0.9461
-10.2805 9.4188 2.1360 0.9451
-12.1099 7.6359 2.1932 0.9437
-16.7474 3.4715 2.6201 0.9331
-11.3555 1.3098 1.7511 0.9548
1.0009 19.3879 2.5281 0.9247
-0.6778 17.8439 2.3253 0.9305
-4.5764 14.4551 1.9744 0.9407
-6.5745 12.4543 1.8339 0.9448
-7.5287 11.6111 1.8020 0.9457
-8.4578 10.7903 1.7853 0.9462
-9.3772 9.9782 1.7831 0.9463
-11.2426 8.3243 1.8216 0.9451
-15.8070 4.5308 2.1413 0.9358
5.6260 -18.2378 2.4854 0.9259
8.1255 -15.6720 2.2988 0.9313
9.4763 -14.8541 2.2944 0.9314
11.8240 -12.7698 2.2663 0.9322
12.7942 -11.5489 2.2444 0.9328
14.1931 -10.6723 2.3124 0.9309
16.5916 -8.3372 2.4180 0.9278
1.2901 19.4090 2.5330 0.9245
-0.4150 17.9006 2.3317 0.9303
-3.1712 15.4630 2.0555 0.9383
-4.3385 14.4424 1.9637 0.9410
-7.3733 11.7484 1.8062 0.9456
-9.2254 10.1122 1.7825 0.9463
-11.0886 8.4669 1.8168 0.9453
-14.1883 5.7244 1.9923 0.9402
-15.3947 4.6601 2.0945 0.9372
1.0007 19.3825 2.0841 0.9249
-4.5174 14.2686 1.6071 0.9416
-6.4516 12.2216 1.4840 0.9459
-7.5272 11.6087 1.4857 0.9459
-8.4561 10.7881 1.4719 0.9463
-9.3753 9.9762 1.4701 0.9464
-10.2996 9.1598 1.4801 0.9461
-11.2403 8.3226 1.5018 0.9453
-13.1119 6.4677 1.5699 0.9429
-14.1877 5.4817 1.6333 0.9406
-15.6027 4.4722 1.7429 0.9368
-16.9786 3.2583 1.8565 0.9328
-18.5600 1.8632 2.0030 0.9277
-9.4967 -17.1094 2.1013 0.9243
5.6268 -18.2404 2.0498 0.9261
9.4775 -14.8560 1.8923 0.9316
14.1949 -10.6736 1.9071 0.9310
18.1708 -7.1754 2.0978 0.9244
-1.8794 16.6009 1.7940 0.9350
-5.3465 13.3329 1.5425 0.9438
-8.3038 10.9227 1.4734 0.9463
-10.1460 9.2955 1.4776 0.9461
-12.0563 7.6021 1.5305 0.9443
-12.9377 6.6214 1.5606 0.9432
-15.3911 4.6590 1.7268 0.9374
-16.7389 3.4697 1.8357 0.9335
-11.3522 1.3095 1.2271 0.9551
3.8408 -19.4584 2.1298 0.9233
0.9877 19.1313 1.6217 0.9260
-2.1025 16.3992 1.3996 0.9358
-3.3696 15.2791 1.3245 0.9391
-5.5754 13.3296 1.2231 0.9436
-6.5226 12.3560 1.1828 0.9455
-8.5357 10.8897 1.1713 0.9460
-12.2683 7.4846 1.2166 0.9439
-13.2563 6.5389 1.2513 0.9424
-15.5990 4.4712 1.3737 0.9369
-18.5549 1.8627 1.5786 0.9279
-9.4618 -17.0466 1.6504 0.9247
4.0942 -19.2400 1.6652 0.9241
9.4788 -14.8579 1.4919 0.9317
12.7993 -11.5535 1.4596 0.9331
18.1733 -7.1764 1.6540 0.9246
1.2893 19.3980 1.6457 0.9249
-0.4111 17.7336 1.5016 0.9313
-1.8789 16.5969 1.4139 0.9351
-4.3338 14.4268 1.2752 0.9413
-6.3627 12.4973 1.1872 0.9453
-7.3703 11.7436 1.1737 0.9459
-10.1848 9.3310 1.1693 0.9461
-11.0841 8.4635 1.1806 0.9456
-12.1023 7.6311 1.2112 0.9442
-13.0803 6.6944 1.2439 0.9427
-16.7348 3.4688 1.4468 0.9337
-0.6735 17.7312 1.1003 0.9314
-2.1020 16.3952 1.0250 0.9359
-4.5336 14.3197 0.9314 0.9416
-6.6206 12.5416 0.8794 0.9447
-13.2535 6.5375 0.9164 0.9425
-14.4095 5.5673 0.9579 0.9400
-15.7957 4.5276 1.0189 0.9363
4.0952 -19.2444 1.2201 0.9242
11.8288 -12.7750 1.0796 0.9326
12.8019 -11.5558 1.0694 0.9332
14.1986 -10.6764 1.1016 0.9313
1.2890 19.3925 1.2052 0.9251
-4.3329 14.4237 0.9339 0.9414
-5.4043 13.4769 0.9004 0.9435
-7.3689 11.7412 0.8596 0.9460
-11.0818 8.4618 0.8646 0.9457
-12.0998 7.6296 0.8870 0.9443
-13.0775 6.6929 0.9110 0.9428
-15.3838 4.6568 0.9967 0.9376
-16.7306 3.4680 1.0595 0.9338
3.8426 -19.4673 1.2305 0.9236
-0.6734 17.7266 0.6995 0.9314
-3.3681 15.2721 0.6167 0.9393
-4.5326 14.3166 0.5921 0.9417
-7.4515 11.4920 0.5401 0.9466
-9.3697 9.9702 0.5395 0.9467
-10.3348 9.1911 0.5454 0.9461
-14.4154 5.5696 0.6094 0.9400
-16.9658 3.2558 0.6812 0.9332
5.6292 -18.2481 0.7530 0.9264
8.1321 -15.6848 0.6967 0.9317
9.4812 -14.8618 0.6951 0.9319
11.8304 -12.7767 0.6866 0.9327
12.8045 -11.5581 0.6802 0.9333
14.2004 -10.6777 0.7006 0.9313
16.5576 -8.3201 0.7306 0.9285
1.2886 19.3870 0.7661 0.9252
-0.4146 17.8820 0.7053 0.9309
-1.8780 16.5888 0.6583 0.9354
-5.4032 13.4741 0.5724 0.9435
-7.3674 11.7389 0.5465 0.9460
-12.0973 7.6280 0.5639 0.9444
-15.3803 4.6557 0.6336 0.9377
-11.3469 1.3088 0.4504 0.9553
0.9996 19.3609 0.3275 0.9254
-0.6732 17.7221 0.2996 0.9315
-3.3673 15.2687 0.2641 0.9394
-8.5579 10.9180 0.2343 0.9460
-12.3685 7.5457 0.2447 0.9437
-14.4213 5.5719 0.2612 0.9400
-15.7883 4.5255 0.2774 0.9364
-16.9615 3.2550 0.2917 0.9332
-9.4214 -16.9738 0.3279 0.9253
9.4824 -14.8637 0.2978 0.9319
11.8320 -12.7784 0.2942 0.9327
14.2022 -10.6791 0.3002 0.9314
16.5492 -8.3159 0.3128 0.9286
18.1810 -7.1795 0.3302 0.9248
1.2882 19.3816 0.3281 0.9252
-0.4145 17.8773 0.3021 0.9310
-6.4556 12.6798 0.2403 0.9447
-8.4037 11.0542 0.2346 0.9460
-9.2162 10.1022 0.2310 0.9468
-10.1787 9.3254 0.2332 0.9463
-11.0773 8.4583 0.2354 0.9458
-12.2011 7.6935 0.2437 0.9439
-15.3767 4.6546 0.2714 0.9377
-9.6233 -16.7488 0.3263 0.9256
-8.3668 -18.1495 0.3376 0.9232
3.8444 -19.4763 0.3354 0.9237
0.9993 19.3555 -0.1091 0.9254
-0.6768 17.8160 -0.1004 0.9312
-2.1005 16.3834 -0.0930 0.9361
-5.5708 13.3184 -0.0813 0.9439
-6.6165 12.5339 -0.0798 0.9449
-7.4485 11.4874 -0.0771 0.9467
-9.3660 9.9663 -0.0770 0.9468
-11.2330 8.3172 -0.0787 0.9456
-12.3659 7.5441 -0.0816 0.9437
-18.5349 1.8607 -0.1049 0.9282
-9.4225 -16.9757 -0.1093 0.9253
5.6307 -18.2531 -0.1075 0.9264
9.4836 -14.8656 -0.0993 0.9319
14.2040 -10.6805 -0.1001 0.9314
16.5408 -8.3117 -0.1042 0.9286
18.1836 -7.1805 -0.1101 0.9248
1.2879 19.3761 -0.1093 0.9253
-0.4143 17.8727 -0.1007 0.9310
-1.8771 16.5808 -0.0939 0.9354
-3.1668 15.4417 -0.0887 0.9389
-4.3301 14.4143 -0.0847 0.9416
-5.4009 13.4684 -0.0817 0.9436
-6.4543 12.6772 -0.0801 0.9447
-9.2144 10.1002 -0.0770 0.9468
-10.2661 9.4055 -0.0784 0.9458
-13.0691 6.6887 -0.0827 0.9430
-15.3731 4.6535 -0.0904 0.9378
-11.3441 1.3085 -0.0643 0.9553
-9.6243 -16.7506 -0.1088 0.9256
8.5796 3.1813 -0.2577 0.9640
-2.1000 16.3795 -0.4650 0.9361
-3.3658 15.2618 -0.4401 0.9394
-4.5695 14.4331 -0.4263 0.9412
-5.5696 13.3156 -0.4064 0.9439
-6.6152 12.5314 -0.3990 0.9449
-8.5272 10.8789 -0.3892 0.9462
-9.3641 9.9643 -0.3850 0.9468
-10.3862 9.2369 -0.3914 0.9459
-11.2307 8.3155 -0.3935 0.9456
-12.3633 7.5426 -0.4078 0.9437
-13.2421 6.5319 -0.4158 0.9426
-16.9530 3.2534 -0.4861 0.9333
-9.4241 -16.9787 -0.5468 0.9252
4.0101 -18.8446 -0.5425 0.9258
5.6315 -18.2557 -0.5379 0.9264
8.1371 -15.6944 -0.4978 0.9317
16.5324 -8.3075 -0.5210 0.9286
8.6592 3.0660 -0.2587 0.9639
3.6351 14.5102 -0.4212 0.9419
1.2875 19.3707 -0.5466 0.9253
-0.4142 17.8681 -0.5033 0.9310
-1.8766 16.5768 -0.4697 0.9354
-6.4530 12.6746 -0.4005 0.9447
-7.3629 11.7318 -0.3900 0.9461
-8.4004 11.0498 -0.3908 0.9460
-9.2125 10.0982 -0.3849 0.9468
-11.0729 8.4549 -0.3923 0.9458
-12.1961 7.6903 -0.4060 0.9439
-14.2744 5.7591 -0.4334 0.9403
-11.3434 1.3084 -0.3215 0.9553
3.7613 -19.0553 -0.5469 0.9252
8.9638 2.4378 -0.4711 0.9635
-0.6637 17.4714 -0.8867 0.9324
-2.0919 16.3160 -0.8342 0.9362
-7.4759 11.5296 -0.6969 0.9465
-8.5256 10.8767 -0.7009 0.9462
-9.3623 9.9623 -0.6933 0.9467
-11.2284 8.3138 -0.7085 0.9456
-12.1579 7.4173 -0.7223 0.9446
-13.1248 6.4740 -0.7422 0.9431
-15.3855 4.4100 -0.8117 0.9379
-16.7891 3.2219 -0.8670 0.9338
-18.4323 1.8504 -0.9395 0.9285
-9.4258 -16.9816 -0.9850 0.9252
4.0115 -18.8510 -0.9774 0.9257
5.6143 -18.1998 -0.9659 0.9266
8.1388 -15.6976 -0.8967 0.9316
9.4861 -14.8694 -0.8945 0.9318
12.8147 -11.5674 -0.8755 0.9332
9.0878 2.3277 -0.4758 0.9631
8.4854 3.0044 -0.4565 0.9646
9.8186 4.5012 -0.5478 0.9577
3.6328 14.5011 -0.7581 0.9419
-0.4098 17.6750 -0.8966 0.9316
-1.8678 16.4985 -0.8421 0.9357
-3.1653 15.4346 -0.7990 0.9388
-6.4517 12.6720 -0.7211 0.9446
-9.2107 10.0962 -0.6931 0.9467
-10.2293 9.3718 -0.7036 0.9460
-11.0706 8.4532 -0.7064 0.9457
-12.0020 7.5679 -0.7196 0.9448
-9.6276 -16.7565 -0.9801 0.9255
8.2365 3.0541 -0.6441 0.9654
9.8211 4.6793 -0.7977 0.9573
-0.6698 17.6331 -1.2938 0.9317
-2.0974 16.3591 -1.2093 0.9360
-3.3529 15.2033 -1.1415 0.9395
-4.4857 14.1685 -1.0897 0.9421
-6.6125 12.5263 -1.0386 0.9448
-8.3773 10.6876 -0.9957 0.9470
-9.2922 9.8878 -0.9949 0.9470
-13.2241 6.5230 -1.0812 0.9426
-15.5733 4.4638 -1.1878 0.9371
-16.9445 3.2518 -1.2651 0.9331
-18.5198 1.8592 -1.3647 0.9281
4.0127 -18.8569 -1.4136 0.9256
14.1646 -10.6508 -1.2994 0.9314
16.5193 -8.3008 -1.3556 0.9285
18.1312 -7.1598 -1.4293 0.9248
8.3032 2.9399 -0.6458 0.9653
-1.8752 16.5645 -1.2223 0.9353
-3.1551 15.3848 -1.1515 0.9390
-5.3628 13.3734 -1.0565 0.9438
-6.4503 12.6694 -1.0424 0.9446
-7.3029 11.6361 -1.0073 0.9464
-8.2261 10.8205 -0.9966 0.9469
-11.9926 7.5620 -1.0395 0.9447
-13.0429 6.6752 -1.0743 0.9429
-14.2680 5.7566 -1.1281 0.9402
-11.3420 1.3083 -0.8371 0.9552
3.7636 -19.0671 -1.4250 0.9250
17.9386 -4.9986 -1.7878 0.9279
18.9548 -1.7614 -1.8276 0.9264
19.2530 -0.0599 -1.8484 0.9256
8.1425 1.4479 -0.7940 0.9673
7.8257 2.9018 -0.8013 0.9670
3.4098 14.5185 -1.4318 0.9418
-0.6696 17.6285 -1.6936 0.9316
-2.0985 16.3677 -1.5842 0.9358
-3.3635 15.2514 -1.4994 0.9392
-4.5086 14.2408 -1.4341 0.9417
-6.6111 12.5237 -1.3596 0.9447
-7.4598 11.5048 -1.3164 0.9464
-8.4410 10.7688 -1.3136 0.9465
-9.3585 9.9584 -1.3120 0.9466
-10.2811 9.1434 -1.3209 0.9462
-12.1989 7.4422 -1.3719 0.9442
-13.2336 6.5277 -1.4166 0.9424
-14.4510 5.5834 -1.4873 0.9396
-15.5696 4.4628 -1.5550 0.9370
-16.9403 3.2509 -1.6560 0.9330
-18.5148 1.8587 -1.7864 0.9280
-19.0958 0.2006 -1.8334 0.9261
-18.8252 -1.4911 -1.8130 0.9269
-18.4136 -3.1342 -1.7932 0.9277
-18.5604 -6.7265 -1.8953 0.9237
-17.7679 -8.3049 -1.8829 0.9242
-16.7980 -9.7699 -1.8656 0.9249
-14.5444 -12.3976 -1.8348 0.9261
-10.5226 -15.5047 -1.7990 0.9275
-9.0484 -16.3018 -1.7900 0.9278
-1.0027 -16.9832 -1.6333 0.9339
0.5202 -17.0090 -1.6337 0.9339
2.0415 -16.9138 -1.6356 0.9338
5.0469 -16.3606 -1.6437 0.9335
6.5144 -15.9038 -1.6500 0.9333
9.3371 -14.6359 -1.6667 0.9326
10.6750 -13.8283 -1.6771 0.9322
11.8017 -12.7457 -1.6676 0.9326
14.1664 -10.6522 -1.7016 0.9313
16.2728 -8.1770 -1.7484 0.9294
17.1099 -6.7565 -1.7661 0.9287
17.8312 -5.2540 -1.7846 0.9280
18.4280 -3.6779 -1.8041 0.9273
19.2139 -0.3439 -1.8449 0.9257
-1.8753 16.5647 -1.6005 0.9352
-4.3263 14.4017 -1.4437 0.9414
-7.3585 11.7247 -1.3290 0.9459
-9.2071 10.0922 -1.3115 0.9466
-10.1278 9.2788 -1.3187 0.9463
-12.0339 7.5880 -1.3658 0.9444
-13.0580 6.6829 -1.4083 0.9428
-14.2649 5.7553 -1.4768 0.9401
-16.7016 3.4620 -1.6375 0.9338
-11.3412 1.3082 -1.0960 0.9552
-18.4909 -2.8666 -1.7964 0.9276
-17.9673 -4.4608 -1.7773 0.9283
-18.1938 -6.2909 -1.8482 0.9256
-17.9171 -8.0540 -1.8859 0.9241
-16.9659 -9.5346 -1.8684 0.9248
-14.7450 -12.1968 -1.8371 0.9260
-7.7780 -16.8723 -1.7837 0.9281
-2.9729 -18.0415 -1.7554 0.9292
-1.2538 -16.9673 -1.6334 0.9339
14.5776 -4.0620 -1.7976 0.9409
16.9254 1.4667 -2.0180 0.9339
7.7266 1.3740 -0.9322 0.9689
7.6064 2.8205 -0.9637 0.9679
9.2876 4.4251 -1.2221 0.9594
15.2828 9.0405 -2.1092 0.9310
13.6361 11.7985 -2.1419 0.9299
12.6131 13.0606 -2.1568 0.9295
3.3994 14.4741 -1.7661 0.9419
2.4257 17.0735 -2.0485 0.9329
-0.6548 17.2370 -2.0490 0.9329
-4.5076 14.2376 -1.7740 0.9416
-5.5649 13.3044 -1.7131 0.9436
-6.5597 12.4263 -1.6691 0.9450
-8.4393 10.7666 -1.6250 0.9464
-11.2216 8.3087 -1.6586 0.9453
-13.2308 6.5263 -1.7524 0.9423
-13.9923 5.4062 -1.7818 0.9414
-15.2618 4.3745 -1.8859 0.9381
-15.4442 0.1623 -1.8347 0.9397
-14.9551 -2.5455 -1.8020 0.9407
-15.1821 -5.5022 -1.9182 0.9370
-13.7440 -7.9936 -1.8886 0.9380
-11.9360 -10.1742 -1.8630 0.9388
-10.9125 -11.1337 -1.8518 0.9391
-9.8198 -11.9999 -1.8418 0.9395
-6.2054 -14.0019 -1.8193 0.9402
-0.8968 -15.1888 -1.8074 0.9406
1.6859 -13.9676 -1.6712 0.9449
2.9332 -13.7841 -1.6740 0.9448
4.1642 -13.4990 -1.6781 0.9447
1.4526 -3.5463 -0.4552 0.9847
6.5476 -12.6288 -1.6898 0.9443
7.6852 -12.0466 -1.6974 0.9441
8.7767 -11.3693 -1.7061 0.9438
12.5307 -7.7724 -1.7516 0.9423
13.2787 -6.6725 -1.7653 0.9419
13.9359 -5.5031 -1.7798 0.9414
14.9498 -2.9837 -1.8109 0.9404
15.4887 -1.6706 -1.8505 0.9392
7.2988 1.8695 -0.8950 0.9701
7.3816 2.6136 -0.9302 0.9689
14.6621 10.2245 -2.1233 0.9305
13.7926 11.5818 -2.1394 0.9300
10.4210 15.1134 -2.1807 0.9287
5.6453 16.2156 -2.0396 0.9332
3.5837 14.3051 -1.7517 0.9423
1.1443 17.2165 -2.0496 0.9329
-0.3998 17.2468 -2.0492 0.9329
-1.8748 16.5607 -1.9797 0.9351
-5.3952 13.4542 -1.7219 0.9433
-6.3988 12.5683 -1.6753 0.9448
-7.3570 11.7224 -1.6440 0.9458
-8.2872 10.9009 -1.6266 0.9463
-9.2052 10.0901 -1.6224 0.9465
-12.0314 7.5864 -1.6896 0.9443
-13.8066 5.5704 -1.7685 0.9418
-15.2183 4.6067 -1.8887 0.9380
-15.4634 0.3912 -1.8374 0.9396
-15.0129 -2.3274 -1.8046 0.9406
-15.4532 -3.8366 -1.8913 0.9379
-15.2825 -5.2843 -1.9208 0.9369
-13.0307 -8.9444 -1.8774 0.9383
-11.0865 -10.9816 -1.8536 0.9391
-6.4151 -13.9158 -1.8202 0.9401
-5.1303 -14.3927 -1.8150 0.9403
1.4877 -14.0715 -1.6808 0.9446
2.7282 -13.8214 -1.6735 0.9448
13.1787 -3.6722 -1.9384 0.9462
14.1037 -0.0439 -1.9984 0.9446
7.6558 1.3614 -1.1018 0.9691
7.7029 2.8562 -1.1640 0.9674
9.2047 4.3856 -1.4447 0.9596
12.6919 7.5078 -2.0894 0.9422
12.0487 8.6697 -2.1032 0.9418
10.4349 10.8051 -2.1284 0.9411
9.4759 11.7560 -2.1394 0.9408
8.4256 12.6146 -2.1494 0.9406
7.2929 13.3711 -2.1580 0.9403
6.0884 14.0168 -2.1653 0.9401
4.6438 14.0024 -2.0903 0.9421
3.2421 13.8044 -2.0092 0.9443
-1.8040 14.0708 -2.0100 0.9443
-3.0498 13.8288 -2.0065 0.9444
-6.3976 12.1192 -1.9417 0.9461
-7.4568 11.5001 -1.9420 0.9461
-8.4376 10.7645 -1.9379 0.9462
-9.3548 9.9544 -1.9355 0.9463
-12.4594 4.8139 -1.8925 0.9475
-12.7434 3.6527 -1.8783 0.9479
-12.9538 0.1361 -1.8355 0.9490
-13.5806 -2.3115 -1.9519 0.9459
-13.2615 -3.5015 -1.9434 0.9461
-12.2558 -5.7285 -1.9168 0.9468
-11.6200 -6.7583 -1.9046 0.9471
-10.9035 -7.7239 -1.8933 0.9474
-9.2539 -9.4415 -1.8732 0.9480
-7.3600 -10.8448 -1.8570 0.9484
-6.3384 -11.4194 -1.8505 0.9486
-5.2764 -11.9057 -1.8451 0.9487
-4.1808 -12.3012 -1.8409 0.9489
-1.9172 -12.8133 -1.8357 0.9490
-0.7633 -12.9275 -1.8349 0.9490
0.3959 -12.9462 -1.8352 0.9490
1.5534 -12.8693 -1.8367 0.9490
0.7713 -3.6246 -0.5251 0.9851
1.2674 -3.0940 -0.4737 0.9866
1.9481 -3.0536 -0.5132 0.9855
8.3188 -8.9842 -1.7348 0.9517
9.1377 -8.2483 -1.7442 0.9515
9.8960 -7.4412 -1.7543 0.9512
10.5875 -6.5671 -1.7653 0.9509
11.2111 -5.6335 -1.7778 0.9506
11.9902 -4.7348 -1.8266 0.9493
13.6035 -2.7150 -1.9655 0.9455
7.2489 1.8567 -1.0602 0.9702
8.9532 4.1044 -1.3955 0.9610
12.7872 7.3111 -2.0870 0.9422
12.1627 8.4816 -2.1010 0.9419
10.5839 10.6400 -2.1264 0.9412
9.6408 11.6051 -2.1377 0.9409
8.6050 12.4796 -2.1478 0.9406
6.2918 13.9182 -2.1642 0.9402
4.9702 14.2767 -2.1419 0.9408
2.2044 14.0231 -2.0113 0.9443
-0.3292 14.1980 -2.0122 0.9442
-1.5961 14.0990 -2.0104 0.9443
-4.0659 13.5350 -2.0024 0.9445
-5.2440 13.0770 -1.9963 0.9447
-6.2407 12.2576 -1.9489 0.9459
-8.2856 10.8987 -1.9398 0.9462
-9.2034 10.0881 -1.9348 0.9463
-11.1773 1.2893 -1.5942 0.9556
-12.9667 0.3280 -1.8378 0.9489
-12.8458 -0.8266 -1.8239 0.9493
-13.5023 -2.0932 -1.9360 0.9463
-12.8868 -4.4559 -1.9320 0.9464
-12.3526 -5.5527 -1.9189 0.9468
-11.7307 -6.5925 -1.9066 0.9471
-7.5243 -10.7415 -1.8582 0.9484
-4.3637 -12.2422 -1.8415 0.9488
-3.2455 -12.5606 -1.8382 0.9489
-0.9544 -12.9152 -1.8349 0.9490
11.4544 -3.1918 -1.9589 0.9529
11.7690 -2.1685 -1.9715 0.9526
11.9938 -1.1145 -1.9844 0.9523
12.1251 -0.0377 -1.9975 0.9520
12.1602 1.0537 -2.0108 0.9517
7.6460 1.3597 -1.2794 0.9690
7.1309 1.9393 -1.2174 0.9705
9.2246 4.3951 -1.6833 0.9594
10.2827 7.3990 -2.0869 0.9499
9.6305 8.3327 -2.0980 0.9497
6.2003 11.3679 -2.1332 0.9489
4.0970 12.3538 -2.1442 0.9486
2.9333 12.4894 -2.1135 0.9493
1.6955 11.9338 -1.9857 0.9523
-0.4576 12.0471 -1.9861 0.9523
-1.5318 11.9476 -1.9843 0.9523
-2.5903 11.7452 -1.9814 0.9524
-3.6226 11.4424 -1.9772 0.9525
-5.5697 10.5510 -1.9655 0.9528
-7.3009 9.3143 -1.9496 0.9532
-9.3656 6.9345 -1.9198 0.9539
-9.8902 6.0338 -1.9086 0.9541
-10.6735 4.1239 -1.8850 0.9547
-10.9285 3.1325 -1.8729 0.9550
-11.0918 2.1286 -1.8606 0.9552
-10.5971 -4.9532 -1.9270 0.9537
-6.3909 -9.4168 -1.8748 0.9549
-3.6345 -10.6937 -1.8606 0.9552
-2.6596 -10.9596 -1.8579 0.9553
-0.6638 -11.2429 -1.8554 0.9554
1.1736 -2.8651 -0.5101 0.9875
1.4402 -2.7777 -0.5155 0.9874
1.7266 -2.7064 -0.5288 0.9871
2.2568 -2.9235 -0.6084 0.9851
7.7796 -8.4019 -1.8863 0.9546
9.9027 -6.1423 -1.9197 0.9539
10.9800 -4.3359 -1.9448 0.9533
11.3941 -3.3573 -1.9568 0.9530
11.7232 -2.3398 -1.9694 0.9527
12.1611 0.8729 -2.0086 0.9518
7.7421 1.2589 -1.2922 0.9687
10.9253 6.2466 -2.0732 0.9503
10.3816 7.2396 -2.0850 0.9500
6.3644 11.2690 -2.1321 0.9489
3.1569 12.6014 -2.1401 0.9487
0.7997 12.0317 -1.9865 0.9523
-0.2794 12.0536 -1.9862 0.9523
-2.4170 11.7856 -1.9820 0.9524
-6.3224 10.0739 -1.9593 0.9529
-7.9449 8.7087 -1.9420 0.9533
-9.8096 6.1855 -1.9105 0.9541
-10.2610 5.2515 -1.8989 0.9543
-10.6225 4.2858 -1.8870 0.9546
-10.8927 3.2973 -1.8749 0.9549
-11.0711 2.2949 -1.8626 0.9552
-11.1399 1.2850 -1.8473 0.9556
-11.7838 -1.8268 -1.9644 0.9528
-10.6792 -4.8005 -1.9289 0.9536
-8.1522 -8.0750 -1.8903 0.9545
-7.3674 -8.7362 -1.8826 0.9547
-4.7398 -10.2817 -1.8651 0.9551
-0.8300 -11.2322 -1.8554 0.9554
0.1778 -11.2621 -1.8555 0.9554
0.6583 -3.3349 -0.5600 0.9863
10.0601 -2.8032 -1.9629 0.9584
10.3283 -1.9030 -1.9740 0.9582
7.6631 1.3627 -1.4630 0.9688
7.1458 1.9434 -1.3919 0.9703
9.3244 4.4426 -1.9414 0.9588
9.4539 5.5924 -2.0646 0.9563
7.0156 8.7036 -2.1012 0.9555
6.2304 9.3280 -2.1084 0.9554
5.3872 9.8771 -2.1147 0.9552
4.4935 10.3449 -2.1200 0.9551
2.5876 11.0176 -2.1272 0.9550
1.5885 11.1808 -2.1227 0.9551
0.5396 10.4519 -1.9672 0.9583
-2.2489 10.1973 -1.9628 0.9584
-3.1461 9.9372 -1.9592 0.9585
-4.0127 9.5935 -1.9546 0.9586
-4.8408 9.1702 -1.9491 0.9587
-5.6229 8.6719 -1.9426 0.9588
-7.0223 7.4724 -1.9274 0.9591
-8.1648 6.0454 -1.9095 0.9595
-8.6286 5.2641 -1.8998 0.9597
-9.0166 4.4476 -1.8897 0.9599
-9.5573 2.7394 -1.8687 0.9603
-9.7080 1.8630 -1.8580 0.9606
-10.5669 0.1110 -1.9863 0.9579
-9.3256 -4.3589 -1.9349 0.9590
-8.3210 -5.8945 -1.9167 0.9593
-6.3831 -7.8002 -1.8945 0.9598
-5.6424 -8.3139 -1.8886 0.9599
-4.0511 -9.1409 -1.8793 0.9601
-3.2117 -9.4497 -1.8759 0.9602
-0.3257 -5.5168 -1.0387 0.9778
0.1488 -4.8664 -0.9151 0.9804
0.6862 -3.2246 -0.6197 0.9867
0.9172 -2.9734 -0.5849 0.9874
1.1291 -2.7565 -0.5599 0.9879
1.3403 -2.5851 -0.5473 0.9882
1.9874 -2.5744 -0.6113 0.9869
8.1706 -6.1438 -1.9215 0.9592
8.7286 -5.4141 -1.9306 0.9591
9.2239 -4.6349 -1.9403 0.9589
9.6519 -3.8114 -1.9505 0.9586
10.0084 -2.9490 -1.9611 0.9584
10.2894 -2.0536 -1.9721 0.9582
10.4916 -1.1316 -1.9834 0.9580
10.6479 0.7642 -2.0065 0.9575
7.7597 1.2618 -1.4777 0.9685
7.0233 2.4867 -1.4004 0.9701
9.0469 6.3088 -2.0731 0.9561
5.5301 9.7918 -2.1137 0.9553
3.7145 10.6696 -2.1235 0.9551
0.7016 10.5559 -1.9885 0.9579
-0.2425 10.4617 -1.9669 0.9583
-1.1764 10.3912 -1.9656 0.9583
-2.9998 9.9860 -1.9598 0.9585
-3.8721 9.6559 -1.9554 0.9585
-5.4973 8.7591 -1.9438 0.9588
-7.5327 6.9013 -1.9202 0.9593
-8.0811 6.1705 -1.9111 0.9595
-8.5571 5.3957 -1.9015 0.9597
-9.2809 3.7445 -1.8811 0.9601
-9.5247 2.8832 -1.8705 0.9603
-9.9206 1.1443 -1.8771 0.9602
-10.5639 0.2672 -1.9862 0.9579
-10.5072 -0.6761 -1.9790 0.9581
-10.3458 -1.6039 -1.9678 0.9583
-9.3968 -4.2240 -1.9365 0.9589
-8.4134 -5.7751 -1.9181 0.9593
-7.8295 -6.4764 -1.9099 0.9595
-7.1904 -7.1224 -1.9023 0.9596
-6.5014 -7.7092 -1.8955 0.9598
-4.9943 -8.6923 -1.8843 0.9600
-4.1872 -9.0831 -1.8799 0.9601
-3.3519 -9.4036 -1.8764 0.9602
-1.6194 -9.8276 -1.8721 0.9603
0.6452 -3.2687 -0.6262 0.9865
8.9601 -2.4967 -1.9661 0.9627
9.3555 -0.8694 -1.9861 0.9623
9.4442 -0.0294 -1.9963 0.9621
9.4576 0.8195 -2.0066 0.9619
8.3323 1.4817 -1.7889 0.9660
7.2712 2.6962 -1.6392 0.9688
8.7421 4.1652 -2.0469 0.9612
1.4061 9.8971 -2.1131 0.9600
0.5149 9.9728 -2.1109 0.9600
-1.1735 9.1529 -1.9506 0.9630
-1.9851 9.0010 -1.9484 0.9630
-5.6161 7.1649 -1.9243 0.9635
-6.2116 6.6098 -1.9173 0.9636
-6.7509 6.0039 -1.9097 0.9637
-7.2299 5.3532 -1.9016 0.9639
-8.2737 3.1967 -1.8749 0.9644
-8.4950 2.4350 -1.8680 0.9645
-9.4089 0.0988 -1.9890 0.9623
-9.1824 -1.5629 -1.9689 0.9626
-8.3189 -3.8883 -1.9411 0.9632
-7.4303 -5.2636 -1.9248 0.9635
-6.3276 -6.4559 -1.9108 0.9637
-5.7070 -6.9739 -1.9048 0.9638
-3.6250 -8.1795 -1.8912 0.9641
-2.1041 -8.6704 -1.8859 0.9642
-1.3193 -8.8172 -1.8845 0.9642
-0.2617 -4.4326 -0.9386 0.9820
0.1292 -4.2260 -0.8937 0.9829
0.6751 -3.1726 -0.6856 0.9868
0.9033 -2.9281 -0.6477 0.9876
1.3009 -2.5091 -0.5974 0.9885
1.5338 -2.4042 -0.6028 0.9884
1.8664 -2.4177 -0.6456 0.9876
6.7476 -6.0908 -1.9214 0.9635
7.7882 -4.8308 -1.9372 0.9632
8.9149 -2.6268 -1.9645 0.9627
9.4347 -0.1689 -1.9946 0.9622
9.4607 0.6790 -2.0049 0.9620
8.1943 1.3325 -1.7549 0.9666
8.0086 5.5847 -2.0638 0.9609
7.5079 6.3044 -2.0723 0.9607
6.9403 6.9771 -2.0802 0.9606
6.3104 7.5961 -2.0874 0.9604
4.1007 9.0712 -2.1043 0.9601
3.2790 9.4187 -2.1081 0.9600
2.4268 9.6873 -2.1110 0.9600
1.5522 9.8742 -2.1128 0.9600
0.6628 9.9723 -2.1126 0.9600
-0.2254 9.7246 -2.0561 0.9610
-1.0382 9.1706 -1.9509 0.9630
-3.4193 8.5268 -1.9419 0.9631
-4.1580 8.1670 -1.9372 0.9632
-4.8579 7.7403 -1.9317 0.9633
-5.5127 7.2513 -1.9254 0.9634
-6.1171 6.7051 -1.9185 0.9636
-7.5810 4.7802 -1.8945 0.9640
-7.9408 4.0640 -1.8856 0.9642
-8.2323 3.3214 -1.8764 0.9644
-8.4539 2.5591 -1.8671 0.9645
-9.3974 1.0840 -1.9996 0.9621
-9.4144 0.2381 -1.9906 0.9622
-9.2121 -1.4281 -1.9705 0.9626
-9.0029 -2.2352 -1.9608 0.9628
-8.7251 -3.0169 -1.9514 0.9630
-8.3817 -3.7677 -1.9425 0.9631
-7.9762 -4.4825 -1.9340 0.9633
-7.5123 -5.1565 -1.9260 0.9634
-6.9941 -5.7854 -1.9186 0.9636
-6.4259 -6.3651 -1.9119 0.9637
-5.8123 -6.8922 -1.9058 0.9638
-5.1580 -7.3634 -1.9004 0.9639
-4.4678 -7.7760 -1.8957 0.9640
-2.9999 -8.4159 -1.8886 0.9641
-2.2324 -8.6397 -1.8862 0.9642
-1.4497 -8.7975 -1.8847 0.9642
0.6347 -3.2154 -0.6928 0.9867
8.2753 -1.5247 -1.9776 0.9660
8.5000 0.7366 -2.0052 0.9656
8.3084 2.2595 -2.0236 0.9652
7.8410 3.7358 -2.0413 0.9649
7.5062 4.4403 -2.0497 0.9648
7.1066 5.1136 -2.0577 0.9647
4.9253 7.3740 -2.0841 0.9642
4.2560 7.8032 -2.0890 0.9641
2.8078 8.4663 -2.0963 0.9640
2.0417 8.6934 -2.0987 0.9640
1.2570 8.8474 -2.1002 0.9639
-0.3392 8.9310 -2.1005 0.9639
-1.1322 8.8308 -2.0924 0.9641
-2.4839 7.8455 -1.9341 0.9668
-3.1697 7.5779 -1.9305 0.9668
-3.8261 7.2479 -1.9262 0.9669
-4.4473 6.8588 -1.9212 0.9670
-6.8561 4.1828 -1.8875 0.9675
-7.8114 3.0181 -1.9681 0.9662
-8.2324 2.3597 -2.0127 0.9654
-8.3898 1.6101 -2.0078 0.9655
-8.4610 0.8494 -1.9985 0.9657
-8.3990 -0.6653 -1.9802 0.9660
-8.2684 -1.4073 -1.9712 0.9661
-8.0736 -2.1317 -1.9625 0.9663
-7.5014 -3.5062 -1.9461 0.9665
-7.1298 -4.1468 -1.9385 0.9667
-6.7057 -4.7502 -1.9314 0.9668
-5.7145 -5.8304 -1.9187 0.9670
-4.5600 -6.7191 -1.9085 0.9672
-3.9323 -7.0845 -1.9043 0.9673
-3.2771 -7.3944 -1.9009 0.9673
-1.9026 -7.8402 -1.8961 0.9674
-0.2426 -4.1095 -0.9675 0.9832
0.1139 -3.7230 -0.8754 0.9848
0.6643 -3.1217 -0.7501 0.9870
1.2765 -2.4620 -0.6518 0.9887
1.7505 -2.2676 -0.6733 0.9883
2.1098 -2.2786 -0.7298 0.9873
7.0242 -4.3569 -1.9426 0.9666
7.4155 -3.7263 -1.9505 0.9665
8.0293 -2.3659 -1.9673 0.9662
8.5035 0.6103 -2.0036 0.9656
8.4537 1.3747 -2.0129 0.9654
8.3347 2.1348 -2.0221 0.9653
7.5660 4.3259 -2.0483 0.9648
6.2145 6.2474 -2.0710 0.9644
4.3694 7.7366 -2.0882 0.9641
3.6674 8.1128 -2.0925 0.9641
2.9320 8.4219 -2.0959 0.9640
2.1697 8.6609 -2.0984 0.9640
1.3876 8.8271 -2.1001 0.9639
0.5928 8.9190 -2.1008 0.9639
-0.2072 8.9355 -2.1006 0.9639
-3.0583 7.6265 -1.9312 0.9668
-3.7200 7.3066 -1.9270 0.9669
-6.7982 4.2866 -1.8888 0.9675
-7.7117 3.1114 -1.9544 0.9664
-8.1980 2.4816 -2.0131 0.9654
-8.2944 -1.2859 -1.9727 0.9661
-8.1101 -2.0135 -1.9639 0.9662
-7.8635 -2.7190 -1.9555 0.9664
-6.3139 -5.2228 -1.9258 0.9669
-5.8030 -5.7481 -1.9197 0.9670
-5.2505 -6.2260 -1.9141 0.9671
-4.0380 -7.0280 -1.9050 0.9672
-2.7123 -7.6091 -1.8985 0.9674
-2.0186 -7.8124 -1.8964 0.9674
-1.3109 -7.9557 -1.8950 0.9674
-0.3097 -4.1904 -0.9875 0.9829
0.0598 -3.7896 -0.8907 0.9845
7.6421 -0.7101 -1.9872 0.9688
7.6521 1.3607 -2.0124 0.9684
7.5307 2.0480 -2.0206 0.9683
7.3468 2.7242 -2.0288 0.9681
6.0114 5.2014 -2.0582 0.9677
5.5390 5.7355 -2.0645 0.9676
3.2057 7.3802 -2.0833 0.9673
0.4162 8.0625 -2.0903 0.9672
-1.7351 7.8676 -2.0860 0.9673
-2.4226 7.6520 -2.0782 0.9674
-3.0373 7.2615 -2.0380 0.9680
-4.1085 6.3362 -1.9553 0.9693
-4.6159 5.8889 -1.9373 0.9696
-5.1155 5.4433 -1.9341 0.9696
-6.1226 4.5333 -1.9725 0.9690
-7.0193 3.4624 -2.0265 0.9682
-7.4800 2.1440 -2.0147 0.9684
-7.6779 0.7708 -1.9979 0.9686
-7.5126 -1.2787 -1.9731 0.9690
-7.3386 -1.9376 -1.9652 0.9691
-7.1081 -2.5761 -1.9576 0.9692
-6.4880 -3.7735 -1.9433 0.9695
-6.1040 -4.3240 -1.9368 0.9696
-5.2049 -5.3104 -1.9253 0.9697
-4.6970 -5.7397 -1.9203 0.9698
-4.1553 -6.1227 -1.9159 0.9699
-2.9873 -6.7405 -1.9089 0.9700
-2.3694 -6.9715 -1.9064 0.9700
-0.2400 -4.0656 -1.0545 0.9833
0.6537 -3.0720 -0.8132 0.9871
0.8761 -2.8402 -0.7696 0.9878
1.2669 -2.4435 -0.7127 0.9887
1.4367 -2.2520 -0.6916 0.9890
1.9725 -2.1303 -0.7517 0.9881
2.3369 -2.1095 -0.8151 0.9871
2.6136 -1.9653 -0.8467 0.9866
6.3906 -3.9639 -1.9471 0.9694
6.7442 -3.3889 -1.9543 0.9693
7.0472 -2.7829 -1.9618 0.9692
7.4902 -1.4949 -1.9776 0.9689
7.6255 -0.8225 -1.9858 0.9688
7.6662 1.2466 -2.0110 0.9684
7.5550 1.9351 -2.0193 0.9683
7.1460 3.2759 -2.0354 0.9680
6.4953 4.5295 -2.0503 0.9678
6.0845 5.1092 -2.0571 0.9677
5.6205 5.6502 -2.0635 0.9676
4.5481 6.5960 -2.0745 0.9674
3.9486 6.9915 -2.0790 0.9674
2.6487 7.6081 -2.0858 0.9673
1.9598 7.8231 -2.0881 0.9672
1.2533 7.9727 -2.0896 0.9672
0.5354 8.0553 -2.0903 0.9672
-0.1871 8.0703 -2.0901 0.9672
-0.9076 8.0175 -2.0891 0.9672
-2.9440 7.3415 -2.0480 0.9678
-3.4962 6.8670 -1.9952 0.9687
-4.5330 5.9626 -1.9393 0.9695
-6.0379 4.6104 -1.9670 0.9691
-6.5579 4.1351 -2.0073 0.9685
-6.9692 3.5668 -2.0270 0.9682
-7.2495 2.9249 -2.0240 0.9682
-7.4526 2.2559 -2.0161 0.9683
-7.6710 0.8848 -1.9993 0.9686
-7.5358 -1.1683 -1.9745 0.9690
-7.3713 -1.8301 -1.9665 0.9691
-6.8743 -3.0901 -1.9514 0.9693
-6.5468 -3.6792 -1.9444 0.9694
-6.1706 -4.2356 -1.9379 0.9695
-5.7489 -4.7554 -1.9317 0.9696
-5.2852 -5.2352 -1.9261 0.9697
-4.2469 -6.0628 -1.9166 0.9699
-3.6802 -6.4053 -1.9127 0.9699
-3.0874 -6.6973 -1.9094 0.9700
-2.4727 -6.9370 -1.9068 0.9700
-0.3052 -4.1298 -1.0722 0.9830
0.0587 -3.7197 -0.9632 0.9847
0.6144 -3.1129 -0.8215 0.9870
7.0481 -0.0219 -1.9953 0.9711
6.7089 2.4877 -2.0256 0.9707
6.4824 3.0886 -2.0328 0.9706
6.2013 3.6683 -2.0397 0.9705
5.8672 4.2217 -2.0463 0.9704
5.4826 4.7438 -2.0524 0.9703
5.0503 5.2295 -2.0581 0.9702
3.5045 6.4252 -2.0719 0.9700
1.6798 7.1523 -2.0799 0.9699
0.3791 7.3431 -2.0816 0.9699
-0.9345 7.2887 -2.0803 0.9699
-2.8255 6.7552 -2.0729 0.9700
-3.4091 6.4581 -2.0673 0.9701
-3.9610 6.1088 -2.0611 0.9702
-5.7929 4.2892 -2.0405 0.9705
-6.1359 3.7433 -2.0348 0.9706
-6.6569 2.5720 -2.0203 0.9708
-6.9560 1.3349 -2.0051 0.9710
-7.0205 0.7048 -1.9974 0.9711
-6.7197 -1.7742 -1.9675 0.9715
-6.5108 -2.3596 -1.9605 0.9716
-6.2522 -2.9224 -1.9538 0.9717
-5.9464 -3.4585 -1.9474 0.9718
-5.5961 -3.9642 -1.9414 0.9719
-5.2042 -4.4361 -1.9359 0.9720
-4.7741 -4.8709 -1.9308 0.9720
-4.3091 -5.2658 -1.9262 0.9721
-3.2892 -5.9260 -1.9187 0.9722
-1.5926 -6.5627 -1.9118 0.9723
-0.2385 -4.0399 -1.1456 0.9833
0.1098 -3.5914 -1.0172 0.9852
0.3961 -3.2818 -0.9358 0.9864
0.8630 -2.7975 -0.8288 0.9879
1.0626 -2.5941 -0.7936 0.9884
1.2587 -2.4276 -0.7741 0.9887
1.6085 -2.0836 -0.7452 0.9891
1.8617 -2.0106 -0.7757 0.9887
2.1550 -1.9453 -0.8219 0.9880
5.8562 -3.6324 -1.9509 0.9718
6.8549 -1.3681 -1.9788 0.9714
6.9762 -0.7525 -1.9864 0.9713
6.5236 2.9907 -2.0316 0.9706
5.9259 4.1324 -2.0452 0.9704
5.5494 4.6599 -2.0514 0.9703
5.1249 5.1520 -2.0572 0.9702
3.5980 6.3708 -2.0713 0.9700
3.0189 6.6781 -2.0747 0.9700
1.7851 7.1257 -2.0796 0.9699
1.1415 7.2615 -2.0809 0.9699
-0.1704 7.3503 -2.0814 0.9699
-1.4753 7.1937 -2.0789 0.9699
-2.7261 6.7981 -2.0735 0.9700
-4.3957 5.7821 -2.0562 0.9703
-5.7307 4.3758 -2.0412 0.9705
-6.0833 3.8358 -2.0359 0.9705
-6.3797 3.2651 -2.0288 0.9706
-6.6221 2.6718 -2.0215 0.9708
-6.8092 2.0612 -2.0140 0.9709
-7.0138 0.8090 -1.9987 0.9711
-7.0309 0.1779 -1.9910 0.9712
-6.9918 -0.4499 -1.9834 0.9713
-6.8975 -1.0693 -1.9760 0.9714
-6.5488 -2.2644 -1.9616 0.9716
-5.6569 -3.8829 -1.9424 0.9719
-4.8476 -4.8018 -1.9316 0.9720
-3.8969 -5.5631 -1.9228 0.9722
-3.3775 -5.8783 -1.9192 0.9722
-2.8338 -6.1472 -1.9162 0.9723
0.3518 -3.3275 -0.9472 0.9862
0.6049 -3.0644 -0.8842 0.9871
6.3341 -1.1671 -1.9810 0.9734
6.4862 -0.0202 -1.9950 0.9732
6.4312 1.1436 -2.0091 0.9730
6.1666 2.2866 -2.0229 0.9729
5.9567 2.8381 -2.0295 0.9728
5.6968 3.3699 -2.0358 0.9727
5.3885 3.8773 -2.0418 0.9726
5.0340 4.3556 -2.0475 0.9725
4.1979 5.2079 -2.0574 0.9724
3.2152 5.8949 -2.0653 0.9723
2.6792 6.1680 -2.0684 0.9722
2.1193 6.3904 -2.0708 0.9722
1.5407 6.5599 -2.0726 0.9722
0.9484 6.6750 -2.0737 0.9722
-0.8571 6.6849 -2.0730 0.9722
-2.0305 6.4134 -2.0691 0.9722
-2.5922 6.1975 -2.0662 0.9723
-4.5621 4.8545 -2.0490 0.9725
-4.9645 4.4151 -2.0435 0.9726
-5.6378 3.4395 -2.0313 0.9727
-6.2854 1.8016 -2.0111 0.9730
-6.4603 0.6485 -1.9970 0.9732
-6.4694 0.0680 -1.9900 0.9733
-6.4269 -0.5091 -1.9830 0.9734
-6.3337 -1.0780 -1.9761 0.9735
-5.1611 -3.6560 -1.9454 0.9739
-4.8007 -4.0921 -1.9402 0.9739
-4.4049 -4.4942 -1.9356 0.9740
-3.9766 -4.8594 -1.9313 0.9741
-2.0082 -5.9088 -1.9195 0.9742
-1.4705 -6.0597 -1.9179 0.9742
-0.6698 -4.4763 -1.3921 0.9812
-0.2368 -4.0103 -1.2356 0.9833
0.1080 -3.5309 -1.0865 0.9853
0.3896 -3.2278 -1.0000 0.9865
0.6335 -2.9772 -0.9362 0.9873
1.4103 -2.2106 -0.8065 0.9891
2.0079 -1.8125 -0.8320 0.9887
2.2261 -1.6739 -0.8567 0.9884
5.6944 -2.8614 -1.9602 0.9737
6.1534 -1.8131 -1.9731 0.9735
6.3126 -1.2599 -1.9799 0.9734
6.4814 -0.1160 -1.9939 0.9732
6.1963 2.1939 -2.0218 0.9729
5.7431 3.2837 -2.0348 0.9727
5.4426 3.7954 -2.0409 0.9726
5.0956 4.2788 -2.0466 0.9725
3.8037 5.5165 -2.0610 0.9723
2.7694 6.1263 -2.0679 0.9723
2.2132 6.3572 -2.0705 0.9722
1.6373 6.5356 -2.0723 0.9722
0.4472 6.7285 -2.0741 0.9722
-0.1563 6.7412 -2.0740 0.9722
-1.9358 6.4440 -2.0695 0.9722
-2.5009 6.2367 -2.0668 0.9723
-4.0432 5.3184 -2.0549 0.9724
-4.4917 4.9235 -2.0499 0.9725
-4.9009 4.4901 -2.0444 0.9726
-5.2677 4.0223 -2.0386 0.9726
-5.8632 3.0007 -2.0259 0.9728
-6.0879 2.4562 -2.0192 0.9729
-6.4537 0.7444 -1.9982 0.9732
-6.4375 -0.4142 -1.9841 0.9734
-6.0348 -2.0867 -1.9640 0.9736
-5.2169 -3.5810 -1.9463 0.9739
-4.8628 -4.0224 -1.9411 0.9739
-4.4726 -4.4302 -1.9363 0.9740
-4.0494 -4.8017 -1.9320 0.9741
-3.5966 -5.1345 -1.9282 0.9741
-3.1177 -5.4262 -1.9248 0.9742
-2.0957 -5.8794 -1.9198 0.9742
-1.5602 -6.0380 -1.9182 0.9742
-0.3001 -4.0614 -1.2526 0.9831
0.0567 -3.5892 -1.1041 0.9851
0.5955 -3.0168 -0.9458 0.9872
5.9559 -0.5535 -1.9883 0.9751
6.0012 -0.0187 -1.9948 0.9750
5.9984 0.5198 -2.0014 0.9749
5.9471 1.0576 -2.0079 0.9749
5.2627 3.1131 -2.0325 0.9746
4.6484 4.0220 -2.0432 0.9744
3.8749 4.8072 -2.0524 0.9743
2.9670 5.4397 -2.0597 0.9742
1.9553 5.8957 -2.0647 0.9742
1.4213 6.0517 -2.0664 0.9741
0.3207 6.2124 -2.0678 0.9741
-0.2361 6.2155 -2.0676 0.9741
-1.3381 6.0672 -2.0652 0.9742
-1.8734 5.9173 -2.0632 0.9742
-2.3920 5.7187 -2.0605 0.9742
-3.3611 5.1836 -2.0536 0.9743
-3.8033 4.8522 -2.0493 0.9743
-4.2124 4.4823 -2.0446 0.9744
-4.5849 4.0775 -2.0395 0.9745
-5.2091 3.1779 -2.0283 0.9746
-5.8118 1.6659 -2.0097 0.9748
-5.8642 -0.9981 -1.9773 0.9752
-5.5581 -2.0143 -1.9651 0.9754
-5.0812 -2.9553 -1.9539 0.9755
-4.4508 -3.7939 -1.9440 0.9756
-4.0845 -4.1673 -1.9397 0.9757
-2.3485 -5.2993 -1.9268 0.9759
-1.8633 -5.4824 -1.9248 0.9759
-1.3645 -5.6228 -1.9233 0.9759
-0.2341 -3.9653 -1.3204 0.9834
0.1082 -3.5370 -1.1763 0.9852
0.3881 -3.2157 -1.0767 0.9864
1.5528 -2.0115 -0.8447 0.9893
1.7094 -1.8461 -0.8363 0.9895
2.0931 -1.5739 -0.8705 0.9890
5.2754 -2.6509 -1.9625 0.9754
5.6979 -1.6789 -1.9745 0.9753
5.8438 -1.1663 -1.9808 0.9752
6.0022 0.4308 -2.0003 0.9750
5.7271 2.0278 -2.0195 0.9747
5.3057 3.0336 -2.0316 0.9746
5.0269 3.5055 -2.0372 0.9745
4.7054 3.9512 -2.0424 0.9744
3.0463 5.3939 -2.0591 0.9742
0.9657 6.1437 -2.0673 0.9741
0.4126 6.2069 -2.0678 0.9741
-0.1442 6.2186 -2.0677 0.9741
-1.2484 6.0872 -2.0655 0.9741
-2.8088 5.5170 -2.0579 0.9742
-3.7325 4.9096 -2.0501 0.9743
-4.1472 4.5459 -2.0454 0.9744
-4.8658 3.7154 -2.0350 0.9745
-5.1640 3.2562 -2.0293 0.9746
-5.4185 2.7731 -2.0233 0.9747
-5.7896 1.7526 -2.0107 0.9748
-5.9041 1.2238 -2.0043 0.9749
-5.9704 0.6887 -1.9977 0.9750
-5.8814 -0.9118 -1.9784 0.9752
-5.7581 -1.4296 -1.9721 0.9753
-5.5900 -1.9329 -1.9661 0.9754
-5.3789 -2.4179 -1.9603 0.9754
-4.5082 -3.7291 -1.9448 0.9756
-4.1472 -4.1080 -1.9404 0.9757
-3.7554 -4.4532 -1.9364 0.9757
-3.3360 -4.7624 -1.9328 0.9758
-2.4271 -5.2650 -1.9271 0.9759
-1.4476 -5.6026 -1.9235 0.9759
-0.9403 -5.7066 -1.9225 0.9759
-0.3014 -4.0792 -1.3596 0.9829
0.0568 -3.5956 -1.1953 0.9850
0.3452 -3.2655 -1.0915 0.9863
5.3248 -1.4837 -1.9767 0.9768
5.4523 -1.0046 -1.9826 0.9767
5.5249 0.9825 -2.0068 0.9764
5.1100 2.4347 -2.0242 0.9762
3.5941 4.4589 -2.0481 0.9760
3.1866 4.7708 -2.0516 0.9759
1.8128 5.4662 -2.0594 0.9758
0.8110 5.7085 -2.0619 0.9758
-0.2189 5.7621 -2.0621 0.9758
-1.7370 5.4865 -2.0580 0.9758
-3.9082 4.1588 -2.0409 0.9760
-4.2546 3.7838 -2.0361 0.9761
-4.8358 2.9502 -2.0257 0.9762
-5.0663 2.4990 -2.0202 0.9763
-5.2544 2.0301 -2.0144 0.9764
-5.3989 1.5475 -2.0084 0.9764
-5.5653 0.0585 -1.9903 0.9766
-5.5314 -0.4381 -1.9843 0.9767
-5.4538 -0.9283 -1.9784 0.9768
-4.7295 -2.7507 -1.9566 0.9770
-3.8038 -3.8809 -1.9433 0.9772
-3.0407 -4.4804 -1.9364 0.9773
-0.2341 -3.9641 -1.4200 0.9833
0.1084 -3.5432 -1.2677 0.9851
0.3888 -3.2209 -1.1602 0.9863
1.0412 -2.5419 -0.9823 0.9884
4.6561 -2.8880 -1.9593 0.9770
4.9088 -2.4667 -1.9646 0.9769
5.1240 -2.0234 -1.9701 0.9769
5.2997 -1.5616 -1.9758 0.9768
5.4341 -1.0846 -1.9816 0.9767
5.5741 -0.0998 -1.9936 0.9766
5.5776 0.4003 -1.9997 0.9765
5.5361 0.9002 -2.0058 0.9765
5.4496 1.3959 -2.0117 0.9764
5.1431 2.3578 -2.0233 0.9763
4.6653 3.2533 -2.0339 0.9761
4.0296 4.0509 -2.0433 0.9760
2.3694 5.2414 -2.0570 0.9759
1.8932 5.4380 -2.0591 0.9758
1.4004 5.5899 -2.0607 0.9758
0.3825 5.7541 -2.0623 0.9758
-0.1337 5.7650 -2.0621 0.9758
-1.1574 5.6436 -2.0602 0.9758
-1.6560 5.5126 -2.0584 0.9758
-2.1399 5.3362 -2.0560 0.9759
-2.6048 5.1163 -2.0531 0.9759
-4.1999 3.8478 -2.0369 0.9761
-4.5160 3.4483 -2.0319 0.9762
-4.7938 3.0227 -2.0266 0.9762
-5.2263 2.1086 -2.0153 0.9763
-5.4857 1.1371 -2.0034 0.9765
-5.5485 0.6400 -1.9974 0.9766
-5.5400 -0.3565 -1.9853 0.9767
-5.2009 -1.7983 -1.9679 0.9769
-5.0054 -2.2500 -1.9625 0.9770
-4.7717 -2.6816 -1.9574 0.9770
-4.5016 -3.0900 -1.9526 0.9771
-4.1975 -3.4721 -1.9481 0.9771
-3.1074 -4.4361 -1.9369 0.9773
-1.8117 -5.0827 -1.9296 0.9773
-1.3489 -5.2204 -1.9282 0.9774
-0.8762 -5.3175 -1.9272 0.9774
-0.2973 -4.0229 -1.4425 0.9830
4.9715 -1.3853 -1.9777 0.9781
5.0895 -0.9378 -1.9832 0.9781
5.1675 -0.4802 -1.9888 0.9780
5.2045 -0.0162 -1.9945 0.9780
5.1999 0.4506 -2.0001 0.9779
4.7634 2.2695 -2.0220 0.9777
4.5527 2.6931 -2.0271 0.9776
4.3037 3.0968 -2.0319 0.9775
4.0184 3.4769 -2.0363 0.9775
3.3477 4.1531 -2.0442 0.9774
2.9677 4.4431 -2.0476 0.9774
2.5621 4.6974 -2.0505 0.9773
1.2268 5.2235 -2.0562 0.9773
-0.2038 5.3645 -2.0573 0.9773
-0.6824 5.3229 -2.0565 0.9773
-1.1550 5.2373 -2.0553 0.9773
-3.2865 4.1929 -2.0416 0.9774
-3.6411 3.8745 -2.0375 0.9775
-4.2540 3.1498 -2.0284 0.9776
-4.5076 2.7499 -2.0235 0.9776
-4.7233 2.3298 -2.0183 0.9777
-4.8996 1.8930 -2.0129 0.9778
-2.2906 0.0241 -0.8778 0.9902
-5.0917 -0.8666 -1.9793 0.9781
-4.9801 -1.3149 -1.9739 0.9782
-4.8298 -1.7504 -1.9687 0.9782
-4.4187 -2.5700 -1.9589 0.9783
-4.1617 -2.9481 -1.9544 0.9784
-2.8428 -4.1888 -1.9400 0.9785
-2.4535 -4.4203 -1.9374 0.9786
-2.0461 -4.6167 -1.9352 0.9786
-1.1890 -4.8997 -1.9322 0.9786
0.1086 -3.5521 -1.3619 0.9849
0.3894 -3.2262 -1.2453 0.9862
0.6274 -2.9483 -1.1552 0.9872
1.2257 -2.3641 -1.0205 0.9887
1.3711 -2.1491 -0.9769 0.9891
1.6742 -1.8081 -0.9443 0.9895
1.9425 -1.4606 -0.9313 0.9896
4.5850 -2.3039 -1.9664 0.9783
4.7851 -1.8896 -1.9715 0.9782
4.9482 -1.4580 -1.9769 0.9781
5.0728 -1.0124 -1.9823 0.9781
5.2035 0.3735 -1.9992 0.9779
5.1638 0.8397 -2.0049 0.9778
4.9587 1.7557 -2.0159 0.9777
4.7944 2.1979 -2.0212 0.9777
4.5902 2.6245 -2.0263 0.9776
3.7539 3.7737 -2.0398 0.9775
3.4077 4.1020 -2.0436 0.9774
3.0323 4.3976 -2.0470 0.9774
2.6307 4.6579 -2.0500 0.9773
2.2063 4.8805 -2.0525 0.9773
1.7627 5.0632 -2.0545 0.9773
1.3038 5.2043 -2.0560 0.9773
0.8335 5.3026 -2.0570 0.9773
0.3561 5.3570 -2.0574 0.9773
-0.6037 5.3328 -2.0567 0.9773
-1.0776 5.2544 -2.0555 0.9773
-1.5419 5.1328 -2.0538 0.9773
-3.9133 3.5853 -2.0339 0.9775
-4.4683 2.8175 -2.0243 0.9776
-4.6903 2.4005 -2.0191 0.9777
-4.8732 1.9662 -2.0138 0.9777
-5.0158 1.5183 -2.0083 0.9778
-2.3017 0.2655 -0.8879 0.9901
-2.2955 0.0581 -0.8800 0.9902
-5.1062 -0.7916 -1.9802 0.9781
-5.0013 -1.2417 -1.9748 0.9782
-4.8573 -1.6795 -1.9695 0.9782
-4.6756 -2.1017 -1.9645 0.9783
-4.4580 -2.5053 -1.9597 0.9783
-4.2064 -2.8873 -1.9552 0.9784
-3.9228 -3.2449 -1.9510 0.9784
-2.1145 -4.5868 -1.9355 0.9786
0.0571 -3.6183 -1.3868 0.9846
4.6571 -1.2977 -1.9787 0.9793
4.7669 -0.8783 -1.9838 0.9793
4.8391 -0.4497 -1.9890 0.9792
4.8676 0.4218 -1.9996 0.9791
4.4559 2.1230 -2.0201 0.9789
3.7572 3.2509 -2.0335 0.9788
3.4580 3.5807 -2.0373 0.9787
2.7738 4.1529 -2.0440 0.9786
2.3945 4.3901 -2.0467 0.9786
1.9945 4.5917 -2.0489 0.9786
1.5772 4.7559 -2.0507 0.9786
0.7055 4.9659 -2.0528 0.9786
-1.0793 4.8940 -2.0511 0.9786
-1.5114 4.7740 -2.0495 0.9786
-2.7141 4.1858 -2.0417 0.9787
-3.0724 3.9198 -2.0383 0.9787
-3.7072 3.2970 -2.0305 0.9788
-3.9786 2.9458 -2.0261 0.9788
-4.2164 2.5723 -2.0214 0.9789
-4.4189 2.1797 -2.0166 0.9789
-4.5846 1.7713 -2.0115 0.9790
-4.7125 1.3508 -2.0064 0.9790
-2.0694 0.3971 -0.8624 0.9909
-2.0132 -0.1595 -0.8265 0.9913
-2.0470 -0.3484 -0.8498 0.9911
-4.1418 -2.4089 -1.9610 0.9795
-3.9014 -2.7637 -1.9568 0.9795
-3.6314 -3.0954 -1.9529 0.9796
-3.0114 -3.6799 -1.9461 0.9797
-1.5230 -4.4812 -1.9371 0.9798
0.1090 -3.5635 -1.4591 0.9847
0.3901 -3.2316 -1.3322 0.9860
1.5059 -1.9508 -1.0086 0.9894
1.6586 -1.7913 -0.9991 0.9895
1.8025 -1.6271 -0.9938 0.9896
1.9278 -1.4496 -0.9872 0.9896
2.5922 -1.6078 -1.2484 0.9869
4.4834 -1.7704 -1.9728 0.9794
4.6355 -1.3658 -1.9778 0.9793
4.6395 1.6427 -2.0144 0.9790
4.4850 2.0561 -2.0193 0.9789
4.2932 2.4547 -2.0240 0.9789
4.0656 2.8351 -2.0286 0.9788
1.6472 4.7314 -2.0504 0.9786
1.2183 4.8631 -2.0518 0.9786
0.3327 5.0055 -2.0531 0.9786
-0.5641 4.9830 -2.0524 0.9786
-1.0069 4.9100 -2.0514 0.9786
-1.4409 4.7965 -2.0498 0.9786
-1.8622 4.6438 -2.0477 0.9786
-2.2672 4.4532 -2.0452 0.9786
-3.0150 3.9659 -2.0389 0.9787
-3.3515 3.6737 -2.0352 0.9787
-3.6593 3.3526 -2.0312 0.9788
-4.3879 2.2457 -2.0174 0.9789
-4.5598 1.8397 -2.0124 0.9790
-4.6940 1.4209 -2.0072 0.9790
-2.0193 0.2329 -0.8319 0.9913
-1.9966 0.0505 -0.8174 0.9914
-2.0092 -0.1293 -0.8240 0.9913
-4.5513 -1.5737 -1.9709 0.9794
-4.1785 -2.3483 -1.9617 0.9795
-3.9432 -2.7067 -1.9575 0.9795
-3.0662 -3.6359 -1.9466 0.9797
-2.7247 -3.8897 -1.9437 0.9797
-1.9834 -4.3025 -1.9390 0.9797
-1.1834 -4.5800 -1.9360 0.9798
-0.7688 -4.6654 -1.9352 0.9798
-0.2966 -4.0137 -1.6472 0.9828
0.5911 -2.9949 -1.2494 0.9869
4.3753 -1.2192 -1.9795 0.9804
4.4777 -0.8250 -1.9843 0.9803
4.5275 0.8051 -2.0041 0.9801
4.4482 1.2097 -2.0090 0.9801
4.1810 1.9920 -2.0184 0.9800
3.9948 2.3631 -2.0228 0.9800
3.7752 2.7165 -2.0270 0.9799
3.2429 3.3580 -2.0345 0.9798
2.2449 4.1159 -2.0433 0.9798
1.4785 4.4582 -2.0470 0.9797
0.6613 4.6549 -2.0490 0.9797
0.2424 4.6961 -2.0493 0.9797
-0.1785 4.6985 -2.0492 0.9797
-1.0118 4.5877 -2.0474 0.9797
-1.8097 4.3266 -2.0439 0.9797
-3.1929 3.3975 -2.0320 0.9799
-3.9561 2.4135 -2.0196 0.9800
-4.1467 2.0454 -2.0151 0.9800
-1.5431 0.5962 -0.7209 0.9928
-1.4936 0.4281 -0.6772 0.9932
-1.4300 0.0150 -0.6232 0.9938
-1.4638 -0.1159 -0.6400 0.9936
-1.4719 -0.2505 -0.6507 0.9935
-1.4924 -0.3940 -0.6727 0.9933
-1.4868 -0.5389 -0.6892 0.9931
-3.4143 -2.9104 -1.9553 0.9806
-3.1350 -3.1985 -1.9519 0.9806
-2.5077 -3.6950 -1.9462 0.9807
-2.1646 -3.8997 -1.9438 0.9807
-1.8054 -4.0736 -1.9419 0.9807
-1.4327 -4.2154 -1.9403 0.9808
-1.0493 -4.3241 -1.9392 0.9808
-0.2464 -4.1728 -1.8218 0.9819
0.1093 -3.5751 -1.5588 0.9845
0.6279 -2.9508 -1.3148 0.9869
1.2091 -2.3320 -1.1448 0.9886
1.6430 -1.7744 -1.0539 0.9895
1.7894 -1.6152 -1.0506 0.9895
2.3094 -1.4324 -1.1844 0.9882
4.3551 -1.2832 -1.9787 0.9804
4.4632 -0.8908 -1.9835 0.9803
4.5732 -0.0819 -1.9934 0.9802
4.5371 0.7378 -2.0033 0.9801
4.4638 1.1433 -2.0082 0.9801
4.3540 1.5416 -2.0130 0.9800
4.0279 2.3030 -2.0221 0.9800
3.8137 2.6595 -2.0263 0.9799
3.2913 3.3087 -2.0339 0.9798
2.3051 4.0815 -2.0429 0.9798
1.9329 4.2758 -2.0450 0.9797
1.5441 4.4354 -2.0468 0.9797
1.1420 4.5586 -2.0481 0.9797
-0.1090 4.7008 -2.0492 0.9797
-2.1257 4.1752 -2.0419 0.9798
-3.1433 3.4454 -2.0326 0.9799
-3.9214 2.4726 -2.0204 0.9800
-4.1175 2.1073 -2.0158 0.9800
-1.4939 0.4522 -0.6802 0.9932
-1.4719 0.1698 -0.6457 0.9936
-1.4585 -0.0939 -0.6370 0.9936
-1.4905 -0.5154 -0.6873 0.9931
-4.1182 -1.8512 -1.9678 0.9805
-3.4580 -2.8604 -1.9558 0.9806
-3.1828 -3.1527 -1.9524 0.9806
-2.5626 -3.6583 -1.9466 0.9807
-2.2224 -3.8680 -1.9442 0.9807
-1.8657 -4.0471 -1.9422 0.9807
-1.4950 -4.1942 -1.9406 0.9808
-0.7232 -4.3890 -1.9386 0.9808
-0.3023 -4.0909 -1.7877 0.9823
0.0575 -3.6417 -1.5873 0.9842
0.5914 -2.9962 -1.3310 0.9868
4.3079 -0.0134 -1.9941 0.9812
4.3020 0.3728 -1.9988 0.9811
4.1860 1.1384 -2.0080 0.9811
4.0765 1.5116 -2.0125 0.9810
3.3141 2.8675 -2.0286 0.9809
3.0495 3.1577 -2.0320 0.9808
2.4452 3.6609 -2.0378 0.9808
1.7577 4.0466 -2.0422 0.9807
1.3898 4.1908 -2.0438 0.9807
0.6216 4.3754 -2.0456 0.9807
-0.5619 4.3824 -2.0452 0.9807
-0.9511 4.3124 -2.0441 0.9807
-1.3320 4.2071 -2.0427 0.9807
-1.7013 4.0674 -2.0408 0.9808
-2.3929 3.6904 -2.0359 0.9808
-2.7093 3.4565 -2.0329 0.9808
-3.5109 2.5995 -2.0221 0.9809
-3.7217 2.2705 -2.0180 0.9810
-1.2567 0.4856 -0.6236 0.9941
-1.2704 0.2438 -0.5988 0.9943
-1.2608 0.0132 -0.5836 0.9945
-1.2724 -0.1008 -0.5908 0.9944
-1.2706 -0.3355 -0.6083 0.9942
-1.2619 -0.4573 -0.6213 0.9941
-1.2648 -0.5912 -0.6462 0.9939
-3.6688 -2.1338 -1.9646 0.9815
-3.4567 -2.4487 -1.9608 0.9815
-3.2182 -2.7432 -1.9574 0.9815
-2.3642 -3.4836 -1.9488 0.9816
-2.0409 -3.6769 -1.9466 0.9816
-1.3510 -3.9749 -1.9433 0.9817
-0.9895 -4.0776 -1.9422 0.9817
-0.6207 -4.1483 -1.9415 0.9817
-0.2472 -4.1865 -1.9413 0.9817
0.3914 -3.2429 -1.5120 0.9857
1.3313 -2.0868 -1.1458 0.9891
1.7762 -1.6033 -1.1076 0.9895
3.8044 -1.9117 -1.9708 0.9814
3.9686 -1.5672 -1.9751 0.9814
4.1020 -1.2087 -1.9795 0.9813
4.2033 -0.8389 -1.9840 0.9813
4.2714 -0.4607 -1.9886 0.9812
4.3056 -0.0771 -1.9933 0.9812
4.0969 1.4506 -2.0118 0.9810
3.3552 2.8174 -2.0280 0.9809
2.4986 3.6236 -2.0374 0.9808
2.1671 3.8371 -2.0398 0.9808
1.8171 4.0196 -2.0419 0.9807
1.0735 4.2850 -2.0447 0.9807
-0.1024 4.4185 -2.0458 0.9807
-0.4970 4.3905 -2.0453 0.9807
-1.2698 4.2269 -2.0429 0.9807
-1.6412 4.0928 -2.0411 0.9808
-2.6586 3.4971 -2.0334 0.9808
-2.9559 3.2401 -2.0302 0.9809
-3.8741 1.9827 -2.0144 0.9810
-1.2524 0.5053 -0.6251 0.9941
-1.2743 -0.1976 -0.5969 0.9943
-1.2648 -0.4373 -0.6195 0.9941
-1.2550 -0.5641 -0.6369 0.9940
-3.7011 -2.0800 -1.9652 0.9815
-3.4936 -2.3980 -1.9614 0.9815
-3.2593 -2.6960 -1.9579 0.9815
-3.0002 -2.9718 -1.9547 0.9816
-2.7183 -3.2234 -1.9518 0.9816
-2.4160 -3.4490 -1.9492 0.9816
-1.7592 -3.8160 -1.9450 0.9816
-1.0498 -4.0628 -1.9424 0.9817
-0.6820 -4.1388 -1.9416 0.9817
0.5917 -2.9975 -1.4143 0.9866
3.8901 -1.0840 -1.9809 0.9822
3.9801 -0.7333 -1.9852 0.9821
4.0650 -0.0126 -1.9940 0.9821
3.9484 1.0738 -2.0071 0.9819
3.8446 1.4256 -2.0113 0.9819
3.7092 1.7673 -2.0154 0.9819
3.5432 2.0960 -2.0193 0.9818
3.1242 2.7032 -2.0265 0.9818
2.8745 2.9764 -2.0297 0.9817
2.3045 3.4502 -2.0352 0.9817
0.9517 4.0524 -2.0419 0.9816
0.2147 4.1590 -2.0428 0.9816
-0.1581 4.1613 -2.0427 0.9816
-1.9375 3.6704 -2.0359 0.9817
-2.5537 3.2580 -2.0306 0.9817
-3.0833 2.7421 -2.0240 0.9818
-1.0863 0.5358 -0.5942 0.9946
-1.1168 0.4315 -0.5873 0.9947
-1.1319 0.3244 -0.5776 0.9948
-1.1392 0.2186 -0.5690 0.9948
-1.1443 0.1149 -0.5641 0.9949
-1.1329 -0.2991 -0.5747 0.9948
-1.0933 -0.5110 -0.5920 0.9946
-2.7916 -2.8482 -1.9563 0.9824
-2.5222 -3.0822 -1.9536 0.9824
-1.9284 -3.4742 -1.9491 0.9825
-1.6085 -3.6295 -1.9474 0.9825
-1.2766 -3.7562 -1.9460 0.9825
-0.9351 -3.8533 -1.9450 0.9825
-0.5866 -3.9201 -1.9443 0.9825
0.1212 -3.9616 -1.9442 0.9825
0.3919 -3.2472 -1.6044 0.9855
0.6285 -2.9535 -1.4812 0.9866
1.1922 -2.2995 -1.2705 0.9885
1.3169 -2.0643 -1.2011 0.9892
1.6118 -1.7407 -1.1637 0.9895
2.1733 -1.3480 -1.2545 0.9887
3.7468 -1.4796 -1.9760 0.9822
3.9674 -0.7918 -1.9845 0.9821
4.0311 -0.4348 -1.9888 0.9821
4.0621 0.2916 -1.9977 0.9820
4.0286 0.6551 -2.0021 0.9820
3.8639 1.3681 -2.0107 0.9819
3.7337 1.7117 -2.0148 0.9819
3.3819 2.3584 -2.0224 0.9818
2.6473 3.1867 -2.0322 0.9817
2.3548 3.4151 -2.0348 0.9817
2.0422 3.6160 -2.0371 0.9817
0.6466 4.1133 -2.0425 0.9816
-0.4683 4.1369 -2.0422 0.9816
-0.8360 4.0767 -2.0413 0.9816
-1.1965 3.9830 -2.0400 0.9816
-2.2041 3.5118 -2.0338 0.9817
-2.5059 3.2962 -2.0310 0.9817
-3.0433 2.7882 -2.0246 0.9818
-3.2746 2.5004 -2.0210 0.9818
-3.4785 2.1934 -2.0172 0.9818
-1.1307 0.3423 -0.5795 0.9948
-1.1442 0.1320 -0.5650 0.9949
-1.1382 0.0288 -0.5585 0.9949
-1.1428 -0.0735 -0.5617 0.9949
-1.1250 -0.3890 -0.5839 0.9947
-3.0786 -2.5466 -1.9598 0.9824
-2.8341 -2.8073 -1.9568 0.9824
-2.5681 -3.0452 -1.9540 0.9824
-1.9799 -3.4459 -1.9494 0.9824
-1.6623 -3.6058 -1.9476 0.9825
-1.3322 -3.7373 -1.9462 0.9825
-0.2921 -3.9525 -1.9441 0.9825
0.0626 -3.9629 -1.9441 0.9825
0.5919 -2.9988 -1.4994 0.9865
3.6794 -1.0253 -1.9815 0.9829
3.8189 -0.3549 -1.9897 0.9829
3.7999 0.6757 -2.0022 0.9828
3.3477 1.9803 -2.0178 0.9826
3.1627 2.2757 -2.0213 0.9826
2.9513 2.5536 -2.0246 0.9826
2.7151 2.8114 -2.0276 0.9825
2.1764 3.2584 -2.0328 0.9825
1.8782 3.4436 -2.0349 0.9825
1.5641 3.6009 -2.0367 0.9825
0.2027 3.9271 -2.0400 0.9824
-0.8462 3.8370 -2.0384 0.9824
-1.1852 3.7436 -2.0371 0.9825
-1.5140 3.6197 -2.0354 0.9825
-1.8298 3.4663 -2.0334 0.9825
-2.1300 3.2850 -2.0311 0.9825
-2.4121 3.0773 -2.0284 0.9825
-2.6738 2.8451 -2.0255 0.9826
-0.9652 0.5889 -0.5866 0.9949
-0.9723 0.4796 -0.5625 0.9951
-1.0185 0.2919 -0.5496 0.9952
-1.0304 0.1977 -0.5443 0.9953
-1.0310 0.0108 -0.5349 0.9954
-1.0374 -0.0822 -0.5399 0.9953
-1.0332 -0.1759 -0.5437 0.9953
-1.0082 -0.3654 -0.5563 0.9952
-0.9810 -0.4585 -0.5617 0.9951
-3.0895 -2.1886 -1.9642 0.9831
-2.8769 -2.4522 -1.9611 0.9831
-2.6422 -2.6957 -1.9582 0.9831
-2.1144 -3.1156 -1.9534 0.9832
-1.8255 -3.2889 -1.9514 0.9832
-0.5553 -3.7115 -1.9469 0.9832
0.1147 -3.7507 -1.9467 0.9832
0.6288 -2.9548 -1.5672 0.9865
1.1834 -2.2825 -1.3338 0.9885
1.4767 -1.9128 -1.2536 0.9892
1.7495 -1.5792 -1.2227 0.9894
1.9051 -1.4325 -1.2365 0.9893
2.1650 -1.3429 -1.3217 0.9886
3.3984 -1.7077 -1.9731 0.9830
3.8415 -0.0688 -1.9932 0.9828
3.8403 0.2756 -1.9974 0.9828
3.6516 1.2929 -2.0096 0.9827
3.1951 2.2281 -2.0208 0.9826
2.5004 3.0098 -2.0299 0.9825
1.9286 3.4149 -2.0346 0.9825
1.6170 3.5769 -2.0364 0.9825
1.2915 3.7098 -2.0379 0.9825
0.2608 3.9236 -2.0400 0.9824
-0.4422 3.9063 -2.0394 0.9824
-0.7895 3.8494 -2.0386 0.9824
-1.4605 3.6422 -2.0357 0.9825
-2.3669 3.1134 -2.0289 0.9825
-2.6321 2.8851 -2.0260 0.9826
-3.0938 2.3624 -2.0194 0.9826
-0.9712 0.6124 -0.5956 0.9948
-0.9991 0.4031 -0.5589 0.9952
-1.0331 0.0261 -0.5361 0.9954
-1.0112 -0.3496 -0.5550 0.9952
-0.9496 -0.5337 -0.5651 0.9951
-3.1224 -2.1432 -1.9647 0.9831
-2.9135 -2.4100 -1.9616 0.9831
-2.6824 -2.6570 -1.9587 0.9831
-2.1607 -3.0845 -1.9537 0.9832
-1.5736 -3.4136 -1.9500 0.9832
0.3491 -3.3023 -1.7227 0.9851
0.5922 -3.0002 -1.5865 0.9863
1.8831 -0.5247 -1.0707 0.9911
1.8841 -0.3472 -1.0493 0.9913
1.8851 0.3352 -1.0487 0.9913
1.8839 0.5123 -1.0693 0.9911
3.1688 1.8745 -2.0165 0.9833
2.3241 2.8833 -2.0283 0.9833
2.0592 3.0830 -2.0306 0.9832
1.4797 3.4067 -2.0343 0.9832
1.1699 3.5277 -2.0356 0.9832
0.5232 3.6825 -2.0372 0.9832
0.1918 3.7150 -2.0374 0.9832
-0.1412 3.7170 -2.0373 0.9832
-0.4729 3.6886 -2.0368 0.9832
-1.7313 3.2797 -2.0312 0.9832
-2.2825 2.9120 -2.0265 0.9833
-2.5303 2.6925 -2.0237 0.9833
-2.7568 2.4518 -2.0207 0.9833
-0.8903 0.4392 -0.5437 0.9955
-0.9098 0.3515 -0.5342 0.9956
-0.9400 0.1804 -0.5242 0.9956
-0.9473 0.0951 -0.5215 0.9957
-0.9472 -0.0750 -0.5204 0.9957
