ply
format ascii 1.0
element vertex 1583
property float32 x
property float32 y
property float32 z
property float32 I
end_header
1.2496 -16.4926 -1.5879 0.9357
2.7030 -16.2200 -1.5787 0.9361
4.1227 -15.8391 -1.5713 0.9363
8.1206 -14.0795 -1.5604 0.9368
12.6340 -10.4188 -1.5722 0.9363
13.5803 -9.2926 -1.5798 0.9360
16.4705 -4.0666 -1.6287 0.9341
8.8493 4.5398 -0.9549 0.9608
0.4420 19.4761 -1.8703 0.9247
-1.1962 17.8751 -1.7199 0.9305
-2.6009 16.5019 -1.6038 0.9351
-4.9503 14.2045 -1.4441 0.9413
-5.9734 13.2037 -1.3913 0.9434
-6.9846 12.3599 -1.3630 0.9445
-7.8449 11.3722 -1.3264 0.9460
-8.7302 10.5053 -1.3114 0.9466
-9.6026 9.6510 -1.3070 0.9468
-11.3648 7.9244 -1.3301 0.9458
-12.2796 7.0208 -1.3580 0.9447
-13.2463 6.0731 -1.3990 0.9431
-15.4115 3.9493 -1.5274 0.9381
-16.6710 2.7135 -1.6216 0.9344
-11.2573 0.8102 -1.0836 0.9557
-11.9410 -15.4479 -1.8745 0.9245
-10.3695 -16.2300 -1.8490 0.9255
-8.7632 -16.8723 -1.8253 0.9264
-7.1329 -17.3761 -1.8033 0.9273
-5.4891 -17.7436 -1.7831 0.9281
-3.8413 -17.9772 -1.7649 0.9288
-2.1946 -18.0484 -1.7455 0.9295
3.8464 -15.9224 -1.5726 0.9363
5.2347 -15.4569 -1.5667 0.9365
7.8725 -14.2220 -1.5606 0.9368
11.3993 -11.6602 -1.5655 0.9366
12.4386 -10.6310 -1.5709 0.9364
13.4006 -9.5203 -1.5781 0.9361
14.2800 -8.3322 -1.5873 0.9357
15.7681 -5.7410 -1.6110 0.9348
16.3653 -4.3476 -1.6256 0.9342
16.8568 -2.8963 -1.6420 0.9336
18.3675 1.8126 -1.7719 0.9285
7.8113 3.0019 -0.8034 0.9669
0.7993 19.8252 -1.9049 0.9234
-2.3396 16.7574 -1.6244 0.9343
-8.5576 10.6744 -1.3135 0.9465
-11.1881 8.0976 -1.3259 0.9460
-13.0514 6.2641 -1.3898 0.9435
-14.1790 5.3043 -1.4534 0.9410
-16.4110 2.9686 -1.6011 0.9352
-17.8085 1.5972 -1.7166 0.9307
-18.5781 -6.9524 -1.9044 0.9234
-13.4382 5.8770 -1.7423 0.9426
-16.6443 -0.5873 -1.9783 0.9351
-15.8777 -3.4554 -1.9302 0.9366
-14.0512 -9.0524 -1.9855 0.9349
-13.0197 -10.1428 -1.9605 0.9357
-9.5130 -12.7651 -1.8911 0.9379
-8.2421 -13.4149 -1.8702 0.9385
-6.9368 -13.9508 -1.8507 0.9392
-5.6066 -14.3731 -1.8326 0.9397
-2.9065 -14.8797 -1.8009 0.9408
-1.5531 -14.9669 -1.7874 0.9412
2.3208 -13.9262 -1.6771 0.9447
4.5767 -12.7694 -1.6113 0.9468
5.6888 -12.2854 -1.6082 0.9469
6.7578 -11.7167 -1.6067 0.9470
7.7787 -11.0665 -1.6068 0.9470
8.7461 -10.3379 -1.6085 0.9469
9.6550 -9.5343 -1.6118 0.9468
10.5006 -8.6595 -1.6168 0.9467
11.2779 -7.7171 -1.6233 0.9464
11.9819 -6.7114 -1.6313 0.9462
12.6079 -5.6466 -1.6410 0.9459
14.2633 -2.1929 -1.7142 0.9435
7.6877 3.1107 -0.9851 0.9671
9.4761 15.1233 -2.1200 0.9306
8.1846 16.1032 -2.1457 0.9298
6.7897 16.9635 -2.1704 0.9290
4.8987 16.3433 -2.0267 0.9336
2.9733 14.5401 -1.7629 0.9420
1.9483 17.2917 -2.0670 0.9323
0.3982 17.5454 -2.0847 0.9317
-2.5997 16.4943 -1.9835 0.9350
-4.9483 14.1985 -1.7861 0.9412
-6.9818 12.3551 -1.6857 0.9444
-7.8419 11.3678 -1.6405 0.9459
-10.4721 8.7920 -1.6242 0.9464
-12.2748 7.0181 -1.6796 0.9446
-14.1512 5.0117 -1.7833 0.9413
-11.1438 0.8020 -1.3272 0.9560
-16.6910 -0.2948 -1.9830 0.9350
-15.9757 -3.1833 -1.9350 0.9365
-15.4298 -4.5405 -1.9106 0.9373
-15.1700 -7.6146 -2.0163 0.9339
-13.2290 -9.9366 -1.9653 0.9355
-7.1958 -13.8544 -1.8544 0.9391
-3.1730 -14.8497 -1.8038 0.9407
2.1012 -14.1393 -1.6980 0.9440
3.1968 -13.2331 -1.6171 0.9466
4.3533 -12.8543 -1.6121 0.9468
6.5512 -11.8351 -1.6069 0.9470
7.5819 -11.2007 -1.6066 0.9470
8.5602 -10.4872 -1.6080 0.9469
9.4811 -9.6981 -1.6111 0.9468
11.8494 -6.9140 -1.6296 0.9462
15.2283 -1.2308 -1.8148 0.9403
15.6576 1.5452 -1.8689 0.9386
15.6284 2.9713 -1.8897 0.9379
8.3287 2.3714 -1.0287 0.9657
8.4234 4.1357 -1.1147 0.9629
13.6150 10.0404 -2.0095 0.9341
11.9132 12.6260 -2.0620 0.9325
10.8749 13.8156 -2.0885 0.9316
8.4470 15.9194 -2.1407 0.9300
7.0724 16.8060 -2.1659 0.9292
2.2483 17.2239 -2.0633 0.9324
0.7058 17.5076 -2.0814 0.9319
-3.6034 15.5133 -1.8918 0.9379
-4.7374 14.4047 -1.8012 0.9407
-6.7961 12.5368 -1.6939 0.9442
-8.5543 10.6703 -1.6245 0.9464
-9.4278 9.8150 -1.6166 0.9467
-10.2996 8.9610 -1.6217 0.9465
-11.1839 8.0945 -1.6399 0.9459
-12.0909 7.1983 -1.6715 0.9449
-13.0462 6.2616 -1.7190 0.9434
-14.0654 5.2618 -1.7839 0.9413
-15.1736 4.1744 -1.8694 0.9386
-16.4034 2.9673 -1.9801 0.9351
-16.8571 1.5119 -2.0104 0.9341
-16.7323 -0.0010 -1.9876 0.9348
-16.4671 -1.4789 -1.9639 0.9356
-16.0689 -2.9087 -1.9398 0.9363
-16.1255 -6.0346 -2.0452 0.9330
-15.3407 -7.3650 -2.0214 0.9337
-14.4337 -8.5954 -1.9955 0.9346
-13.4352 -9.7263 -1.9702 0.9354
-12.3563 -10.7529 -1.9457 0.9361
-13.5461 4.5307 -2.0238 0.9439
-13.7881 3.2758 -2.0080 0.9444
-13.9065 2.0129 -1.9909 0.9448
-13.7814 -0.4862 -1.9539 0.9458
-13.5458 -1.6990 -1.9343 0.9463
-13.8136 -4.3305 -2.0512 0.9432
-13.2282 -5.4887 -2.0292 0.9438
-11.7827 -7.5909 -1.9859 0.9449
-10.9400 -8.5226 -1.9649 0.9455
-8.0389 -10.7871 -1.9062 0.9471
-6.9768 -11.3555 -1.8884 0.9476
-5.8813 -11.8282 -1.8717 0.9480
-4.7606 -12.2043 -1.8561 0.9485
-2.4744 -12.6676 -1.8288 0.9492
-0.1771 -12.7506 -1.8068 0.9498
3.1726 -12.1888 -1.7846 0.9504
4.2281 -11.7968 -1.7756 0.9506
5.9514 -10.3185 -1.6878 0.9530
6.7211 -9.5620 -1.6560 0.9539
2.7313 -2.2524 -0.5016 0.9858
2.6761 -1.4989 -0.4346 0.9877
3.2452 -1.1172 -0.4863 0.9862
12.5420 -3.0966 -1.8304 0.9491
12.8607 -1.9773 -1.8436 0.9488
13.0880 -0.8262 -1.8581 0.9484
13.2202 0.3500 -1.8738 0.9480
13.2541 1.5441 -1.8907 0.9475
13.1868 2.7485 -1.9086 0.9470
11.8659 7.4976 -1.9888 0.9449
11.2689 8.6206 -2.0103 0.9443
10.5667 9.6976 -2.0321 0.9437
9.7619 10.7178 -2.0541 0.9431
6.7749 13.3298 -2.1186 0.9414
5.6098 14.0156 -2.1390 0.9408
4.3578 14.5388 -2.1505 0.9405
0.3267 14.3944 -2.0400 0.9435
-0.9673 14.4545 -2.0526 0.9432
-2.2673 14.3852 -2.0634 0.9429
-4.8287 13.8553 -2.0789 0.9424
-9.5953 9.6437 -1.9276 0.9465
-10.4681 8.7886 -1.9366 0.9463
-12.2699 7.0153 -2.0026 0.9445
-13.0936 6.0031 -2.0409 0.9435
-13.8929 2.2613 -1.9944 0.9447
-13.8145 -0.2440 -1.9577 0.9457
-13.2778 -2.6457 -1.9183 0.9468
-12.6892 -6.3693 -2.0117 0.9443
-11.9397 -7.3979 -1.9901 0.9448
-10.2133 -9.2089 -1.9485 0.9460
-8.2431 -10.6640 -1.9098 0.9470
-7.1886 -11.2513 -1.8918 0.9475
-6.0990 -11.7428 -1.8749 0.9479
-3.8473 -12.4366 -1.8445 0.9488
-1.5499 -12.7461 -1.8193 0.9494
2.9593 -12.2500 -1.7856 0.9504
4.0243 -11.8828 -1.7776 0.9506
5.7961 -10.4709 -1.6957 0.9528
8.1093 -8.2949 -1.6436 0.9542
2.6843 -1.9070 -0.4665 0.9868
13.2554 1.3081 -1.8873 0.9476
7.7184 2.9661 -1.1716 0.9671
8.2867 4.0686 -1.3080 0.9634
8.0636 12.3794 -2.0933 0.9421
6.9950 13.1828 -2.1145 0.9415
1.8480 14.1567 -2.0229 0.9440
-2.0118 14.4091 -2.0614 0.9429
-3.3065 14.2349 -2.0706 0.9427
-4.5815 13.9304 -2.0778 0.9425
-5.7733 13.3840 -2.0653 0.9428
-6.5762 12.1310 -1.9551 0.9458
-8.5511 10.6663 -1.9370 0.9463
-9.4242 9.8113 -1.9276 0.9465
-12.0862 7.1955 -1.9930 0.9448
-13.8746 2.5098 -1.9978 0.9446
-13.9188 1.2484 -1.9801 0.9451
-13.4702 -5.0409 -2.0379 0.9436
-12.8265 -6.1580 -2.0160 0.9441
-12.0936 -7.2018 -1.9944 0.9447
-11.7056 2.7810 -1.9821 0.9524
-11.2266 0.6095 -1.8522 0.9554
-11.7478 -0.4145 -1.9365 0.9535
-12.0315 -1.5091 -1.9976 0.9520
-12.2233 -2.6601 -2.0608 0.9506
-11.8286 -3.7082 -2.0421 0.9510
-11.3448 -4.7072 -2.0234 0.9514
-10.7782 -5.6498 -2.0047 0.9519
-10.1359 -6.5299 -1.9863 0.9523
-8.6527 -8.0824 -1.9506 0.9531
-6.9544 -9.3318 -1.9172 0.9539
-6.0431 -9.8359 -1.9018 0.9543
-5.1003 -10.2575 -1.8872 0.9546
-4.1330 -10.5954 -1.8736 0.9549
-3.1481 -10.8492 -1.8610 0.9552
-2.1524 -11.0189 -1.8496 0.9555
-1.1523 -11.1051 -1.8393 0.9557
0.8357 -11.0305 -1.8224 0.9561
3.7000 -10.3234 -1.8066 0.9565
7.0739 -8.3613 -1.8043 0.9566
2.3681 -1.9529 -0.5057 0.9876
2.6440 -1.1842 -0.4773 0.9883
3.1520 -0.7782 -0.5348 0.9869
11.1751 -1.7181 -1.8626 0.9552
11.3609 -0.7172 -1.8753 0.9549
11.4629 0.3034 -1.8891 0.9546
11.4786 1.3372 -1.9038 0.9542
11.4058 2.3772 -1.9194 0.9539
8.2034 2.4927 -1.4124 0.9658
7.6468 3.0942 -1.3590 0.9671
8.6249 4.4247 -1.5969 0.9615
10.2054 6.4484 -1.9887 0.9522
9.0604 8.3151 -2.0259 0.9514
8.3574 9.1758 -2.0446 0.9509
6.7090 10.7072 -2.0815 0.9501
5.7741 11.3606 -2.0994 0.9496
3.7175 12.4024 -2.1330 0.9489
1.3572 12.0459 -1.9970 0.9520
-1.9169 12.1619 -2.0283 0.9513
-3.0072 11.9850 -2.0356 0.9511
-5.1167 11.3099 -2.0450 0.9509
-6.1129 10.8175 -2.0469 0.9509
-7.9346 9.5480 -2.0452 0.9509
-8.7406 8.7846 -2.0415 0.9510
-11.4312 4.0484 -1.9978 0.9520
-11.6708 2.9907 -1.9848 0.9523
-11.8067 1.9218 -1.9706 0.9527
-11.0643 0.7963 -1.8274 0.9560
-11.8032 -1.2699 -1.9557 0.9530
-11.4467 -4.5149 -2.0271 0.9513
-10.8958 -5.4692 -2.0084 0.9518
-7.1292 -9.2230 -1.9204 0.9538
-5.2879 -10.1811 -1.8900 0.9546
-4.3248 -10.5355 -1.8762 0.9549
-3.3429 -10.8059 -1.8634 0.9552
-2.3487 -10.9922 -1.8517 0.9555
-1.3491 -11.0947 -1.8412 0.9557
2.5821 -10.6885 -1.8115 0.9564
3.5190 -10.3908 -1.8073 0.9565
5.3000 -9.5748 -1.8029 0.9566
6.1341 -9.0618 -1.8027 0.9566
6.9241 -8.4828 -1.8039 0.9566
7.6653 -7.8408 -1.8064 0.9565
2.3564 -2.0140 -0.5107 0.9875
2.4385 -1.4228 -0.4651 0.9886
2.6076 -1.2234 -0.4745 0.9884
11.4824 1.1332 -1.9008 0.9543
8.3316 2.3722 -1.4271 0.9655
8.1377 3.9954 -1.4935 0.9639
9.7882 7.2183 -2.0036 0.9519
9.1886 8.1395 -2.0222 0.9515
7.7328 9.8238 -2.0596 0.9506
5.9633 11.2386 -2.0959 0.9497
4.9757 11.8237 -2.1133 0.9493
3.9294 12.3169 -2.1298 0.9489
-1.7011 12.1839 -2.0266 0.9514
-4.9153 11.3949 -2.0444 0.9509
-7.7672 9.6885 -2.0457 0.9509
-9.3296 8.1170 -2.0372 0.9511
-9.9840 7.2261 -2.0303 0.9513
-11.0092 5.2839 -2.0117 0.9517
-11.3719 4.2542 -2.0002 0.9520
-11.6318 3.2000 -1.9874 0.9523
-11.7881 2.1324 -1.9735 0.9526
-11.2588 1.0098 -1.8622 0.9552
-11.7937 -0.0007 -1.9429 0.9533
-11.6476 -1.0461 -1.9265 0.9537
-12.3354 -2.2329 -2.0651 0.9505
-11.5453 -4.3206 -2.0308 0.9513
-11.0105 -5.2861 -2.0121 0.9517
-10.3971 -6.1915 -1.9935 0.9521
-9.9608 3.3315 -1.9742 0.9582
-10.2700 1.4865 -1.9505 0.9586
-10.8873 -0.3841 -2.0477 0.9566
-8.8848 -5.7240 -1.9866 0.9579
-7.6015 -7.1005 -1.9552 0.9585
-6.8832 -7.6921 -1.9402 0.9589
-6.1223 -8.2152 -1.9258 0.9592
-5.3252 -8.6674 -1.9121 0.9594
-4.4985 -9.0471 -1.8991 0.9597
-1.0194 -9.8242 -1.8565 0.9606
0.7401 -9.7685 -1.8414 0.9609
2.4535 -9.4261 -1.8308 0.9611
4.0796 -8.8103 -1.8249 0.9613
4.8478 -8.4051 -1.8238 0.9613
6.2717 -7.4132 -1.8251 0.9612
2.1915 -2.1641 -0.5789 0.9875
2.1892 -1.8054 -0.5334 0.9885
2.3422 -1.3119 -0.5046 0.9891
2.4528 -1.0985 -0.5052 0.9891
2.6073 -0.8976 -0.5183 0.9888
2.8340 -0.6997 -0.5487 0.9882
10.0278 -0.6330 -1.8886 0.9599
10.1091 0.2676 -1.9008 0.9597
10.1137 1.1782 -1.9138 0.9594
10.0398 2.0925 -1.9276 0.9591
9.2341 2.8058 -1.8140 0.9615
7.8617 3.1812 -1.5941 0.9661
8.9444 5.6516 -1.9887 0.9579
7.9226 7.2709 -2.0212 0.9572
6.6058 8.7031 -2.0537 0.9565
5.8463 9.3303 -2.0696 0.9562
5.0261 9.8889 -2.0850 0.9559
4.1514 10.3719 -2.0999 0.9555
3.2292 10.7734 -2.1140 0.9553
2.2673 11.0878 -2.1272 0.9550
-0.7086 10.5888 -1.9947 0.9577
-1.6586 10.5233 -2.0024 0.9576
-4.4224 9.7753 -2.0167 0.9573
-5.2828 9.3485 -2.0183 0.9572
-6.0975 8.8391 -2.0184 0.9572
-8.7406 6.0946 -2.0028 0.9576
-9.2154 5.2689 -1.9953 0.9577
-9.6066 4.4044 -1.9864 0.9579
-9.9112 3.5101 -1.9763 0.9581
-10.1276 2.5953 -1.9651 0.9583
-10.7017 -0.1890 -2.0118 0.9574
-10.7209 -2.1362 -2.0547 0.9565
-9.5379 -4.7875 -2.0059 0.9575
-8.9985 -5.5755 -1.9897 0.9578
-8.3962 -6.3066 -1.9738 0.9582
-7.7373 -6.9763 -1.9582 0.9585
-7.0280 -7.5811 -1.9431 0.9588
-6.2750 -8.1179 -1.9285 0.9591
-4.6631 -8.9782 -1.9016 0.9597
-3.8171 -9.2988 -1.8893 0.9599
-2.0762 -9.7167 -1.8676 0.9604
-1.1933 -9.8138 -1.8582 0.9606
-0.3099 -9.8369 -1.8499 0.9607
0.5684 -9.7868 -1.8426 0.9609
1.4362 -9.6648 -1.8365 0.9610
2.2882 -9.4721 -1.8316 0.9611
6.1390 -7.5210 -1.8248 0.9613
2.1761 -1.8598 -0.5381 0.9884
2.2351 -1.5879 -0.5153 0.9889
2.4313 -1.1407 -0.5048 0.9891
2.5771 -0.9383 -0.5155 0.9889
3.2326 -0.5554 -0.6165 0.9867
10.0029 -0.8084 -1.8863 0.9600
7.9733 3.0641 -1.6055 0.9658
8.1476 4.0003 -1.7061 0.9637
9.0281 5.4845 -1.9855 0.9579
8.5709 6.3206 -2.0017 0.9576
8.0365 7.1190 -2.0180 0.9572
6.7476 8.5722 -2.0505 0.9566
5.1919 9.7848 -2.0820 0.9559
0.4343 10.7712 -2.0262 0.9571
-1.4721 10.5436 -2.0010 0.9576
-2.4165 10.4036 -2.0075 0.9575
-3.3452 10.1716 -2.0126 0.9574
-5.9413 8.9456 -2.0185 0.9572
-6.7130 8.3735 -2.0172 0.9573
-7.4242 7.7291 -2.0144 0.9573
-8.0678 7.0193 -2.0100 0.9574
-8.6377 6.2517 -2.0042 0.9575
-9.1286 5.4346 -1.9969 0.9577
-10.9794 -0.9860 -2.0720 0.9561
-10.7733 -1.9501 -2.0579 0.9564
-10.4732 -2.8826 -2.0417 0.9568
-10.0924 -3.7768 -2.0255 0.9571
-9.6360 -4.6263 -2.0091 0.9574
-7.8710 -6.8496 -1.9612 0.9584
-8.7841 2.9379 -1.9579 0.9628
-8.9657 2.1301 -1.9479 0.9630
-9.1900 1.3302 -1.9628 0.9627
-9.7965 -0.3456 -2.0721 0.9607
-7.3618 -5.7351 -1.9726 0.9626
-6.7719 -6.3256 -1.9588 0.9628
-4.0201 -8.0850 -1.9086 0.9638
-2.4886 -8.5766 -1.8877 0.9641
-1.7037 -8.7220 -1.8785 0.9643
-0.9132 -8.8004 -1.8702 0.9645
-0.1224 -8.8122 -1.8629 0.9646
0.6636 -8.7580 -1.8566 0.9647
1.4396 -8.6388 -1.8513 0.9648
2.2010 -8.4560 -1.8470 0.9649
1.9171 -4.1402 -0.9644 0.9815
2.7698 -3.2739 -0.9065 0.9826
2.1039 -1.7351 -0.5765 0.9889
2.3033 -1.2902 -0.5581 0.9893
2.3982 -1.0741 -0.5554 0.9893
2.6213 -0.6472 -0.5707 0.9890
2.9869 -0.4592 -0.6388 0.9877
3.9982 0.1058 -0.8454 0.9838
9.0307 1.0520 -1.9218 0.9635
8.9578 1.8670 -1.9342 0.9633
8.8136 2.6781 -1.9471 0.9630
8.3110 4.2637 -1.9745 0.9625
7.0320 6.4535 -2.0175 0.9617
5.1752 8.2593 -2.0603 0.9609
3.6686 9.1659 -2.0869 0.9604
1.1237 9.9735 -2.1215 0.9598
-0.6497 9.7091 -2.0569 0.9610
-3.1015 8.8994 -1.9921 0.9622
-7.6948 5.3654 -1.9829 0.9624
-8.1165 4.6406 -1.9763 0.9625
-8.4655 3.8812 -1.9685 0.9626
-9.7866 0.7043 -2.0740 0.9607
-9.8135 -0.1734 -2.0747 0.9607
-9.6949 -1.0430 -2.0611 0.9609
-9.4980 -1.8925 -2.0472 0.9612
-8.8828 -3.5037 -2.0184 0.9617
-8.0009 -4.9574 -1.9896 0.9622
-6.8917 -6.2139 -1.9615 0.9628
-4.8970 -7.6646 -1.9226 0.9635
-2.6419 -8.5401 -1.8896 0.9641
-1.8587 -8.6987 -1.8802 0.9643
-1.0689 -8.7903 -1.8718 0.9644
0.5096 -8.7738 -1.8577 0.9647
1.2880 -8.6673 -1.8522 0.9648
1.8343 -4.1516 -0.9594 0.9816
4.2174 -7.6190 -1.8408 0.9650
2.4814 -3.6658 -0.9357 0.9821
2.0369 -2.0835 -0.6159 0.9882
2.0831 -1.7803 -0.5792 0.9889
2.1866 -1.5535 -0.5670 0.9891
2.2846 -1.3330 -0.5591 0.9892
2.4835 -0.9042 -0.5587 0.9893
2.8943 -0.4973 -0.6208 0.9881
3.9518 0.0350 -0.8354 0.9840
9.0367 0.8918 -1.9195 0.9636
8.8477 2.5192 -1.9445 0.9631
8.0292 4.8777 -1.9858 0.9623
7.6157 5.6162 -2.0002 0.9621
7.1344 6.3198 -2.0147 0.9618
6.5879 6.9820 -2.0291 0.9615
5.9793 7.5962 -2.0434 0.9612
5.3127 8.1561 -2.0575 0.9610
4.5927 8.6555 -2.0712 0.9607
2.1703 9.7368 -2.1087 0.9600
1.2979 9.9427 -2.1195 0.9598
-0.4856 9.8598 -2.0867 0.9604
-1.2961 9.2831 -1.9813 0.9624
-2.1268 9.1563 -1.9870 0.9623
-2.9433 8.9494 -1.9914 0.9622
-3.7373 8.6639 -1.9945 0.9622
-4.5006 8.3022 -1.9962 0.9621
-5.2256 7.8679 -1.9965 0.9621
-6.5314 6.7997 -1.9930 0.9622
-7.0995 6.1768 -1.9892 0.9623
-7.6036 5.5032 -1.9841 0.9624
-8.0392 4.7861 -1.9777 0.9625
-8.4028 4.0329 -1.9702 0.9626
-8.6914 3.2514 -1.9615 0.9628
-8.9035 2.4494 -1.9519 0.9630
-9.0380 1.6349 -1.9414 0.9631
-9.6346 0.8641 -2.0447 0.9612
-9.7246 -0.8733 -2.0638 0.9609
-9.5428 -1.7274 -2.0499 0.9611
-9.2852 -2.5556 -2.0357 0.9614
-8.5586 -4.1090 -2.0068 0.9619
-8.0984 -4.8226 -1.9924 0.9622
-7.5803 -5.4877 -1.9781 0.9625
-7.6132 3.3295 -1.9529 0.9664
-8.7745 1.2701 -2.0837 0.9642
-8.8162 0.4787 -2.0751 0.9644
-8.4756 -1.8445 -2.0386 0.9650
-8.2248 -2.5784 -2.0258 0.9652
-7.5365 -3.9505 -1.9998 0.9656
-7.1070 -4.5786 -1.9869 0.9659
-6.0998 -5.6978 -1.9617 0.9663
-4.9274 -6.6119 -1.9380 0.9667
-4.2919 -6.9855 -1.9269 0.9669
-3.6303 -7.3011 -1.9163 0.9671
-2.9479 -7.5573 -1.9065 0.9672
-2.2498 -7.7533 -1.8974 0.9674
-1.5409 -7.8884 -1.8890 0.9675
-0.1108 -7.9763 -1.8748 0.9678
1.3039 -7.8240 -1.8642 0.9679
2.1790 -3.1001 -0.8906 0.9846
1.9777 -2.3377 -0.7197 0.9875
2.2739 -1.2737 -0.6126 0.9893
2.3660 -1.0596 -0.6093 0.9894
2.4553 -0.8453 -0.6103 0.9894
2.5530 -0.6303 -0.6180 0.9893
3.4425 0.0911 -0.8093 0.9859
7.7440 3.1335 -1.9634 0.9663
7.4802 3.8375 -1.9759 0.9660
7.1531 4.5198 -1.9886 0.9658
6.3153 5.7958 -2.0145 0.9654
5.8090 6.3778 -2.0275 0.9652
3.9809 7.8325 -2.0649 0.9645
3.2832 8.2029 -2.0766 0.9643
2.5503 8.5085 -2.0876 0.9642
1.7883 8.7453 -2.0979 0.9640
0.2043 9.0005 -2.1159 0.9637
-0.6032 9.0147 -2.1234 0.9636
-2.0887 8.3247 -2.0171 0.9653
-2.7658 7.9363 -1.9752 0.9661
-4.7815 6.9314 -1.9790 0.9660
-5.3787 6.4723 -1.9778 0.9660
-5.9285 5.9584 -1.9754 0.9661
-6.4256 5.3947 -1.9718 0.9661
-6.8656 4.7872 -1.9671 0.9662
-7.5591 3.4656 -1.9544 0.9664
-8.3567 2.1415 -2.0275 0.9652
-8.7879 -0.1552 -2.0657 0.9645
-8.6877 -0.9347 -2.0536 0.9647
-8.5172 -1.6971 -2.0411 0.9649
-7.1956 -4.4585 -1.9895 0.9658
-6.7248 -5.0512 -1.9767 0.9660
-6.2068 -5.5964 -1.9642 0.9662
-5.0489 -6.5317 -1.9402 0.9666
-3.0835 -7.5117 -1.9084 0.9672
-2.3881 -7.7195 -1.8991 0.9673
-0.2513 -7.9784 -1.8760 0.9677
2.5357 -7.4874 -1.8579 0.9680
1.9005 -3.4333 -0.9223 0.9840
2.0154 -2.4691 -0.7491 0.9870
2.1583 -1.5333 -0.6222 0.9892
2.2554 -1.3160 -0.6137 0.9893
2.4379 -0.8876 -0.6098 0.9894
2.6857 -0.4615 -0.6405 0.9889
3.0283 -0.2448 -0.7141 0.9876
7.7883 2.9930 -1.9609 0.9663
7.5371 3.7005 -1.9734 0.9661
6.8455 5.0482 -1.9990 0.9657
5.9129 6.2667 -2.0249 0.9652
5.3629 6.8131 -2.0378 0.9650
4.1135 7.7523 -2.0626 0.9646
3.4234 8.1350 -2.0743 0.9644
1.9401 8.7043 -2.0959 0.9640
-0.4442 9.0180 -2.1220 0.9636
-2.6249 7.9812 -1.9746 0.9661
-5.2648 6.5671 -1.9782 0.9660
-6.3322 5.5092 -1.9726 0.9661
-6.7838 4.9098 -1.9681 0.9662
-7.5024 3.6008 -1.9558 0.9664
-7.7638 2.9044 -1.9482 0.9665
-8.7130 -0.7825 -2.0560 0.9647
-8.5561 -1.5488 -2.0436 0.9649
-8.3312 -2.2930 -2.0308 0.9651
-7.2823 -4.3366 -1.9920 0.9658
-6.3122 -5.4931 -1.9666 0.9662
-7.2940 3.1899 -2.0613 0.9676
-7.9381 1.1490 -2.0767 0.9674
-7.9705 0.4327 -2.0667 0.9676
-7.9365 -0.2800 -2.0562 0.9677
-7.8376 -0.9831 -2.0452 0.9679
-7.6756 -1.6704 -2.0339 0.9681
-7.4528 -2.3364 -2.0223 0.9682
-6.8373 -3.5840 -1.9988 0.9686
-6.0189 -4.6890 -1.9755 0.9690
-5.5437 -5.1783 -1.9642 0.9691
-5.0303 -5.6215 -1.9531 0.9693
-3.9069 -6.3590 -1.9324 0.9696
-0.1011 -7.2786 -1.8847 0.9704
0.5484 -7.2381 -1.8794 0.9705
1.1904 -7.1432 -1.8750 0.9705
1.8207 -6.9948 -1.8714 0.9706
1.4168 -3.9531 -1.0873 0.9828
1.8357 -2.1698 -0.7359 0.9883
2.0489 -1.6897 -0.6876 0.9891
2.1497 -1.4710 -0.6744 0.9893
2.2450 -1.2575 -0.6662 0.9894
2.3360 -1.0462 -0.6627 0.9895
2.4242 -0.8346 -0.6638 0.9895
3.1017 0.0821 -0.8034 0.9873
3.2285 0.3761 -0.8416 0.9867
7.3499 1.5319 -1.9439 0.9695
7.2230 2.1948 -1.9546 0.9693
7.0375 2.8476 -1.9656 0.9691
5.7255 5.2545 -2.0121 0.9684
4.7527 6.2617 -2.0354 0.9680
3.6007 7.0845 -2.0576 0.9677
2.9681 7.4155 -2.0681 0.9675
1.6150 7.8981 -2.0873 0.9672
0.9063 8.0435 -2.0958 0.9671
-0.5442 8.1318 -2.1102 0.9669
-1.2723 8.0725 -2.1159 0.9668
-1.9911 7.9356 -2.1184 0.9668
-2.6885 7.7143 -2.1152 0.9668
-3.2510 7.1860 -2.0421 0.9679
-4.3093 6.2469 -1.9649 0.9691
-4.8478 5.8335 -1.9639 0.9691
-6.1946 4.3193 -1.9553 0.9693
-6.6810 3.8199 -1.9926 0.9687
-7.6105 2.6953 -2.0904 0.9672
-7.9239 1.2898 -2.0786 0.9674
-7.9694 0.5735 -2.0688 0.9675
-7.9484 -0.1404 -2.0583 0.9677
-7.8621 -0.8458 -2.0474 0.9679
-7.7123 -1.5367 -2.0361 0.9680
-6.9073 -3.4671 -2.0011 0.9686
-6.1075 -4.5875 -1.9778 0.9689
-5.6403 -5.0856 -1.9664 0.9691
-5.1341 -5.5381 -1.9553 0.9693
-2.8094 -6.8439 -1.9155 0.9699
-1.5327 -7.1732 -1.8992 0.9701
-0.8821 -7.2545 -1.8922 0.9703
0.4211 -7.2504 -1.8804 0.9704
1.7200 -3.1072 -0.9195 0.9854
1.9247 -2.8434 -0.8890 0.9859
1.9197 -1.9637 -0.7110 0.9887
2.0284 -1.7336 -0.6909 0.9890
2.2266 -1.2992 -0.6675 0.9894
2.3184 -1.0877 -0.6631 0.9895
2.4070 -0.8764 -0.6632 0.9895
2.7884 -0.2254 -0.7243 0.9885
3.0749 0.0273 -0.7962 0.9874
7.3680 1.4008 -1.9419 0.9695
7.2526 2.0650 -1.9525 0.9693
6.8463 3.3614 -1.9748 0.9690
6.2107 4.5801 -1.9980 0.9686
5.3582 5.6787 -2.0215 0.9683
4.8568 6.1702 -2.0331 0.9681
4.3098 6.6164 -2.0445 0.9679
1.7523 7.8618 -2.0855 0.9673
1.0469 8.0201 -2.0942 0.9671
-0.4007 8.1353 -2.1089 0.9669
-2.5538 7.7650 -2.1164 0.9668
-3.1436 7.2875 -2.0549 0.9677
-3.6766 6.7822 -1.9975 0.9686
-4.1988 6.3220 -1.9650 0.9691
-5.7087 4.9667 -1.9592 0.9692
-6.5832 3.9193 -1.9837 0.9688
-7.0883 3.4021 -2.0357 0.9680
-7.7778 2.1397 -2.0886 0.9672
-7.9657 0.7144 -2.0707 0.9675
-7.9577 -0.0005 -2.0604 0.9677
-7.8842 -0.7081 -2.0496 0.9678
-7.5475 -2.0773 -2.0268 0.9682
-7.2893 -2.7279 -2.0152 0.9684
-6.9754 -3.3489 -2.0034 0.9685
-6.6091 -3.9357 -1.9917 0.9687
-6.1944 -4.4844 -1.9800 0.9689
-6.9854 2.3363 -2.0852 0.9698
-7.1394 1.6962 -2.0774 0.9700
-7.2654 0.3945 -2.0598 0.9702
-7.2377 -0.2554 -2.0502 0.9703
-7.1509 -0.8969 -2.0402 0.9705
-7.0064 -1.5248 -2.0299 0.9706
-6.5536 -2.7192 -2.0086 0.9709
-6.2506 -3.2765 -1.9979 0.9711
-4.6077 -5.1492 -1.9561 0.9717
-4.1084 -5.5129 -1.9464 0.9718
-3.5819 -5.8300 -1.9370 0.9720
-1.2902 -6.6050 -1.9052 0.9724
-0.6923 -6.6715 -1.8988 0.9725
-0.0929 -6.6868 -1.8932 0.9726
0.5039 -6.6511 -1.8883 0.9727
1.0941 -6.5651 -1.8842 0.9727
1.6736 -6.4298 -1.8809 0.9728
1.2294 -3.4302 -1.0315 0.9850
1.6168 -2.8032 -0.9161 0.9866
1.8069 -2.5706 -0.8895 0.9870
1.9181 -1.8941 -0.7631 0.9889
2.1220 -1.4520 -0.7279 0.9894
2.5029 -0.6180 -0.7298 0.9893
2.6987 -0.1704 -0.7655 0.9888
2.8772 0.0762 -0.8148 0.9881
2.9943 0.3488 -0.8534 0.9875
6.6158 2.0102 -1.9574 0.9717
6.4428 2.6070 -1.9676 0.9715
5.9384 3.7522 -1.9886 0.9712
5.6093 4.2910 -1.9993 0.9711
5.2312 4.8009 -2.0101 0.9709
4.3381 5.7154 -2.0313 0.9706
3.8291 6.1111 -2.0416 0.9705
3.2835 6.4603 -2.0515 0.9703
2.7054 6.7591 -2.0610 0.9702
0.8251 7.3228 -2.0862 0.9698
-3.6677 6.4905 -2.1105 0.9695
-4.7425 5.7068 -2.1006 0.9696
-6.4280 3.6752 -2.0962 0.9697
-6.7223 3.0820 -2.0935 0.9697
-6.9480 2.4606 -2.0866 0.9698
-7.1139 1.8230 -2.0790 0.9699
-7.2192 1.1751 -2.0706 0.9701
-7.1726 -0.7717 -2.0422 0.9705
-6.3140 -3.1693 -2.0000 0.9711
-5.5885 -4.1977 -1.9787 0.9714
-5.1636 -4.6558 -1.9682 0.9715
-4.7023 -5.0724 -1.9581 0.9717
-1.9978 -6.4580 -1.9137 0.9723
0.3869 -6.6621 -1.8892 0.9726
0.9787 -6.5860 -1.8849 0.9727
1.5606 -6.4603 -1.8815 0.9727
1.3731 -4.0546 -1.2119 0.9824
1.7829 -2.1843 -0.7982 0.9883
1.8951 -1.9385 -0.7674 0.9888
2.2890 -1.0739 -0.7158 0.9895
2.4929 -0.6623 -0.7302 0.9893
2.8428 0.0252 -0.8048 0.9883
2.9731 0.2934 -0.8457 0.9877
6.7523 1.2837 -1.9458 0.9718
5.3094 4.7032 -2.0079 0.9709
2.8214 6.7045 -2.0592 0.9702
1.5960 7.1606 -2.0768 0.9700
0.2977 7.3831 -2.0918 0.9697
-0.3646 7.4022 -2.0981 0.9697
-1.0274 7.3588 -2.1034 0.9696
-2.3300 7.0846 -2.1113 0.9695
-2.9568 6.8545 -2.1133 0.9694
-3.5537 6.5555 -2.1109 0.9695
-4.6487 5.7986 -2.1039 0.9696
-5.5929 4.8660 -2.0987 0.9697
-6.0062 4.3471 -2.0989 0.9696
-6.3637 3.7886 -2.0966 0.9697
-6.6697 3.2011 -2.0943 0.9697
-7.2598 0.6511 -2.0634 0.9702
-6.6592 -2.4920 -2.0129 0.9709
-6.3756 -3.0609 -2.0021 0.9710
-5.6675 -4.1029 -1.9807 0.9713
-5.2501 -4.5689 -1.9703 0.9715
-6.5477 1.5556 -2.0700 0.9722
-6.6356 0.9605 -2.0622 0.9723
-6.6680 0.3620 -2.0539 0.9724
-6.6451 -0.2345 -2.0452 0.9726
-6.5680 -0.8238 -2.0360 0.9727
-6.0270 -2.5007 -2.0070 0.9731
-5.7509 -3.0145 -1.9971 0.9732
-5.0719 -3.9512 -1.9775 0.9735
-4.6757 -4.3675 -1.9680 0.9736
-0.0858 -6.1780 -1.9004 0.9745
0.4657 -6.1463 -1.8959 0.9745
1.0112 -6.0678 -1.8921 0.9746
1.5470 -5.9435 -1.8890 0.9746
1.2121 -3.3819 -1.1050 0.9851
1.3710 -2.9607 -1.0036 0.9864
1.6706 -2.3768 -0.8936 0.9879
1.7808 -2.1050 -0.8481 0.9885
1.8934 -1.8697 -0.8184 0.9889
1.9969 -1.6467 -0.7961 0.9892
2.0947 -1.4333 -0.7807 0.9894
2.3792 -0.8191 -0.7739 0.9895
2.6583 -0.1678 -0.8193 0.9889
2.7548 0.0729 -0.8476 0.9885
6.2091 1.2941 -1.9508 0.9738
6.0967 1.8525 -1.9599 0.9737
5.9348 2.4015 -1.9692 0.9736
5.7242 2.9366 -1.9788 0.9734
5.4656 3.4535 -1.9886 0.9733
5.1605 3.9477 -1.9984 0.9732
3.9859 5.2514 -2.0278 0.9728
3.5168 5.6127 -2.0372 0.9727
3.0145 5.9310 -2.0463 0.9725
2.4828 6.2030 -2.0551 0.9724
1.9260 6.4258 -2.0633 0.9723
1.3489 6.5967 -2.0710 0.9722
0.1538 6.7749 -2.0844 0.9720
-0.4537 6.7796 -2.0899 0.9720
-1.0603 6.7271 -2.0947 0.9719
-2.2484 6.4517 -2.1014 0.9718
-3.3661 5.9567 -2.1044 0.9718
-6.3698 2.2559 -2.0785 0.9721
-6.6660 0.4797 -2.0556 0.9724
-6.4676 -1.2887 -2.0284 0.9728
-6.2964 -1.8528 -2.0188 0.9729
-6.0759 -2.3965 -2.0089 0.9730
-5.8087 -2.9157 -1.9991 0.9732
-5.4975 -3.4063 -1.9892 0.9733
-5.1456 -3.8650 -1.9794 0.9734
-4.3333 -4.6742 -1.9605 0.9737
-2.8989 -5.5813 -1.9344 0.9740
-2.3787 -5.7947 -1.9267 0.9741
-0.7483 -6.1539 -1.9068 0.9744
-0.1946 -6.1787 -1.9014 0.9745
0.3576 -6.1562 -1.8967 0.9745
1.4426 -5.9715 -1.8896 0.9746
1.1951 -3.5290 -1.1460 0.9845
1.3365 -3.0249 -1.0172 0.9863
1.6427 -2.4267 -0.9013 0.9878
1.7596 -2.1557 -0.8559 0.9884
1.9771 -1.6898 -0.8000 0.9892
2.1702 -1.2663 -0.7728 0.9895
2.2600 -1.0603 -0.7678 0.9896
2.4768 -0.6580 -0.7882 0.9893
2.6393 -0.2133 -0.8144 0.9890
6.2254 1.1836 -1.9491 0.9738
5.9706 2.2945 -1.9674 0.9736
5.7694 2.8327 -1.9769 0.9735
5.5202 3.3535 -1.9866 0.9733
5.2241 3.8525 -1.9965 0.9732
4.8829 4.3254 -2.0064 0.9731
4.4986 4.7678 -2.0162 0.9729
4.0740 5.1756 -2.0259 0.9728
3.6118 5.5449 -2.0354 0.9727
2.0373 6.3860 -2.0617 0.9723
0.8739 6.6949 -2.0767 0.9721
0.2728 6.7673 -2.0832 0.9721
-2.1340 6.4887 -2.1009 0.9718
-3.2605 6.0147 -2.1043 0.9718
-4.2783 5.3366 -2.1038 0.9718
-4.7343 4.9288 -2.1021 0.9718
-5.1494 4.4801 -2.0994 0.9718
-5.8421 3.4781 -2.0912 0.9719
-6.1139 2.9344 -2.0859 0.9720
-6.3330 2.3691 -2.0797 0.9721
-6.4980 1.7876 -2.0729 0.9722
-6.6077 1.1953 -2.0654 0.9723
-6.6619 0.5975 -2.0573 0.9724
-6.4953 -1.1757 -2.0303 0.9728
-5.2179 -3.7775 -1.9813 0.9734
-4.8357 -4.2082 -1.9717 0.9735
-6.0402 1.4350 -2.0637 0.9742
-6.1548 0.3342 -2.0489 0.9744
-6.1357 -0.2165 -2.0408 0.9745
-6.0666 -0.7609 -2.0324 0.9746
-5.7834 -1.8131 -2.0147 0.9748
-5.0260 -3.2380 -1.9874 0.9751
-4.6950 -3.6576 -1.9783 0.9752
-3.5099 -4.7098 -1.9525 0.9755
-2.5943 -5.2176 -1.9369 0.9757
-1.6123 -5.5564 -1.9232 0.9759
-0.5935 -5.7201 -1.9116 0.9761
-0.0797 -5.7356 -1.9067 0.9761
0.4324 -5.7070 -1.9025 0.9762
0.9391 -5.6350 -1.8989 0.9762
1.4368 -5.5202 -1.8961 0.9762
1.1969 -3.3394 -1.1792 0.9852
1.5169 -2.6299 -1.0092 0.9873
1.6491 -2.3461 -0.9532 0.9880
1.7585 -2.0786 -0.9050 0.9886
1.8687 -1.8454 -0.8730 0.9890
1.9716 -1.6259 -0.8495 0.9893
2.2484 -1.0070 -0.8189 0.9897
2.3640 -0.8139 -0.8311 0.9895
2.5452 -0.3913 -0.8560 0.9892
2.7281 0.0722 -0.9072 0.9886
2.8149 0.3279 -0.9420 0.9881
5.4955 2.2237 -1.9706 0.9753
5.2986 2.7183 -1.9795 0.9752
5.0574 3.1955 -1.9886 0.9751
1.2443 6.0851 -2.0646 0.9742
0.6976 6.1913 -2.0711 0.9741
0.1418 6.2464 -2.0769 0.9740
-0.4182 6.2494 -2.0820 0.9739
-1.5301 6.0981 -2.0899 0.9738
-2.5971 5.7406 -2.0944 0.9738
-3.5794 5.1888 -2.0953 0.9738
-4.0272 4.8460 -2.0945 0.9738
-4.8156 4.0430 -2.0901 0.9738
-5.1491 3.5903 -2.0866 0.9739
-5.8742 2.0804 -2.0714 0.9741
-6.1108 0.9946 -2.0580 0.9742
-6.1526 0.4428 -2.0504 0.9743
-5.9756 -1.1907 -2.0254 0.9746
-5.8195 -1.7125 -2.0165 0.9748
-5.3727 -2.6968 -1.9983 0.9750
-5.0868 -3.1518 -1.9891 0.9751
-4.7629 -3.5776 -1.9801 0.9752
-4.4042 -3.9711 -1.9712 0.9753
-3.5953 -4.6511 -1.9541 0.9755
-3.1520 -4.9334 -1.9460 0.9756
-2.2062 -5.3744 -1.9311 0.9758
-1.7110 -5.5308 -1.9244 0.9759
-1.2058 -5.6434 -1.9182 0.9760
-0.1807 -5.7360 -1.9076 0.9761
0.3320 -5.7161 -1.9033 0.9762
0.8400 -5.6526 -1.8996 0.9762
1.3398 -5.5461 -1.8966 0.9762
1.3186 -2.9844 -1.0845 0.9863
1.4832 -2.6795 -1.0180 0.9872
1.7370 -2.1280 -0.9131 0.9885
1.8468 -1.8891 -0.8781 0.9889
1.9520 -1.6683 -0.8536 0.9892
2.0488 -1.4556 -0.8354 0.9895
2.4607 -0.6537 -0.8463 0.9893
2.5276 -0.4343 -0.8525 0.9892
2.7098 0.0240 -0.9008 0.9886
2.7996 0.2763 -0.9351 0.9882
5.7689 1.0968 -1.9520 0.9756
5.3408 2.6222 -1.9778 0.9752
5.1082 3.1032 -1.9868 0.9751
4.1583 4.4071 -2.0141 0.9748
3.7644 4.7823 -2.0231 0.9747
3.3362 5.1217 -2.0318 0.9746
2.8769 5.4219 -2.0403 0.9745
2.3902 5.6799 -2.0484 0.9744
1.8800 5.8928 -2.0561 0.9743
1.3504 6.0583 -2.0632 0.9742
-0.8676 6.2138 -2.0855 0.9739
-1.4221 6.1222 -2.0892 0.9739
-1.9663 5.9788 -2.0921 0.9738
-3.0039 5.5413 -2.0952 0.9738
-3.4876 5.2511 -2.0954 0.9738
-3.9417 4.9167 -2.0947 0.9738
-5.3850 3.2059 -2.0832 0.9739
-5.9936 1.6489 -2.0663 0.9741
-6.1484 0.5515 -2.0520 0.9743
-6.1492 -0.0004 -2.0440 0.9744
-6.0007 -1.0862 -2.0271 0.9746
-5.8539 -1.6112 -2.0182 0.9747
-5.6610 -2.1185 -2.0092 0.9748
-4.8295 -3.4963 -1.9819 0.9752
-4.4773 -3.8963 -1.9729 0.9753
-5.3027 2.3191 -2.0697 0.9757
-5.4743 1.8309 -2.0642 0.9758
-5.5996 1.3304 -2.0582 0.9758
-5.6927 -0.2009 -2.0370 0.9761
-5.5225 -1.2018 -2.0211 0.9763
-4.9433 -2.5912 -1.9959 0.9766
-4.3657 -3.4010 -1.9790 0.9768
-4.0274 -3.7619 -1.9708 0.9769
-3.6600 -4.0901 -1.9628 0.9770
-1.9652 -5.0379 -1.9338 0.9773
-1.5021 -5.1768 -1.9276 0.9774
-1.0303 -5.2748 -1.9219 0.9774
0.8757 -5.2546 -1.9050 0.9776
1.3400 -5.1480 -1.9023 0.9777
1.1856 -3.3079 -1.2566 0.9852
1.3396 -2.8929 -1.1401 0.9865
1.5078 -2.6142 -1.0792 0.9873
1.6286 -2.3169 -1.0128 0.9880
1.7364 -2.0524 -0.9614 0.9886
1.8444 -1.8213 -0.9269 0.9890
2.0413 -1.3968 -0.8845 0.9895
2.3487 -0.8086 -0.8883 0.9895
2.4598 -0.6073 -0.9061 0.9893
2.6035 -0.1643 -0.9329 0.9890
5.2543 1.5966 -1.9638 0.9769
4.1318 3.7920 -2.0055 0.9765
3.7922 4.1635 -2.0139 0.9764
2.5822 5.0806 -2.0380 0.9761
1.1535 5.6410 -2.0590 0.9758
0.1314 5.7881 -2.0704 0.9757
-3.7294 4.4876 -2.0866 0.9755
-4.4601 3.7446 -2.0826 0.9756
-4.7696 3.3257 -2.0793 0.9756
-5.2636 2.4132 -2.0707 0.9757
-5.4442 1.9281 -2.0654 0.9758
-5.5786 1.4296 -2.0594 0.9758
-5.7064 0.4107 -2.0459 0.9760
-5.6462 -0.6074 -2.0308 0.9762
-5.5472 -1.1053 -2.0227 0.9763
-5.4040 -1.5902 -2.0145 0.9764
-5.2184 -2.0583 -2.0060 0.9765
-4.9923 -2.5059 -1.9976 0.9765
-4.4286 -3.3264 -1.9807 0.9767
-4.0963 -3.6935 -1.9724 0.9768
-3.7344 -4.0283 -1.9643 0.9769
-3.3460 -4.3286 -1.9565 0.9770
-2.9343 -4.5927 -1.9490 0.9771
-2.5028 -4.8188 -1.9418 0.9772
-2.0549 -5.0058 -1.9351 0.9773
-1.5940 -5.1527 -1.9288 0.9773
-1.1237 -5.2587 -1.9230 0.9774
-0.6473 -5.3236 -1.9178 0.9775
1.1723 -3.4616 -1.3070 0.9846
1.4755 -2.6655 -1.0895 0.9871
1.6119 -2.3812 -1.0283 0.9879
1.8230 -1.8647 -0.9326 0.9890
1.9271 -1.6471 -0.9066 0.9893
2.0232 -1.4374 -0.8875 0.9895
2.1151 -1.2341 -0.8757 0.9897
2.2092 -1.0365 -0.8726 0.9897
2.4445 -0.6494 -0.9045 0.9893
2.5047 -0.4304 -0.9088 0.9893
2.6836 0.0238 -0.9597 0.9887
5.3693 1.0208 -1.9545 0.9770
4.7485 2.8847 -1.9869 0.9767
4.4907 3.3117 -1.9954 0.9766
4.1945 3.7156 -2.0038 0.9765
2.2171 5.2684 -2.0440 0.9760
0.2331 5.7820 -2.0694 0.9757
-0.2853 5.7933 -2.0742 0.9757
-0.8037 5.7561 -2.0784 0.9756
-2.3107 5.3569 -2.0863 0.9755
-2.7817 5.1314 -2.0873 0.9755
-3.2296 4.8626 -2.0875 0.9755
-4.0397 4.2056 -2.0854 0.9755
-5.2228 2.5067 -2.0717 0.9757
-5.4123 2.0247 -2.0665 0.9758
-5.5559 1.5285 -2.0606 0.9758
-5.7022 0.5114 -2.0473 0.9760
-5.7046 -0.0003 -2.0400 0.9761
-5.6603 -0.5083 -2.0323 0.9761
-5.4356 -1.4961 -2.0161 0.9763
-5.0399 -2.4196 -1.9992 0.9765
-4.4902 -3.2506 -1.9823 0.9767
-4.1641 -3.6237 -1.9740 0.9768
-2.3020 0.1250 -0.8834 0.9902
-2.2982 -0.0811 -0.8813 0.9902
-5.0078 -1.5699 -2.0112 0.9778
-4.6118 -2.4174 -1.9954 0.9779
-4.3599 -2.8088 -1.9875 0.9780
-4.0752 -3.1747 -1.9797 0.9781
-3.7604 -3.5126 -1.9720 0.9782
-3.4183 -3.8201 -1.9644 0.9783
-3.0518 -4.0951 -1.9572 0.9784
-2.6640 -4.3360 -1.9502 0.9784
-2.2581 -4.5413 -1.9436 0.9785
-1.8372 -4.7098 -1.9374 0.9786
-1.4046 -4.8407 -1.9316 0.9786
-0.9636 -4.9333 -1.9262 0.9787
-0.0695 -5.0023 -1.9172 0.9788
1.2540 -4.8179 -1.9078 0.9789
1.1785 -3.2882 -1.3386 0.9851
1.7145 -2.0265 -1.0173 0.9887
2.1054 -1.1793 -0.9248 0.9897
2.5764 -0.1626 -0.9893 0.9890
2.7715 0.3229 -1.0693 0.9881
5.0022 1.0426 -1.9581 0.9783
4.7725 1.9311 -1.9730 0.9782
4.3867 2.7718 -1.9885 0.9780
3.8535 3.5365 -2.0044 0.9778
3.5357 3.8819 -2.0122 0.9778
1.9796 4.9459 -2.0416 0.9774
1.5345 5.1194 -2.0481 0.9774
1.0739 5.2516 -2.0541 0.9773
0.6018 5.3410 -2.0597 0.9772
0.1222 5.3864 -2.0647 0.9772
-0.3605 5.3872 -2.0691 0.9771
-0.8421 5.3430 -2.0728 0.9771
-1.3183 5.2540 -2.0758 0.9771
-3.0828 4.4689 -2.0805 0.9770
-3.4687 4.1739 -2.0798 0.9770
-3.8251 3.8444 -2.0783 0.9770
-4.1489 3.4833 -2.0760 0.9771
-4.6878 2.6802 -2.0693 0.9771
-4.8983 2.2457 -2.0650 0.9772
-5.0672 1.7946 -2.0600 0.9772
-2.3038 0.1658 -0.8851 0.9902
-2.3028 -0.2477 -0.8876 0.9901
-5.1705 -1.0303 -2.0204 0.9777
-4.4121 -2.7338 -1.9890 0.9780
-3.8246 -3.4485 -1.9735 0.9782
-2.7418 -4.2914 -1.9516 0.9784
-2.3392 -4.5038 -1.9449 0.9785
-1.4905 -4.8180 -1.9327 0.9786
-1.0509 -4.9181 -1.9272 0.9787
-0.6055 -4.9796 -1.9223 0.9787
-0.1576 -5.0024 -1.9180 0.9788
0.2896 -4.9865 -1.9141 0.9788
0.7330 -4.9323 -1.9109 0.9789
1.1656 -3.4419 -1.3926 0.9846
1.5915 -2.3511 -1.0880 0.9879
1.6931 -2.0743 -1.0261 0.9886
1.9979 -1.4194 -0.9392 0.9896
2.4283 -0.6451 -0.9628 0.9893
2.4820 -0.4264 -0.9651 0.9893
2.5585 -0.2068 -0.9836 0.9891
2.7575 0.2721 -1.0619 0.9882
4.9290 1.4034 -1.9640 0.9783
4.8021 1.8454 -1.9715 0.9782
4.6360 2.2761 -1.9792 0.9781
4.4314 2.6920 -1.9870 0.9780
3.9121 3.4654 -2.0028 0.9779
3.6007 3.8162 -2.0107 0.9778
3.2577 4.1386 -2.0184 0.9777
2.8855 4.4298 -2.0259 0.9776
2.4869 4.6868 -2.0332 0.9775
2.0650 4.9071 -2.0402 0.9775
1.6234 5.0885 -2.0468 0.9774
1.1655 5.2289 -2.0530 0.9773
0.6953 5.3268 -2.0587 0.9773
0.2169 5.3810 -2.0638 0.9772
-0.7477 5.3552 -2.0721 0.9771
-1.2253 5.2750 -2.0753 0.9771
-1.6939 5.1504 -2.0777 0.9770
-2.5872 4.7726 -2.0804 0.9770
-3.3950 4.2348 -2.0800 0.9770
-4.6416 2.7634 -2.0701 0.9771
-5.0374 1.8844 -2.0611 0.9772
-5.2633 0.9521 -2.0497 0.9773
-2.3041 0.2067 -0.8865 0.9901
-5.1917 -0.9398 -2.0219 0.9777
-5.0676 -1.3948 -2.0142 0.9777
-4.7013 -2.2571 -1.9985 0.9779
-4.4630 -2.6577 -1.9906 0.9780
-4.1909 -3.0340 -1.9827 0.9781
-3.8877 -3.3832 -1.9750 0.9782
-4.6095 2.0159 -2.0591 0.9785
-2.0207 0.2925 -0.8356 0.9912
-2.0061 0.1089 -0.8222 0.9914
-2.0202 -0.2534 -0.8333 0.9912
-4.6855 -1.4689 -2.0097 0.9790
-4.5189 -1.8750 -2.0024 0.9791
-3.8169 -2.9734 -1.9802 0.9793
-1.7230 -4.4172 -1.9405 0.9797
-1.3176 -4.5408 -1.9351 0.9798
0.3541 -4.6731 -1.9181 0.9799
0.7692 -4.6157 -1.9151 0.9800
1.1596 -3.2355 -1.4067 0.9853
1.3224 -2.8558 -1.2880 0.9865
1.9955 -1.3655 -0.9896 0.9896
2.0893 -1.1703 -0.9801 0.9897
2.3180 -0.7980 -1.0034 0.9895
2.4309 -0.6002 -1.0248 0.9892
2.5493 -0.1609 -1.0454 0.9890
2.6486 0.0701 -1.0844 0.9886
2.7506 0.3204 -1.1334 0.9881
4.4709 1.8091 -1.9739 0.9794
4.3070 2.2096 -1.9812 0.9793
4.1074 2.5953 -1.9885 0.9792
3.8734 2.9631 -1.9959 0.9791
3.6063 3.3097 -2.0033 0.9791
3.3081 3.6320 -2.0107 0.9790
2.9808 3.9272 -2.0179 0.9789
2.6269 4.1925 -2.0249 0.9788
2.2491 4.4252 -2.0316 0.9788
1.8504 4.6232 -2.0381 0.9787
1.4340 4.7843 -2.0442 0.9786
-0.3367 5.0312 -2.0637 0.9784
-1.2309 4.9057 -2.0700 0.9784
-2.0884 4.6162 -2.0736 0.9783
-2.8780 4.1721 -2.0744 0.9783
-3.5713 3.5893 -2.0723 0.9784
-3.8739 3.2524 -2.0702 0.9784
-4.3780 2.5031 -2.0640 0.9784
-1.9948 -0.0352 -0.8166 0.9914
-2.0746 -0.4134 -0.8658 0.9909
-4.5545 -1.7964 -2.0038 0.9791
-4.3595 -2.1883 -1.9964 0.9791
-4.1311 -2.5597 -1.9890 0.9792
-3.8714 -2.9079 -1.9817 0.9793
-3.5828 -3.2305 -1.9744 0.9794
-2.9295 -3.7898 -1.9605 0.9795
-1.8016 -4.3887 -1.9416 0.9797
-1.3981 -4.5193 -1.9361 0.9798
-0.1479 -4.6945 -1.9223 0.9799
0.6880 -4.6298 -1.9157 0.9800
1.0977 -4.5439 -1.9132 0.9800
1.1635 -3.4355 -1.4845 0.9844
1.2925 -2.9253 -1.3089 0.9863
1.4596 -2.6369 -1.2335 0.9871
1.6733 -2.0500 -1.0830 0.9886
1.7818 -1.8226 -1.0432 0.9890
1.9771 -1.4046 -0.9926 0.9896
2.2953 -0.8357 -0.9997 0.9895
2.4592 -0.4225 -1.0212 0.9893
2.6314 0.0233 -1.0770 0.9887
2.7368 0.2701 -1.1255 0.9882
2.9465 0.5602 -1.2275 0.9871
4.6188 1.3151 -1.9655 0.9795
4.3421 2.1319 -1.9797 0.9793
3.9221 2.8923 -1.9945 0.9792
3.6614 3.2433 -2.0019 0.9791
3.3691 3.5707 -2.0092 0.9790
2.6985 4.1428 -2.0235 0.9789
2.3252 4.3821 -2.0303 0.9788
1.9304 4.5871 -2.0368 0.9787
1.5172 4.7556 -2.0430 0.9787
-1.1441 4.9254 -2.0695 0.9784
-1.5815 4.8088 -2.0718 0.9784
-2.0066 4.6517 -2.0734 0.9783
-2.4154 4.4556 -2.0743 0.9783
-2.8042 4.2222 -2.0744 0.9783
-3.5081 3.6522 -2.0726 0.9784
-3.8169 3.3208 -2.0707 0.9784
-4.0932 2.9625 -2.0680 0.9784
-4.5394 2.1787 -2.0608 0.9785
-4.7057 1.7604 -2.0563 0.9785
-4.8323 1.3294 -2.0512 0.9786
-2.0154 0.1808 -0.8282 0.9913
-1.9898 -0.0001 -0.8144 0.9914
-2.0155 -0.1810 -0.8282 0.9913
-2.0584 -0.3726 -0.8561 0.9910
-4.5887 -1.7172 -2.0053 0.9790
-3.6418 -3.1691 -1.9758 0.9794
-1.4923 0.4991 -0.6858 0.9932
-1.4873 0.3534 -0.6662 0.9934
-1.4737 0.2133 -0.6490 0.9935
-1.4449 -0.0510 -0.6301 0.9937
-1.4729 -0.1847 -0.6469 0.9935
-1.4939 -0.4683 -0.6823 0.9932
-4.2419 -1.7600 -2.0015 0.9802
-3.5853 -2.7931 -1.9807 0.9804
-3.3099 -3.0917 -1.9739 0.9804
-3.0101 -3.3639 -1.9673 0.9805
-2.6886 -3.6077 -1.9609 0.9806
-2.3480 -3.8216 -1.9547 0.9806
-1.6205 -4.1543 -1.9434 0.9807
-0.0614 -4.4177 -1.9255 0.9809
0.3332 -4.3980 -1.9222 0.9809
1.1595 -3.2352 -1.4978 0.9851
1.4751 -2.5575 -1.2867 0.9872
1.5852 -2.2552 -1.2014 0.9880
1.9037 -1.5699 -1.0754 0.9893
1.9985 -1.3675 -1.0554 0.9895
2.1888 -0.9803 -1.0452 0.9896
2.3026 -0.7927 -1.0613 0.9894
2.4162 -0.5966 -1.0847 0.9892
2.4531 -0.3771 -1.0816 0.9892
2.6225 0.0694 -1.1433 0.9886
2.7296 0.3180 -1.1976 0.9881
4.4066 0.9184 -1.9617 0.9806
4.3210 1.3130 -1.9682 0.9805
4.0456 2.0755 -1.9816 0.9804
3.8573 2.4373 -1.9885 0.9803
3.3851 3.1067 -2.0024 0.9802
2.4642 3.9327 -2.0226 0.9800
1.3444 4.4853 -2.0407 0.9798
0.9405 4.5994 -2.0460 0.9797
-2.6957 3.9077 -2.0689 0.9795
-3.0332 3.6499 -2.0683 0.9795
-3.6289 3.0467 -2.0650 0.9795
-1.4888 0.5273 -0.6883 0.9931
-1.4913 0.3822 -0.6709 0.9933
-1.4346 -0.0253 -0.6253 0.9938
-1.4729 -0.2935 -0.6545 0.9935
-3.6364 -2.7314 -1.9821 0.9804
-3.3661 -3.0350 -1.9753 0.9804
-3.0709 -3.3126 -1.9686 0.9805
-2.7534 -3.5621 -1.9621 0.9805
-2.4163 -3.7819 -1.9559 0.9806
-1.6943 -4.1274 -1.9444 0.9807
-1.3150 -4.2509 -1.9392 0.9808
-0.5346 -4.3963 -1.9301 0.9809
-0.1392 -4.4175 -1.9262 0.9809
0.2558 -4.4045 -1.9228 0.9809
1.0332 -4.2770 -1.9176 0.9810
1.2924 -2.9251 -1.3937 0.9861
1.6760 -2.0533 -1.1552 0.9885
1.7846 -1.8255 -1.1126 0.9889
1.8846 -1.6107 -1.0805 0.9892
1.9801 -1.4067 -1.0586 0.9895
2.0691 -1.2073 -1.0440 0.9896
2.1665 -1.0165 -1.0430 0.9896
2.2801 -0.8302 -1.0575 0.9895
2.7160 0.2680 -1.1894 0.9882
4.2269 1.6244 -1.9735 0.9804
4.0787 2.0026 -1.9803 0.9804
3.8969 2.3673 -1.9872 0.9803
3.6825 2.7157 -1.9941 0.9802
3.4370 3.0445 -2.0011 0.9802
1.4224 4.4586 -2.0396 0.9798
0.6088 4.6640 -2.0499 0.9797
0.1899 4.7100 -2.0544 0.9796
-0.6541 4.6851 -2.0616 0.9796
-1.0717 4.6140 -2.0644 0.9795
-1.4814 4.5044 -2.0665 0.9795
-1.8795 4.3571 -2.0680 0.9795
-2.2623 4.1733 -2.0688 0.9795
-2.6265 3.9546 -2.0690 0.9795
-2.9687 3.7031 -2.0685 0.9795
-3.5755 3.1108 -2.0655 0.9795
-1.5098 0.5648 -0.7025 0.9930
-1.4701 0.2659 -0.6511 0.9935
-1.4701 -0.2661 -0.6511 0.9935
-1.5102 -0.5651 -0.7027 0.9930
-3.6864 -2.6688 -1.9834 0.9803
-3.4213 -2.9773 -1.9766 0.9804
-1.2480 0.5458 -0.6305 0.9940
-1.2695 0.3016 -0.6040 0.9943
-1.2688 0.0689 -0.5882 0.9944
-1.2752 -0.1599 -0.5949 0.9944
-3.8157 -2.0002 -1.9942 0.9812
-3.3764 -2.6303 -1.9812 0.9813
-2.5334 -3.3995 -1.9625 0.9815
-1.8767 -3.7744 -1.9512 0.9816
-0.8021 -4.1063 -1.9367 0.9817
-0.4309 -4.1529 -1.9326 0.9818
-0.0579 -4.1671 -1.9291 0.9818
0.3143 -4.1489 -1.9259 0.9818
0.6830 -4.0986 -1.9233 0.9819
1.3222 -2.8553 -1.4565 0.9862
1.4675 -2.5444 -1.3596 0.9871
1.7009 -2.0105 -1.2190 0.9885
1.8077 -1.7851 -1.1760 0.9889
2.0847 -1.1677 -1.1061 0.9895
2.1742 -0.9738 -1.1027 0.9896
2.2871 -0.7874 -1.1196 0.9894
2.4300 -0.3736 -1.1380 0.9892
2.4957 -0.1575 -1.1575 0.9890
2.6006 0.0688 -1.2042 0.9886
2.7203 0.3169 -1.2677 0.9880
4.0707 1.2369 -1.9693 0.9814
3.6317 2.2947 -1.9885 0.9812
3.1859 2.9238 -2.0016 0.9811
2.6311 3.4664 -2.0144 0.9810
2.3178 3.6990 -2.0206 0.9809
0.8840 4.3231 -2.0425 0.9807
0.1005 4.4301 -2.0511 0.9807
-0.2964 4.4291 -2.0547 0.9806
-1.0832 4.3170 -2.0602 0.9806
-1.4661 4.2068 -2.0621 0.9806
-2.1938 3.8821 -2.0640 0.9805
-2.5320 3.6705 -2.0641 0.9805
-2.8491 3.4285 -2.0634 0.9805
-3.8540 2.2035 -2.0549 0.9806
-1.2600 0.5777 -0.6416 0.9939
-1.2738 0.2073 -0.5974 0.9943
-1.2702 -0.3738 -0.6129 0.9942
-3.8528 -1.9339 -1.9955 0.9812
-3.6525 -2.2631 -1.9889 0.9812
-3.1705 -2.8587 -1.9760 0.9814
-2.5944 -3.3564 -1.9637 0.9815
-2.2772 -3.5642 -1.9578 0.9815
-1.5973 -3.8910 -1.9470 0.9816
-0.8746 -4.0933 -1.9375 0.9817
-0.1313 -4.1668 -1.9297 0.9818
0.2413 -4.1550 -1.9265 0.9818
1.3305 -3.9285 -1.9199 0.9819
1.7875 -1.8285 -1.1836 0.9888
1.8876 -1.6133 -1.1494 0.9891
1.9832 -1.4089 -1.1261 0.9893
2.0703 -1.2080 -1.1095 0.9895
2.1522 -1.0097 -1.1004 0.9896
2.2647 -0.8246 -1.1156 0.9894
2.4138 -0.4147 -1.1337 0.9893
2.4820 -0.2006 -1.1526 0.9891
2.6952 0.2660 -1.2536 0.9881
2.9138 0.5540 -1.3729 0.9870
3.9815 1.5301 -1.9744 0.9814
3.6692 2.2290 -1.9872 0.9813
3.2348 2.8654 -2.0003 0.9811
2.6900 3.4175 -2.0132 0.9810
1.7020 4.0444 -2.0311 0.9808
1.3372 4.1915 -2.0365 0.9808
0.1784 4.4260 -2.0504 0.9807
-0.2183 4.4322 -2.0541 0.9806
-1.0068 4.3345 -2.0598 0.9806
-1.3916 4.2313 -2.0618 0.9806
-2.1250 3.9200 -2.0640 0.9805
-2.4671 3.7146 -2.0641 0.9805
-3.0867 3.2134 -2.0625 0.9806
-3.6025 2.6073 -2.0585 0.9806
-3.8158 2.2717 -2.0556 0.9806
-1.2722 0.6106 -0.6532 0.9938
-1.2595 0.4712 -0.6225 0.9941
-1.2719 0.2301 -0.5983 0.9943
-1.2735 0.1142 -0.5918 0.9944
-1.2719 -0.2302 -0.5983 0.9943
-1.2707 -0.3497 -0.6100 0.9942
-1.2595 -0.4713 -0.6225 0.9941
-1.2724 -0.6109 -0.6533 0.9938
-3.2223 -2.8042 -1.9773 0.9813
-1.1437 0.1655 -0.5669 0.9949
-3.4065 -2.1946 -1.9877 0.9821
-2.3924 -3.2103 -1.9639 0.9823
-2.0900 -3.4018 -1.9584 0.9824
-1.4434 -3.7003 -1.9483 0.9825
-1.1042 -3.8056 -1.9437 0.9825
-0.7580 -3.8806 -1.9395 0.9825
-0.4073 -3.9251 -1.9357 0.9826
0.6457 -3.8748 -1.9269 0.9827
0.9885 -3.7976 -1.9249 0.9827
1.3221 -2.8551 -1.5434 0.9861
1.4722 -2.5526 -1.4454 0.9870
1.5940 -2.2678 -1.3597 0.9877
1.7038 -2.0139 -1.2940 0.9883
1.9098 -1.5749 -1.2142 0.9890
2.0034 -1.3709 -1.1908 0.9892
2.0859 -1.1684 -1.1728 0.9894
2.1596 -0.9672 -1.1607 0.9895
2.2714 -0.7820 -1.1784 0.9894
2.3853 -0.5889 -1.2052 0.9891
2.4070 -0.3701 -1.1945 0.9892
2.5145 -0.1587 -1.2359 0.9888
2.7127 0.3160 -1.3396 0.9879
3.4271 2.1654 -1.9885 0.9821
3.2298 2.4707 -1.9947 0.9820
2.7550 3.0248 -2.0069 0.9819
2.4810 3.2687 -2.0129 0.9819
1.1910 3.9734 -2.0347 0.9817
0.8329 4.0733 -2.0394 0.9816
0.0947 4.1731 -2.0475 0.9816
-0.2792 4.1717 -2.0509 0.9815
-1.3806 3.9615 -2.0578 0.9815
-1.7302 3.8244 -2.0590 0.9815
-2.0657 3.6555 -2.0596 0.9815
-2.6829 3.2284 -2.0591 0.9815
-3.6300 2.0754 -2.0511 0.9815
-1.0964 0.5027 -0.5916 0.9946
-1.1369 -0.0201 -0.5578 0.9949
-1.1443 -0.1231 -0.5645 0.9949
-1.1381 -0.2268 -0.5692 0.9948
-1.1314 -0.3329 -0.5785 0.9948
-1.1149 -0.4398 -0.5879 0.9947
-3.2320 -2.4276 -1.9828 0.9822
-2.7314 -2.9464 -1.9708 0.9823
-2.4500 -3.1695 -1.9650 0.9823
-0.8265 -3.8683 -1.9403 0.9825
-0.1241 -3.9386 -1.9329 0.9826
0.9216 -3.8151 -1.9253 0.9827
1.2922 -2.9247 -1.5684 0.9859
1.8906 -1.6159 -1.2200 0.9890
2.0715 -1.2087 -1.1764 0.9894
2.2493 -0.8189 -1.1742 0.9894
2.3626 -0.6277 -1.1991 0.9892
2.3990 -0.4122 -1.1940 0.9892
2.5106 -0.2029 -1.2355 0.9888
2.6810 0.2646 -1.3215 0.9881
2.9762 0.5658 -1.4860 0.9866
3.8612 1.0994 -1.9693 0.9823
3.7586 1.4444 -1.9752 0.9822
3.6255 1.7800 -1.9812 0.9822
3.4625 2.1035 -1.9873 0.9821
2.8062 2.9741 -2.0057 0.9819
2.2450 3.4465 -2.0176 0.9818
1.2601 3.9500 -2.0338 0.9817
0.5391 4.1296 -2.0429 0.9816
-0.2056 4.1747 -2.0502 0.9816
-1.3105 3.9846 -2.0575 0.9815
-1.6624 3.8539 -2.0588 0.9815
-2.0010 3.6912 -2.0595 0.9815
-2.6259 3.2754 -2.0592 0.9815
-2.9067 3.0260 -2.0582 0.9815
-3.1630 2.7519 -2.0566 0.9815
-3.3928 2.4556 -2.0544 0.9815
-3.5939 2.1396 -2.0517 0.9815
-1.1406 0.2063 -0.5686 0.9948
-1.1336 -0.0001 -0.5561 0.9950
-1.1195 -0.4189 -0.5863 0.9947
-1.0888 -0.5227 -0.5925 0.9946
-0.9901 0.4330 -0.5606 0.9951
-1.0360 0.0562 -0.5383 0.9953
-1.0343 -0.0365 -0.5369 0.9953
-1.0370 -0.1301 -0.5422 0.9953
-1.0264 -0.2234 -0.5450 0.9953
-1.0158 -0.3184 -0.5523 0.9952
-0.9613 -0.5039 -0.5630 0.9951
-3.0138 -2.3479 -1.9819 0.9829
-2.7838 -2.6003 -1.9762 0.9830
-1.9778 -3.2191 -1.9600 0.9831
-1.6779 -3.3745 -1.9551 0.9832
-0.7177 -3.6742 -1.9421 0.9833
-0.0518 -3.7301 -1.9353 0.9833
0.2814 -3.7144 -1.9325 0.9834
0.6116 -3.6699 -1.9301 0.9834
1.1592 -3.2344 -1.7825 0.9846
1.3220 -2.8549 -1.6321 0.9859
1.4805 -2.5669 -1.5373 0.9867
1.5986 -2.2743 -1.4422 0.9876
1.9129 -1.5775 -1.2863 0.9889
2.1598 -0.9673 -1.2277 0.9894
2.3683 -0.5847 -1.2655 0.9891
2.4616 -0.1554 -1.2796 0.9889
2.5943 0.0687 -1.3464 0.9884
2.7049 0.3151 -1.4127 0.9878
3.7098 0.7732 -1.9659 0.9831
3.6359 1.1048 -1.9714 0.9830
3.5326 1.4294 -1.9770 0.9830
3.4005 1.7445 -1.9827 0.9829
3.2404 2.0475 -1.9885 0.9829
3.0533 2.3358 -1.9943 0.9828
2.3443 3.0886 -2.0116 0.9827
1.7663 3.4752 -2.0224 0.9826
1.4522 3.6282 -2.0274 0.9825
1.1247 3.7522 -2.0321 0.9825
-0.9627 3.8370 -2.0522 0.9823
-1.3029 3.7386 -2.0539 0.9823
-1.6328 3.6091 -2.0550 0.9823
-2.2500 3.2617 -2.0556 0.9823
-2.5319 3.0467 -2.0551 0.9823
-2.7926 2.8067 -2.0540 0.9823
-1.0341 0.1683 -0.5435 0.9953
-1.0321 -0.0182 -0.5355 0.9954
-1.0178 -0.2995 -0.5504 0.9952
-0.9681 -0.5998 -0.5908 0.9949
-2.8308 -2.5524 -1.9773 0.9830
-2.5839 -2.7873 -1.9717 0.9830
-2.3180 -2.9988 -1.9663 0.9831
-2.0352 -3.1855 -1.9611 0.9831
-1.7379 -3.3461 -1.9561 0.9832
-0.7826 -3.6624 -1.9429 0.9833
0.8729 -3.6136 -1.9286 0.9834
1.1915 -3.5183 -1.9271 0.9834
1.2921 -2.9244 -1.6586 0.9857
1.4648 -2.6463 -1.5691 0.9865
1.6858 -2.0652 -1.3830 0.9881
1.8938 -1.6186 -1.2924 0.9888
2.2337 -0.8133 -1.2332 0.9893
2.3459 -0.6232 -1.2592 0.9891
3.6528 1.0401 -1.9703 0.9830
3.5552 1.3662 -1.9759 0.9830
3.4287 1.6834 -1.9816 0.9829
2.6521 2.8108 -2.0048 0.9827
2.3970 3.0452 -2.0105 0.9827
1.8263 3.4418 -2.0213 0.9826
1.5151 3.6003 -2.0264 0.9826
1.1900 3.7302 -2.0312 0.9825
0.8537 3.8301 -2.0357 0.9825
0.5089 3.8989 -2.0398 0.9824
0.1587 3.9359 -2.0435 0.9824
-0.1941 3.9406 -2.0468 0.9824
-0.5463 3.9128 -2.0496 0.9824
-1.8883 3.4834 -2.0555 0.9823
-2.1923 3.3008 -2.0557 0.9823
-2.7431 2.8558 -2.0543 0.9823
-0.9606 0.5719 -0.5800 0.9950
-0.9769 0.4689 -0.5621 0.9951
-1.0058 0.3763 -0.5571 0.9952
-1.0193 0.2804 -0.5484 0.9952
-1.0318 0.1866 -0.5439 0.9953
-1.0294 -0.0001 -0.5340 0.9954
-1.0376 -0.0932 -0.5405 0.9953
-1.0193 -0.2805 -0.5484 0.9952
-1.0058 -0.3764 -0.5571 0.9952
-0.9768 -0.4690 -0.5621 0.9951
-3.0981 -2.2429 -1.9842 0.9829
-2.8769 -2.5036 -1.9785 0.9830
-0.9015 0.3943 -0.5389 0.9955
-0.9318 0.2214 -0.5246 0.9956
-0.9453 0.1368 -0.5231 0.9957
-0.9357 -0.2036 -0.5245 0.9956
-0.9209 -0.2887 -0.5286 0.9956
-0.9054 -0.3757 -0.5369 0.9955
-0.8833 -0.4630 -0.5462 0.9955
-2.1454 -2.8789 -1.9665 0.9838
0.8882 -3.4125 -1.9313 0.9840
1.3218 -2.8546 -1.7230 0.9858
1.6033 -2.2810 -1.5271 0.9874
2.0059 -1.3726 -1.3312 0.9890
2.0885 -1.1698 -1.3111 0.9891
2.1611 -0.9679 -1.2969 0.9893
1.8860 -0.4657 -1.0640 0.9912
1.8861 -0.1191 -1.0351 0.9914
1.8792 0.0497 -1.0296 0.9915
3.3470 1.3544 -1.9776 0.9837
2.6897 2.4685 -1.9995 0.9835
2.2191 2.9237 -2.0103 0.9834
1.9539 3.1184 -2.0155 0.9834
1.6715 3.2887 -2.0205 0.9833
1.3741 3.4330 -2.0253 0.9833
0.7440 3.6383 -2.0340 0.9832
0.4166 3.6972 -2.0378 0.9832
-0.9104 3.6282 -2.0488 0.9831
-1.5438 3.4125 -2.0514 0.9831
-1.8432 3.2617 -2.0519 0.9831
-2.1274 3.0839 -2.0520 0.9831
-2.3939 2.8807 -2.0515 0.9831
-2.6405 2.6538 -2.0504 0.9831
-2.8650 2.4054 -2.0489 0.9831
-0.8783 0.6124 -0.5864 0.9951
-0.9148 0.3240 -0.5315 0.9956
-0.9471 0.0682 -0.5200 0.9957
-0.9230 -0.2716 -0.5270 0.9956
-0.9086 -0.3584 -0.5350 0.9956
-0.8884 -0.4459 -0.5444 0.9955
-1.9292 -3.0194 -1.9625 0.9838
-1.3543 -3.2991 -1.9533 0.9839
-0.7421 -3.4732 -1.9452 0.9839
-0.4279 -3.5193 -1.9417 0.9840
1.1305 -3.3380 -1.9302 0.9841
1.2920 -2.9242 -1.7510 0.9855
1.7967 -1.8379 -1.4077 0.9883
1.9888 -1.4129 -1.3362 0.9889
2.0740 -1.2102 -1.3152 0.9891
2.2188 -0.8078 -1.2933 0.9893
1.8846 -0.5007 -1.0680 0.9911
1.8890 0.1864 -1.0396 0.9914
3.3686 1.2945 -1.9765 0.9837
3.2482 1.5948 -1.9819 0.9836
3.1012 1.8840 -1.9874 0.9836
2.9285 2.1596 -1.9929 0.9835
2.5109 2.6612 -2.0039 0.9835
2.0075 3.0820 -2.0145 0.9834
1.4336 3.4068 -2.0244 0.9833
0.4814 3.6880 -2.0370 0.9832
0.1501 3.7226 -2.0405 0.9832
-0.1835 3.7267 -2.0436 0.9831
-0.5166 3.7002 -2.0462 0.9831
-0.8462 3.6430 -2.0484 0.9831
-1.4834 3.4389 -2.0512 0.9831
