ply
format ascii 1.0
element vertex 1082
property float32 x
property float32 y
property float32 z
property float32 I
end_header
9.0110 -15.1921 3.1145 0.9308
9.6658 -13.4090 2.9146 0.9351
-13.0447 13.0775 3.2570 0.9277
-4.6446 -14.7335 2.7239 0.9392
8.2850 -15.2523 3.0605 0.9319
-11.8072 14.1634 2.8248 0.9281
-4.6428 -14.7277 2.3656 0.9394
8.5588 -15.7564 2.7469 0.9300
-11.8036 14.1591 2.4005 0.9283
-13.0551 13.0879 2.4072 0.9281
-11.5972 13.9115 1.9448 0.9297
-12.9064 12.9389 1.5471 0.9293
-15.1527 12.6966 1.6735 0.9237
-4.6372 -14.7100 1.3057 0.9400
-12.9612 12.9939 1.1381 0.9291
-4.6351 -14.7033 0.9560 0.9401
-11.7895 14.1421 0.7260 0.9289
-11.5834 13.8949 0.3056 0.9302
-4.6308 -14.6897 0.2602 0.9402
-11.5322 13.8335 -0.5071 0.9305
-12.9207 12.9532 -0.5152 0.9294
-15.1196 12.6689 -0.5554 0.9241
-4.6266 -14.6763 -0.4334 0.9403
-12.9367 12.9693 -0.9290 0.9293
-15.1912 12.7288 -1.0051 0.9237
-11.5696 13.8784 -1.3248 0.9301
-12.9418 12.9743 -1.3437 0.9291
-15.1976 12.7343 -1.4538 0.9236
19.7267 -1.0666 -1.8966 0.9237
18.6330 4.0426 -1.8305 0.9262
17.2725 7.1421 -1.7944 0.9276
16.4249 8.5783 -1.7790 0.9282
15.4755 9.9308 -1.7653 0.9288
14.4316 11.1946 -1.7535 0.9292
12.0889 13.4377 -1.7353 0.9299
10.8042 14.4090 -1.7290 0.9302
9.4532 15.2754 -1.7246 0.9304
7.4603 14.8723 -1.5974 0.9353
3.5236 17.6280 -1.7259 0.9303
-2.9088 18.0701 -1.7572 0.9291
-5.6923 16.1928 -1.6478 0.9334
-11.4479 13.7324 -1.7164 0.9307
-12.7793 12.8115 -1.7373 0.9299
-14.0472 11.7703 -1.7594 0.9290
-15.2403 10.6113 -1.7829 0.9281
-18.2544 6.4686 -1.8593 0.9251
19.6121 -0.0500 -1.8829 0.9242
18.2888 4.9655 -1.8194 0.9267
15.8892 9.3691 -1.7709 0.9286
14.8844 10.6710 -1.7583 0.9290
10.0325 14.9218 -1.7263 0.9303
8.0202 14.5872 -1.5982 0.9353
5.3007 15.7702 -1.5973 0.9353
12.6985 -12.2587 -2.0966 0.9314
13.5848 -10.9532 -2.0729 0.9321
14.3402 -9.5878 -2.0491 0.9329
14.9626 -8.1764 -2.0254 0.9336
15.4513 -6.7321 -2.0020 0.9344
16.0983 -0.8704 -1.9150 0.9371
15.3039 3.3203 -1.8602 0.9389
14.8203 4.6310 -1.8444 0.9394
14.2366 5.8868 -1.8300 0.9398
13.5584 7.0812 -1.8170 0.9402
12.7919 8.2087 -1.8054 0.9406
11.9429 9.2641 -1.7954 0.9409
11.0176 10.2427 -1.7869 0.9412
10.0221 11.1403 -1.7800 0.9414
7.8453 12.6771 -1.7709 0.9417
6.6764 13.3096 -1.7687 0.9418
5.4622 13.8473 -1.7682 0.9418
2.9239 14.6278 -1.7720 0.9417
-1.0594 15.0279 -1.7895 0.9411
-2.4062 14.9485 -1.7985 0.9408
-6.0219 13.2259 -1.7262 0.9431
-7.1023 12.5064 -1.7084 0.9437
-8.2603 11.9275 -1.7234 0.9432
-9.3773 11.2486 -1.7396 0.9427
-10.4449 10.4712 -1.7568 0.9422
-12.3969 8.6315 -1.7944 0.9410
-13.2632 7.5763 -1.8144 0.9403
-16.5781 4.2566 -2.0331 0.9334
-17.4695 1.2756 -2.0807 0.9319
-17.8111 -1.8870 -2.1276 0.9304
-17.7592 -3.5034 -2.1502 0.9297
-17.5525 -5.1232 -2.1720 0.9290
-17.1884 -6.7303 -2.1927 0.9283
-16.6661 -8.3077 -2.2120 0.9277
-12.0594 -12.9064 -2.0982 0.9313
-10.9059 -13.9867 -2.1068 0.9310
-8.2898 -15.7757 -2.1169 0.9307
-2.2461 -17.5992 -2.1075 0.9310
-0.7214 -19.1161 -2.2723 0.9258
0.9798 -19.0079 -2.2609 0.9262
2.6534 -18.7307 -2.2472 0.9266
5.8477 -17.6957 -2.2138 0.9277
8.6638 -15.9498 -2.1561 0.9295
11.2186 -13.9858 -2.1298 0.9303
12.2848 -12.7897 -2.1065 0.9311
13.2256 -11.5137 -2.0829 0.9318
14.7155 -8.7784 -2.0354 0.9333
15.2608 -7.3464 -2.0119 0.9341
15.6726 -5.8890 -1.9888 0.9348
15.9524 -4.4185 -1.9663 0.9355
16.0261 -0.0408 -1.9037 0.9375
15.4769 2.7507 -1.8673 0.9386
14.4954 5.3626 -1.8359 0.9396
13.8565 6.5837 -1.8223 0.9401
13.1266 7.7401 -1.8101 0.9405
9.4183 11.6197 -1.7767 0.9415
8.3247 12.3817 -1.7723 0.9417
5.9639 13.5923 -1.7632 0.9420
4.7438 14.1133 -1.7686 0.9418
6.5566 -13.7082 -2.1530 0.9405
8.7402 -12.1251 -2.1178 0.9414
9.6992 -11.1980 -2.0990 0.9419
10.5605 -10.1947 -2.0798 0.9424
11.3191 -9.1264 -2.0602 0.9430
13.4835 -3.1920 -1.9633 0.9456
13.5878 -1.9597 -1.9452 0.9460
13.4805 0.4748 -1.9112 0.9470
13.2751 1.6603 -1.8956 0.9474
12.5798 3.9309 -1.8674 0.9481
9.3962 8.7354 -1.8178 0.9495
6.6996 10.8258 -1.8039 0.9499
5.7024 11.3679 -1.8020 0.9499
3.5950 12.2027 -1.8025 0.9499
-0.9033 12.8137 -1.8201 0.9494
-2.0502 12.7365 -1.8279 0.9492
-3.1927 12.5655 -1.8370 0.9490
-4.3239 12.3001 -1.8473 0.9487
-6.5108 11.4647 -1.8681 0.9481
-7.3335 10.5894 -1.8251 0.9493
-8.0851 9.6985 -1.7891 0.9503
-9.8085 8.2187 -1.8131 0.9496
-12.0415 6.8784 -1.9649 0.9455
-12.7562 5.8467 -1.9882 0.9449
-13.3549 4.7324 -2.0075 0.9444
-13.8575 3.5581 -2.0271 0.9438
-14.2569 2.3317 -2.0469 0.9433
-14.5468 1.0622 -2.0666 0.9428
-14.7756 -1.5654 -2.1053 0.9417
-14.7058 -2.9010 -2.1238 0.9412
-14.5093 -4.2350 -2.1416 0.9408
-13.7327 -6.8455 -2.1741 0.9399
-12.4536 -9.2892 -2.2014 0.9392
-7.8999 -12.2429 -2.0645 0.9428
-4.4134 -14.0001 -2.0799 0.9424
-1.9925 -15.6121 -2.2300 0.9384
-0.5916 -15.6763 -2.2227 0.9386
6.0540 -13.9910 -2.1600 0.9403
8.3066 -12.4918 -2.1256 0.9412
11.7086 -8.4849 -2.0488 0.9433
12.7783 -6.1514 -2.0094 0.9443
13.1477 -4.9403 -1.9901 0.9448
13.5995 -1.2515 -1.9350 0.9463
13.3740 1.1621 -1.9021 0.9472
13.1126 2.3305 -1.8870 0.9476
11.7831 5.5985 -1.8484 0.9487
11.1735 6.5885 -1.8379 0.9489
8.9165 9.1888 -1.8142 0.9496
8.0391 9.9181 -1.8089 0.9497
7.1082 10.5724 -1.8051 0.9498
6.1295 11.1485 -1.8026 0.9499
5.1088 11.6434 -1.8016 0.9499
4.0518 12.0545 -1.8019 0.9499
5.5781 -11.6624 -2.1297 0.9489
7.4541 -10.3408 -2.1000 0.9496
8.2827 -9.5626 -2.0841 0.9500
9.6923 -7.8147 -2.0511 0.9508
10.2650 -6.8631 -2.0342 0.9512
10.7458 -5.8721 -2.0173 0.9516
11.4257 -3.8076 -1.9840 0.9523
11.6242 -2.7519 -1.9679 0.9527
11.7290 -1.6916 -1.9522 0.9531
11.6642 0.4108 -1.9227 0.9538
8.8606 6.8732 -1.8474 0.9556
6.6694 8.8947 -1.8315 0.9559
4.9724 9.9126 -1.8269 0.9560
3.1347 10.6402 -1.8273 0.9560
1.1998 11.0598 -1.8327 0.9559
-2.7771 10.9297 -1.8578 0.9553
-3.7582 10.6910 -1.8669 0.9551
-4.7215 10.3699 -1.8771 0.9549
-5.6603 9.9671 -1.8883 0.9546
-6.5679 9.4838 -1.9004 0.9543
-8.2624 8.2832 -1.9274 0.9537
-9.7505 6.7889 -1.9573 0.9530
-10.4001 5.9408 -1.9731 0.9526
-12.2192 1.9984 -2.0397 0.9510
-12.4505 0.9091 -2.0565 0.9507
-9.8582 -8.8240 -2.1796 0.9478
-9.0652 -9.7020 -2.1874 0.9476
-8.1879 -10.5009 -2.1936 0.9474
-4.0171 -12.7430 -2.2011 0.9473
-2.8623 -13.0348 -2.1985 0.9473
-0.5009 -13.2727 -2.1881 0.9476
0.6813 -13.2179 -2.1804 0.9478
1.8485 -13.0493 -2.1712 0.9480
2.9892 -12.7699 -2.1606 0.9482
4.0924 -12.3840 -2.1486 0.9485
5.1481 -11.8972 -2.1356 0.9488
6.1468 -11.3161 -2.1215 0.9491
7.0804 -10.6479 -2.1065 0.9495
10.0337 -7.2711 -2.0413 0.9510
10.9806 -5.2860 -2.0076 0.9518
11.3134 -4.2510 -1.9910 0.9522
11.6960 -2.1402 -1.9588 0.9529
11.0683 3.0051 -1.8894 0.9546
10.2408 4.8657 -1.8678 0.9551
9.7183 5.7304 -1.8586 0.9553
9.1290 6.5448 -1.8505 0.9555
8.4774 7.3046 -1.8435 0.9556
7.0065 8.6441 -1.8331 0.9559
6.1969 9.2169 -1.8297 0.9560
4.4549 10.1531 -1.8265 0.9560
3.5331 10.5114 -1.8268 0.9560
4.8491 -10.1382 -2.1123 0.9553
7.8800 -7.6071 -2.0587 0.9564
8.4664 -6.8263 -2.0442 0.9567
9.4062 -5.1401 -2.0147 0.9573
10.0220 -3.3398 -1.9856 0.9579
10.2063 -2.4162 -1.9714 0.9582
10.3083 -1.4867 -1.9576 0.9585
10.3291 -0.5585 -1.9443 0.9588
10.2702 0.3617 -1.9316 0.9590
10.1334 1.2674 -1.9195 0.9593
9.9213 2.1525 -1.9082 0.9595
9.6366 3.0112 -1.8977 0.9597
9.2824 3.8382 -1.8880 0.9599
7.8384 6.0802 -1.8646 0.9604
7.2429 6.7335 -1.8588 0.9605
5.1733 8.3595 -1.8478 0.9608
4.4043 8.7802 -1.8463 0.9608
3.6037 9.1359 -1.8460 0.9608
2.7765 9.4244 -1.8467 0.9608
1.0624 9.7929 -1.8515 0.9607
-0.6961 9.8743 -1.8606 0.9605
-2.4551 9.6625 -1.8739 0.9602
-5.7910 8.3619 -1.9118 0.9594
-6.5524 7.8600 -1.9234 0.9592
-7.9463 6.6583 -1.9486 0.9587
-9.1285 5.2144 -1.9760 0.9581
-10.0538 3.5626 -2.0049 0.9575
-10.9911 -1.1644 -2.0775 0.9560
-10.7455 -3.1364 -2.1040 0.9555
-10.1305 -5.0498 -2.1276 0.9550
-9.6871 -5.9613 -2.1379 0.9548
-9.1568 -6.8301 -2.1472 0.9546
-6.2627 -9.7056 -2.1711 0.9541
-2.4778 -11.2835 -2.1714 0.9541
-1.4600 -11.4398 -2.1677 0.9541
1.6029 -11.3150 -2.1480 0.9546
3.5534 -10.7529 -2.1286 0.9550
6.1638 -9.2694 -2.0923 0.9557
8.2275 -7.1625 -2.0503 0.9566
9.2340 -5.5084 -2.0210 0.9572
9.6175 -4.6298 -2.0063 0.9575
9.9192 -3.7271 -1.9917 0.9578
10.3302 -0.9506 -1.9499 0.9587
10.3047 -0.0262 -1.9369 0.9589
10.2006 0.8863 -1.9245 0.9592
9.7657 2.6514 -1.9020 0.9597
9.4405 3.4925 -1.8920 0.9599
8.5911 5.0658 -1.8746 0.9602
8.0742 5.7886 -1.8674 0.9604
7.5012 6.4634 -1.8611 0.9605
6.8762 7.0862 -1.8559 0.9606
6.2037 7.6537 -1.8518 0.9607
5.4880 8.1626 -1.8488 0.9608
4.7339 8.6100 -1.8468 0.9608
3.9461 8.9934 -1.8460 0.9608
3.1295 9.3106 -1.8462 0.9608
4.2843 -8.9575 -2.0989 0.9602
6.9830 -6.7411 -2.0516 0.9611
8.3557 -4.5660 -2.0127 0.9618
8.6728 -3.7787 -1.9997 0.9621
8.9172 -2.9717 -1.9868 0.9623
9.1862 -1.3249 -1.9619 0.9628
9.2115 -0.4981 -1.9500 0.9630
9.1654 0.3228 -1.9386 0.9632
8.8656 1.9235 -1.9176 0.9636
6.4901 6.0336 -1.8731 0.9644
5.9131 6.5728 -1.8689 0.9645
5.2945 7.0610 -1.8655 0.9646
4.6385 7.4953 -1.8632 0.9646
0.1667 8.8458 -1.8702 0.9645
-0.6237 8.8471 -1.8747 0.9644
-2.9716 8.4533 -1.8941 0.9640
-4.4649 7.8621 -1.9112 0.9637
-5.1737 7.4707 -1.9209 0.9635
-7.0848 5.9364 -1.9538 0.9629
-7.6323 5.3141 -1.9659 0.9627
-8.1265 4.6421 -1.9783 0.9625
-8.5626 3.9246 -1.9910 0.9622
-9.2423 2.3731 -2.0170 0.9617
-9.4780 1.5501 -2.0301 0.9615
-9.6396 0.7039 -2.0430 0.9613
-9.7242 -0.1588 -2.0558 0.9610
-9.4985 -2.7724 -2.0916 0.9604
-9.2610 -3.6262 -2.1023 0.9602
-8.9432 -4.4580 -2.1123 0.9600
-8.5469 -5.2596 -2.1213 0.9598
-7.5308 -6.7407 -2.1364 0.9595
-6.9192 -7.4052 -2.1423 0.9594
-3.0616 -9.7119 -2.1525 0.9592
-1.2861 -10.0767 -2.1473 0.9593
0.5204 -10.0965 -2.1370 0.9595
1.4134 -9.9776 -2.1301 0.9596
3.1368 -9.4921 -2.1132 0.9600
5.4520 -8.1989 -2.0813 0.9605
6.1052 -7.6111 -2.0625 0.9609
7.2942 -6.3501 -2.0443 0.9612
9.2096 -0.8475 -1.9550 0.9629
9.1936 -0.0234 -1.9433 0.9631
8.9516 1.5910 -1.9218 0.9635
8.4437 3.1237 -1.9030 0.9639
8.0965 3.8469 -1.8948 0.9640
5.5611 6.8609 -1.8668 0.9645
4.9204 7.3183 -1.8641 0.9646
2.8062 8.3488 -1.8618 0.9646
3.8336 -8.0151 -2.0881 0.9642
4.5113 -7.6059 -2.0784 0.9643
5.1453 -7.1380 -2.0680 0.9645
5.7307 -6.6163 -2.0572 0.9647
8.1833 -1.9373 -1.9764 0.9660
8.3044 -0.4490 -1.9546 0.9664
8.2676 0.2912 -1.9443 0.9666
8.1675 1.0215 -1.9345 0.9667
7.5055 3.1035 -1.9088 0.9672
7.1720 3.7458 -1.9016 0.9673
6.7868 4.3552 -1.8952 0.9674
6.3530 4.9280 -1.8896 0.9675
5.3527 5.9500 -1.8810 0.9676
4.7936 6.3929 -1.8779 0.9677
4.2001 6.7869 -1.8758 0.9677
2.9264 7.4186 -1.8743 0.9678
0.8622 7.9477 -1.8788 0.9677
0.1509 8.0070 -1.8822 0.9676
-2.6866 7.6425 -1.9039 0.9673
-3.3699 7.4014 -1.9113 0.9671
-4.6711 6.7449 -1.9282 0.9668
-5.2792 6.3326 -1.9376 0.9667
-5.8523 5.8670 -1.9476 0.9665
-6.3859 5.3508 -1.9581 0.9663
-7.7034 3.5308 -1.9916 0.9658
-8.3041 2.1322 -2.0150 0.9654
-8.5102 1.3918 -2.0267 0.9652
-8.6496 0.6316 -2.0383 0.9650
-8.7200 -0.1424 -2.0497 0.9648
-8.7196 -0.9238 -2.0608 0.9646
-8.5023 -2.4817 -2.0816 0.9643
-8.2852 -3.2442 -2.0912 0.9641
-7.9969 -3.9863 -2.1000 0.9640
-6.7259 -6.0203 -2.1215 0.9636
-5.5749 -7.1497 -2.1308 0.9634
-4.2269 -8.0439 -2.1356 0.9634
-1.9475 -8.8687 -2.1340 0.9634
-1.1480 -8.9948 -2.1311 0.9634
0.4648 -9.0171 -2.1220 0.9636
2.0451 -8.7366 -2.1088 0.9638
3.5350 -8.1695 -2.0921 0.9641
6.0446 -6.2930 -2.0508 0.9648
6.5447 -5.6976 -2.0394 0.9650
6.9864 -5.0629 -2.0278 0.9652
7.6843 -3.6992 -2.0043 0.9656
8.1240 -2.2502 -1.9812 0.9660
8.2451 -1.5088 -1.9700 0.9661
8.2910 -0.0211 -1.9486 0.9665
7.8851 2.1408 -1.9203 0.9670
7.6302 2.8228 -1.9121 0.9671
7.3196 3.4778 -1.9046 0.9672
6.9560 4.1016 -1.8979 0.9674
6.5423 4.6903 -1.8919 0.9675
6.0818 5.2404 -1.8868 0.9676
5.5781 5.7484 -1.8825 0.9676
4.4551 6.6264 -1.8766 0.9677
3.8437 6.9910 -1.8750 0.9678
4.6552 -6.4579 -2.0612 0.9676
5.1874 -5.9890 -2.0514 0.9678
5.6722 -5.4758 -2.0413 0.9679
6.4869 -4.3371 -2.0204 0.9683
6.8115 -3.7222 -2.0098 0.9684
7.0785 -3.0841 -1.9992 0.9686
7.2866 -2.4283 -1.9886 0.9688
7.2909 1.5818 -1.9317 0.9696
7.0921 2.2161 -1.9238 0.9698
5.7953 4.4955 -1.8990 0.9701
5.3594 4.9825 -1.8947 0.9702
3.8339 6.1952 -1.8864 0.9703
2.6714 6.7723 -1.8850 0.9704
2.0580 6.9854 -1.8855 0.9704
0.1377 7.3067 -1.8922 0.9703
-0.5149 7.3047 -1.8960 0.9702
-2.4492 6.9671 -1.9121 0.9699
-4.2535 6.1419 -1.9344 0.9696
-5.3243 5.3377 -1.9520 0.9693
-7.2904 2.5834 -2.0026 0.9685
-7.7142 1.2616 -2.0239 0.9682
-7.8959 -0.1290 -2.0447 0.9679
-7.8915 -0.8361 -2.0547 0.9677
-7.8221 -1.5431 -2.0643 0.9676
-7.6875 -2.2438 -2.0735 0.9675
-7.2244 -3.6012 -2.0900 0.9672
-6.8986 -4.2453 -2.0973 0.9671
-5.5742 -5.9657 -2.1140 0.9668
-5.0292 -6.4499 -2.1177 0.9668
-4.4402 -6.8811 -2.1204 0.9667
-2.4642 -7.8168 -2.1221 0.9667
-1.7566 -7.9995 -2.1206 0.9667
-1.0356 -8.1143 -2.1180 0.9668
-0.3080 -8.1604 -2.1144 0.9668
3.1947 -7.3830 -2.0829 0.9673
5.9291 -5.1616 -2.0354 0.9680
6.9727 -3.3566 -2.0036 0.9685
7.3795 -2.0440 -1.9826 0.9689
7.5477 -0.6946 -1.9625 0.9692
7.4792 0.6499 -1.9438 0.9695
6.9533 2.5724 -1.9196 0.9698
6.3430 3.7401 -1.9066 0.9700
5.9674 4.2782 -1.9011 0.9701
5.5487 4.7811 -1.8964 0.9702
5.0901 5.2456 -1.8925 0.9703
4.0666 6.0484 -1.8871 0.9703
3.5087 6.3817 -1.8856 0.9704
2.3198 6.9016 -1.8852 0.9704
3.1581 -6.6028 -2.0720 0.9700
3.7195 -6.2709 -2.0640 0.9701
5.1780 -4.9986 -2.0374 0.9705
5.5768 -4.4964 -2.0280 0.9707
5.9269 -3.9627 -2.0184 0.9708
6.2264 -3.4024 -2.0087 0.9709
6.4733 -2.8204 -1.9989 0.9711
6.6666 -2.2217 -1.9893 0.9712
6.8055 -1.6111 -1.9798 0.9713
6.9191 -0.3741 -1.9616 0.9716
6.8945 0.2428 -1.9530 0.9717
6.8167 0.8526 -1.9448 0.9718
6.5067 2.0332 -1.9298 0.9721
6.2779 2.5959 -1.9232 0.9722
5.6835 3.6471 -1.9117 0.9723
4.9232 4.5770 -1.9030 0.9724
3.5231 5.6930 -1.8953 0.9726
3.0002 5.9810 -1.8943 0.9726
2.4550 6.2237 -1.8940 0.9726
1.3126 6.5669 -1.8958 0.9725
0.7231 6.6649 -1.8979 0.9725
0.1265 6.7127 -1.9007 0.9725
-1.6645 6.5509 -1.9134 0.9723
-3.9007 5.6324 -1.9395 0.9719
-4.4049 5.2839 -1.9474 0.9718
-5.3190 4.4569 -1.9645 0.9716
-5.7213 3.9835 -1.9736 0.9714
-6.0821 3.4743 -1.9829 0.9713
-6.3981 2.9326 -1.9925 0.9712
-6.6662 2.3622 -2.0021 0.9710
-6.8833 1.7674 -2.0118 0.9709
-7.1556 0.5225 -2.0311 0.9706
-7.2069 -0.1177 -2.0405 0.9705
-7.1998 -0.7628 -2.0496 0.9704
-7.1335 -1.4072 -2.0584 0.9702
-7.0080 -2.0455 -2.0667 0.9701
-6.5812 -3.2806 -2.0817 0.9699
-6.2825 -3.8661 -2.0883 0.9698
-5.9296 -4.4229 -2.0942 0.9697
-5.5252 -4.9455 -2.0992 0.9696
-4.5761 -5.8688 -2.1068 0.9695
-4.0396 -6.2604 -2.1092 0.9695
-2.2417 -7.1111 -2.1108 0.9695
-0.2802 -7.4262 -2.1038 0.9696
1.0378 -7.3261 -2.0947 0.9697
2.3081 -6.9844 -2.0824 0.9699
4.0277 -6.0570 -2.0592 0.9702
4.5321 -5.6500 -2.0505 0.9703
4.9952 -5.2005 -2.0414 0.9705
5.4138 -4.7131 -2.0320 0.9706
6.5915 -2.4768 -1.9934 0.9712
6.7534 -1.8706 -1.9838 0.9713
6.9133 -0.6362 -1.9654 0.9716
6.7481 1.1993 -1.9403 0.9719
6.3805 2.3605 -1.9259 0.9721
5.4802 3.9289 -1.9089 0.9724
5.0968 4.3916 -1.9046 0.9724
4.6763 4.8191 -1.9010 0.9725
3.7368 5.5580 -1.8960 0.9725
2.8980 -6.0590 -2.0658 0.9723
3.4142 -5.7562 -2.0585 0.9724
3.8988 -5.4086 -2.0507 0.9725
4.3478 -5.0197 -2.0426 0.9726
4.7580 -4.5933 -2.0341 0.9727
5.1264 -4.1333 -2.0255 0.9728
5.7280 -3.1301 -2.0077 0.9731
6.2679 -1.4838 -1.9812 0.9734
6.3772 -0.3448 -1.9644 0.9736
6.3567 0.2239 -1.9564 0.9737
6.2870 0.7863 -1.9488 0.9738
6.1693 1.3385 -1.9417 0.9739
5.2488 3.3682 -1.9182 0.9742
4.5483 4.2284 -1.9101 0.9743
4.1468 4.6094 -1.9070 0.9744
3.7149 4.9544 -1.9047 0.9744
3.2558 5.2611 -1.9030 0.9744
2.7727 5.5275 -1.9020 0.9745
2.2689 5.7518 -1.9018 0.9745
1.7478 5.9326 -1.9023 0.9744
1.2130 6.0685 -1.9035 0.9744
0.1169 6.2021 -1.9080 0.9744
-0.4370 6.1985 -1.9113 0.9743
-0.9896 6.1476 -1.9152 0.9743
-3.1101 5.4765 -1.9371 0.9740
-3.5984 5.1959 -1.9440 0.9739
-4.0622 4.8728 -1.9513 0.9738
-5.2707 3.6698 -1.9754 0.9735
-5.6010 3.1994 -1.9840 0.9734
-6.1342 2.1737 -2.0017 0.9731
-6.3316 1.6257 -2.0106 0.9730
-6.6216 -0.1081 -2.0369 0.9727
-6.6127 -0.7006 -2.0453 0.9726
-6.2609 -2.4516 -2.0681 0.9723
-6.0368 -3.0093 -2.0747 0.9722
-5.4364 -4.0550 -2.0860 0.9720
-5.0647 -4.5333 -2.0907 0.9720
-4.6491 -4.9757 -2.0945 0.9719
-4.1934 -5.3780 -2.0976 0.9719
-3.1777 -6.0472 -2.1011 0.9718
-2.6268 -6.3077 -2.1016 0.9718
-1.4643 -6.6685 -2.1000 0.9718
3.1994 -5.8900 -2.0617 0.9723
3.6978 -5.5610 -2.0541 0.9724
4.5894 -4.7780 -2.0377 0.9727
4.9758 -4.3318 -2.0292 0.9728
5.6163 -3.3504 -2.0115 0.9730
6.0675 -2.2799 -1.9936 0.9732
6.3201 -1.1565 -1.9762 0.9735
6.3709 -0.5863 -1.9678 0.9736
6.3225 0.5494 -1.9520 0.9738
6.0799 1.6507 -1.9378 0.9740
5.8892 2.1787 -1.9314 0.9741
5.6545 2.6866 -1.9255 0.9741
5.3779 3.1711 -1.9203 0.9742
4.7083 4.0569 -1.9116 0.9743
4.3205 4.4525 -1.9083 0.9744
2.4844 5.6621 -1.9018 0.9745
2.6746 -5.5920 -2.0605 0.9742
4.3965 -4.2443 -2.0313 0.9746
4.7384 -3.8205 -2.0233 0.9747
5.0396 -3.3695 -2.0151 0.9748
5.8908 0.2075 -1.9594 0.9755
5.8279 0.7289 -1.9523 0.9755
5.7202 1.2410 -1.9457 0.9756
5.5691 1.7402 -1.9395 0.9757
5.3760 2.2230 -1.9338 0.9758
4.8711 3.1258 -1.9239 0.9759
4.5635 3.5399 -1.9198 0.9759
4.2222 3.9253 -1.9163 0.9760
2.1069 5.3412 -1.9086 0.9761
1.6230 5.5089 -1.9090 0.9761
0.1085 5.7580 -1.9143 0.9760
-0.9185 5.7058 -1.9211 0.9759
-1.4264 5.6138 -1.9253 0.9759
-1.9257 5.4781 -1.9302 0.9758
-2.4129 5.2995 -1.9356 0.9758
-2.8842 5.0788 -1.9415 0.9757
-4.5408 3.8048 -1.9692 0.9753
-4.8809 3.3984 -1.9770 0.9752
-5.4507 2.4983 -1.9931 0.9750
-5.6749 2.0110 -2.0013 0.9749
-5.9907 0.9798 -2.0178 0.9747
-6.0785 0.4439 -2.0259 0.9746
-6.1077 -0.6471 -2.0416 0.9744
-6.0476 -1.1930 -2.0490 0.9744
-4.6700 -4.1800 -2.0833 0.9739
-4.2862 -4.5873 -2.0869 0.9739
-3.8656 -4.9576 -2.0897 0.9738
-3.4118 -5.2875 -2.0917 0.9738
-2.9289 -5.5737 -2.0930 0.9738
-1.8931 -6.0053 -2.0930 0.9738
-1.3498 -6.1467 -2.0919 0.9738
-0.7960 -6.2367 -2.0899 0.9738
0.3227 -6.2603 -2.0837 0.9739
1.4226 -6.0772 -2.0747 0.9740
1.9532 -5.9106 -2.0692 0.9741
2.4649 -5.6964 -2.0632 0.9742
2.9533 -5.4369 -2.0567 0.9743
3.4143 -5.1346 -2.0497 0.9743
3.8444 -4.7927 -2.0423 0.9744
4.9173 -3.5634 -2.0186 0.9747
5.1940 -3.0984 -2.0104 0.9748
5.4270 -2.6125 -2.0021 0.9749
5.6150 -2.1098 -1.9939 0.9750
5.8526 -1.0710 -1.9777 0.9752
5.9014 -0.5431 -1.9700 0.9753
5.9037 -0.0150 -1.9624 0.9754
5.7712 1.0257 -1.9484 0.9756
5.6383 1.5308 -1.9420 0.9757
5.4627 2.0209 -1.9361 0.9757
4.6979 3.3680 -1.9215 0.9759
4.3706 3.7659 -1.9177 0.9760
2.7671 5.0328 -1.9091 0.9761
2.3070 5.2579 -1.9086 0.9761
2.9239 -4.9296 -2.0496 0.9759
3.3407 -4.6344 -2.0430 0.9760
3.7276 -4.3036 -2.0360 0.9761
5.1233 -2.2322 -1.9985 0.9765
5.4689 -0.7888 -1.9760 0.9768
5.4257 0.6786 -1.9554 0.9770
5.0082 2.0709 -1.9381 0.9772
4.7917 2.5026 -1.9332 0.9773
4.5395 2.9130 -1.9288 0.9773
3.5892 3.9896 -1.9191 0.9775
3.2159 4.2890 -1.9170 0.9775
2.8189 4.5550 -1.9156 0.9775
0.5784 5.3312 -1.9176 0.9775
-0.3781 5.3635 -1.9228 0.9774
-2.2477 4.9366 -1.9398 0.9772
-2.6862 4.7301 -1.9453 0.9772
-3.1064 4.4856 -1.9512 0.9771
-3.5051 4.2045 -1.9575 0.9770
-4.5401 3.1611 -1.9784 0.9768
-5.0672 2.3225 -1.9933 0.9766
-5.4405 1.3969 -2.0087 0.9764
-5.6444 0.4121 -2.0238 0.9762
-5.6683 -0.6005 -2.0384 0.9761
-5.3583 -2.0981 -2.0578 0.9759
-5.1641 -2.5742 -2.0634 0.9758
-4.9263 -3.0316 -2.0685 0.9757
-3.9715 -4.2505 -2.0803 0.9756
-3.5815 -4.5932 -2.0829 0.9756
-3.1608 -4.8984 -2.0847 0.9755
-2.7133 -5.1634 -2.0859 0.9755
-1.7537 -5.5632 -2.0859 0.9755
-1.2504 -5.6944 -2.0849 0.9755
-0.7374 -5.7781 -2.0831 0.9756
0.2990 -5.8013 -2.0773 0.9756
0.8132 -5.7409 -2.0735 0.9757
1.3187 -5.6334 -2.0690 0.9757
2.7394 -5.0431 -2.0523 0.9759
3.1678 -4.7638 -2.0458 0.9760
4.2700 -3.7173 -2.0246 0.9762
4.5672 -3.3097 -2.0170 0.9763
4.8256 -2.8787 -2.0094 0.9764
5.0436 -2.4279 -2.0017 0.9765
5.3534 -1.4828 -1.9865 0.9767
5.4438 -0.9962 -1.9791 0.9768
5.4943 -0.0140 -1.9648 0.9769
5.3736 0.9551 -1.9518 0.9771
5.2511 1.4257 -1.9458 0.9772
4.8878 2.3224 -1.9352 0.9773
4.3784 3.1390 -1.9266 0.9774
4.0739 3.5103 -1.9231 0.9774
3.7393 3.8535 -1.9202 0.9774
3.3769 4.1663 -1.9178 0.9775
2.5800 4.6926 -1.9150 0.9775
2.3102 -4.8301 -2.0518 0.9773
2.7237 -4.5920 -2.0460 0.9774
4.3660 -2.9191 -2.0127 0.9778
4.9296 -1.6428 -1.9912 0.9780
5.0385 -1.1928 -1.9842 0.9781
5.0701 0.6341 -1.9581 0.9783
4.9787 1.0802 -1.9523 0.9784
4.8491 1.5152 -1.9469 0.9785
4.6827 1.9363 -1.9419 0.9785
4.2457 2.7245 -1.9332 0.9786
3.9787 3.0863 -1.9297 0.9787
3.6821 3.4231 -1.9266 0.9787
1.8383 4.6602 -1.9198 0.9788
1.4160 4.8065 -1.9202 0.9788
0.9826 4.9160 -1.9212 0.9788
0.0946 5.0220 -1.9249 0.9787
-0.3537 5.0174 -1.9275 0.9787
-0.8007 4.9743 -1.9308 0.9786
-2.1015 4.6155 -1.9435 0.9785
-3.6236 3.6327 -1.9663 0.9783
-3.9459 3.3063 -1.9728 0.9782
-4.9210 1.7438 -2.0007 0.9779
-5.0749 1.3030 -2.0079 0.9778
-2.3039 0.1682 -0.8852 0.9902
-2.3030 -0.2440 -0.8875 0.9901
-5.1300 -1.4974 -2.0479 0.9774
-4.9900 -1.9539 -2.0536 0.9773
-4.8082 -2.3968 -2.0588 0.9772
-4.5861 -2.8222 -2.0636 0.9772
-4.0276 -3.6050 -2.0714 0.9771
-2.5244 -4.8040 -2.0797 0.9770
-2.0867 -5.0107 -2.0800 0.9770
-1.1634 -5.2982 -2.0787 0.9770
-0.6862 -5.3764 -2.0771 0.9770
0.2783 -5.3990 -2.0717 0.9771
1.2276 -5.2442 -2.0640 0.9772
1.6861 -5.1023 -2.0593 0.9772
2.1287 -4.9194 -2.0541 0.9773
2.5515 -4.6973 -2.0485 0.9774
2.9512 -4.4382 -2.0425 0.9774
4.2591 -3.0864 -2.0157 0.9777
4.5012 -2.6851 -2.0085 0.9778
4.8714 -1.8304 -1.9942 0.9780
5.0830 -0.9301 -1.9802 0.9781
5.0971 0.4429 -1.9607 0.9783
4.9085 1.3327 -1.9491 0.9784
4.7575 1.7600 -1.9439 0.9785
4.3493 2.5646 -1.9349 0.9786
3.4983 3.6052 -1.9251 0.9787
3.1596 3.8981 -1.9229 0.9787
2.7974 4.1606 -1.9213 0.9788
2.4142 4.3910 -1.9203 0.9788
2.0129 4.5876 -1.9198 0.9788
1.5962 4.7490 -1.9200 0.9788
2.1593 -4.5146 -2.0482 0.9786
3.2489 -3.7510 -2.0310 0.9788
3.8389 -3.0952 -2.0182 0.9789
4.0860 -2.7319 -2.0116 0.9790
4.2988 -2.3491 -2.0050 0.9790
4.4760 -1.9502 -1.9983 0.9791
4.7196 -1.1173 -1.9850 0.9793
4.7848 -0.6901 -1.9786 0.9793
4.8013 0.1691 -1.9663 0.9794
4.7532 0.5945 -1.9605 0.9795
4.6683 1.0128 -1.9551 0.9796
4.5476 1.4210 -1.9500 0.9796
4.2037 2.1955 -1.9410 0.9797
3.9835 2.5562 -1.9372 0.9798
3.7334 2.8960 -1.9338 0.9798
3.4554 3.2123 -1.9309 0.9798
2.8242 3.7665 -1.9267 0.9799
2.1086 4.2035 -1.9247 0.9799
0.9223 4.6142 -1.9258 0.9799
0.0888 4.7131 -1.9293 0.9798
-0.3319 4.7084 -1.9318 0.9798
-0.7513 4.6674 -1.9348 0.9798
-1.1663 4.5902 -1.9384 0.9797
-1.9710 4.3290 -1.9468 0.9797
-2.7221 3.9306 -1.9568 0.9795
-3.0702 3.6828 -1.9624 0.9795
-3.3962 3.4048 -1.9682 0.9794
-4.2160 2.4083 -1.9872 0.9792
-2.0398 0.3336 -0.8459 0.9911
-2.0182 -0.2138 -0.8306 0.9913
-4.6638 -1.8262 -2.0499 0.9786
-4.4932 -2.2398 -2.0548 0.9785
-4.2850 -2.6369 -2.0592 0.9785
-4.0407 -3.0139 -2.0631 0.9784
-3.7622 -3.3675 -2.0665 0.9784
-3.4519 -3.6944 -2.0693 0.9784
-3.1124 -3.9916 -2.0716 0.9784
-2.3574 -4.4863 -2.0742 0.9783
0.2600 -5.0432 -2.0668 0.9784
0.7071 -4.9919 -2.0635 0.9784
2.3851 -4.3910 -2.0451 0.9786
2.7593 -4.1496 -2.0395 0.9787
3.4315 -3.5725 -2.0274 0.9788
4.7619 -0.8714 -1.9813 0.9793
4.8051 -0.4422 -1.9749 0.9794
4.7781 0.4152 -1.9629 0.9795
4.6030 1.2497 -1.9521 0.9796
4.4621 1.6508 -1.9472 0.9796
3.5763 3.0815 -1.9321 0.9798
3.2831 3.3834 -1.9295 0.9798
2.9654 3.6585 -1.9275 0.9799
2.2660 4.1215 -1.9250 0.9799
1.8894 4.3060 -1.9245 0.9799
1.4983 4.4576 -1.9247 0.9799
2.0247 -4.2330 -2.0450 0.9797
3.0479 -3.5189 -2.0289 0.9799
3.3396 -3.2239 -2.0230 0.9799
3.8354 -2.5643 -2.0107 0.9801
4.2032 -1.8314 -1.9982 0.9802
4.3361 -1.4450 -1.9919 0.9803
4.4959 -0.6484 -1.9797 0.9804
4.5223 -0.2445 -1.9738 0.9804
4.4686 0.5589 -1.9627 0.9805
4.3896 0.9523 -1.9576 0.9806
3.9544 2.0653 -1.9443 0.9807
3.7477 2.4049 -1.9407 0.9808
3.5127 2.7248 -1.9375 0.9808
3.2514 3.0228 -1.9348 0.9808
2.9658 3.2967 -1.9326 0.9808
2.3300 3.7650 -1.9297 0.9809
1.6240 4.1169 -1.9288 0.9809
0.8680 4.3425 -1.9300 0.9809
0.0836 4.4352 -1.9333 0.9808
-0.3123 4.4304 -1.9356 0.9808
-1.0972 4.3184 -1.9418 0.9807
-1.8538 4.0716 -1.9497 0.9807
-3.1922 3.2002 -1.9699 0.9805
-3.9604 2.2622 -1.9877 0.9803
-1.4888 0.5276 -0.6884 0.9931
-1.4914 0.3829 -0.6711 0.9933
-1.4704 -0.1558 -0.6444 0.9936
-1.4935 -0.4359 -0.6780 0.9932
-4.2121 -2.0997 -2.0511 0.9797
-3.7869 -2.8247 -2.0589 0.9796
-3.5256 -3.1557 -2.0621 0.9796
-2.9162 -3.7399 -2.0669 0.9795
-2.5732 -3.9878 -2.0684 0.9795
-1.4276 -4.5285 -2.0694 0.9795
-1.0180 -4.6358 -2.0685 0.9795
-0.6004 -4.7047 -2.0670 0.9795
-0.1787 -4.7348 -2.0650 0.9795
0.2436 -4.7260 -2.0624 0.9796
0.6627 -4.6784 -2.0593 0.9796
1.0750 -4.5926 -2.0556 0.9796
1.4770 -4.4696 -2.0515 0.9797
2.5879 -3.8918 -2.0369 0.9798
2.9164 -3.6358 -2.0313 0.9799
3.9551 -2.3594 -2.0071 0.9801
4.1366 -1.9913 -2.0008 0.9802
4.2841 -1.6098 -1.9945 0.9802
4.3967 -1.2178 -1.9883 0.9803
4.5155 -0.4155 -1.9762 0.9804
4.4917 0.3903 -1.9649 0.9805
4.4272 0.7869 -1.9597 0.9806
4.1967 1.5526 -1.9502 0.9807
4.0330 1.9162 -1.9460 0.9807
3.8387 2.2635 -1.9422 0.9807
3.6155 2.5920 -1.9388 0.9808
2.7907 3.4430 -1.9315 0.9808
1.9036 -3.9799 -2.0421 0.9807
2.2454 -3.7856 -2.0373 0.9808
2.5673 -3.5616 -2.0323 0.9808
3.1419 -3.0331 -2.0214 0.9809
3.6096 -2.4134 -2.0099 0.9810
3.9573 -1.7242 -1.9981 0.9812
4.0831 -1.3607 -1.9922 0.9812
4.1758 -0.9886 -1.9864 0.9813
4.1376 0.8977 -1.9598 0.9815
4.0318 1.2599 -1.9553 0.9816
2.5073 3.3438 -1.9346 0.9817
1.5321 3.8839 -1.9326 0.9818
0.8188 4.0966 -1.9338 0.9818
-0.2946 4.1788 -1.9391 0.9817
-2.0875 3.6758 -1.9567 0.9815
-2.7200 3.2628 -1.9663 0.9815
-3.0079 3.0154 -1.9715 0.9814
-3.2735 2.7429 -1.9769 0.9814
-3.5149 2.4473 -1.9825 0.9813
-3.7297 2.1305 -1.9883 0.9812
-1.2634 0.4477 -0.6204 0.9941
-1.2737 0.2083 -0.5974 0.9943
-1.2621 -0.0206 -0.5843 0.9945
-1.2696 -0.2505 -0.5990 0.9943
-1.2703 -0.3708 -0.6125 0.9942
-3.7750 -2.3231 -2.0518 0.9807
-3.5590 -2.6547 -2.0552 0.9806
-2.7400 -3.5140 -2.0626 0.9806
-2.4177 -3.7468 -2.0640 0.9805
-1.3413 -4.2547 -2.0650 0.9805
-0.9564 -4.3555 -2.0641 0.9805
0.2289 -4.4411 -2.0584 0.9806
1.7536 -4.0527 -2.0440 0.9807
2.1030 -3.8715 -2.0394 0.9808
2.4337 -3.6599 -2.0345 0.9808
2.7431 -3.4197 -2.0292 0.9809
3.5203 -2.5511 -2.0124 0.9810
3.7227 -2.2207 -2.0065 0.9811
4.0338 -1.5157 -1.9947 0.9812
4.2141 -0.7711 -1.9830 0.9813
4.2540 -0.3915 -1.9774 0.9813
4.2602 -0.0109 -1.9720 0.9814
4.2330 0.3678 -1.9668 0.9814
4.1728 0.7416 -1.9618 0.9815
3.4098 2.4446 -1.9421 0.9817
3.1740 2.7348 -1.9393 0.9817
2.0120 3.6594 -1.9330 0.9818
1.6776 3.8233 -1.9326 0.9818
1.3303 3.9579 -1.9328 0.9818
2.9628 -2.8602 -2.0200 0.9818
3.1973 -2.5779 -2.0146 0.9819
3.8535 -1.2842 -1.9924 0.9821
3.9417 -0.9331 -1.9869 0.9821
3.9778 0.4975 -1.9664 0.9823
3.9086 0.8480 -1.9618 0.9823
3.8091 1.1903 -1.9576 0.9824
3.6805 1.5219 -1.9536 0.9824
3.5237 1.8403 -1.9500 0.9824
3.3402 2.1434 -1.9468 0.9825
3.1313 2.4290 -1.9439 0.9825
2.6445 2.9395 -1.9395 0.9825
2.3702 3.1610 -1.9380 0.9826
1.7699 3.5283 -1.9363 0.9826
1.4484 3.6717 -1.9361 0.9826
1.1156 3.7868 -1.9364 0.9826
0.7741 3.8727 -1.9372 0.9826
0.4262 3.9287 -1.9384 0.9825
0.0745 3.9545 -1.9401 0.9825
-0.2784 3.9498 -1.9423 0.9825
-0.6301 3.9144 -1.9448 0.9825
-1.3192 3.7526 -1.9511 0.9824
-3.0908 2.5898 -1.9780 0.9822
-3.3182 2.3103 -1.9833 0.9821
-3.5204 2.0110 -1.9887 0.9821
-1.1235 0.3981 -0.5847 0.9947
-1.1330 0.2909 -0.5738 0.9948
-1.1424 0.1868 -0.5678 0.9949
-1.1434 0.0835 -0.5623 0.9949
-1.1443 -0.1212 -0.5644 0.9949
-1.0877 -0.5422 -0.5962 0.9946
-3.5568 -2.1888 -2.0486 0.9816
-3.1210 -2.7935 -2.0546 0.9815
-2.2771 -3.5290 -2.0601 0.9815
-0.5314 -4.1637 -2.0589 0.9815
-0.1582 -4.1908 -2.0571 0.9815
0.2156 -4.1836 -2.0549 0.9815
0.5868 -4.1421 -2.0521 0.9815
0.9520 -4.0670 -2.0489 0.9816
1.9821 -3.6490 -2.0369 0.9817
2.5861 -3.2241 -2.0274 0.9818
3.1012 -2.6998 -2.0169 0.9818
3.5120 -2.0950 -2.0059 0.9819
3.6744 -1.7688 -2.0004 0.9820
3.9782 -0.7280 -1.9838 0.9821
4.0230 -0.0102 -1.9734 0.9822
3.9979 0.3474 -1.9684 0.9823
3.9416 0.7005 -1.9637 0.9823
3.5934 1.7073 -1.9515 0.9824
3.4210 2.0172 -1.9481 0.9825
3.2227 2.3104 -1.9451 0.9825
3.0000 2.5849 -1.9425 0.9825
2.7547 2.8388 -1.9403 0.9825
2.4885 3.0702 -1.9386 0.9825
1.6943 -3.5424 -2.0371 0.9825
2.7996 -2.7027 -2.0187 0.9826
3.2184 -2.1518 -2.0085 0.9827
3.7280 -0.8826 -1.9875 0.9829
3.8001 0.1338 -1.9726 0.9830
3.7643 0.4708 -1.9680 0.9831
3.6992 0.8026 -1.9637 0.9831
3.3360 1.7423 -1.9525 0.9832
2.9650 2.3000 -1.9467 0.9832
2.7451 2.5520 -1.9444 0.9833
2.5043 2.7838 -1.9426 0.9833
2.2447 2.9936 -1.9411 0.9833
1.0566 3.5864 -1.9396 0.9833
0.7331 3.6677 -1.9404 0.9833
0.4036 3.7207 -1.9415 0.9833
0.0706 3.7449 -1.9431 0.9833
-0.9258 3.6438 -1.9504 0.9832
-1.5632 3.4334 -1.9571 0.9831
-2.1566 3.1141 -1.9651 0.9831
-2.4310 2.9161 -1.9695 0.9830
-2.9240 2.4500 -1.9790 0.9830
-0.9525 0.5441 -0.5690 0.9951
-0.9838 0.4509 -0.5614 0.9951
-1.0097 0.3578 -0.5557 0.9952
-1.0340 0.1691 -0.5435 0.9953
-1.0319 -0.0169 -0.5354 0.9954
-1.0297 -0.2031 -0.5445 0.9953
-0.9705 -0.4838 -0.5626 0.9951
-0.9669 -0.5950 -0.5889 0.9949
-3.1655 -2.3612 -2.0487 0.9824
-2.4361 -3.1243 -2.0553 0.9823
-1.8447 -3.5106 -2.0573 0.9823
-1.5248 -3.6615 -2.0576 0.9823
-1.1923 -3.7823 -2.0574 0.9823
-0.8503 -3.8722 -2.0567 0.9823
1.2354 -3.7384 -2.0426 0.9824
1.8721 -3.4465 -2.0347 0.9825
2.4432 -3.0459 -2.0257 0.9826
2.9307 -2.5514 -2.0158 0.9826
3.1384 -2.2743 -2.0107 0.9827
3.6961 -1.0238 -1.9897 0.9829
3.7629 -0.6886 -1.9845 0.9829
3.7996 -0.3497 -1.9795 0.9830
3.8063 -0.0097 -1.9746 0.9830
3.7303 0.6630 -1.9655 0.9831
3.6486 0.9906 -1.9613 0.9831
3.5388 1.3092 -1.9575 0.9831
2.8408 2.4478 -1.9454 0.9832
2.6086 2.6883 -1.9433 0.9833
2.0870 3.1041 -1.9405 0.9833
1.5020 3.4232 -1.9393 0.9833
1.1911 3.5437 -1.9394 0.9833
1.8917 -3.1893 -2.0309 0.9832
2.1638 -3.0018 -2.0267 0.9833
2.6502 -2.5585 -2.0176 0.9833
3.0475 -2.0376 -2.0078 0.9834
3.3441 -1.4570 -1.9979 0.9835
1.8883 -0.2723 -1.0450 0.9913
1.8847 -0.1019 -1.0338 0.9914
1.8812 0.0663 -1.0310 0.9915
1.8888 0.2362 -1.0426 0.9914
3.3037 1.3661 -1.9580 0.9838
3.1636 1.6522 -1.9548 0.9839
2.9993 1.9247 -1.9519 0.9839
2.1293 2.8397 -1.9440 0.9839
1.5901 3.1700 -1.9424 0.9840
1.3013 3.2988 -1.9423 0.9840
-0.2501 3.5475 -1.9478 0.9839
-0.5658 3.5153 -1.9501 0.9839
-0.8780 3.4556 -1.9528 0.9839
-1.1843 3.3688 -1.9558 0.9838
-1.4823 3.2555 -1.9592 0.9838
-2.0444 2.9521 -1.9667 0.9838
-2.3042 2.7640 -1.9709 0.9837
-2.5470 2.5534 -1.9753 0.9837
-2.7709 2.3217 -1.9799 0.9836
-0.8781 0.6114 -0.5860 0.9951
-0.8718 0.4980 -0.5499 0.9954
-0.8975 0.4114 -0.5407 0.9955
-0.9276 0.2382 -0.5245 0.9956
-0.9436 0.1543 -0.5237 0.9956
-0.9429 -0.0154 -0.5165 0.9957
-0.9472 -0.1004 -0.5217 0.9957
-0.9392 -0.1853 -0.5243 0.9956
-0.9233 -0.2695 -0.5268 0.9956
-0.8625 -0.5307 -0.5547 0.9954
-2.5560 -2.7355 -2.0505 0.9831
-2.3039 -2.9547 -2.0521 0.9831
-2.0327 -3.1501 -2.0533 0.9830
-1.1276 -3.5769 -2.0541 0.9830
-0.1412 -3.7415 -2.0507 0.9831
0.1925 -3.7354 -2.0486 0.9831
0.5240 -3.6990 -2.0462 0.9831
0.8503 -3.6325 -2.0433 0.9831
1.4766 -3.4126 -2.0365 0.9832
1.7715 -3.2612 -2.0327 0.9832
2.3124 -2.8828 -2.0241 0.9833
2.7745 -2.4154 -2.0148 0.9834
3.2902 -1.5839 -2.0000 0.9835
1.8843 -0.3448 -1.0492 0.9913
1.8887 -0.1738 -1.0388 0.9914
1.8726 -0.0048 -1.0256 0.9915
1.8885 0.1641 -1.0382 0.9914
1.8851 0.3350 -1.0487 0.9913
3.3554 1.2413 -1.9595 0.9838
3.0717 1.8112 -1.9531 0.9839
2.8941 2.0748 -1.9504 0.9839
2.2355 2.7580 -1.9445 0.9839
1.7088 3.1080 -1.9426 0.9840
2.5128 -2.4258 -2.0165 0.9840
3.0437 -1.6633 -2.0026 0.9841
1.7323 -0.4101 -1.0278 0.9918
1.7411 -0.2511 -1.0156 0.9919
1.7368 -0.0939 -1.0042 0.9920
1.7339 0.0611 -1.0017 0.9920
2.8486 1.8280 -1.9541 0.9845
2.4732 2.2992 -1.9496 0.9845
2.0227 2.6975 -1.9466 0.9845
1.7734 2.8657 -1.9457 0.9846
0.9522 3.2320 -1.9453 0.9846
0.6606 3.3051 -1.9459 0.9846
0.3637 3.3526 -1.9470 0.9845
0.0636 3.3742 -1.9484 0.9845
-0.5374 3.3388 -1.9525 0.9845
-0.8339 3.2819 -1.9550 0.9845
-1.1246 3.1992 -1.9579 0.9845
-1.4075 3.0913 -1.9610 0.9844
-1.6803 2.9588 -1.9645 0.9844
-1.9410 2.8027 -1.9683 0.9844
-2.1874 2.6239 -1.9722 0.9843
-2.4176 2.4237 -1.9764 0.9843
-2.6297 2.2035 -1.9808 0.9843
-0.7989 0.5562 -0.5620 0.9955
-0.8435 0.3866 -0.5357 0.9957
-0.8792 -0.0144 -0.5077 0.9959
-0.8774 -0.1731 -0.5163 0.9959
-0.8658 -0.2527 -0.5207 0.9958
-0.8549 -0.3348 -0.5301 0.9958
-0.8033 -0.5992 -0.5786 0.9954
-2.6401 -2.3631 -2.0457 0.9838
-2.4214 -2.5915 -2.0477 0.9838
-2.1825 -2.7990 -2.0492 0.9837
-1.9255 -2.9840 -2.0503 0.9837
-1.6525 -3.1447 -2.0510 0.9837
-1.3659 -3.2799 -2.0513 0.9837
-0.1338 -3.5444 -2.0478 0.9838
0.4964 -3.5046 -2.0436 0.9838
0.8057 -3.4419 -2.0409 0.9838
1.1075 -3.3514 -2.0378 0.9838
1.3994 -3.2340 -2.0345 0.9839
1.9439 -2.9233 -2.0269 0.9839
2.1921 -2.7329 -2.0227 0.9839
2.4217 -2.5212 -2.0184 0.9840
2.8180 -2.0421 -2.0092 0.9841
3.1210 -1.5024 -1.9998 0.9841
1.7279 -0.4786 -1.0352 0.9918
1.7369 -0.3178 -1.0194 0.9919
1.7408 -0.1602 -1.0093 0.9920
1.7267 -0.0044 -0.9969 0.9921
3.0634 1.4555 -1.9582 0.9845
2.9172 1.7201 -1.9553 0.9845
2.7487 1.9706 -1.9527 0.9845
2.5593 2.2052 -1.9505 0.9845
1.6233 2.9525 -1.9453 0.9846
