ply
format ascii 1.0
element vertex 1202
property float32 x
property float32 y
property float32 z
property float32 I
end_header
-10.1110 14.1919 3.0726 0.9317
-11.7587 13.7217 3.1864 0.9292
8.1172 -14.1883 2.8823 0.9358
13.3747 -13.3031 3.3262 0.9262
-11.7588 13.7218 2.7684 0.9295
9.1312 -13.0890 2.4449 0.9375
-16.3169 11.0164 2.1141 0.9239
-11.7594 13.7226 1.5298 0.9300
-16.3228 11.0204 1.6672 0.9240
-11.7645 13.7285 0.7129 0.9302
-16.3344 11.0282 0.7771 0.9241
-11.7670 13.7315 0.3055 0.9302
-16.3402 11.0322 0.3330 0.9242
-11.7696 13.7344 -0.1018 0.9302
-11.7748 13.7405 -0.9177 0.9301
-16.3577 11.0439 -1.0009 0.9240
1.4797 15.2421 -1.1228 0.9404
-11.7053 13.6594 -1.3190 0.9304
9.4659 -15.8108 -1.7692 0.9286
19.3778 -0.9132 -1.8624 0.9250
19.1418 0.8118 -1.8394 0.9259
18.7720 2.4898 -1.8180 0.9267
17.6583 5.6724 -1.7806 0.9282
16.9281 7.1630 -1.7647 0.9288
16.0915 8.5783 -1.7507 0.9293
15.1551 9.9129 -1.7386 0.9298
14.1257 11.1619 -1.7284 0.9302
11.8139 13.3854 -1.7140 0.9308
10.5444 14.3518 -1.7098 0.9309
6.3573 16.6262 -1.7089 0.9310
3.0743 16.3145 -1.5938 0.9355
1.4711 15.1525 -1.4616 0.9407
0.1225 16.7677 -1.6098 0.9348
-1.4936 18.1358 -1.7470 0.9295
-3.1322 18.0681 -1.7605 0.9290
-6.4151 17.5413 -1.7931 0.9277
-10.9392 15.3543 -1.8099 0.9270
10.5381 -15.1056 -1.7682 0.9287
17.8049 5.3328 -1.7844 0.9280
14.3613 10.8930 -1.7305 0.9301
10.8315 14.1465 -1.7105 0.9309
9.5090 15.0340 -1.7078 0.9310
8.1241 15.8169 -1.7071 0.9310
5.1927 17.0553 -1.7116 0.9309
1.9377 16.5444 -1.5992 0.9353
-11.9610 -13.8257 -2.1716 0.9290
-10.4992 -14.5910 -2.1353 0.9302
-9.1654 -15.4911 -2.1381 0.9301
-3.1345 -17.5897 -2.1223 0.9306
1.7466 -18.9152 -2.2564 0.9263
6.5236 -17.3047 -2.1968 0.9282
8.6243 -14.4050 -1.9943 0.9346
12.6253 -12.0697 -2.0748 0.9321
14.2159 -9.3943 -2.0241 0.9337
15.2811 -6.5509 -1.9749 0.9352
15.6172 -5.0978 -1.9514 0.9360
15.8247 -3.6393 -1.9288 0.9367
15.9067 -2.1859 -1.9073 0.9374
15.7087 0.6662 -1.8676 0.9386
15.4374 2.0475 -1.8498 0.9392
13.3206 7.1011 -1.7931 0.9410
12.5604 8.2157 -1.7828 0.9413
8.7640 11.9285 -1.7583 0.9421
7.6546 12.6500 -1.7563 0.9422
6.4927 13.2816 -1.7561 0.9422
5.2843 13.8200 -1.7575 0.9421
0.1095 14.9862 -1.7802 0.9414
-2.5904 14.9425 -1.8014 0.9407
-3.9435 14.7569 -1.8144 0.9403
-6.6168 14.0520 -1.8450 0.9394
-9.1895 12.8984 -1.8812 0.9382
-12.6855 8.5647 -1.8181 0.9402
-13.5639 7.4873 -1.8404 0.9395
-14.3545 6.3227 -1.8632 0.9388
-17.4309 2.5715 -2.0930 0.9315
-18.1091 -2.2196 -2.1672 0.9291
-18.0290 -3.8698 -2.1904 0.9284
-17.3824 -7.1530 -2.2328 0.9271
-16.8132 -8.7503 -2.2515 0.9265
-16.0822 -10.2933 -2.2681 0.9260
-15.1941 -11.7635 -2.2825 0.9255
-12.5886 -13.9815 -2.2348 0.9270
-10.7811 -14.3735 -2.1343 0.9302
-9.4687 -15.3037 -2.1377 0.9301
-8.0659 -16.0938 -2.1384 0.9301
-3.4856 -17.5404 -2.1243 0.9305
-0.3297 -19.1553 -2.2757 0.9257
4.6519 -18.1259 -2.2229 0.9274
6.1933 -17.4693 -2.2017 0.9281
7.6502 -16.6732 -2.1791 0.9288
8.3581 -14.6094 -1.9993 0.9344
11.4015 -13.5747 -2.1058 0.9311
13.3064 -11.0549 -2.0549 0.9327
15.1891 -6.8708 -1.9803 0.9351
15.5539 -5.4204 -1.9566 0.9358
15.8992 -2.5067 -1.9119 0.9372
15.7536 0.3557 -1.8718 0.9385
14.1306 5.6519 -1.8078 0.9405
13.4774 6.8454 -1.7956 0.9409
12.7359 7.9748 -1.7850 0.9413
11.9120 9.0352 -1.7760 0.9416
11.0112 10.0218 -1.7686 0.9418
9.0019 11.7570 -1.7589 0.9421
5.5555 13.7090 -1.7571 0.9422
3.0391 14.5386 -1.7643 0.9419
-10.3867 -12.0060 -2.2494 0.9379
-9.2918 -12.9130 -2.2541 0.9378
-7.9693 -13.4695 -2.2175 0.9387
-6.5930 -13.8323 -2.1711 0.9400
-4.1423 -15.2137 -2.2341 0.9383
-2.7772 -15.5843 -2.2429 0.9381
-1.3680 -15.7069 -2.2339 0.9383
0.0408 -15.6886 -2.2229 0.9386
1.4342 -15.5316 -2.2100 0.9389
4.1178 -14.8193 -2.1793 0.9398
5.3821 -14.2767 -2.1618 0.9402
6.5792 -13.6205 -2.1432 0.9407
7.6993 -12.8600 -2.1237 0.9412
8.7337 -12.0052 -2.1035 0.9418
13.1413 -4.2896 -1.9587 0.9457
13.4216 -0.6325 -1.9038 0.9472
13.3088 0.5645 -1.8874 0.9476
12.7932 2.8788 -1.8580 0.9484
12.3981 3.9826 -1.8451 0.9488
11.9172 5.0426 -1.8335 0.9491
11.3549 6.0532 -1.8232 0.9493
10.7159 7.0092 -1.8143 0.9496
10.0052 7.9059 -1.8068 0.9498
9.2276 8.7388 -1.8007 0.9500
6.5448 10.8160 -1.7912 0.9502
3.4491 12.1902 -1.7950 0.9501
0.0934 12.7883 -1.8120 0.9496
-2.2066 12.7286 -1.8304 0.9491
-4.4947 12.2902 -1.8542 0.9485
-5.6164 11.9274 -1.8680 0.9481
-6.7131 11.4690 -1.8829 0.9477
-7.7770 10.9158 -1.8990 0.9473
-11.5395 7.7909 -1.9728 0.9453
-12.3145 6.7976 -1.9930 0.9448
-13.0062 5.7289 -2.0137 0.9442
-14.7806 0.8433 -2.0977 0.9419
-14.9756 -1.8355 -2.1378 0.9409
-14.2998 -5.8845 -2.1910 0.9394
-13.8110 -7.1879 -2.2060 0.9390
-11.5887 -10.7592 -2.2406 0.9381
-10.6161 -11.7908 -2.2480 0.9379
-6.8856 -13.7387 -2.1774 0.9398
-4.4074 -15.0080 -2.2163 0.9388
-3.0877 -15.5380 -2.2446 0.9380
-1.6805 -15.6920 -2.2361 0.9382
-0.2703 -15.7048 -2.2255 0.9385
2.4991 -15.3159 -2.1988 0.9392
6.3205 -13.7751 -2.1474 0.9406
7.4584 -13.0369 -2.1281 0.9411
9.4751 -11.2812 -2.0874 0.9422
10.3404 -10.2850 -2.0665 0.9428
11.1035 -9.2247 -2.0454 0.9433
11.7610 -8.1112 -2.0243 0.9439
12.3106 -6.9554 -2.0034 0.9445
13.3056 -3.3388 -1.9437 0.9461
13.4217 -2.1161 -1.9252 0.9466
13.3424 0.3013 -1.8910 0.9475
13.1530 1.4801 -1.8754 0.9479
11.4861 5.8340 -1.8254 0.9493
10.8638 6.8026 -1.8161 0.9495
10.1685 7.7127 -1.8083 0.9497
9.4052 8.5601 -1.8019 0.9499
8.5791 9.3406 -1.7970 0.9501
3.6884 12.1146 -1.7943 0.9501
2.5967 12.4225 -1.7982 0.9500
1.4807 12.6424 -1.8035 0.9499
-6.8503 -11.5782 -2.2162 0.9469
0.0345 -13.2833 -2.1883 0.9476
1.2154 -13.1621 -2.1775 0.9478
2.3733 -12.9280 -2.1653 0.9481
3.4970 -12.5851 -2.1518 0.9484
8.2719 -9.4615 -2.0704 0.9503
9.0058 -8.6095 -2.0525 0.9507
9.6536 -7.7021 -2.0345 0.9512
10.6788 -5.7574 -1.9986 0.9520
11.0527 -4.7382 -1.9811 0.9524
11.5203 -2.6494 -1.9474 0.9532
11.6153 -1.5962 -1.9315 0.9536
11.5353 0.4892 -1.9020 0.9543
11.3650 1.5074 -1.8887 0.9546
11.1115 2.5004 -1.8763 0.9549
10.7782 3.4623 -1.8649 0.9551
9.8866 5.2705 -1.8457 0.9556
9.3361 6.1067 -1.8378 0.9558
8.7216 6.8916 -1.8312 0.9559
8.0472 7.6210 -1.8258 0.9561
7.3176 8.2909 -1.8217 0.9562
5.7114 9.4387 -1.8174 0.9563
4.8447 9.9103 -1.8173 0.9563
3.0091 10.6352 -1.8208 0.9562
2.0509 10.8837 -1.8245 0.9561
0.0814 11.1434 -1.8358 0.9558
-2.9179 10.9191 -1.8619 0.9552
-4.8746 10.3522 -1.8850 0.9547
-10.5945 5.8482 -1.9936 0.9521
-11.6719 3.9383 -2.0293 0.9513
-12.0836 2.9052 -2.0474 0.9509
-12.6236 0.7202 -2.0830 0.9500
-12.7421 -0.4140 -2.1002 0.9496
-12.7545 -1.5633 -2.1169 0.9492
-12.1341 -4.9933 -2.1616 0.9482
-11.7072 -6.0929 -2.1742 0.9479
-10.5357 -8.1569 -2.1950 0.9474
-9.8001 -9.0986 -2.2030 0.9472
-8.9730 -9.9658 -2.2092 0.9471
-8.0624 -10.7488 -2.2135 0.9470
-6.0283 -12.0282 -2.2164 0.9469
-3.7828 -12.8810 -2.2116 0.9470
-2.6104 -13.1361 -2.2063 0.9472
0.9555 -13.1988 -2.1800 0.9478
2.1195 -12.9893 -2.1682 0.9480
4.3416 -12.2464 -2.1405 0.9487
5.3795 -11.7242 -2.1250 0.9491
6.3565 -11.1108 -2.1088 0.9494
9.5177 -7.9073 -2.0385 0.9511
10.0962 -6.9630 -2.0204 0.9515
10.5834 -5.9796 -2.0025 0.9519
10.9779 -4.9659 -1.9849 0.9523
11.4869 -2.8824 -1.9510 0.9531
11.5615 0.2611 -1.9051 0.9542
11.4099 1.2839 -1.8915 0.9545
11.1746 2.2830 -1.8789 0.9548
10.4656 4.1860 -1.8569 0.9553
9.9993 5.0788 -1.8476 0.9556
9.4637 5.9259 -1.8395 0.9557
8.8629 6.7225 -1.8326 0.9559
8.2014 7.4645 -1.8269 0.9560
5.8980 9.3249 -1.8177 0.9563
2.2650 10.8354 -1.8236 0.9561
-5.9237 -10.0121 -2.1866 0.9538
-2.0319 -11.4022 -2.1769 0.9540
0.0299 -11.5061 -2.1627 0.9542
1.0535 -11.4086 -2.1535 0.9544
2.0586 -11.2140 -2.1430 0.9547
3.9764 -10.5479 -2.1188 0.9552
5.7147 -9.5452 -2.0911 0.9557
6.4984 -8.9326 -2.0763 0.9560
7.2172 -8.2551 -2.0610 0.9564
7.8662 -7.5200 -2.0455 0.9567
8.9396 -5.9076 -2.0140 0.9573
10.1282 -2.3292 -1.9534 0.9586
10.2218 -1.4047 -1.9394 0.9589
10.0281 1.3301 -1.9014 0.9597
9.5244 3.0595 -1.8803 0.9601
8.7171 4.6470 -1.8567 0.9606
8.2641 5.4055 -1.8561 0.9606
7.1285 6.7509 -1.8454 0.9608
5.7936 7.8855 -1.8392 0.9610
4.2939 8.7837 -1.8377 0.9610
3.4937 9.1372 -1.8387 0.9610
1.8170 9.6420 -1.8442 0.9609
0.0721 9.8651 -1.8543 0.9606
-0.8127 9.8677 -1.8610 0.9605
-1.6983 9.7964 -1.8688 0.9603
-3.4489 9.4307 -1.8874 0.9600
-4.3022 9.1366 -1.8982 0.9597
-7.4251 7.2405 -1.9493 0.9587
-8.7249 5.8906 -1.9787 0.9581
-9.7844 4.3097 -2.0096 0.9574
-10.5578 2.5384 -2.0410 0.9568
-11.0055 0.6279 -2.0720 0.9561
-11.0019 -2.3615 -2.1150 0.9552
-10.8124 -3.3555 -2.1279 0.9550
-10.5279 -4.3323 -2.1398 0.9547
-9.1223 -7.0626 -2.1685 0.9541
-6.9729 -9.2964 -2.1843 0.9538
-5.2128 -10.4010 -2.1868 0.9538
-0.1982 -11.5144 -2.1646 0.9542
0.8281 -11.4387 -2.1556 0.9544
2.8224 -10.9974 -2.1341 0.9548
4.6778 -10.1950 -2.1084 0.9554
6.3303 -9.0741 -2.0796 0.9560
8.3206 -6.9127 -2.0333 0.9569
9.2727 -5.2391 -2.0019 0.9576
9.6289 -4.3556 -1.9864 0.9579
10.0965 -2.5335 -1.9566 0.9585
10.2080 -1.6094 -1.9424 0.9588
10.2391 -0.6860 -1.9289 0.9591
9.8661 2.0157 -1.8928 0.9598
9.5941 2.8735 -1.8825 0.9601
9.2529 3.7009 -1.8731 0.9603
8.8458 4.4929 -1.8648 0.9604
7.8478 5.9525 -1.8514 0.9607
6.6306 7.2192 -1.8424 0.9609
5.2273 8.2646 -1.8381 0.9610
4.4669 8.6966 -1.8376 0.9610
2.0067 9.5998 -1.8434 0.9609
-6.6839 -7.7259 -2.1594 0.9591
-2.6841 -9.8581 -2.1597 0.9591
-1.7889 -10.0388 -2.1554 0.9592
0.0264 -10.1382 -2.1430 0.9594
1.8159 -9.8915 -2.1258 0.9597
2.6796 -9.6434 -2.1156 0.9599
3.5121 -9.3164 -2.1046 0.9601
4.3062 -8.9148 -2.0927 0.9603
5.0552 -8.4436 -2.0802 0.9606
5.7531 -7.9082 -2.0672 0.9608
6.9759 -6.6690 -2.0400 0.9613
7.4925 -5.9779 -2.0261 0.9616
7.9417 -5.2481 -2.0121 0.9618
8.3211 -4.4863 -1.9983 0.9621
8.6292 -3.6993 -1.9846 0.9623
9.1373 -0.4306 -1.9336 0.9633
9.0855 0.3853 -1.9222 0.9635
8.9647 1.1890 -1.9115 0.9637
8.7769 1.9750 -1.9017 0.9639
8.5244 2.7383 -1.8926 0.9641
7.4064 4.8445 -1.8707 0.9645
6.9240 5.4712 -1.8654 0.9646
6.3925 6.0539 -1.8610 0.9646
5.1972 7.0738 -1.8555 0.9647
4.5413 7.5050 -1.8542 0.9648
3.1342 8.1969 -1.8550 0.9648
1.6295 8.6471 -1.8600 0.9647
0.8521 8.7772 -1.8640 0.9646
-0.7282 8.8412 -1.8752 0.9644
-1.5209 8.7735 -1.8822 0.9643
-2.3085 8.6388 -1.8901 0.9641
-3.0856 8.4372 -1.8990 0.9639
-3.8467 8.1691 -1.9086 0.9638
-4.5862 7.8354 -1.9191 0.9636
-5.9785 6.9765 -1.9421 0.9631
-7.2177 5.8766 -1.9674 0.9627
-8.6943 3.8296 -2.0082 0.9619
-9.0642 3.0584 -2.0221 0.9616
-9.5936 1.4153 -2.0498 0.9611
-9.8187 -0.3190 -2.0766 0.9606
-9.8104 -1.2024 -2.0892 0.9604
-9.2879 -3.8221 -2.1230 0.9598
-8.9489 -4.6574 -2.1325 0.9596
-8.5303 -5.4598 -2.1408 0.9594
-8.0352 -6.2210 -2.1480 0.9593
-6.1367 -8.1815 -2.1618 0.9590
-5.3855 -8.7044 -2.1636 0.9590
-1.9884 -10.0063 -2.1565 0.9591
0.7299 -10.0827 -2.1368 0.9595
1.6212 -9.9354 -2.1279 0.9597
3.3309 -9.3954 -2.1071 0.9601
4.1340 -9.0099 -2.0954 0.9603
4.8935 -8.5536 -2.0830 0.9605
5.6033 -8.0320 -2.0701 0.9608
6.2579 -7.4507 -2.0567 0.9610
7.3839 -6.1345 -2.0292 0.9615
8.2432 -4.6574 -2.0013 0.9620
8.8190 -3.0733 -1.9741 0.9625
8.9981 -2.2579 -1.9610 0.9628
8.9973 1.0124 -1.9138 0.9637
8.8241 1.8028 -1.9038 0.9638
8.2847 3.3137 -1.8861 0.9642
7.9239 4.0247 -1.8786 0.9643
7.5062 4.7002 -1.8721 0.9644
7.0352 5.3362 -1.8665 0.9645
6.5143 5.9289 -1.8619 0.9646
5.9471 6.4749 -1.8584 0.9647
4.0074 7.8021 -1.8540 0.9648
3.2954 8.1319 -1.8547 0.9648
1.7997 8.6096 -1.8592 0.9647
1.0253 8.7539 -1.8631 0.9646
-5.9627 -6.8923 -2.1419 0.9632
-5.3294 -7.4065 -2.1445 0.9632
-3.1744 -8.5552 -2.1446 0.9632
0.0235 -9.0517 -2.1274 0.9635
0.8295 -8.9832 -2.1202 0.9636
2.3957 -8.6218 -2.1031 0.9639
5.1562 -7.0876 -2.0599 0.9646
5.7352 -6.5600 -2.0479 0.9648
6.2606 -5.9851 -2.0356 0.9650
7.4836 -4.0347 -1.9982 0.9657
7.7660 -3.3292 -1.9858 0.9659
8.1357 -1.8710 -1.9620 0.9663
8.2225 -1.1299 -1.9506 0.9665
8.2444 -0.3885 -1.9398 0.9667
8.2024 0.3479 -1.9295 0.9668
8.0977 1.0740 -1.9198 0.9670
7.9321 1.7849 -1.9108 0.9671
7.4261 3.1423 -1.8951 0.9674
6.2691 4.9537 -1.8778 0.9677
5.7891 5.4825 -1.8739 0.9678
5.2675 5.9682 -1.8709 0.9678
4.7079 6.4079 -1.8688 0.9679
3.4898 7.1389 -1.8675 0.9679
2.8392 7.4254 -1.8684 0.9679
0.7716 7.9475 -1.8766 0.9677
0.0585 8.0043 -1.8812 0.9676
-0.6589 8.0009 -1.8868 0.9676
-4.1411 7.0749 -1.9267 0.9669
-5.3920 6.2921 -1.9475 0.9665
-7.4301 4.1014 -1.9946 0.9657
-7.8153 3.4424 -2.0071 0.9655
-8.6056 1.2696 -2.0444 0.9649
-8.7361 0.4985 -2.0565 0.9647
-8.7957 -0.2858 -2.0683 0.9645
-8.7827 -1.0765 -2.0796 0.9643
-7.9941 -4.1605 -2.1180 0.9636
-7.6170 -4.8752 -2.1254 0.9635
-6.0960 -6.7705 -2.1412 0.9633
-5.4739 -7.2978 -2.1440 0.9632
-4.8035 -7.7636 -2.1456 0.9632
-4.0911 -8.1630 -2.1460 0.9632
-2.5690 -8.7479 -2.1428 0.9632
-1.7741 -8.9280 -2.1393 0.9633
0.6519 -9.0049 -2.1219 0.9636
2.9793 -8.4036 -2.0955 0.9640
3.6998 -8.0636 -2.0851 0.9642
4.3823 -7.6600 -2.0741 0.9644
5.0211 -7.1975 -2.0625 0.9646
6.1491 -6.1162 -2.0383 0.9650
6.6304 -5.5085 -2.0259 0.9652
7.0522 -4.8637 -2.0134 0.9654
7.4124 -4.1879 -2.0009 0.9656
7.9410 -2.7674 -1.9764 0.9660
7.9739 1.6291 -1.9128 0.9671
7.1695 3.6415 -1.8899 0.9675
5.8991 5.3690 -1.8747 0.9678
5.3864 5.8645 -1.8714 0.9678
4.8349 6.3147 -1.8692 0.9678
2.9853 7.3667 -1.8681 0.9679
2.3171 7.6104 -1.8697 0.9678
1.6300 7.7976 -1.8722 0.9678
0.9284 7.9268 -1.8757 0.9677
-4.8048 -6.6774 -2.1300 0.9666
-3.5416 -7.4303 -2.1312 0.9666
-0.7105 -8.1574 -2.1201 0.9667
0.0212 -8.1672 -2.1146 0.9668
2.1640 -7.7879 -2.0928 0.9672
3.4849 -7.2146 -2.0745 0.9674
4.0957 -6.8410 -2.0644 0.9676
4.6668 -6.4149 -2.0539 0.9678
5.1937 -5.9406 -2.0431 0.9679
5.6728 -5.4231 -2.0320 0.9681
6.1006 -4.8674 -2.0207 0.9683
6.4746 -4.2786 -2.0094 0.9684
7.0529 -3.0236 -1.9869 0.9688
7.2545 -2.3681 -1.9759 0.9690
7.3969 -1.7011 -1.9652 0.9691
7.4797 -1.0279 -1.9548 0.9693
7.4688 0.3168 -1.9355 0.9696
7.0268 2.2572 -1.9109 0.9700
6.7727 2.8658 -1.9041 0.9701
6.4688 3.4485 -1.8980 0.9702
3.7569 6.2086 -1.8789 0.9705
3.1868 6.5191 -1.8788 0.9705
2.5926 6.7805 -1.8796 0.9705
1.9781 6.9912 -1.8812 0.9704
1.3473 7.1496 -1.8837 0.9704
0.7043 7.2544 -1.8871 0.9703
0.0533 7.3047 -1.8914 0.9703
-4.3526 6.1093 -1.9422 0.9695
-6.3498 4.2871 -1.9837 0.9688
-6.7451 3.7233 -1.9948 0.9687
-7.0908 3.1233 -2.0061 0.9685
-7.3830 2.4912 -2.0175 0.9683
-7.6185 1.8317 -2.0288 0.9681
-7.7944 1.1499 -2.0399 0.9680
-7.9081 0.4512 -2.0509 0.9678
-7.9578 -0.2586 -2.0615 0.9676
-7.9419 -0.9734 -2.0717 0.9675
-7.7108 -2.3929 -2.0904 0.9672
-3.6882 -7.3590 -2.1313 0.9666
-2.3163 -7.8874 -2.1284 0.9666
0.5883 -8.1270 -2.1097 0.9669
2.6921 -7.5935 -2.0860 0.9673
3.9637 -6.9284 -2.0667 0.9676
4.5440 -6.5135 -2.0563 0.9677
5.5710 -5.5412 -2.0345 0.9681
6.0105 -4.9934 -2.0232 0.9682
6.3966 -4.4115 -2.0119 0.9684
7.0003 -3.1666 -1.9893 0.9688
7.2150 -2.5144 -1.9783 0.9689
7.3705 -1.8495 -1.9675 0.9691
7.4665 -1.1772 -1.9571 0.9693
7.2663 1.4845 -1.9202 0.9698
6.8333 2.7332 -1.9055 0.9700
6.5402 3.3219 -1.8993 0.9701
6.1993 3.8818 -1.8938 0.9702
4.4148 5.7660 -1.8803 0.9704
3.8794 6.1335 -1.8791 0.9705
3.3153 6.4545 -1.8787 0.9705
2.7261 6.7269 -1.8793 0.9705
2.1157 6.9490 -1.8808 0.9704
1.4881 7.1191 -1.8831 0.9704
0.8475 7.2359 -1.8863 0.9703
-4.8900 -5.6524 -2.1159 0.9694
-4.3697 -6.0727 -2.1179 0.9694
-3.2206 -6.7570 -2.1190 0.9694
-2.6027 -7.0145 -2.1180 0.9694
-1.9637 -7.2121 -2.1160 0.9694
-0.6464 -7.4217 -2.1090 0.9695
0.6815 -7.3805 -2.0983 0.9697
3.1768 -6.5767 -2.0676 0.9701
3.7352 -6.2388 -2.0585 0.9702
4.7409 -5.4227 -2.0391 0.9705
5.1806 -4.9526 -2.0289 0.9706
5.9186 -3.9112 -2.0083 0.9709
6.6411 -2.1678 -1.9777 0.9714
6.7744 -1.5579 -1.9679 0.9715
6.8780 -0.3241 -1.9493 0.9718
6.8490 0.2905 -1.9406 0.9719
6.7672 0.8976 -1.9325 0.9720
6.6338 1.4928 -1.9250 0.9721
6.4505 2.0721 -1.9180 0.9722
4.8570 4.5997 -1.8937 0.9726
4.4205 5.0085 -1.8912 0.9726
3.4535 5.7073 -1.8885 0.9726
2.9295 5.9927 -1.8883 0.9727
1.2382 6.5709 -1.8929 0.9726
0.6472 6.6662 -1.8960 0.9725
-1.1524 6.6479 -1.9100 0.9723
-3.4587 5.9090 -1.9383 0.9719
-5.4097 4.4045 -1.9748 0.9714
-6.9585 1.6730 -2.0260 0.9707
-7.2582 -0.2358 -2.0558 0.9703
-7.2406 -0.8875 -2.0651 0.9701
-7.0243 -2.1799 -2.0821 0.9699
-6.5692 -3.4189 -2.0965 0.9697
-5.8870 -4.5578 -2.1077 0.9695
-4.9996 -5.5528 -2.1153 0.9694
-4.4883 -5.9839 -2.1176 0.9694
-3.9381 -6.3649 -2.1189 0.9694
-3.3540 -6.6922 -2.1191 0.9694
-2.7416 -6.9626 -2.1184 0.9694
-1.4553 -7.3234 -2.1137 0.9694
-0.7936 -7.4108 -2.1100 0.9695
0.5355 -7.3974 -2.0996 0.9696
1.1907 -7.2975 -2.0932 0.9697
3.0488 -6.6446 -2.0696 0.9701
4.1455 -5.9423 -2.0511 0.9703
4.6375 -5.5215 -2.0413 0.9705
5.0871 -5.0599 -2.0312 0.9706
5.4910 -4.5619 -2.0209 0.9708
6.4046 -2.8971 -1.9900 0.9712
6.7496 -1.6937 -1.9700 0.9715
6.8406 -1.0785 -1.9604 0.9716
6.8772 -0.4608 -1.9513 0.9718
6.8600 0.1549 -1.9425 0.9719
6.7898 0.7640 -1.9343 0.9720
6.6677 1.3623 -1.9266 0.9721
6.0068 3.0510 -1.9073 0.9724
5.3415 4.0515 -1.8979 0.9725
4.9489 4.5042 -1.8944 0.9726
4.5201 4.9213 -1.8916 0.9726
3.5661 5.6382 -1.8886 0.9726
2.5059 6.1836 -1.8888 0.9726
1.9447 6.3873 -1.8902 0.9726
-4.4795 -5.1779 -2.1059 0.9718
0.6247 -6.7657 -2.0898 0.9720
1.8079 -6.5065 -2.0771 0.9721
2.3737 -6.2966 -2.0697 0.9722
3.9108 -5.3758 -2.0447 0.9726
4.3562 -4.9826 -2.0357 0.9727
5.1259 -4.0897 -2.0169 0.9729
5.7175 -3.0826 -1.9979 0.9732
6.3180 0.2680 -1.9450 0.9739
6.1233 1.3779 -1.9305 0.9741
5.9558 1.9132 -1.9241 0.9742
5.1927 3.3965 -1.9085 0.9744
4.8587 3.8392 -1.9047 0.9744
4.4888 4.2511 -1.9015 0.9745
4.0859 4.6294 -1.8992 0.9745
3.6527 4.9717 -1.8975 0.9745
2.2030 5.7614 -1.8972 0.9745
1.6806 5.9396 -1.8986 0.9745
1.1444 6.0730 -1.9008 0.9745
0.5981 6.1604 -1.9037 0.9744
-2.6807 5.6930 -1.9355 0.9740
-3.6800 5.1652 -1.9507 0.9738
-4.9834 4.0574 -1.9766 0.9735
-5.6790 3.1348 -1.9952 0.9732
-5.9647 2.6273 -2.0047 0.9731
-6.2049 2.0937 -2.0142 0.9730
-6.6288 0.3782 -2.0422 0.9726
-6.6648 -0.2166 -2.0510 0.9725
-6.6461 -0.8146 -2.0595 0.9724
-6.5723 -1.4107 -2.0675 0.9723
-6.4432 -1.9996 -2.0750 0.9722
-6.2596 -2.5759 -2.0819 0.9721
-6.0223 -3.1343 -2.0882 0.9720
-5.3946 -4.1766 -2.0984 0.9719
-5.0091 -4.6505 -2.1023 0.9718
-4.5800 -5.0868 -2.1053 0.9718
-2.5112 -6.3775 -2.1082 0.9717
-1.3332 -6.7092 -2.1040 0.9718
-0.7272 -6.7903 -2.1005 0.9718
-0.1173 -6.8141 -2.0962 0.9719
1.6800 -6.5459 -2.0786 0.9721
4.2608 -5.0730 -2.0377 0.9727
4.6758 -4.6508 -2.0284 0.9728
5.3783 -3.7092 -2.0095 0.9730
5.8964 -2.6673 -1.9905 0.9733
6.0826 -2.1197 -1.9812 0.9734
6.3052 -0.9941 -1.9633 0.9736
6.3413 -0.4249 -1.9548 0.9738
6.3276 0.1429 -1.9467 0.9739
3.7511 4.8991 -1.8978 0.9745
3.2965 5.2119 -1.8968 0.9745
2.8172 5.4848 -1.8965 0.9745
2.3164 5.7160 -1.8970 0.9745
1.7975 5.9040 -1.8982 0.9745
1.2641 6.0474 -1.9003 0.9745
-4.1282 -4.7717 -2.0973 0.9738
-3.2169 -5.4372 -2.1000 0.9737
-2.1969 -5.9207 -2.0992 0.9737
-1.6577 -6.0884 -2.0975 0.9738
-1.1057 -6.2046 -2.0949 0.9738
-0.5460 -6.2686 -2.0916 0.9738
0.5761 -6.2387 -2.0826 0.9739
2.6914 -5.5718 -2.0569 0.9743
3.6123 -4.9654 -2.0411 0.9744
4.0250 -4.6038 -2.0327 0.9746
4.4016 -4.2079 -2.0242 0.9747
4.7395 -3.7814 -2.0154 0.9748
5.0364 -3.3282 -2.0066 0.9749
5.2903 -2.8523 -1.9978 0.9750
5.6640 -1.8489 -1.9805 0.9752
5.7820 -1.3297 -1.9721 0.9753
5.8535 -0.8044 -1.9640 0.9754
5.8785 -0.2770 -1.9562 0.9755
5.7910 0.7681 -1.9418 0.9757
5.6801 1.2782 -1.9353 0.9758
5.5260 1.7751 -1.9293 0.9758
4.1684 3.9477 -1.9084 0.9761
3.7946 4.2994 -1.9061 0.9761
3.3925 4.6175 -1.9046 0.9761
2.5152 5.1452 -1.9037 0.9761
2.0461 5.3511 -1.9043 0.9761
1.5608 5.5163 -1.9056 0.9761
1.0628 5.6397 -1.9077 0.9761
0.5553 5.7202 -1.9104 0.9761
-0.4736 5.7500 -1.9178 0.9760
-1.4972 5.6027 -1.9277 0.9759
-2.9585 5.0544 -1.9468 0.9756
-3.8403 4.4814 -1.9618 0.9754
-5.2552 2.9009 -1.9953 0.9750
-5.5176 2.4304 -2.0041 0.9749
-6.0425 0.8914 -2.0303 0.9746
-6.1546 -0.2000 -2.0469 0.9744
-6.1354 -0.7520 -2.0547 0.9743
-6.0654 -1.3019 -2.0621 0.9742
-5.9447 -1.8449 -2.0690 0.9741
-5.5536 -2.8903 -2.0811 0.9740
-4.6168 -4.2863 -2.0941 0.9738
-3.3238 -5.3721 -2.0999 0.9737
-2.3140 -5.8767 -2.0994 0.9737
-1.7784 -6.0556 -2.0979 0.9737
-1.2287 -6.1834 -2.0956 0.9738
-0.6703 -6.2590 -2.0924 0.9738
0.4526 -6.2523 -2.0837 0.9739
1.5498 -6.0385 -2.0723 0.9741
2.5826 -5.6285 -2.0585 0.9742
4.9743 -3.4306 -2.0086 0.9749
5.2379 -2.9594 -1.9998 0.9750
5.8661 0.1325 -1.9504 0.9756
5.3771 2.1507 -1.9251 0.9759
5.1501 2.6158 -1.9201 0.9759
4.8846 3.0586 -1.9157 0.9760
4.2471 3.8655 -1.9090 0.9761
3.4838 4.5501 -1.9049 0.9761
2.6166 5.0943 -1.9037 0.9761
1.1739 5.6161 -1.9072 0.9761
0.6683 5.7061 -1.9097 0.9761
-3.8237 -4.4198 -2.0900 0.9755
-3.4161 -4.7475 -2.0916 0.9755
-2.5175 -5.2819 -2.0924 0.9755
-2.0347 -5.4837 -2.0916 0.9755
-0.5058 -5.8074 -2.0846 0.9755
0.5339 -5.7816 -2.0763 0.9756
1.0458 -5.6967 -2.0712 0.9757
1.5464 -5.5650 -2.0655 0.9758
2.0313 -5.3882 -2.0593 0.9758
2.4965 -5.1683 -2.0525 0.9759
2.9381 -4.9074 -2.0454 0.9760
3.7366 -4.2740 -2.0302 0.9762
4.4026 -3.5126 -2.0141 0.9764
5.1137 -2.1922 -1.9897 0.9766
5.3792 -1.2371 -1.9739 0.9768
5.4473 -0.7486 -1.9663 0.9769
5.3934 0.7154 -1.9456 0.9772
5.2914 1.1907 -1.9395 0.9772
4.9674 2.1019 -1.9289 0.9773
4.4942 2.9396 -1.9204 0.9774
4.2062 3.3236 -1.9171 0.9775
3.1638 4.3062 -1.9109 0.9776
2.7652 4.5698 -1.9101 0.9776
1.4555 5.1442 -1.9118 0.9775
0.5178 5.3334 -1.9162 0.9775
0.0392 5.3672 -1.9194 0.9775
-3.1755 4.4571 -1.9570 0.9770
-3.5741 4.1707 -1.9642 0.9769
-3.9475 3.8493 -1.9717 0.9769
-4.2924 3.4948 -1.9794 0.9768
-4.6059 3.1097 -1.9874 0.9767
-4.8852 2.6966 -1.9955 0.9766
-5.1275 2.2585 -2.0036 0.9765
-5.3305 1.7986 -2.0118 0.9764
-5.6101 0.8276 -2.0279 0.9762
-5.6915 -0.6976 -2.0505 0.9759
-5.6251 -1.2074 -2.0574 0.9759
-5.5117 -1.7105 -2.0638 0.9758
-5.3520 -2.2024 -2.0696 0.9757
-5.1470 -2.6787 -2.0749 0.9757
-4.8980 -3.1349 -2.0796 0.9756
-4.6072 -3.5670 -2.0836 0.9756
-3.9096 -4.3422 -2.0895 0.9755
-3.5090 -4.6782 -2.0913 0.9755
-3.0784 -4.9754 -2.0923 0.9755
-2.1432 -5.4429 -2.0919 0.9755
-0.1002 -5.8204 -2.0817 0.9756
0.9333 -5.7196 -2.0724 0.9757
1.4367 -5.5981 -2.0668 0.9757
1.9255 -5.4312 -2.0607 0.9758
2.8425 -4.9686 -2.0470 0.9760
3.6544 -4.3509 -2.0319 0.9762
4.0128 -3.9914 -2.0240 0.9762
5.4704 -0.3665 -1.9606 0.9770
5.3175 1.0864 -1.9408 0.9772
5.0109 2.0042 -1.9300 0.9773
4.8002 2.4381 -1.9253 0.9774
4.5535 2.8512 -1.9212 0.9774
4.2727 3.2408 -1.9178 0.9775
3.9601 3.6043 -1.9149 0.9775
3.2489 4.2432 -1.9111 0.9776
2.8554 4.5144 -1.9102 0.9776
0.6231 5.3204 -1.9156 0.9775
-3.5571 -4.1116 -2.0835 0.9770
-2.3418 -4.9132 -2.0858 0.9770
-1.8928 -5.1010 -2.0850 0.9770
-0.9529 -5.3472 -2.0814 0.9770
0.0141 -5.4147 -2.0750 0.9771
0.9735 -5.3028 -2.0661 0.9772
1.4397 -5.1813 -2.0608 0.9772
1.8916 -5.0177 -2.0550 0.9773
2.7373 -4.5720 -2.0421 0.9774
3.1242 -4.2945 -2.0351 0.9775
4.3658 -2.8850 -2.0054 0.9778
5.0236 -1.1553 -1.9754 0.9782
5.0885 -0.6993 -1.9683 0.9782
5.1129 -0.2409 -1.9615 0.9783
5.0417 0.6687 -1.9490 0.9784
4.9472 1.1133 -1.9433 0.9785
4.8150 1.5467 -1.9380 0.9786
4.4420 2.3680 -1.9291 0.9787
3.9356 3.1098 -1.9222 0.9787
2.9609 4.0300 -1.9164 0.9788
1.7858 4.6703 -1.9161 0.9788
0.4845 4.9905 -1.9214 0.9788
0.0367 5.0216 -1.9244 0.9787
-0.4129 5.0139 -1.9279 0.9787
-1.3047 4.8823 -1.9366 0.9786
-2.5748 4.3989 -1.9533 0.9784
-2.9672 4.1648 -1.9597 0.9783
-3.3389 3.8963 -1.9664 0.9783
-3.6868 3.5951 -1.9734 0.9782
-4.0079 3.2632 -1.9806 0.9781
-4.2995 2.9028 -1.9880 0.9780
-4.7838 2.1071 -2.0032 0.9779
-5.1210 1.2312 -2.0184 0.9777
-5.2298 0.7715 -2.0258 0.9776
-5.2386 -1.1244 -2.0532 0.9773
-4.2869 -3.3189 -2.0776 0.9770
-3.6371 -4.0395 -2.0830 0.9770
-2.4387 -4.8660 -2.0858 0.9770
-1.9936 -5.0631 -2.0853 0.9770
-1.0589 -5.3286 -2.0820 0.9770
1.7930 -5.0574 -2.0563 0.9773
3.0409 -4.3589 -2.0367 0.9775
3.7413 -3.7212 -2.0222 0.9776
4.0437 -3.3595 -2.0147 0.9777
4.5425 -2.5665 -1.9994 0.9779
4.7357 -2.1422 -1.9918 0.9780
4.8897 -1.7040 -1.9843 0.9781
5.0038 -1.2556 -1.9770 0.9781
5.1041 0.1153 -1.9565 0.9784
4.6865 1.8745 -1.9343 0.9786
4.2600 2.6675 -1.9261 0.9787
3.9978 3.0323 -1.9229 0.9787
3.7057 3.3727 -1.9202 0.9788
3.3858 3.6863 -1.9181 0.9788
2.2838 4.4464 -1.9156 0.9788
-2.9671 -4.1235 -2.0791 0.9783
-1.7673 -4.7629 -2.0792 0.9783
-0.4395 -5.0464 -2.0732 0.9783
1.7679 -4.6896 -2.0512 0.9786
2.1737 -4.5000 -2.0454 0.9786
3.2581 -3.7267 -2.0259 0.9788
3.5658 -3.4089 -2.0190 0.9789
4.0868 -2.7007 -2.0048 0.9791
4.4703 -1.9164 -1.9906 0.9792
4.7071 -1.0825 -1.9768 0.9793
4.7689 -0.6553 -1.9701 0.9794
4.7928 -0.2259 -1.9638 0.9795
4.7790 0.2027 -1.9577 0.9795
4.5169 1.4510 -1.9417 0.9797
4.1683 2.2221 -1.9332 0.9798
3.1085 3.5220 -1.9226 0.9799
2.7795 3.7832 -1.9213 0.9799
2.4295 4.0150 -1.9207 0.9799
1.6764 4.3843 -1.9211 0.9799
1.2786 4.5191 -1.9222 0.9799
0.4547 4.6841 -1.9261 0.9799
-0.3875 4.7051 -1.9322 0.9798
-1.2240 4.5803 -1.9404 0.9797
-1.6324 4.4636 -1.9452 0.9797
-3.1294 3.6518 -1.9683 0.9794
-3.4547 3.3688 -1.9749 0.9794
-4.0269 2.7188 -1.9886 0.9792
-4.2689 2.3564 -1.9957 0.9791
-4.6532 1.5701 -2.0099 0.9790
-2.0200 -0.2476 -0.8329 0.9912
-4.7957 -1.4883 -2.0551 0.9785
-4.6550 -1.9156 -2.0602 0.9785
-4.4752 -2.3291 -2.0648 0.9784
-4.2575 -2.7250 -2.0688 0.9784
-3.3962 -3.7720 -2.0774 0.9783
-3.0479 -4.0634 -2.0789 0.9783
-2.6737 -4.3213 -2.0798 0.9783
-1.4308 -4.8721 -2.0782 0.9783
-0.9888 -4.9759 -2.0763 0.9783
-0.0871 -5.0586 -2.0707 0.9784
0.8116 -4.9738 -2.0626 0.9785
1.2498 -4.8699 -2.0577 0.9785
1.6757 -4.7265 -2.0524 0.9786
2.0855 -4.5451 -2.0467 0.9786
2.8437 -4.0762 -2.0341 0.9787
3.5003 -3.4816 -2.0206 0.9789
4.5802 -1.5962 -1.9851 0.9793
4.6882 -1.1764 -1.9783 0.9793
4.7908 -0.3210 -1.9652 0.9795
4.7853 0.1081 -1.9590 0.9795
4.7424 0.5336 -1.9532 0.9796
4.5472 1.3619 -1.9428 0.9797
4.3970 1.7587 -1.9382 0.9797
4.2133 2.1400 -1.9341 0.9798
3.9978 2.5033 -1.9305 0.9798
2.8543 3.7278 -1.9216 0.9799
2.1440 4.1741 -1.9205 0.9799
1.7628 4.3499 -1.9209 0.9799
1.3677 4.4922 -1.9219 0.9799
0.9616 4.6002 -1.9234 0.9799
-3.1116 -3.5966 -2.0727 0.9795
-2.0482 -4.2972 -2.0746 0.9794
-1.6555 -4.4617 -2.0740 0.9794
-0.8336 -4.6780 -2.0709 0.9795
-0.4118 -4.7281 -2.0684 0.9795
0.4350 -4.7105 -2.0617 0.9796
0.8524 -4.6434 -2.0575 0.9796
1.6575 -4.3967 -2.0478 0.9797
2.0383 -4.2198 -2.0424 0.9798
2.4004 -4.0093 -2.0366 0.9798
2.7408 -3.7675 -2.0305 0.9799
3.6070 -2.8779 -2.0110 0.9801
4.3286 -1.4129 -1.9844 0.9803
4.4822 -0.6159 -1.9718 0.9805
4.4934 0.1906 -1.9600 0.9806
4.2490 1.3649 -1.9450 0.9807
3.7132 2.4288 -1.9337 0.9808
2.9258 3.3150 -1.9270 0.9809
2.2869 3.7793 -1.9251 0.9809
1.2035 4.2536 -1.9266 0.9809
0.8193 4.3477 -1.9281 0.9809
0.0324 4.4350 -1.9329 0.9808
-0.3646 4.4273 -1.9360 0.9808
-0.7602 4.3852 -1.9397 0.9808
-1.1514 4.3088 -1.9437 0.9807
-1.5354 4.1984 -1.9483 0.9807
-2.2701 3.8783 -1.9585 0.9806
-3.2465 3.1657 -1.9762 0.9804
-4.2049 1.8521 -2.0024 0.9802
-1.4880 0.3578 -0.6670 0.9933
-1.4555 0.0830 -0.6354 0.9937
-1.4433 -0.0469 -0.6294 0.9937
-1.4797 -0.3176 -0.6595 0.9934
-4.1940 -2.1827 -2.0605 0.9796
-3.9895 -2.5534 -2.0643 0.9795
-3.7512 -2.9042 -2.0675 0.9795
-3.4812 -3.2320 -2.0702 0.9795
-2.8551 -3.8065 -2.0737 0.9795
-2.1330 -4.2559 -2.0747 0.9794
-0.9264 -4.6616 -2.0713 0.9795
-0.0816 -4.7399 -2.0660 0.9795
0.3417 -4.7202 -2.0625 0.9796
0.7606 -4.6616 -2.0585 0.9796
1.9555 -4.2619 -2.0436 0.9797
2.3220 -4.0587 -2.0379 0.9798
2.9892 -3.5590 -2.0256 0.9799
3.5519 -2.9509 -2.0125 0.9801
3.7888 -2.6130 -2.0058 0.9801
3.9937 -2.2564 -1.9991 0.9802
4.1654 -1.8842 -1.9925 0.9802
4.3029 -1.4995 -1.9859 0.9803
4.4596 0.5018 -1.9558 0.9806
4.3854 0.8960 -1.9507 0.9807
4.1366 1.6545 -1.9417 0.9807
3.7619 2.3556 -1.9344 0.9808
2.3614 3.7334 -1.9252 0.9809
2.0181 3.9291 -1.9250 0.9809
1.6593 4.0945 -1.9254 0.9809
1.2874 4.2283 -1.9263 0.9809
0.9051 4.3297 -1.9278 0.9809
-2.9231 -3.3788 -2.0681 0.9805
-2.6111 -3.6287 -2.0693 0.9805
-2.2771 -3.8486 -2.0699 0.9805
-1.9241 -4.0367 -2.0699 0.9805
-1.5552 -4.1913 -2.0694 0.9805
-1.1738 -4.3111 -2.0682 0.9805
-0.7832 -4.3949 -2.0664 0.9805
-0.3869 -4.4423 -2.0641 0.9805
0.0116 -4.4529 -2.0612 0.9806
0.8012 -4.3642 -2.0539 0.9806
1.5583 -4.1335 -2.0448 0.9807
2.2574 -3.7705 -2.0342 0.9808
2.5780 -3.5437 -2.0285 0.9809
3.1488 -3.0103 -2.0164 0.9810
3.3947 -2.7085 -2.0102 0.9810
3.6118 -2.3868 -2.0039 0.9811
4.0769 -1.3308 -1.9852 0.9813
4.2352 0.1796 -1.9622 0.9815
4.0066 1.2871 -1.9480 0.9816
3.8677 1.6366 -1.9440 0.9817
3.0314 2.8708 -1.9326 0.9818
2.7604 3.1276 -1.9309 0.9818
2.1577 3.5658 -1.9292 0.9818
1.1355 4.0132 -1.9306 0.9818
0.7729 4.1017 -1.9320 0.9818
0.0306 4.1835 -1.9365 0.9817
-0.7170 4.1357 -1.9429 0.9817
-1.4477 3.9586 -1.9510 0.9816
-2.1397 3.6556 -1.9607 0.9815
-3.3228 2.7054 -1.9834 0.9813
-3.5623 2.4051 -1.9896 0.9812
-1.2498 0.5505 -0.6321 0.9940
-1.2661 0.4272 -0.6185 0.9941
-1.2697 0.3053 -0.6045 0.9943
-1.2747 0.1881 -0.5964 0.9943
-1.2653 -0.0411 -0.5860 0.9944
-1.2752 -0.1563 -0.5947 0.9944
-1.2672 -0.2720 -0.5999 0.9943
-1.2691 -0.3938 -0.6151 0.9942
-1.2501 -0.5144 -0.6257 0.9941
-3.5246 -2.7288 -2.0633 0.9805
-2.9890 -3.3197 -2.0677 0.9805
-2.6821 -3.5758 -2.0691 0.9805
-2.3527 -3.8026 -2.0698 0.9805
-1.2591 -4.2876 -2.0685 0.9805
-0.0766 -4.4537 -2.0619 0.9806
0.3211 -4.4356 -2.0586 0.9806
0.7149 -4.3811 -2.0548 0.9806
1.1012 -4.2908 -2.0505 0.9807
1.4769 -4.1658 -2.0459 0.9807
1.8386 -4.0072 -2.0408 0.9808
2.5089 -3.5964 -2.0298 0.9809
2.8121 -3.3481 -2.0239 0.9809
3.5663 -2.4596 -2.0053 0.9811
4.1498 -1.0413 -1.9804 0.9813
4.2136 -0.6643 -1.9745 0.9814
4.2438 -0.2843 -1.9688 0.9814
4.0333 1.2080 -1.9489 0.9816
3.3310 2.5266 -1.9352 0.9817
2.5348 3.3106 -1.9300 0.9818
2.2280 3.5225 -1.9293 0.9818
1.9041 3.7072 -1.9291 0.9818
1.2146 3.9893 -1.9303 0.9818
0.8539 4.0848 -1.9317 0.9818
0.4859 4.1488 -1.9336 0.9818
-1.4646 -3.9471 -2.0651 0.9814
-1.1054 -4.0600 -2.0640 0.9814
0.3851 -4.1701 -2.0542 0.9815
0.7548 -4.1117 -2.0506 0.9815
1.1170 -4.0198 -2.0465 0.9816
1.4685 -3.8953 -2.0420 0.9816
2.1280 -3.5543 -2.0321 0.9817
2.4306 -3.3411 -2.0267 0.9818
2.7119 -3.1020 -2.0211 0.9818
3.2023 -2.5549 -2.0095 0.9819
3.5846 -1.9326 -1.9976 0.9820
3.7318 -1.5998 -1.9917 0.9821
3.8485 -1.2563 -1.9858 0.9821
3.9340 -0.9047 -1.9801 0.9822
3.9879 -0.5480 -1.9746 0.9822
4.0005 0.1697 -1.9641 0.9823
3.9596 0.5252 -1.9593 0.9824
3.8879 0.8749 -1.9548 0.9824
3.7861 1.2162 -1.9507 0.9824
3.3108 2.1656 -1.9406 0.9825
2.8658 2.7140 -1.9361 0.9826
2.0400 3.3713 -1.9329 0.9826
1.7305 3.5400 -1.9328 0.9826
1.4076 3.6813 -1.9333 0.9826
0.3817 3.9314 -1.9375 0.9826
0.0289 3.9545 -1.9398 0.9825
-0.3251 3.9470 -1.9427 0.9825
-0.6776 3.9087 -1.9459 0.9825
-1.0261 3.8397 -1.9495 0.9824
-1.3679 3.7404 -1.9536 0.9824
-1.7005 3.6113 -1.9580 0.9824
-2.0212 3.4532 -1.9627 0.9823
-3.3623 2.2701 -1.9900 0.9821
-1.1136 0.6147 -0.6239 0.9943
-1.1022 0.4855 -0.5908 0.9946
-1.1328 0.2724 -0.5715 0.9948
-1.1392 -0.0370 -0.5591 0.9949
-1.1443 -0.1402 -0.5655 0.9949
-3.0803 -2.8599 -2.0618 0.9814
-2.8150 -3.1264 -2.0636 0.9814
-1.8869 -3.7649 -2.0657 0.9814
-1.1858 -4.0379 -2.0643 0.9814
-0.4473 -4.1771 -2.0607 0.9815
1.0376 -4.0430 -2.0474 0.9816
1.3917 -3.9256 -2.0430 0.9816
1.7329 -3.7768 -2.0383 0.9817
2.0583 -3.5979 -2.0332 0.9817
2.9148 -2.8992 -2.0166 0.9819
3.1531 -2.6196 -2.0108 0.9819
3.5479 -2.0046 -1.9989 0.9820
3.9178 -0.9831 -1.9814 0.9822
4.0053 0.0904 -1.9652 0.9823
3.9713 0.4469 -1.9603 0.9824
3.6867 1.4746 -1.9477 0.9825
3.5339 1.7949 -1.9442 0.9825
2.9196 2.6573 -1.9365 0.9826
2.6682 2.9050 -1.9348 0.9826
2.3965 3.1300 -1.9337 0.9826
2.1065 3.3304 -1.9330 0.9826
1.1483 3.7717 -1.9339 0.9826
0.8072 3.8618 -1.9352 0.9826
0.4594 3.9221 -1.9370 0.9826
-2.3207 -3.2251 -2.0613 0.9823
-2.0238 -3.4205 -2.0618 0.9823
-1.7100 -3.5877 -2.0618 0.9822
-1.3823 -3.7252 -2.0613 0.9823
-0.6962 -3.9068 -2.0587 0.9823
0.0103 -3.9594 -2.0541 0.9823
1.0547 -3.7957 -2.0437 0.9824
2.0102 -3.3575 -2.0301 0.9825
2.2964 -3.1566 -2.0251 0.9826
2.5626 -2.9311 -2.0198 0.9826
2.8066 -2.6831 -2.0143 0.9827
3.0268 -2.4149 -2.0088 0.9827
3.3893 -1.8273 -1.9976 0.9828
3.6400 -1.1882 -1.9864 0.9829
3.7215 -0.8558 -1.9810 0.9829
3.7730 -0.5185 -1.9758 0.9830
3.7478 0.4971 -1.9613 0.9831
3.4609 1.4645 -1.9496 0.9832
2.9360 2.3199 -1.9412 0.9833
2.4718 2.8006 -1.9378 0.9833
2.2105 3.0087 -1.9368 0.9833
1.3332 3.4869 -1.9366 0.9833
0.6921 3.6727 -1.9388 0.9833
-0.3078 3.7376 -1.9455 0.9832
-0.6416 3.7010 -1.9486 0.9832
-1.2949 3.5408 -1.9559 0.9832
-1.9129 3.2682 -1.9645 0.9831
-3.1798 2.1468 -1.9904 0.9829
-1.0220 0.2457 -0.5453 0.9953
-1.0355 0.1528 -0.5430 0.9953
-1.0340 -0.0336 -0.5367 0.9953
-1.0269 -0.2204 -0.5449 0.9953
-0.9626 -0.5010 -0.5630 0.9951
-2.6568 -2.9508 -2.0599 0.9823
-2.0910 -3.3796 -2.0617 0.9823
-1.1192 -3.8110 -2.0605 0.9823
-0.4222 -3.9428 -2.0571 0.9823
-0.0682 -3.9600 -2.0547 0.9823
0.9797 -3.8175 -2.0446 0.9824
1.3143 -3.7072 -2.0405 0.9824
1.6367 -3.5670 -2.0360 0.9825
1.9443 -3.3985 -2.0312 0.9825
2.9802 -2.4759 -2.0100 0.9827
3.3545 -1.8953 -1.9988 0.9828
3.5006 -1.5835 -1.9932 0.9828
3.7060 -0.9299 -1.9822 0.9829
3.7924 -0.2541 -1.9718 0.9830
3.7905 0.0856 -1.9669 0.9831
3.3462 1.6996 -1.9470 0.9832
2.7652 2.5167 -1.9397 0.9833
2.5272 2.7515 -1.9381 0.9833
1.9952 3.1545 -1.9364 0.9833
1.7052 3.3199 -1.9362 0.9833
1.0877 3.5724 -1.9373 0.9833
-2.4569 -2.8399 -2.0568 0.9830
-2.1944 -3.0496 -2.0578 0.9830
-1.9136 -3.2343 -2.0583 0.9830
-1.6170 -3.3924 -2.0583 0.9830
-1.3070 -3.5225 -2.0578 0.9830
-0.9866 -3.6235 -2.0568 0.9830
-0.3253 -3.7349 -2.0534 0.9830
0.6741 -3.6722 -2.0449 0.9831
0.9978 -3.5908 -2.0412 0.9831
2.1735 -2.9877 -2.0236 0.9833
2.4258 -2.7746 -2.0186 0.9833
2.6572 -2.5403 -2.0134 0.9834
3.2102 -1.7308 -1.9975 0.9835
1.8723 -0.6112 -1.0787 0.9911
1.8865 -0.4338 -1.0602 0.9912
1.8836 -0.0888 -1.0328 0.9914
1.8827 0.0799 -1.0321 0.9914
1.8865 0.4245 -1.0591 0.9912
1.8739 0.6019 -1.0780 0.9911
3.2822 1.3889 -1.9520 0.9839
2.9740 1.9452 -1.9463 0.9839
2.7850 2.2007 -1.9441 0.9839
2.5748 2.4384 -1.9423 0.9840
2.3449 2.6569 -1.9409 0.9840
2.0971 2.8544 -1.9399 0.9840
1.8332 3.0295 -1.9394 0.9840
1.5551 3.1811 -1.9394 0.9840
0.3429 3.5319 -1.9435 0.9839
0.0259 3.5523 -1.9457 0.9839
-0.2920 3.5450 -1.9482 0.9839
-0.9212 3.4474 -1.9544 0.9839
-1.5261 3.2409 -1.9620 0.9838
-1.8135 3.0983 -1.9662 0.9838
-2.5888 2.5244 -1.9804 0.9836
-2.8112 2.2889 -1.9855 0.9836
-0.8745 0.5904 -0.5779 0.9952
-0.9009 0.3968 -0.5392 0.9955
-0.9363 -0.2010 -0.5245 0.9956
-0.9059 -0.3728 -0.5366 0.9955
-0.8842 -0.4602 -0.5459 0.9955
-0.8677 -0.5554 -0.5643 0.9953
-2.9635 -2.2944 -2.0528 0.9831
-2.7495 -2.5527 -2.0548 0.9830
-1.6839 -3.3598 -2.0583 0.9830
-1.0583 -3.6037 -2.0571 0.9830
-0.3993 -3.7286 -2.0539 0.9830
-0.0645 -3.7452 -2.0516 0.9831
1.2434 -3.5074 -2.0381 0.9832
1.8400 -3.2162 -2.0294 0.9832
2.1150 -3.0318 -2.0246 0.9833
3.1772 -1.7951 -1.9987 0.9835
1.8858 -0.4732 -1.0649 0.9912
1.8866 -0.1264 -1.0356 0.9914
1.8892 0.2126 -1.0412 0.9914
1.8856 0.3853 -1.0541 0.9913
1.8796 0.5630 -1.0746 0.9911
3.3103 1.3240 -1.9527 0.9839
2.3974 2.6103 -1.9412 0.9840
1.8929 2.9927 -1.9395 0.9840
1.6178 3.1496 -1.9393 0.9840
1.3301 3.2821 -1.9396 0.9840
-2.3272 -2.6900 -2.0536 0.9837
-2.0785 -2.8885 -2.0546 0.9837
-1.8125 -3.0634 -2.0551 0.9837
-0.6236 -3.4995 -2.0523 0.9837
-0.3081 -3.5380 -2.0504 0.9837
0.0092 -3.5475 -2.0481 0.9837
1.8032 -3.0119 -2.0267 0.9839
2.0605 -2.8323 -2.0222 0.9840
2.8938 -1.9123 -2.0026 0.9841
3.1719 -1.3598 -1.9925 0.9842
1.7159 -0.5601 -1.0421 0.9917
1.7415 -0.2393 -1.0149 0.9919
1.7358 -0.0818 -1.0033 0.9920
1.7417 0.2310 -1.0144 0.9919
1.8439 0.7802 -1.1559 0.9908
2.8249 1.8478 -1.9489 0.9845
2.4460 2.3165 -1.9450 0.9846
2.2277 2.5241 -1.9437 0.9846
1.9924 2.7118 -1.9428 0.9846
1.7416 2.8782 -1.9423 0.9846
1.2017 3.1428 -1.9426 0.9846
0.3257 3.3552 -1.9462 0.9846
-0.2773 3.3672 -1.9506 0.9845
-0.8749 3.2740 -1.9565 0.9845
-1.1660 3.1883 -1.9600 0.9844
-1.7217 2.9415 -1.9678 0.9844
-1.9820 2.7819 -1.9721 0.9843
-2.4569 2.3958 -1.9813 0.9843
-0.7965 0.5378 -0.5549 0.9956
-0.8468 0.3730 -0.5342 0.9957
-0.8810 0.1300 -0.5141 0.9959
-0.8518 -0.3505 -0.5318 0.9958
-0.8305 -0.4322 -0.5405 0.9957
-2.8073 -2.1735 -2.0498 0.9837
-2.1351 -2.8466 -2.0544 0.9837
-1.0024 -3.4133 -2.0539 0.9837
-0.6929 -3.4871 -2.0526 0.9837
-0.0611 -3.5479 -2.0487 0.9837
0.5699 -3.4925 -2.0431 0.9838
0.8782 -3.4220 -2.0397 0.9838
1.1783 -3.3238 -2.0360 0.9838
1.4677 -3.1989 -2.0320 0.9839
1.7440 -3.0485 -2.0277 0.9839
2.2486 -2.6771 -2.0185 0.9840
2.6761 -2.2233 -2.0087 0.9841
3.0139 -1.7029 -1.9986 0.9841
3.1461 -1.4231 -1.9936 0.9842
1.7401 -0.2743 -1.0170 0.9919
1.7382 -0.1165 -1.0058 0.9920
1.7314 0.0391 -0.9999 0.9920
1.7418 0.1960 -1.0120 0.9919
1.7699 0.7079 -1.1005 0.9912
2.8617 1.7919 -1.9494 0.9845
2.6871 2.0382 -1.9472 0.9845
2.2776 2.4798 -1.9440 0.9846
2.0459 2.6720 -1.9429 0.9846
0.3920 3.3474 -1.9458 0.9846
