ply
format ascii 1.0
element vertex 1593
property float32 x
property float32 y
property float32 z
property float32 I
end_header
1.0207 -6.4875 1.1580 0.9737
17.0317 -6.0655 3.1879 0.9292
15.2394 -3.9357 2.7753 0.9381
16.3573 -2.6961 2.9232 0.9349
10.0024 7.4644 2.2007 0.9506
10.9727 11.7566 2.8356 0.9368
7.0365 10.9261 2.2915 0.9486
-0.5612 10.4716 1.8491 0.9583
-3.0367 12.8355 2.3257 0.9478
-7.4988 11.2033 2.3771 0.9467
-0.9722 -6.9819 1.2430 0.9718
0.8335 -6.3855 1.1355 0.9742
16.2311 -3.1151 2.9142 0.9351
17.2004 -1.7298 3.0482 0.9322
11.5852 11.7771 2.9130 0.9351
7.4857 10.9792 2.3431 0.9475
6.1042 10.9378 2.2086 0.9504
4.8847 10.9487 2.1140 0.9525
3.7487 10.9351 2.0383 0.9541
1.6313 10.6861 1.9061 0.9570
-1.4999 12.7988 2.2722 0.9490
-3.2598 15.5961 2.8094 0.9373
-6.0914 11.8680 2.3522 0.9473
-7.0197 11.1079 2.3169 0.9480
1.0139 -6.4439 0.9993 0.9739
16.7588 -2.7622 2.6020 0.9336
9.9993 7.4622 1.9114 0.9508
10.8757 11.6527 2.4418 0.9375
7.2759 11.2978 2.0586 0.9471
5.8605 11.1814 1.9340 0.9502
4.5913 11.0631 1.8350 0.9527
3.4567 11.0185 1.7691 0.9543
2.3740 10.8912 1.7077 0.9559
0.3822 10.6574 1.6337 0.9578
-0.5652 10.5464 1.6180 0.9582
-4.4217 13.2676 2.1424 0.9450
-6.4789 11.8465 2.0685 0.9468
-8.0564 12.0364 2.2188 0.9431
-0.9724 -6.9833 1.0801 0.9719
0.8313 -6.3684 0.9839 0.9743
7.6982 11.2909 2.0935 0.9462
4.9402 11.0730 1.8575 0.9521
2.6843 10.9277 1.7238 0.9555
1.6497 10.8062 1.6746 0.9567
0.6648 10.6906 1.6409 0.9576
-0.2886 10.5788 1.6212 0.9581
-4.0487 13.3033 2.1303 0.9453
-7.3713 11.6643 2.1138 0.9457
17.0674 -6.0782 2.3593 0.9295
17.9733 -2.9624 2.3721 0.9292
7.3792 11.4583 1.7748 0.9465
5.9262 11.3067 1.6624 0.9498
4.6172 11.1254 1.5686 0.9526
3.4497 10.9959 1.5007 0.9546
1.3557 10.7695 1.4135 0.9572
-0.5690 10.6180 1.3847 0.9580
-6.1066 14.0087 1.9900 0.9402
-7.8909 11.7891 1.8473 0.9444
-0.9726 -6.9848 0.9183 0.9720
0.8291 -6.3516 0.8341 0.9745
18.0391 -5.1677 2.4436 0.9271
11.4628 11.6526 2.1285 0.9362
9.5413 11.6125 1.9572 0.9412
2.6838 10.9254 1.4650 0.9556
1.6493 10.8039 1.4232 0.9569
0.6647 10.6884 1.3945 0.9577
-8.0080 12.6717 1.9520 0.9413
11.1149 11.9090 1.7493 0.9366
7.3909 11.4765 1.4658 0.9466
4.7160 11.3634 1.3211 0.9517
3.5360 11.2713 1.2685 0.9536
0.3909 10.9023 1.1715 0.9571
-0.5689 10.6159 1.1416 0.9581
-6.1057 14.0065 1.6407 0.9404
-0.9728 -6.9862 0.7574 0.9720
18.1681 -5.2047 2.0294 0.9268
11.7174 11.9115 1.7942 0.9350
9.6478 11.7421 1.6319 0.9407
6.3355 11.3523 1.3960 0.9490
3.8777 11.3114 1.2840 0.9530
1.6800 11.0048 1.1954 0.9562
0.6801 10.9362 1.1766 0.9569
-0.2905 10.6485 1.1439 0.9581
11.1177 11.9120 1.3793 0.9367
9.1520 11.7550 1.2611 0.9419
7.5645 11.7460 1.1827 0.9455
3.5353 11.2689 0.9998 0.9537
2.4280 11.1389 0.9651 0.9553
1.3869 11.0168 0.9400 0.9564
0.3909 10.9001 0.9233 0.9572
-0.5688 10.6138 0.8998 0.9582
-0.9730 -6.9877 0.5972 0.9721
0.8243 -6.3148 0.5391 0.9748
14.4885 12.3086 1.6093 0.9265
8.0473 11.8028 1.2093 0.9443
5.1119 11.4579 1.0621 0.9509
3.8769 11.3090 1.0120 0.9531
2.7454 11.1762 0.9742 0.9549
1.6797 11.0025 0.9422 0.9563
0.6800 10.9340 0.9274 0.9570
-0.2905 10.6464 0.9016 0.9581
9.9857 7.4520 0.7726 0.9513
13.8858 12.4390 1.1560 0.9280
11.3232 12.1322 1.0291 0.9357
9.1495 11.7517 0.9236 0.9421
7.5626 11.7431 0.8661 0.9456
4.7358 11.4113 0.7661 0.9517
2.4274 11.1366 0.7068 0.9553
-0.5701 10.6382 0.6606 0.9582
-6.1114 14.0198 0.9484 0.9405
14.8274 12.5965 1.2065 0.9250
9.8714 12.0142 0.9642 0.9396
8.0452 11.7997 0.8856 0.9444
6.4528 11.5624 0.8211 0.9483
5.0870 11.4021 0.7742 0.9512
2.7448 11.1738 0.7135 0.9549
1.6869 11.0498 0.6931 0.9562
0.6798 10.9318 0.6792 0.9571
0.9926 -6.3086 0.2518 0.9748
13.8766 12.4307 0.7346 0.9281
11.3748 12.1875 0.6574 0.9354
7.5607 11.7401 0.5506 0.9456
3.5338 11.2641 0.4655 0.9538
2.4270 11.1343 0.4493 0.9554
1.3863 11.0124 0.4377 0.9565
-0.9734 -6.9905 0.2783 0.9721
0.8207 -6.2875 0.2500 0.9749
14.7534 12.5336 0.7633 0.9254
8.0431 11.7967 0.5630 0.9444
6.4813 11.6135 0.5244 0.9482
3.8752 11.3041 0.4712 0.9533
2.7442 11.1715 0.4536 0.9550
0.6797 10.9296 0.4318 0.9571
0.9882 -6.2806 0.1074 0.9749
9.9786 7.4467 0.2103 0.9514
13.8825 12.4360 0.3148 0.9281
11.3174 12.1260 0.2802 0.9358
9.1673 11.7746 0.2521 0.9420
7.5588 11.7371 0.2358 0.9457
6.0598 11.5615 0.2205 0.9491
3.5330 11.2617 0.1994 0.9539
1.3798 10.9609 0.1866 0.9568
0.3906 10.8936 0.1841 0.9573
12.0653 12.2652 0.2906 0.9335
9.8658 12.0074 0.2625 0.9397
8.0410 11.7936 0.2411 0.9445
3.8744 11.3016 0.2018 0.9533
2.7437 11.1692 0.1943 0.9550
1.6786 10.9959 0.1879 0.9565
0.6796 10.9275 0.1849 0.9571
-0.2910 10.6667 0.1802 0.9582
0.9869 -6.2724 -0.0357 0.9749
9.9754 7.4443 -0.0701 0.9514
13.8809 12.4346 -0.1049 0.9282
11.3140 12.1224 -0.0934 0.9358
9.1648 11.7714 -0.0840 0.9421
7.5569 11.7342 -0.0786 0.9457
6.0583 11.5588 -0.0735 0.9491
1.3796 10.9587 -0.0622 0.9568
-0.9738 -6.9934 -0.0398 0.9722
12.0043 12.2032 -0.0964 0.9338
8.0390 11.7906 -0.0803 0.9445
6.4782 11.6079 -0.0748 0.9482
-0.2910 10.6646 -0.0601 0.9582
9.9724 7.4421 -0.3504 0.9514
13.8793 12.4331 -0.5247 0.9281
9.1623 11.7681 -0.4200 0.9421
6.0569 11.5561 -0.3674 0.9491
4.7316 11.4011 -0.3476 0.9518
3.5151 11.2045 -0.3307 0.9541
2.4146 11.0776 -0.3192 0.9556
-6.1019 13.9979 -0.4300 0.9407
-0.9740 -6.9948 -0.1989 0.9721
12.0578 12.2576 -0.4842 0.9335
5.1061 11.4449 -0.3529 0.9511
3.8547 11.2442 -0.3347 0.9535
1.6780 10.9914 -0.3131 0.9565
-1.9718 16.8250 -0.4770 0.9345
13.8776 12.4316 -0.9449 0.9281
9.1598 11.7649 -0.7562 0.9420
7.5531 11.7283 -0.7075 0.9457
4.7306 11.3986 -0.6259 0.9518
3.5143 11.2021 -0.5954 0.9541
1.3852 11.0036 -0.5624 0.9566
0.3886 10.8366 -0.5499 0.9575
-2.1407 14.8752 -0.7622 0.9416
0.8193 -6.2769 -0.3210 0.9750
14.0175 -12.4420 -0.9505 0.9277
14.8014 12.5744 -0.9850 0.9252
8.0348 11.7845 -0.7233 0.9445
6.4751 11.6024 -0.6738 0.9482
5.1049 11.4423 -0.6354 0.9511
2.7420 11.1622 -0.5829 0.9550
-0.2909 10.6604 -0.5408 0.9582
-1.9762 16.8628 -0.8610 0.9343
9.9665 7.4376 -0.9118 0.9513
11.0943 11.8869 -1.1922 0.9369
7.5512 11.7253 -1.0226 0.9456
6.0541 11.5506 -0.9562 0.9490
2.4245 11.1229 -0.8347 0.9554
1.3849 11.0014 -0.8130 0.9565
0.3903 10.8851 -0.7986 0.9573
-0.9715 -6.9767 -0.5165 0.9721
0.8177 -6.2646 -0.4632 0.9750
13.9826 -12.4110 -1.3708 0.9278
15.6917 -6.0571 -1.2333 0.9348
14.4529 12.2784 -1.3905 0.9268
11.7708 11.9658 -1.2307 0.9349
9.1099 11.0874 -1.0522 0.9441
8.0328 11.7815 -1.0455 0.9444
6.4735 11.5996 -0.9740 0.9481
3.8530 11.2394 -0.8712 0.9535
1.6848 11.0364 -0.8186 0.9562
-7.0095 -17.5367 -1.8131 0.9269
-5.4164 -18.0935 -1.8132 0.9269
-3.7826 -18.5194 -1.8147 0.9269
-2.1176 -18.8116 -1.8174 0.9268
4.6149 -18.4233 -1.8234 0.9265
6.3130 -18.1445 -1.8444 0.9257
11.0909 11.8833 -1.5605 0.9368
7.3741 11.4504 -1.3075 0.9467
5.9122 11.2800 -1.2227 0.9501
4.6188 11.1291 -1.1568 0.9527
2.4239 11.1206 -1.0927 0.9553
1.3847 10.9992 -1.0643 0.9564
-2.1398 14.8694 -1.4422 0.9414
-6.0865 13.9625 -1.4623 0.9406
-18.9299 -5.2479 -1.8859 0.9241
-18.2635 -6.8707 -1.8734 0.9246
-17.4695 -8.4216 -1.8619 0.9250
-16.5552 -9.8920 -1.8515 0.9254
-14.3974 -12.5604 -1.8343 0.9261
-10.4602 -15.7832 -1.8178 0.9267
-0.9746 -6.9991 -0.6784 0.9720
-0.9281 -18.9360 -1.8201 0.9266
0.7663 -18.9533 -1.8211 0.9266
5.8224 -18.2667 -1.8406 0.9259
9.1135 -17.1964 -1.8685 0.9248
13.6253 -14.4658 -1.9078 0.9233
10.8685 -6.6210 -1.2218 0.9501
19.1901 -3.6830 -1.8760 0.9245
11.7671 11.9620 -1.6109 0.9348
7.8444 11.5052 -1.3369 0.9456
6.3218 11.3277 -1.2454 0.9492
4.9843 11.1718 -1.1744 0.9520
3.8522 11.2370 -1.1404 0.9534
2.7281 11.1058 -1.0979 0.9551
-1.9755 16.8562 -1.6294 0.9341
-5.7659 -14.4255 -1.8454 0.9393
-4.4554 -14.8834 -1.8455 0.9393
-3.1111 -15.2316 -1.8467 0.9393
1.0414 -15.5967 -1.8568 0.9390
6.5313 -14.4614 -1.8849 0.9381
7.8350 -13.8897 -1.8943 0.9378
9.0926 -13.2061 -1.9046 0.9375
12.4947 -10.5169 -1.9400 0.9363
13.4740 -9.4228 -1.9531 0.9359
14.3606 -8.2394 -1.9667 0.9355
16.8139 -2.7713 -2.0242 0.9337
17.1168 -1.2684 -2.0388 0.9332
17.2834 0.2664 -2.0533 0.9327
17.3093 1.8207 -2.0674 0.9323
17.1914 3.3809 -2.0812 0.9319
16.5182 6.4630 -2.1070 0.9310
14.8584 7.4049 -1.9720 0.9353
9.8595 7.3578 -1.4613 0.9517
11.0875 11.8797 -1.9303 0.9366
3.4466 10.9862 -1.3677 0.9547
1.3522 10.7417 -1.2860 0.9573
-0.5666 10.5716 -1.2576 0.9583
-2.3801 16.5394 -1.9849 0.9349
-3.8319 16.1969 -1.9771 0.9352
-5.9596 13.6714 -1.7716 0.9417
-7.8671 14.3849 -1.9476 0.9361
-11.0151 13.6427 -2.0828 0.9318
-12.1087 12.5221 -2.0691 0.9322
-13.0882 11.3134 -2.0550 0.9327
-13.9472 10.0290 -2.0406 0.9331
-16.3932 1.4315 -1.9547 0.9359
-16.3447 -0.0373 -1.9415 0.9363
-15.4614 -4.2863 -1.9059 0.9374
-14.9353 -5.6187 -1.8955 0.9377
-14.3020 -6.8946 -1.8860 0.9380
-12.7372 -9.2475 -1.8697 0.9386
-9.7431 -12.1807 -1.8528 0.9391
-8.6005 -12.9771 -1.8493 0.9392
-7.3980 -13.6750 -1.8469 0.9393
-6.1433 -14.2705 -1.8455 0.9393
-4.8443 -14.7601 -1.8453 0.9393
-3.5091 -15.1408 -1.8462 0.9393
-0.7630 -15.5659 -1.8512 0.9392
0.6310 -15.6067 -1.8554 0.9390
3.4171 -15.3399 -1.8668 0.9387
4.7913 -15.0318 -1.8741 0.9384
6.1408 -14.6078 -1.8823 0.9382
8.7285 -13.4184 -1.9015 0.9376
9.9479 -12.6575 -1.9123 0.9372
14.1103 -8.5959 -1.9626 0.9356
8.7954 -4.3333 -1.1647 0.9613
15.0524 -4.3121 -1.8599 0.9389
15.8558 -3.0431 -1.9178 0.9370
17.2411 2.9227 -2.0772 0.9320
16.6537 6.0167 -2.1034 0.9312
16.0842 7.4951 -2.1078 0.9310
14.3049 8.2945 -1.9642 0.9356
13.5714 9.5835 -1.9735 0.9353
12.7148 10.8018 -1.9818 0.9350
6.3203 11.3250 -1.5406 0.9491
3.7796 11.0250 -1.3844 0.9541
2.6766 10.8964 -1.3328 0.9558
0.6630 10.6612 -1.2688 0.9579
-3.4094 16.3118 -1.9795 0.9351
-8.7226 13.8027 -1.9395 0.9363
-10.6731 13.9536 -2.0868 0.9317
-11.7989 12.8610 -2.0732 0.9321
-13.7076 10.4135 -2.0448 0.9330
-14.4786 9.0831 -2.0303 0.9335
-15.1218 7.6985 -2.0156 0.9339
-15.6346 6.2722 -2.0010 0.9344
-5.9692 -11.7618 -1.8688 0.9481
-3.7810 -12.6304 -1.8681 0.9481
-2.6399 -12.9247 -1.8691 0.9481
-0.3004 -13.2225 -1.8740 0.9480
0.9767 -6.2080 -0.8904 0.9749
2.6395 -7.5864 -1.1381 0.9681
5.5247 -12.2328 -1.9018 0.9472
7.6790 -11.1530 -1.9186 0.9468
10.5218 -8.8563 -1.9486 0.9460
11.3343 -7.9265 -1.9597 0.9457
11.7909 -5.4291 -1.8392 0.9489
12.3027 -4.3813 -1.8504 0.9486
14.2990 -1.0596 -2.0316 0.9437
14.4214 0.2223 -2.0436 0.9434
14.4265 1.5174 -2.0554 0.9431
11.6952 7.1982 -1.9458 0.9460
9.8277 7.3341 -1.7375 0.9517
9.4637 10.1399 -1.9652 0.9455
8.5404 10.9694 -1.9698 0.9454
7.3704 11.4446 -1.9287 0.9465
5.9094 11.2746 -1.8036 0.9499
4.6167 11.1241 -1.7065 0.9525
3.4459 10.9838 -1.6311 0.9546
1.3520 10.7396 -1.5337 0.9572
-1.9708 13.6950 -1.9604 0.9456
-4.3441 13.0347 -1.9467 0.9460
-6.5353 11.9496 -1.9298 0.9465
-7.5387 11.2629 -1.9203 0.9467
-9.1692 11.3565 -2.0681 0.9427
-11.6495 8.3768 -2.0330 0.9437
-12.2769 7.2598 -2.0209 0.9440
-12.7980 6.0978 -2.0087 0.9443
-13.2106 4.9011 -1.9965 0.9447
-13.7057 2.4443 -1.9726 0.9453
-13.7622 -0.0314 -1.9500 0.9459
-12.6227 -4.7487 -1.9109 0.9470
-12.0968 -5.8316 -1.9028 0.9472
-9.1717 -9.5718 -1.8783 0.9479
-8.2633 -10.3306 -1.8744 0.9480
-7.2963 -11.0093 -1.8714 0.9480
-6.2774 -11.6037 -1.8693 0.9481
-5.2134 -12.1103 -1.8681 0.9481
-4.1111 -12.5260 -1.8679 0.9481
-2.9777 -12.8481 -1.8687 0.9481
-0.9750 -7.0020 -1.0017 0.9718
0.8152 -6.2451 -0.8924 0.9749
5.1955 -12.3593 -1.8996 0.9473
6.3038 -11.8948 -1.9074 0.9471
7.3733 -11.3351 -1.9160 0.9468
8.3960 -10.6829 -1.9252 0.9466
9.2250 -6.8190 -1.6254 0.9547
12.6086 -3.6120 -1.8584 0.9484
14.3975 -0.1562 -2.0401 0.9435
14.4373 1.1362 -2.0519 0.9432
14.3583 2.4340 -2.0634 0.9429
14.1593 3.7258 -2.0745 0.9426
13.4015 6.2450 -2.0949 0.9420
11.2485 7.9432 -1.9511 0.9459
9.7192 9.8802 -1.9637 0.9455
8.8201 10.7347 -1.9686 0.9454
6.3188 11.3223 -1.8372 0.9490
3.7787 11.0226 -1.6510 0.9540
0.6629 10.6591 -1.5132 0.9578
-2.8244 13.5129 -1.9560 0.9458
-4.0049 13.1593 -1.9490 0.9459
-5.1427 12.6978 -1.9411 0.9462
-8.2040 10.7256 -1.9133 0.9469
-13.1008 5.2557 -2.0000 0.9446
-5.1798 -10.2063 -1.8855 0.9547
-4.2463 -10.6236 -1.8848 0.9547
-3.2811 -10.9607 -1.8848 0.9547
0.7657 -11.4675 -1.8933 0.9545
4.1916 -7.4308 -1.4055 0.9660
5.0867 -7.3879 -1.4777 0.9643
7.5062 -9.0510 -1.9371 0.9535
8.3214 -8.3824 -1.9458 0.9532
5.5576 -4.6779 -1.1967 0.9710
9.0642 -6.3389 -1.8222 0.9562
9.6423 -5.5322 -1.8313 0.9559
10.5812 -3.7683 -1.8504 0.9555
11.7867 -3.0440 -2.0054 0.9518
12.0742 -1.9901 -2.0159 0.9516
12.0382 3.5082 -2.0657 0.9504
11.7267 4.5882 -2.0744 0.9502
11.3148 5.6389 -2.0826 0.9500
9.4229 7.0320 -1.9369 0.9535
8.7824 7.8673 -1.9424 0.9533
8.0645 8.6407 -1.9471 0.9532
7.2752 9.3444 -1.9509 0.9531
6.4217 9.9714 -1.9539 0.9531
5.5115 10.5155 -1.9558 0.9530
3.4451 10.9814 -1.8960 0.9544
0.3810 10.6240 -1.7513 0.9578
-1.6800 11.6744 -1.9430 0.9533
-2.7079 11.4459 -1.9376 0.9534
-3.7070 11.1230 -1.9315 0.9536
-6.4459 9.6302 -1.9091 0.9541
-7.2473 8.9761 -1.9005 0.9543
-10.5399 6.2326 -2.0172 0.9516
-11.6311 3.1673 -1.9859 0.9523
-11.8064 2.1056 -1.9757 0.9525
-11.8740 -0.0271 -1.9561 0.9530
-11.7684 -1.0818 -1.9469 0.9532
-11.5725 -2.1184 -1.9381 0.9534
-11.2890 -3.1296 -1.9299 0.9536
-10.9209 -4.1084 -1.9222 0.9538
-10.4719 -5.0483 -1.9151 0.9540
-9.9461 -5.9429 -1.9087 0.9541
-9.3478 -6.7867 -1.9030 0.9543
-7.9534 -8.3004 -1.8938 0.9545
-7.1676 -8.9609 -1.8904 0.9545
-3.5676 -10.8701 -1.8847 0.9547
-0.9637 -6.9204 -1.1511 0.9721
0.8148 -6.2420 -1.0370 0.9748
1.4492 -6.5057 -1.0980 0.9733
4.8177 -7.4063 -1.4555 0.9648
7.2567 -9.2333 -1.9346 0.9535
8.8817 -6.5652 -1.8195 0.9562
10.4625 -4.0386 -1.8475 0.9556
11.6847 -3.3474 -2.0024 0.9519
11.9994 -2.3030 -2.0128 0.9517
11.8287 4.2735 -2.0719 0.9503
9.6048 6.7824 -1.9370 0.9535
8.9789 7.6280 -1.9409 0.9534
8.2832 8.4204 -1.9458 0.9532
7.5142 9.1453 -1.9499 0.9531
0.6627 10.6569 -1.7590 0.9576
-1.3739 11.7231 -1.9445 0.9533
-3.4169 11.2275 -1.9334 0.9535
-4.3903 10.8401 -1.9267 0.9537
-5.3202 10.3654 -1.9194 0.9539
-6.1986 9.8086 -1.9115 0.9541
-8.4154 9.1730 -2.0507 0.9508
-9.1562 8.3446 -2.0408 0.9510
-9.8153 7.4566 -2.0306 0.9513
-10.3884 6.5172 -2.0203 0.9515
-10.8720 5.5350 -2.0098 0.9517
-11.2636 4.5187 -1.9993 0.9520
-11.5615 3.4770 -1.9889 0.9522
-4.5708 -9.0063 -1.8984 0.9597
-2.0214 -9.8965 -1.8986 0.9597
0.6753 -10.1143 -1.9053 0.9596
2.4734 -9.8743 -1.9133 0.9594
2.6409 -7.5905 -1.5106 0.9678
4.2130 -9.3285 -1.9239 0.9592
5.8436 -8.4872 -1.9368 0.9589
6.7853 -6.8350 -1.8103 0.9616
5.5585 -4.6786 -1.3656 0.9709
9.9986 -3.5608 -1.9950 0.9577
10.5687 -1.7420 -2.0133 0.9573
10.8061 0.1666 -2.0314 0.9570
10.5049 3.0614 -2.0566 0.9564
10.2275 4.0016 -2.0643 0.9563
9.8633 4.9155 -2.0714 0.9561
7.0190 7.5205 -1.9336 0.9590
6.3305 8.1309 -1.9369 0.9589
3.9604 9.5427 -1.9420 0.9588
3.0928 9.8584 -1.9420 0.9588
1.2889 10.2386 -1.9396 0.9589
0.3693 10.2999 -1.9372 0.9589
-0.5506 10.2747 -1.9340 0.9590
-3.2298 9.6911 -1.9200 0.9593
-4.8698 8.9042 -1.9076 0.9595
-5.6245 8.4031 -1.9006 0.9597
-8.1805 7.0712 -2.0324 0.9569
-8.7405 6.2850 -2.0235 0.9571
-9.6310 4.5888 -2.0052 0.9575
-10.1998 2.7776 -1.9870 0.9579
-10.4374 0.9114 -1.9693 0.9583
-10.4320 -0.0238 -1.9608 0.9584
-10.3452 -0.9510 -1.9527 0.9586
-10.1785 -1.8633 -1.9450 0.9588
-9.2237 -4.4465 -1.9246 0.9592
-7.0147 -7.3207 -1.9057 0.9596
-6.3230 -7.9050 -1.9027 0.9596
-5.5852 -8.4274 -1.9003 0.9597
-4.8066 -8.8848 -1.8987 0.9597
-3.9924 -9.2740 -1.8978 0.9597
-3.1483 -9.5926 -1.8977 0.9597
-2.2802 -9.8384 -1.8982 0.9597
-0.9609 -6.9005 -1.3095 0.9720
0.4093 -10.1235 -1.9044 0.9596
0.8147 -6.2419 -1.1832 0.9747
3.0970 -9.7161 -1.9168 0.9593
4.8038 -9.0644 -1.9282 0.9591
3.8747 -4.9301 -1.1786 0.9748
8.7789 -4.3252 -1.8395 0.9610
9.7469 -3.7624 -1.9638 0.9584
10.2364 -2.9325 -2.0014 0.9576
10.5052 -2.0162 -2.0106 0.9574
10.7929 -0.1171 -2.0288 0.9570
10.8070 0.8505 -2.0376 0.9568
10.7328 1.8194 -2.0461 0.9567
10.5697 2.7813 -2.0543 0.9565
9.9792 4.6502 -2.0693 0.9562
7.8181 6.6418 -1.9282 0.9591
7.2099 7.3294 -1.9325 0.9590
6.5388 7.9582 -1.9360 0.9589
5.8106 8.5222 -1.9387 0.9589
5.0317 9.0160 -1.9407 0.9588
4.2092 9.4346 -1.9418 0.9588
2.4642 10.0315 -1.9416 0.9588
0.6400 10.2909 -1.9380 0.9589
-0.2808 10.2911 -1.9350 0.9590
-2.9767 9.7809 -1.9217 0.9592
-6.1265 8.0096 -1.8954 0.9598
-8.0022 7.2929 -2.0350 0.9569
-9.0906 5.7030 -2.0171 0.9573
-9.5200 4.8467 -2.0079 0.9575
-9.8693 3.9593 -1.9988 0.9576
-10.1369 3.0485 -1.9896 0.9578
-4.0863 -8.0516 -1.9086 0.9638
-2.5887 -8.6475 -1.9080 0.9638
-0.1905 -8.3883 -1.7736 0.9663
0.9720 -6.1778 -1.3219 0.9748
2.2094 -8.8202 -1.9220 0.9635
2.6417 -7.5926 -1.6993 0.9677
2.2863 -5.0623 -1.1741 0.9775
4.1760 -7.4031 -1.7967 0.9658
5.4608 -6.5847 -1.8082 0.9656
6.0480 -6.0923 -1.8146 0.9655
9.5895 0.1478 -2.0273 0.9615
9.5744 1.0071 -2.0350 0.9614
9.4810 1.8645 -2.0425 0.9613
9.0594 3.5446 -2.0563 0.9610
8.3331 5.1289 -2.0684 0.9608
7.8616 5.8668 -2.0735 0.9607
6.2074 6.6509 -1.9231 0.9635
4.9390 7.6691 -1.9282 0.9634
4.2380 8.0857 -1.9297 0.9634
1.9443 8.9202 -1.9298 0.9634
0.3266 9.1070 -1.9263 0.9634
-2.0867 8.8200 -1.9158 0.9636
-2.0779 6.2350 -1.3892 0.9735
-3.6030 8.2653 -1.9059 0.9638
-4.3134 7.8869 -1.9002 0.9639
-5.8974 7.3043 -1.9844 0.9623
-7.2591 6.2747 -2.0282 0.9615
-7.7598 5.5798 -2.0203 0.9617
-8.5591 4.0781 -2.0041 0.9620
-8.8528 3.2843 -1.9959 0.9621
-9.2942 0.8116 -1.9721 0.9626
-9.2938 -0.0212 -1.9645 0.9627
-9.0760 -1.6614 -1.9504 0.9630
-8.5802 -3.2279 -1.9378 0.9632
-7.8260 -4.6762 -1.9271 0.9634
-7.3600 -5.3435 -1.9225 0.9635
-5.6514 -7.0653 -1.9125 0.9637
-4.9927 -7.5333 -1.9104 0.9637
-4.2970 -7.9428 -1.9089 0.9638
-3.5693 -8.2912 -1.9081 0.9638
2.5654 -8.0484 -1.7856 0.9661
3.9767 -7.5037 -1.7951 0.9659
4.6447 -7.1404 -1.8006 0.9658
3.8746 -4.9300 -1.3254 0.9747
5.8798 -6.2425 -1.8127 0.9655
8.0657 -3.9738 -1.9006 0.9639
9.3331 -1.7912 -2.0088 0.9619
9.4939 -0.9548 -2.0170 0.9617
9.5791 -0.1039 -2.0249 0.9616
9.5869 0.7545 -2.0328 0.9614
9.5166 1.6132 -2.0403 0.9613
8.8370 4.1180 -2.0608 0.9609
8.0073 5.6544 -2.0721 0.9607
6.3767 6.4823 -1.9221 0.9635
5.1371 7.5345 -1.9276 0.9634
4.4480 7.9701 -1.9293 0.9634
3.7207 8.3396 -1.9303 0.9634
2.1782 8.8673 -1.9301 0.9634
1.3771 9.0207 -1.9289 0.9634
0.5658 9.0986 -1.9270 0.9634
-2.6344 8.6561 -1.9126 0.9637
-4.1085 8.0047 -1.9019 0.9639
-5.4305 7.0997 -1.8894 0.9641
-7.0998 6.4705 -2.0305 0.9615
-7.6194 5.7884 -2.0226 0.9616
-8.0735 5.0649 -2.0146 0.9618
-8.4591 4.3066 -2.0065 0.9619
-3.0264 -7.5716 -1.9164 0.9671
-1.5141 -7.4127 -1.7781 0.9694
0.8347 -5.3051 -1.2622 0.9782
1.4353 -5.7299 -1.3883 0.9760
2.2867 -5.0631 -1.3057 0.9774
3.7669 -6.6778 -1.8019 0.9690
4.3601 -6.3326 -1.8070 0.9689
4.9227 -5.9359 -1.8124 0.9688
6.3826 -4.4635 -1.8305 0.9685
7.1149 -4.0822 -1.9279 0.9669
7.9963 -2.8477 -1.9949 0.9657
8.2488 -2.1303 -2.0023 0.9656
8.5579 -0.6342 -2.0168 0.9654
8.5938 0.9039 -2.0309 0.9651
8.3495 2.4332 -2.0440 0.9649
7.8281 3.9012 -2.0556 0.9647
7.4671 4.5959 -2.0607 0.9646
7.0428 5.2558 -2.0653 0.9645
6.5583 5.8750 -2.0694 0.9645
5.8905 6.3114 -2.0290 0.9651
3.7936 7.2379 -1.9206 0.9670
3.1335 7.5503 -1.9212 0.9670
2.4470 7.8001 -1.9213 0.9670
1.0201 8.1030 -1.9194 0.9670
-1.1587 8.0519 -1.9119 0.9671
-2.0511 6.1545 -1.5247 0.9737
-3.2294 7.4082 -1.8993 0.9673
-6.5178 5.6340 -2.0248 0.9652
-6.9702 5.0120 -2.0177 0.9653
-7.6944 3.6661 -2.0031 0.9656
-8.1638 2.2231 -1.9885 0.9658
-8.2996 1.4802 -1.9814 0.9660
-8.3688 0.7308 -1.9743 0.9661
-8.3717 -0.0191 -1.9675 0.9662
-8.3088 -0.7638 -1.9610 0.9663
-7.9908 -2.2153 -1.9489 0.9665
-7.7393 -2.9115 -1.9434 0.9666
-7.4290 -3.5814 -1.9383 0.9667
-7.0629 -4.2202 -1.9337 0.9668
-4.5096 -6.8044 -1.9185 0.9670
-3.8815 -7.1749 -1.9172 0.9670
-2.5427 -7.7473 -1.9164 0.9671
-1.8415 -7.9453 -1.9168 0.9670
0.3064 -7.5783 -1.7825 0.9693
3.8745 -4.9299 -1.4737 0.9746
5.2991 -5.6260 -1.8164 0.9687
6.2567 -4.6249 -1.8286 0.9685
6.7835 -4.1325 -1.8668 0.9679
7.5785 -3.7337 -1.9855 0.9659
7.9103 -3.0534 -1.9928 0.9658
8.3883 -1.6099 -2.0074 0.9655
8.6060 0.6773 -2.0289 0.9652
7.9216 3.6914 -2.0540 0.9647
7.5799 4.3951 -2.0593 0.9646
6.7067 5.6976 -2.0682 0.9645
6.1623 6.2644 -2.0652 0.9645
4.5990 6.7452 -1.9187 0.9670
3.9817 7.1345 -1.9202 0.9670
3.3304 7.4649 -1.9211 0.9670
1.9498 7.9374 -1.9209 0.9670
-0.2223 8.1485 -1.9158 0.9671
-2.3603 7.7557 -1.9053 0.9672
-3.6833 7.1762 -1.8958 0.9674
-4.2969 6.7994 -1.8904 0.9675
-5.8498 6.3764 -2.0337 0.9651
-6.3741 5.8091 -2.0269 0.9652
-7.8899 3.1652 -1.9980 0.9657
-2.1304 -7.1166 -1.9234 0.9698
-1.3793 -6.7529 -1.7846 0.9719
-0.7679 -6.8217 -1.7774 0.9720
0.3900 -5.8415 -1.5158 0.9761
0.9104 -5.7865 -1.5167 0.9761
1.4356 -5.7311 -1.5297 0.9759
2.2822 -6.5593 -1.7982 0.9717
3.9663 -5.7606 -1.8109 0.9715
4.9551 -4.9914 -1.8211 0.9714
5.3972 -4.5429 -1.8266 0.9713
7.2583 -2.5849 -1.9949 0.9687
7.7602 -0.5751 -2.0148 0.9684
7.8055 0.1203 -2.0212 0.9683
7.7877 0.8192 -2.0275 0.9682
6.7574 4.1590 -2.0545 0.9677
5.9326 5.3145 -2.0623 0.9676
5.4412 5.8300 -2.0648 0.9676
3.9981 6.2081 -1.9119 0.9700
3.4301 6.5444 -1.9131 0.9699
2.8332 6.8266 -1.9137 0.9699
2.2125 7.0524 -1.9138 0.9699
1.5737 7.2197 -1.9132 0.9699
0.2644 7.3735 -1.9103 0.9700
-0.3944 7.3589 -1.9081 0.9700
-1.0482 7.2836 -1.9053 0.9701
-2.9230 6.7055 -1.8940 0.9702
-4.9356 6.1129 -2.0342 0.9681
-6.3202 4.5447 -2.0156 0.9683
-6.6789 3.9495 -2.0090 0.9684
-7.4401 -1.3620 -1.9584 0.9692
-6.7611 -3.2594 -1.9434 0.9695
-6.0489 -4.3916 -1.9354 0.9696
-5.6232 -4.9057 -1.9321 0.9696
-3.5360 -6.5362 -1.9241 0.9698
-2.9374 -6.8234 -1.9235 0.9698
-0.9488 -6.8140 -1.7813 0.9720
0.2791 -6.9022 -1.7886 0.9719
1.2803 -5.7475 -1.5246 0.9760
1.8084 -5.6735 -1.5418 0.9757
2.6954 -6.4118 -1.8009 0.9717
3.2644 -6.1597 -1.8050 0.9716
3.8107 -5.8583 -1.8095 0.9715
3.8745 -4.9298 -1.6234 0.9744
4.8182 -5.1154 -1.8195 0.9714
5.2713 -4.6788 -1.8249 0.9713
6.8820 -3.3906 -1.9864 0.9688
7.1809 -2.7719 -1.9930 0.9687
7.7351 -0.7779 -2.0129 0.9684
7.7987 -0.0846 -2.0193 0.9683
7.7995 0.6138 -2.0257 0.9682
7.6108 2.0027 -2.0377 0.9680
7.1709 3.3416 -2.0484 0.9678
6.8599 3.9776 -2.0531 0.9678
6.4910 4.5837 -2.0574 0.9677
5.5917 5.6843 -2.0645 0.9676
4.1767 6.1259 -1.9197 0.9698
3.0113 6.7495 -1.9136 0.9699
1.7629 7.1767 -1.9134 0.9699
0.4581 7.3661 -1.9109 0.9700
-1.5037 7.1943 -1.9030 0.9701
-2.1358 7.0179 -1.8993 0.9701
-3.8910 6.1572 -1.8859 0.9704
-5.3004 5.7775 -2.0300 0.9681
-6.5792 4.1275 -2.0109 0.9684
-6.8986 3.5121 -2.0043 0.9685
-7.1608 2.8727 -1.9977 0.9686
-3.0849 -6.0786 -1.9297 0.9721
-2.5294 -6.3282 -1.9293 0.9721
-1.2654 -6.1950 -1.7900 0.9741
-0.7077 -6.2867 -1.7910 0.9740
1.4359 -5.7323 -1.6729 0.9757
2.0923 -6.0136 -1.8025 0.9739
4.5381 -4.5713 -1.8235 0.9736
6.0755 -3.4858 -1.9829 0.9713
6.6385 -2.3641 -1.9949 0.9711
6.8438 -1.7675 -2.0010 0.9710
6.9954 -1.1530 -2.0071 0.9710
7.0915 -0.5255 -2.0131 0.9709
7.1309 0.1099 -2.0189 0.9708
7.1127 0.7482 -2.0247 0.9707
7.0367 1.3839 -2.0302 0.9706
6.4654 3.2221 -2.0450 0.9704
5.8120 4.3373 -2.0530 0.9703
3.9087 6.0693 -2.0436 0.9704
0.8409 6.6798 -1.9059 0.9724
-1.5425 6.5201 -1.8968 0.9725
-3.2256 5.8978 -1.9030 0.9724
-3.9912 5.9629 -2.0313 0.9706
-5.3973 4.6654 -2.0197 0.9708
-6.3834 3.0414 -2.0017 0.9710
-6.6093 2.4520 -1.9957 0.9711
-6.7812 1.8466 -1.9896 0.9712
-6.9663 -0.0159 -1.9721 0.9715
-6.9179 -0.6359 -1.9667 0.9715
-6.6600 -1.8464 -1.9565 0.9717
-6.4534 -2.4278 -1.9519 0.9717
-4.2644 -5.3313 -1.9327 0.9720
-3.7683 -5.6860 -1.9311 0.9720
-2.6948 -6.2598 -1.9293 0.9721
-2.1251 -6.4750 -1.9292 0.9721
-1.4274 -6.1590 -1.7898 0.9741
-0.3099 -6.3222 -1.7919 0.9740
1.2806 -5.7487 -1.6673 0.9758
1.8051 -5.6632 -1.6827 0.9756
2.4708 -5.8777 -1.8050 0.9738
2.9919 -5.6455 -1.8088 0.9738
3.4919 -5.3681 -1.8129 0.9737
3.8536 -4.9032 -1.7655 0.9744
4.4130 -4.6852 -1.8221 0.9736
4.9090 -4.3572 -1.8582 0.9731
5.6114 -4.1478 -1.9754 0.9714
6.7889 -1.9449 -1.9992 0.9711
7.0691 -0.7109 -2.0113 0.9709
7.1253 -0.0773 -2.0172 0.9708
7.0650 1.1976 -2.0286 0.9706
6.9482 1.8283 -2.0339 0.9706
5.9209 4.1810 -2.0519 0.9703
5.5333 4.7008 -2.0554 0.9703
5.0990 5.1834 -2.0584 0.9702
4.6214 5.6246 -2.0608 0.9702
4.0920 6.0017 -2.0564 0.9703
3.3602 6.0210 -1.9520 0.9717
2.7451 6.1528 -1.9073 0.9724
2.1851 6.3740 -1.9075 0.9724
-0.1833 6.7196 -1.9030 0.9724
-0.7814 6.6679 -1.9006 0.9725
-2.3633 5.8351 -1.7822 0.9742
-3.0430 5.9287 -1.8865 0.9727
-3.8309 6.0620 -2.0301 0.9706
-4.3618 5.7024 -2.0324 0.9706
-5.2774 4.8096 -2.0213 0.9708
-5.6692 4.3069 -2.0155 0.9708
-6.0132 3.7724 -2.0096 0.9709
-6.3069 3.2109 -2.0035 0.9710
-6.7363 2.0259 -1.9914 0.9712
-2.8467 -5.6093 -1.9348 0.9740
-1.8036 -6.0249 -1.9344 0.9740
-1.1676 -5.7167 -1.7946 0.9759
-0.1327 -5.8405 -1.7969 0.9758
0.3862 -5.7833 -1.7828 0.9760
3.3501 -4.8656 -1.8170 0.9756
3.7797 -4.5576 -1.8212 0.9755
4.3788 -4.4109 -1.9117 0.9743
4.9083 -4.1314 -1.9733 0.9735
5.2714 -3.6864 -1.9785 0.9734
6.1100 -2.1759 -1.9949 0.9732
6.5569 0.1011 -2.0170 0.9729
6.5387 0.6878 -2.0223 0.9729
6.1665 2.4127 -2.0367 0.9727
5.9388 2.9597 -2.0409 0.9726
5.6616 3.4846 -2.0448 0.9726
5.3370 3.9828 -2.0483 0.9725
4.9675 4.4499 -2.0513 0.9725
4.1064 5.2743 -2.0560 0.9724
3.0969 5.9086 -2.0519 0.9725
1.8512 5.9007 -1.9021 0.9745
-0.3301 6.1601 -1.8974 0.9745
-0.8776 6.0985 -1.8951 0.9745
-1.4164 5.9871 -1.8923 0.9746
-1.9420 5.8270 -1.8892 0.9746
-3.6760 5.4921 -2.0327 0.9727
-4.1418 5.1299 -2.0279 0.9728
-5.6159 3.3209 -2.0068 0.9731
-5.8736 2.7986 -2.0012 0.9731
-6.0829 2.2567 -1.9956 0.9732
-6.4102 0.5598 -1.9791 0.9734
-6.3743 -0.5860 -1.9689 0.9736
-6.2812 -1.1498 -1.9641 0.9736
-5.9499 -2.2383 -1.9553 0.9737
-5.1161 -3.7144 -1.9446 0.9739
-4.7572 -4.1503 -1.9418 0.9739
-2.9934 -5.5332 -1.9350 0.9740
-2.4868 -5.7766 -1.9344 0.9740
-1.9611 -5.9752 -1.9343 0.9740
-1.3172 -5.6835 -1.7945 0.9759
-0.8050 -5.7809 -1.7952 0.9759
0.2345 -5.7994 -1.7852 0.9760
0.6854 -5.2513 -1.6289 0.9781
1.2675 -5.6902 -1.7931 0.9759
1.7825 -5.5923 -1.8053 0.9757
3.6562 -4.6521 -1.8199 0.9755
5.5039 -3.3530 -1.9823 0.9734
5.7971 -2.8561 -1.9877 0.9733
6.0458 -2.3337 -1.9933 0.9732
6.4001 -1.2283 -2.0044 0.9731
6.5021 -0.6539 -2.0100 0.9730
6.5522 -0.0711 -2.0154 0.9730
6.5496 0.5154 -2.0207 0.9729
6.3851 1.6802 -2.0308 0.9727
6.2238 2.2485 -2.0354 0.9727
6.0109 2.8011 -2.0397 0.9726
5.7481 3.3329 -2.0437 0.9726
4.6812 4.7587 -2.0532 0.9725
3.2533 5.8293 -2.0533 0.9724
2.6439 5.9260 -1.9959 0.9732
2.0118 5.8684 -1.9081 0.9744
1.4751 6.0048 -1.9019 0.9745
0.3834 6.1646 -1.8998 0.9745
-0.1683 6.1686 -1.8980 0.9745
-0.7174 6.1218 -1.8958 0.9745
-1.2593 6.0249 -1.8932 0.9746
-1.7892 5.8790 -1.8901 0.9746
-2.3044 5.6898 -1.8882 0.9746
-4.0085 5.2406 -2.0294 0.9728
-4.4494 4.8499 -2.0244 0.9728
-5.2136 3.9607 -2.0139 0.9730
-5.5313 3.4701 -2.0084 0.9730
-6.0265 2.4177 -1.9972 0.9732
1.7888 -5.1412 -1.8094 0.9773
2.2443 -4.9693 -1.8125 0.9773
3.1463 -4.5696 -1.8442 0.9769
4.8806 -3.4132 -1.9797 0.9752
5.4373 -2.5036 -1.9898 0.9751
5.6536 -2.0134 -1.9949 0.9750
6.0622 0.0935 -2.0153 0.9748
6.0442 0.6358 -2.0202 0.9747
5.9771 1.1755 -2.0249 0.9746
4.9285 3.6780 -2.0442 0.9744
3.3436 5.1919 -2.0528 0.9743
2.8682 5.4724 -2.0538 0.9743
2.3636 5.6952 -2.0497 0.9743
1.8262 5.8210 -2.0279 0.9746
1.2567 5.7653 -1.9614 0.9754
0.7188 5.7098 -1.9130 0.9760
0.2043 5.6971 -1.8950 0.9763
-1.8688 5.6076 -1.9648 0.9754
-2.4421 5.6021 -2.0314 0.9746
-2.9353 5.3671 -2.0334 0.9745
-3.3967 5.0747 -2.0298 0.9746
-3.8277 4.7409 -2.0254 0.9746
-4.2259 4.3702 -2.0208 0.9747
-4.9117 3.5318 -2.0109 0.9748
-5.4336 2.5889 -2.0007 0.9749
-5.6285 2.0881 -1.9955 0.9750
-5.8797 1.0486 -1.9853 0.9751
-5.9349 0.5183 -1.9803 0.9752
-5.9429 -0.0136 -1.9755 0.9753
-5.2966 -2.5534 -1.9545 0.9755
-4.7429 -3.4434 -1.9482 0.9756
-4.4107 -3.8479 -1.9457 0.9756
-4.0450 -4.2215 -1.9435 0.9757
-2.7760 -5.1314 -1.9393 0.9757
-1.8188 -5.5415 -1.9387 0.9757
-0.7465 -5.3610 -1.7992 0.9774
-0.2651 -5.4096 -1.8003 0.9774
0.2190 -5.4162 -1.8019 0.9774
1.1813 -5.3031 -1.8060 0.9774
2.1120 -5.0239 -1.8115 0.9773
2.5566 -4.8240 -1.8148 0.9772
3.5453 -4.5109 -1.9071 0.9761
4.0612 -4.3117 -1.9689 0.9753
4.7858 -3.5376 -1.9783 0.9752
5.0952 -3.1040 -1.9832 0.9752
5.3656 -2.6435 -1.9883 0.9751
5.7799 -1.6558 -1.9986 0.9750
5.9199 -1.1362 -2.0037 0.9749
6.0581 -0.0657 -2.0139 0.9748
6.0545 0.4765 -2.0188 0.9747
6.0019 1.0174 -2.0235 0.9747
5.9003 1.5526 -2.0280 0.9746
5.7502 2.0774 -2.0323 0.9746
5.5527 2.5875 -2.0363 0.9745
5.0212 3.5457 -2.0433 0.9744
4.6913 3.9855 -2.0462 0.9744
3.9166 4.7668 -2.0508 0.9743
3.0106 5.3945 -2.0535 0.9743
1.9968 5.8246 -2.0467 0.9744
1.4202 5.7816 -1.9790 0.9752
0.3539 5.6910 -1.8954 0.9763
-0.1554 5.6950 -1.8938 0.9763
-1.1650 5.5738 -1.8928 0.9763
-2.7924 5.4405 -2.0328 0.9746
-3.2642 5.1653 -2.0311 0.9746
-3.7044 4.8429 -2.0267 0.9746
-4.4856 4.0880 -2.0174 0.9747
-5.1156 3.2093 -2.0074 0.9749
-5.3678 2.7328 -2.0022 0.9749
-5.5759 2.2369 -1.9971 0.9750
-2.4588 -4.8449 -1.9429 0.9772
-2.0161 -5.0441 -1.9426 0.9772
-1.5579 -5.2041 -1.9426 0.9772
-1.0682 -5.2298 -1.9088 0.9776
0.3364 -5.0381 -1.8057 0.9788
1.2297 -4.9090 -1.8097 0.9787
2.1193 -4.6924 -1.8413 0.9784
2.6084 -4.6240 -1.8985 0.9777
3.8849 -3.9134 -1.9719 0.9768
4.2280 -3.5588 -1.9763 0.9768
4.8156 -2.7629 -1.9854 0.9767
5.5307 -0.9116 -2.0045 0.9765
5.6032 -0.4152 -2.0092 0.9764
5.6309 0.0868 -2.0139 0.9764
5.5500 1.0915 -2.0227 0.9763
5.4415 1.5858 -2.0269 0.9762
5.2883 2.0691 -2.0307 0.9762
4.5732 3.4128 -2.0406 0.9761
4.2557 3.8123 -2.0432 0.9760
3.1017 4.8162 -2.0486 0.9760
2.1973 5.2946 -2.0500 0.9759
1.7143 5.4645 -2.0480 0.9760
0.7129 5.6633 -2.0412 0.9760
0.2018 5.6277 -2.0138 0.9764
-0.2990 5.5790 -1.9980 0.9765
-0.7987 5.5502 -2.0052 0.9765
-1.3091 5.5335 -2.0334 0.9761
-1.7979 5.3948 -2.0335 0.9761
-2.7254 4.9834 -2.0312 0.9762
-3.1534 4.7112 -2.0273 0.9762
-3.5542 4.4020 -2.0232 0.9763
-3.9245 4.0585 -2.0189 0.9763
-4.2616 3.6838 -2.0144 0.9764
-4.8263 2.8539 -2.0051 0.9765
-5.0497 2.4060 -2.0003 0.9765
-5.3711 1.4627 -1.9907 0.9766
-5.4672 0.9750 -1.9860 0.9767
-5.5279 -0.0126 -1.9768 0.9768
-5.2935 -1.4675 -1.9644 0.9769
-5.1317 -1.9306 -1.9607 0.9770
-4.9304 -2.3768 -1.9573 0.9770
-4.6911 -2.8030 -1.9542 0.9771
-4.4159 -3.2060 -1.9515 0.9771
-3.7668 -3.9311 -1.9470 0.9771
-3.3979 -4.2480 -1.9453 0.9772
-2.1480 -4.9896 -1.9426 0.9772
-1.6939 -5.1612 -1.9426 0.9772
-1.2267 -5.2927 -1.9429 0.9772
-0.2469 -5.0380 -1.8038 0.9788
0.6540 -5.0104 -1.8069 0.9788
1.0999 -4.9377 -1.8090 0.9787
2.9736 -4.5714 -1.9502 0.9771
3.7785 -4.0115 -1.9707 0.9769
4.1304 -3.6662 -1.9750 0.9768
4.7381 -2.8864 -1.9840 0.9767
5.3719 -1.5389 -1.9983 0.9765
5.5010 -1.0558 -2.0031 0.9765
5.6231 0.4425 -2.0171 0.9763
5.4780 1.4415 -2.0257 0.9762
5.3379 1.9285 -2.0296 0.9762
5.1538 2.4016 -2.0333 0.9761
4.9270 2.8569 -2.0367 0.9761
4.6594 3.2902 -2.0398 0.9761
4.3528 3.6979 -2.0425 0.9760
3.6334 4.4221 -2.0467 0.9760
3.2265 4.7323 -2.0482 0.9760
2.7926 5.0040 -2.0493 0.9760
1.8582 5.4205 -2.0491 0.9760
1.3645 5.5548 -2.0455 0.9760
-1.1588 5.5443 -2.0255 0.9762
-1.6555 5.4397 -2.0334 0.9761
-3.0303 4.7952 -2.0285 0.9762
-4.1662 3.7969 -2.0158 0.9763
-4.4783 3.4021 -2.0112 0.9764
-4.7530 2.9818 -2.0065 0.9764
-4.9882 2.5395 -2.0017 0.9765
-5.1826 2.0791 -1.9969 0.9766
-2.2985 -4.5290 -1.9463 0.9785
-1.8847 -4.7153 -1.9460 0.9785
-1.4563 -4.8648 -1.9460 0.9785
-0.5664 -5.0314 -1.9403 0.9785
-0.1124 -4.9501 -1.8974 0.9790
0.3271 -4.8987 -1.8815 0.9792
1.2005 -4.7926 -1.8934 0.9791
2.5161 -4.4605 -1.9626 0.9783
3.2809 -3.9562 -1.9696 0.9782
3.6281 -3.6547 -1.9735 0.9782
4.7179 -2.1723 -1.9904 0.9780
4.9040 -1.7464 -1.9949 0.9779
5.0516 -1.3046 -1.9994 0.9779
5.1594 -0.8504 -2.0039 0.9778
5.2262 -0.3873 -2.0083 0.9778
5.2339 0.5505 -2.0168 0.9777
5.1742 1.0176 -2.0208 0.9777
4.9290 1.9285 -2.0283 0.9776
4.7450 2.3647 -2.0317 0.9775
3.9649 3.5517 -2.0399 0.9775
3.2761 4.2078 -2.0436 0.9774
2.0467 4.9317 -2.0462 0.9774
0.6662 5.2917 -2.0439 0.9774
0.1909 5.3229 -2.0411 0.9774
-0.7572 5.2620 -2.0373 0.9775
-1.2235 5.1714 -2.0365 0.9775
-1.6791 5.0381 -2.0351 0.9775
-2.1189 4.8608 -2.0320 0.9775
-2.5402 4.6447 -2.0287 0.9776
-2.9395 4.3916 -2.0251 0.9776
-3.6593 3.7842 -2.0173 0.9777
-4.2559 3.0603 -2.0088 0.9778
-4.7113 2.2448 -1.9999 0.9779
-4.8819 1.8112 -1.9954 0.9779
-2.3042 0.2012 -0.8864 0.9901
-2.2874 -0.0052 -0.8766 0.9902
-5.0568 -0.9257 -1.9701 0.9782
-4.7942 -1.8036 -1.9629 0.9783
-4.6066 -2.2208 -1.9598 0.9783
-4.3835 -2.6192 -1.9569 0.9784
-3.8384 -3.3487 -1.9520 0.9784
-2.8072 -4.2357 -1.9473 0.9785
-2.4169 -4.4675 -1.9465 0.9785
-1.5835 -4.8247 -1.9460 0.9785
-1.1467 -4.9476 -1.9463 0.9785
-0.7007 -5.0320 -1.9469 0.9785
-0.2435 -4.9679 -1.9061 0.9789
1.5147 -4.7520 -1.9113 0.9789
1.9719 -4.6907 -1.9499 0.9784
2.3970 -4.5229 -1.9616 0.9783
2.7959 -4.2981 -1.9649 0.9783
3.1741 -4.0387 -1.9685 0.9782
3.5288 -3.7465 -1.9723 0.9782
4.4230 -2.6945 -1.9847 0.9781
4.6562 -2.2940 -1.9891 0.9780
4.8532 -1.8734 -1.9936 0.9780
5.0123 -1.4359 -1.9981 0.9779
5.1319 -0.9849 -2.0025 0.9779
5.2109 -0.5241 -2.0070 0.9778
5.2434 0.4126 -2.0156 0.9777
5.1961 0.8808 -2.0197 0.9777
5.1066 1.3438 -2.0236 0.9776
4.9754 1.7975 -2.0273 0.9776
4.8032 2.2383 -2.0307 0.9776
4.5913 2.6622 -2.0339 0.9775
4.0554 3.4453 -2.0392 0.9775
3.7356 3.7975 -2.0414 0.9774
3.0055 4.4081 -2.0446 0.9774
1.2736 5.1848 -2.0460 0.9774
-0.1452 5.3200 -2.0395 0.9775
-0.6189 5.2810 -2.0376 0.9775
-1.0873 5.2020 -2.0366 0.9775
-1.5468 5.0825 -2.0359 0.9775
-1.9914 4.9170 -2.0330 0.9775
-2.4185 4.7121 -2.0297 0.9776
-2.8246 4.4697 -2.0262 0.9776
-3.2064 4.1919 -2.0225 0.9776
-3.5608 3.8813 -2.0185 0.9777
-3.8850 3.5407 -2.0144 0.9777
-4.1767 3.1730 -2.0101 0.9778
-4.4336 2.7814 -2.0057 0.9778
-4.6538 2.3693 -2.0012 0.9779
-4.8359 1.9400 -1.9968 0.9779
-1.3657 -4.5622 -1.9490 0.9796
0.7422 -4.7174 -1.9545 0.9796
2.3584 -4.1808 -1.9646 0.9795
2.7266 -3.9601 -1.9678 0.9794
3.0745 -3.7073 -1.9712 0.9794
3.6986 -3.1132 -1.9786 0.9793
4.4181 -2.0343 -1.9907 0.9792
4.5917 -1.6352 -1.9949 0.9792
4.7293 -1.2214 -1.9991 0.9791
4.8914 -0.3625 -2.0074 0.9790
4.9141 0.0758 -2.0115 0.9790
4.8408 0.9520 -2.0192 0.9789
4.6102 1.8038 -2.0261 0.9788
4.4377 2.2116 -2.0293 0.9788
4.2285 2.6025 -2.0321 0.9788
3.3991 3.6419 -2.0389 0.9787
3.0627 3.9338 -2.0404 0.9787
1.4941 4.7626 -2.0429 0.9787
1.0628 4.8760 -2.0425 0.9787
0.1787 4.9827 -2.0406 0.9787
-0.7090 4.9269 -2.0372 0.9787
-2.3759 4.3443 -2.0265 0.9788
-3.0999 3.8394 -2.0196 0.9789
-3.7190 3.2147 -2.0119 0.9790
-3.9831 2.8642 -2.0079 0.9790
-4.4107 2.1015 -1.9996 0.9791
-4.5710 1.6958 -1.9954 0.9791
-4.6943 1.2783 -1.9912 0.9792
-2.0556 0.3666 -0.8546 0.9910
-2.0150 0.1760 -0.8278 0.9913
-1.9905 -0.0045 -0.8147 0.9914
-2.0159 -0.1853 -0.8285 0.9913
-2.0605 -0.3772 -0.8573 0.9910
-4.4936 -1.6905 -1.9649 0.9795
-3.8690 -2.8090 -1.9568 0.9795
-2.2665 -4.1895 -1.9495 0.9796
-1.0753 -4.6398 -1.9493 0.9796
1.8566 -4.4166 -1.9608 0.9795
3.3065 -3.5105 -1.9737 0.9794
3.6135 -3.2074 -1.9775 0.9793
4.3605 -2.1483 -1.9895 0.9792
4.5444 -1.7542 -1.9937 0.9792
4.9063 0.3861 -2.0142 0.9790
4.8615 0.8241 -2.0181 0.9789
4.2937 2.4896 -2.0313 0.9788
3.7919 3.2214 -2.0363 0.9787
3.4926 3.5505 -2.0384 0.9787
3.1643 3.8512 -2.0400 0.9787
2.4317 4.3572 -2.0422 0.9787
2.0336 4.5581 -2.0428 0.9787
1.1906 4.8468 -2.0426 0.9787
0.3095 4.9772 -2.0410 0.9787
-0.5796 4.9452 -2.0378 0.9787
-1.0176 4.8687 -2.0357 0.9787
-1.4464 4.7527 -2.0332 0.9788
-2.6421 4.1809 -2.0242 0.9789
-2.9996 3.9215 -2.0207 0.9789
-3.3316 3.6315 -2.0170 0.9789
-3.9089 2.9695 -2.0091 0.9790
-4.1499 2.6034 -2.0050 0.9790
-4.3566 2.2180 -2.0008 0.9791
-4.5277 1.8164 -1.9966 0.9791
-4.6620 1.4020 -1.9924 0.9792
-2.0271 -3.9941 -1.9521 0.9806
-1.6622 -4.1585 -1.9517 0.9806
-0.5012 -4.4528 -1.9528 0.9806
-0.1018 -4.4821 -1.9539 0.9806
0.2989 -4.4764 -1.9552 0.9806
0.6979 -4.4356 -1.9569 0.9806
1.0921 -4.3600 -1.9588 0.9806
1.4787 -4.2499 -1.9611 0.9806
1.8545 -4.1062 -1.9636 0.9805
3.1943 -3.2177 -1.9760 0.9804
3.4751 -2.9250 -1.9796 0.9804
3.7293 -2.6080 -1.9833 0.9803
3.9548 -2.2690 -1.9871 0.9803
4.1496 -1.9107 -1.9910 0.9803
4.5917 -0.3403 -2.0066 0.9801
4.5961 0.4834 -2.0141 0.9800
4.5426 0.8934 -2.0177 0.9800
4.4521 1.2975 -2.0210 0.9800
4.3253 1.6923 -2.0242 0.9799
4.1630 2.0747 -2.0271 0.9799
3.9665 2.4413 -2.0298 0.9799
3.7371 2.7889 -2.0322 0.9799
3.4769 3.1146 -2.0343 0.9798
3.1878 3.4155 -2.0361 0.9798
2.8722 3.6891 -2.0376 0.9798
2.5328 3.9329 -2.0387 0.9798
1.7941 4.3230 -2.0399 0.9798
0.9967 4.5724 -2.0395 0.9798
0.1676 4.6727 -2.0378 0.9798
-0.2500 4.6658 -2.0363 0.9798
-0.6650 4.6208 -2.0346 0.9798
-1.0737 4.5384 -2.0325 0.9799
-1.4728 4.4193 -2.0301 0.9799
-1.8590 4.2646 -2.0275 0.9799
-2.2290 4.0757 -2.0246 0.9799
-2.5800 3.8545 -2.0214 0.9800
-3.2133 3.3230 -2.0146 0.9800
-3.7391 2.6887 -2.0071 0.9801
-1.4706 0.2623 -0.6510 0.9935
-1.4662 0.1280 -0.6414 0.9936
-1.4674 -0.1349 -0.6422 0.9936
-1.4697 -0.2690 -0.6512 0.9935
-1.4935 -0.4140 -0.6754 0.9933
-1.5155 -0.5701 -0.7057 0.9930
-4.0593 -1.9569 -1.9639 0.9805
-3.8634 -2.3084 -1.9614 0.9806
-3.6376 -2.6410 -1.9591 0.9806
-2.4755 -3.7353 -1.9529 0.9806
-1.3965 -4.2550 -1.9517 0.9806
-0.6179 -4.4375 -1.9526 0.9806
0.5810 -4.4512 -1.9564 0.9806
0.9770 -4.3858 -1.9582 0.9806
1.7454 -4.1519 -1.9629 0.9805
2.1119 -3.9850 -1.9656 0.9805
2.7955 -3.5570 -1.9716 0.9805
3.1071 -3.2988 -1.9750 0.9804
3.3952 -3.0136 -1.9785 0.9804
3.6575 -2.7035 -1.9822 0.9804
4.0956 -2.0178 -1.9898 0.9803
4.5105 -0.8657 -2.0016 0.9802
4.5786 -0.4605 -2.0055 0.9801
4.6048 0.3624 -2.0131 0.9800
4.5622 0.7734 -2.0166 0.9800
4.4825 1.1795 -2.0201 0.9800
3.5564 3.0213 -2.0338 0.9798
3.2756 3.3298 -2.0356 0.9798
1.5179 4.4277 -2.0399 0.9798
1.1165 4.5450 -2.0397 0.9798
-0.1275 4.6718 -2.0368 0.9798
-1.3567 4.4580 -2.0309 0.9799
-1.7471 4.3136 -2.0283 0.9799
-2.4790 3.9228 -2.0224 0.9800
-3.1265 3.4080 -2.0156 0.9800
-3.4121 3.1097 -2.0120 0.9801
-3.6692 2.7875 -2.0082 0.9801
-3.8959 2.4441 -2.0044 0.9801
-4.0906 2.0825 -2.0005 0.9802
-1.4938 0.4493 -0.6798 0.9932
-1.5669 -3.9203 -1.9542 0.9816
-1.2108 -4.0445 -1.9542 0.9816
-0.4725 -4.1975 -1.9552 0.9816
-0.0960 -4.2251 -1.9562 0.9815
0.2817 -4.2195 -1.9575 0.9815
1.0294 -4.1093 -1.9609 0.9815
1.3936 -4.0054 -1.9630 0.9815
1.7477 -3.8697 -1.9654 0.9815
2.0889 -3.7031 -1.9680 0.9814
2.4146 -3.5069 -1.9709 0.9814
2.7222 -3.2824 -1.9739 0.9814
3.0092 -3.0312 -1.9771 0.9813
3.2733 -2.7552 -1.9805 0.9813
4.0599 -1.4458 -1.9949 0.9812
4.3217 -0.3203 -2.0059 0.9811
4.2741 0.8406 -2.0163 0.9810
3.9159 1.9515 -2.0252 0.9809
3.7307 2.2962 -2.0278 0.9809
2.9977 3.2119 -2.0337 0.9808
2.7009 3.4690 -2.0350 0.9808
2.0427 3.8973 -2.0368 0.9808
1.6870 4.0649 -2.0372 0.9808
0.1576 4.3939 -2.0352 0.9808
-0.2351 4.3876 -2.0339 0.9808
-1.0098 4.2683 -2.0303 0.9809
-1.3853 4.1565 -2.0280 0.9809
-1.7486 4.0114 -2.0255 0.9809
-2.0969 3.8341 -2.0228 0.9809
-2.4272 3.6263 -2.0199 0.9810
-3.0236 3.1269 -2.0134 0.9810
-3.2850 2.8396 -2.0099 0.9810
-3.5192 2.5305 -2.0064 0.9811
-3.7242 2.2023 -2.0027 0.9811
-1.2695 0.6049 -0.6509 0.9938
-1.2707 0.3460 -0.6096 0.9942
-1.2722 0.2269 -0.5982 0.9943
-1.2732 0.1112 -0.5916 0.9944
-1.2588 -0.0029 -0.5827 0.9945
-1.2737 -0.1171 -0.5920 0.9944
-1.2706 -0.3523 -0.6103 0.9942
-1.2745 -0.6144 -0.6549 0.9938
-3.6410 -2.1756 -1.9633 0.9815
-2.9260 -3.0537 -1.9577 0.9815
-2.6400 -3.3005 -1.9564 0.9815
-2.0093 -3.7141 -1.9547 0.9816
-1.6694 -3.8779 -1.9543 0.9816
0.1708 -4.2246 -1.9571 0.9815
0.5476 -4.1956 -1.9586 0.9815
1.2875 -4.0392 -1.9624 0.9815
2.6338 -3.3512 -1.9730 0.9814
3.1982 -2.8388 -1.9795 0.9813
3.6650 -2.2327 -1.9865 0.9813
4.1485 -1.1884 -1.9975 0.9812
4.2459 -0.8149 -2.0012 0.9811
4.3332 0.3410 -2.0120 0.9810
4.2927 0.7277 -2.0154 0.9810
4.2173 1.1097 -2.0186 0.9810
4.1076 1.4840 -2.0216 0.9809
3.9642 1.8473 -2.0244 0.9809
3.5813 2.5289 -2.0294 0.9809
3.0803 3.1314 -2.0332 0.9808
0.6639 4.3490 -2.0364 0.9808
-0.5112 4.3616 -2.0327 0.9808
-1.6433 4.0574 -2.0263 0.9809
-3.2110 2.9264 -2.0110 0.9810
-3.4533 2.6234 -2.0074 0.9811
-3.8507 1.9604 -2.0001 0.9811
-1.8053 -3.5572 -1.9567 0.9824
-1.1438 -3.8210 -1.9565 0.9824
-0.4464 -3.9655 -1.9574 0.9824
1.6506 -3.6547 -1.9671 0.9823
2.5703 -3.0993 -1.9751 0.9822
2.8411 -2.8619 -1.9781 0.9822
3.3155 -2.3186 -1.9846 0.9821
3.6876 -1.6979 -1.9914 0.9821
3.9446 -1.0187 -1.9984 0.9820
4.0791 0.4291 -2.0120 0.9819
3.9498 1.1511 -2.0181 0.9818
3.6921 1.8400 -2.0235 0.9818
3.3134 2.4727 -2.0280 0.9817
3.0823 2.7611 -2.0299 0.9817
2.8257 3.0276 -2.0315 0.9817
1.5900 3.8312 -2.0347 0.9817
1.2417 3.9579 -2.0348 0.9817
0.8833 4.0524 -2.0344 0.9817
0.5179 4.1138 -2.0338 0.9817
-0.5895 4.0964 -2.0301 0.9817
-1.3060 3.9187 -2.0261 0.9818
-1.9772 3.6152 -2.0212 0.9818
-2.5811 3.1969 -2.0155 0.9819
-2.8518 2.9491 -2.0123 0.9819
-3.0986 2.6784 -2.0091 0.9819
-3.5136 2.0777 -2.0023 0.9820
-1.0901 0.5194 -0.5923 0.9946
-1.1202 0.4156 -0.5861 0.9947
-1.1326 0.3084 -0.5758 0.9948
-1.1440 0.0999 -0.5633 0.9949
-1.1442 -0.1052 -0.5636 0.9949
-1.1404 -0.2088 -0.5687 0.9948
-1.1324 -0.3139 -0.5764 0.9948
-1.1191 -0.4210 -0.5865 0.9947
-1.0881 -0.5246 -0.5925 0.9946
-3.4389 -2.0548 -1.9651 0.9823
-3.2384 -2.3511 -1.9630 0.9823
-2.7641 -2.8847 -1.9597 0.9824
-1.5771 -3.6636 -1.9565 0.9824
-0.9006 -3.8860 -1.9567 0.9824
-0.5503 -3.9519 -1.9572 0.9824
0.1614 -3.9908 -1.9592 0.9824
0.8698 -3.9046 -1.9623 0.9823
1.2161 -3.8152 -1.9642 0.9823
1.5535 -3.6955 -1.9664 0.9823
1.8795 -3.5464 -1.9688 0.9823
2.4870 -3.1644 -1.9742 0.9822
2.7637 -2.9342 -1.9772 0.9822
3.4593 -2.1074 -1.9869 0.9821
3.9144 -1.1214 -1.9974 0.9820
4.0656 -0.4089 -2.0043 0.9820
4.0871 0.3216 -2.0110 0.9819
4.0484 0.6863 -2.0142 0.9819
3.9770 1.0465 -2.0172 0.9818
3.8732 1.3993 -2.0201 0.9818
3.5717 2.0710 -2.0252 0.9818
3.1529 2.6785 -2.0293 0.9817
2.3353 3.4251 -2.0335 0.9817
0.6258 4.0992 -2.0340 0.9817
0.2573 4.1369 -2.0332 0.9817
-0.1130 4.1410 -2.0320 0.9817
-1.2030 3.9529 -2.0268 0.9818
-2.4974 3.2650 -2.0164 0.9819
-2.7746 3.0244 -2.0133 0.9819
-3.0287 2.7602 -2.0101 0.9819
-1.0905 0.5552 -0.6002 0.9946
-1.1132 0.4466 -0.5884 0.9947
-1.7087 -3.3670 -1.9588 0.9831
-1.4012 -3.5056 -1.9585 0.9831
-1.0827 -3.6167 -1.9585 0.9831
-0.7556 -3.6995 -1.9588 0.9831
-0.4225 -3.7533 -1.9594 0.9831
-0.0858 -3.7777 -1.9603 0.9831
0.2519 -3.7725 -1.9615 0.9831
0.5881 -3.7376 -1.9629 0.9831
1.2456 -3.5800 -1.9664 0.9831
2.1572 -3.1331 -1.9734 0.9830
2.4316 -2.9321 -1.9761 0.9830
2.6876 -2.7072 -1.9790 0.9830
2.9229 -2.4603 -1.9820 0.9829
3.3244 -1.9074 -1.9883 0.9829
3.4871 -1.6056 -1.9916 0.9828
3.6225 -1.2901 -1.9949 0.9828
3.7294 -0.9632 -1.9982 0.9828
3.8538 -0.2856 -2.0047 0.9827
3.8700 0.0597 -2.0079 0.9827
3.3228 2.0451 -2.0242 0.9826
3.1301 2.3359 -2.0262 0.9826
2.4046 3.0885 -2.0306 0.9825
2.1203 3.2924 -2.0316 0.9825
1.5018 3.6186 -2.0325 0.9825
-0.2094 3.9066 -2.0296 0.9825
-0.8993 3.8011 -2.0264 0.9826
-1.2338 3.7021 -2.0244 0.9826
-1.5576 3.5732 -2.0222 0.9826
-1.8681 3.4158 -2.0198 0.9826
-2.4392 3.0210 -2.0143 0.9827
-2.9287 2.5316 -2.0083 0.9827
-0.9780 0.4660 -0.5620 0.9951
-1.0065 0.3734 -0.5569 0.9952
-1.0297 -0.0024 -0.5342 0.9954
-1.0315 -0.1888 -0.5440 0.9953
-3.0647 -2.2250 -1.9647 0.9831
-2.8514 -2.4876 -1.9630 0.9831
-2.3605 -2.9510 -1.9604 0.9831
-2.0867 -3.1485 -1.9595 0.9831
-1.7967 -3.3211 -1.9589 0.9831
-0.8525 -3.6782 -1.9587 0.9831
0.1527 -3.7771 -1.9611 0.9831
0.4896 -3.7509 -1.9624 0.9831
0.8231 -3.6952 -1.9640 0.9831
1.4700 -3.4969 -1.9679 0.9831
2.0734 -3.1875 -1.9727 0.9830
2.3528 -2.9937 -1.9753 0.9830
3.0757 -2.2735 -1.9842 0.9829
3.2716 -1.9930 -1.9874 0.9829
3.4421 -1.6958 -1.9906 0.9829
3.5856 -1.3841 -1.9939 0.9828
3.7010 -1.0602 -1.9972 0.9828
3.8685 -0.0420 -2.0070 0.9827
3.8628 0.3040 -2.0101 0.9827
3.7581 0.9889 -2.0160 0.9826
3.6597 1.3222 -2.0187 0.9826
3.5315 1.6456 -2.0212 0.9826
2.7428 2.7882 -2.0290 0.9825
2.4845 3.0238 -2.0303 0.9825
1.5962 3.5778 -2.0325 0.9825
-0.4551 3.8837 -2.0286 0.9825
-0.7994 3.8245 -2.0269 0.9825
-1.1365 3.7343 -2.0250 0.9826
-2.6222 2.8582 -2.0123 0.9827
-0.9703 0.6087 -0.5942 0.9949
-0.9997 0.4011 -0.5588 0.9952
-1.6201 -3.1922 -1.9606 0.9838
-1.3285 -3.3236 -1.9604 0.9838
-0.4006 -3.5584 -1.9613 0.9838
-0.0814 -3.5815 -1.9621 0.9838
0.2388 -3.5764 -1.9632 0.9838
0.5575 -3.5432 -1.9645 0.9838
1.1807 -3.3935 -1.9679 0.9837
1.4804 -3.2779 -1.9699 0.9837
2.0445 -2.9694 -1.9745 0.9837
2.5467 -2.5654 -1.9798 0.9836
2.7695 -2.3311 -1.9827 0.9836
2.9710 -2.0777 -1.9856 0.9836
3.1494 -1.8069 -1.9887 0.9836
3.3032 -1.5210 -1.9918 0.9836
1.9370 -0.6898 -1.1262 0.9907
1.8853 -0.4869 -1.0665 0.9912
1.8867 -0.3110 -1.0473 0.9913
1.8874 -0.1399 -1.0366 0.9914
1.8850 0.3707 -1.0522 0.9913
1.8811 0.5482 -1.0732 0.9911
3.4314 1.3426 -2.0181 0.9833
2.9624 2.2107 -2.0245 0.9833
2.0064 3.1155 -2.0296 0.9832
1.7208 3.2831 -2.0302 0.9832
1.1097 3.5373 -2.0305 0.9832
0.7894 3.6218 -2.0302 0.9832
0.1327 3.7019 -2.0288 0.9832
-0.1981 3.6969 -2.0277 0.9833
-0.5270 3.6620 -2.0263 0.9833
-0.8511 3.5974 -2.0247 0.9833
-1.4743 3.3821 -2.0207 0.9833
-1.7683 3.2333 -2.0184 0.9833
-2.5517 2.6388 -2.0105 0.9834
-2.9715 2.1367 -2.0046 0.9834
-0.9474 0.0827 -0.5208 0.9957
-0.9411 -0.0021 -0.5155 0.9957
-0.9474 -0.0871 -0.5211 0.9957
-0.8927 -0.4303 -0.5428 0.9955
-0.8649 -0.5168 -0.5518 0.9954
-2.7031 -2.3582 -1.9647 0.9838
-2.4801 -2.5883 -1.9633 0.9838
-1.9783 -2.9850 -1.9614 0.9838
-1.7034 -3.1487 -1.9608 0.9838
-1.1162 -3.4008 -1.9604 0.9838
-0.8082 -3.4872 -1.9606 0.9838
-0.4938 -3.5463 -1.9611 0.9838
0.1448 -3.5808 -1.9628 0.9838
0.4641 -3.5559 -1.9641 0.9838
1.0909 -3.4223 -1.9673 0.9838
1.6855 -3.1805 -1.9715 0.9837
2.4774 -2.6303 -1.9790 0.9837
2.7062 -2.4020 -1.9818 0.9836
3.0994 -1.8882 -1.9878 0.9836
3.3963 -1.3110 -1.9940 0.9835
1.8819 -0.5391 -1.0722 0.9911
1.8846 -0.3617 -1.0510 0.9913
1.8878 0.1486 -1.0372 0.9914
1.8862 0.3197 -1.0478 0.9913
3.1937 1.8518 -2.0220 0.9833
3.0186 2.1316 -2.0240 0.9833
2.5956 2.6386 -2.0272 0.9833
2.3511 2.8615 -2.0284 0.9833
2.0873 3.0614 -2.0294 0.9832
1.8063 3.2365 -2.0300 0.9832
1.2023 3.5070 -2.0305 0.9832
0.8843 3.6000 -2.0303 0.9832
0.5593 3.6637 -2.0299 0.9832
0.2299 3.6976 -2.0291 0.9832
-0.4307 3.6753 -2.0268 0.9833
-1.0756 3.5343 -2.0234 0.9833
-1.3854 3.4207 -2.0214 0.9833
-1.6834 3.2797 -2.0191 0.9833
-2.4826 2.7060 -2.0113 0.9834
-2.7103 2.4701 -2.0085 0.9834
-2.9157 2.2150 -2.0055 0.9834
-0.8651 0.5427 -0.5593 0.9954
-0.9224 0.2774 -0.5275 0.9956
-1.5382 -3.0309 -1.9624 0.9844
-1.2614 -3.1558 -1.9621 0.9844
-0.9746 -3.2558 -1.9622 0.9844
-0.6802 -3.3303 -1.9624 0.9844
-0.3803 -3.3786 -1.9630 0.9844
-0.0772 -3.4005 -1.9638 0.9844
0.2267 -3.3956 -1.9648 0.9844
0.8281 -3.3058 -1.9676 0.9844
1.1208 -3.2215 -1.9693 0.9844
1.6792 -2.9769 -1.9733 0.9843
2.1870 -2.6371 -1.9780 0.9843
2.8191 -1.9715 -1.9861 0.9842
3.1338 -1.4430 -1.9919 0.9842
1.7061 -0.6076 -1.0456 0.9917
1.7306 -0.4470 -1.0320 0.9918
1.7391 -0.1289 -1.0068 0.9920
1.7250 0.5027 -1.0373 0.9917
1.7430 0.6820 -1.0806 0.9914
3.1301 1.5599 -2.0191 0.9840
2.9813 1.8349 -2.0211 0.9840
2.3942 2.5652 -2.0259 0.9839
1.9017 2.9529 -2.0278 0.9839
1.6309 3.1117 -2.0283 0.9839
1.0518 3.3526 -2.0286 0.9839
0.4387 3.4849 -2.0279 0.9839
0.1258 3.5087 -2.0271 0.9839
-0.1878 3.5041 -2.0260 0.9839
-0.4995 3.4711 -2.0247 0.9839
-0.8068 3.4101 -2.0231 0.9839
-1.1070 3.3215 -2.0214 0.9840
-1.3977 3.2063 -2.0194 0.9840
-1.6765 3.0654 -2.0172 0.9840
-2.1896 2.7119 -2.0123 0.9840
-2.4197 2.5023 -2.0097 0.9841
-2.6298 2.2732 -2.0069 0.9841
-0.8680 0.2364 -0.5194 0.9959
-0.8790 0.1568 -0.5155 0.9959
-0.8822 0.0770 -0.5113 0.9959
-0.8787 -0.1608 -0.5157 0.9959
-0.8118 -0.4851 -0.5460 0.9956
-0.8017 -0.5821 -0.5720 0.9954
-2.3546 -2.4574 -1.9649 0.9844
-2.1247 -2.6563 -1.9639 0.9844
-1.3438 -3.1216 -1.9622 0.9844
-0.7674 -3.3111 -1.9623 0.9844
-0.4689 -3.3672 -1.9628 0.9844
0.1375 -3.3998 -1.9645 0.9844
0.4407 -3.3760 -1.9657 0.9844
1.3227 -3.1465 -1.9706 0.9844
1.8652 -2.8673 -1.9749 0.9843
2.3512 -2.4962 -1.9798 0.9843
2.5681 -2.2794 -1.9825 0.9843
2.7652 -2.0440 -1.9853 0.9842
1.7270 -0.6666 -1.0688 0.9915
1.7260 -0.4945 -1.0366 0.9917
1.7414 -0.1751 -1.0105 0.9919
1.7288 -0.0188 -0.9982 0.9920
1.7396 0.1369 -1.0075 0.9920
1.7301 0.4553 -1.0329 0.9918
1.7042 0.6157 -1.0462 0.9917
3.1690 1.4767 -2.0185 0.9840
2.6718 2.2698 -2.0241 0.9839
2.2285 2.7122 -2.0267 0.9839
1.9783 2.9016 -2.0276 0.9839
1.4316 3.2087 -2.0286 0.9839
-1.3134 3.2429 -2.0200 0.9840
-1.8650 2.9511 -2.0156 0.9840
-2.1184 2.7695 -2.0131 0.9840
-2.3541 2.5660 -2.0105 0.9840
-2.5703 2.3424 -2.0078 0.9841
-0.8040 0.5044 -0.5480 0.9956
-0.8330 0.4241 -0.5397 0.9957
-0.8652 0.2602 -0.5216 0.9958
