ply
format ascii 1.0
element vertex 1295
property float32 x
property float32 y
property float32 z
property float32 I
end_header
18.7816 0.9119 3.3156 0.9265
15.6439 5.1282 2.9029 0.9353
17.5222 7.5364 3.3633 0.9255
13.2159 7.1447 2.6491 0.9408
11.7329 7.7716 2.4815 0.9444
11.1681 12.7973 2.9950 0.9333
19.4010 0.4772 3.4220 0.9242
15.2087 3.1372 2.7382 0.9389
15.1504 4.5680 2.7902 0.9377
12.1971 7.6657 2.5402 0.9432
11.3943 8.6713 2.5247 0.9435
15.0596 4.9367 2.4278 0.9379
16.9918 7.3083 2.8336 0.9279
12.2750 8.1306 2.2556 0.9422
10.8771 8.6964 2.1334 0.9452
19.3762 0.4766 2.9692 0.9246
14.7069 4.4343 2.3532 0.9397
16.5242 6.6433 2.7283 0.9305
17.9584 0.8719 2.3413 0.9300
10.7088 1.4865 1.4079 0.9573
14.9533 3.4595 1.9987 0.9400
15.5718 5.1046 2.1340 0.9360
17.4974 7.5257 2.4803 0.9260
4.6024 -9.9577 1.4285 0.9567
19.0999 0.4698 2.4880 0.9258
17.0163 6.8412 2.3883 0.9287
13.0083 9.8996 2.1287 0.9362
11.2970 10.3138 1.9920 0.9402
18.6032 0.9032 2.0000 0.9278
10.7046 1.4860 1.1605 0.9575
15.1126 3.4963 1.6657 0.9395
17.4851 7.5204 2.0439 0.9263
4.5848 -9.9195 1.1734 0.9570
19.0670 0.4689 2.0481 0.9261
15.4819 4.6680 1.7364 0.9370
18.8023 0.9129 1.5935 0.9272
15.2124 3.5194 1.3218 0.9392
4.5692 -9.8858 0.9219 0.9572
19.4231 0.4777 1.6447 0.9250
15.7888 4.7605 1.3960 0.9359
18.9274 0.9190 1.1751 0.9269
10.6962 1.4848 0.6696 0.9576
17.6190 7.5780 1.1893 0.9260
4.5570 -9.8593 0.6735 0.9574
19.8091 0.4872 1.2287 0.9237
17.6547 2.0215 1.1019 0.9313
15.8685 3.2734 1.0047 0.9371
13.0015 9.8944 1.0131 0.9366
10.6921 1.4842 0.4256 0.9577
17.6344 7.5846 0.7569 0.9260
19.7706 0.4863 0.7798 0.9239
17.6591 2.0221 0.7009 0.9313
15.8722 3.2741 0.6390 0.9372
18.9807 0.9216 0.3210 0.9268
15.2572 3.5298 0.2645 0.9393
17.4154 5.7089 0.3096 0.9293
17.6502 7.5915 0.3246 0.9260
4.5485 -9.8410 0.1831 0.9576
17.6636 2.0226 0.3003 0.9313
17.0087 5.1284 0.3001 0.9314
17.3909 6.9918 0.3166 0.9278
13.0267 9.9135 0.2765 0.9366
4.8531 -9.8726 -0.0619 0.9569
4.5536 -9.8521 -0.0611 0.9575
17.5957 2.0148 -0.0997 0.9316
15.8120 3.2617 -0.0909 0.9375
16.9988 5.1253 -0.1000 0.9314
17.3794 6.9872 -0.1055 0.9278
13.0130 9.9032 -0.0921 0.9367
18.9910 0.9221 -0.5354 0.9267
10.6356 1.4764 -0.3023 0.9579
15.4556 3.5757 -0.4467 0.9385
17.6571 7.5944 -0.5412 0.9260
19.7872 0.4867 -0.5573 0.9239
17.6724 2.0236 -0.5009 0.9313
15.8156 3.2624 -0.4547 0.9374
16.9343 5.1059 -0.4980 0.9317
17.3678 6.9825 -0.5271 0.9278
16.1907 8.2586 -0.5118 0.9299
13.0343 9.9193 -0.4612 0.9366
18.9961 0.9223 -0.9645 0.9267
10.6810 1.4827 -0.5469 0.9577
16.4521 8.8942 -0.9485 0.9278
17.6769 2.0241 -0.9023 0.9312
16.9788 5.1193 -0.8994 0.9314
13.0365 9.9210 -0.8308 0.9365
17.2943 5.6692 -1.3344 0.9296
17.3952 7.4818 -1.3884 0.9269
16.4388 8.8870 -1.3702 0.9278
4.5599 -9.8656 -0.7969 0.9573
19.4612 0.4786 -1.4274 0.9249
14.6782 3.0278 -1.0989 0.9417
16.1968 8.2617 -1.3332 0.9297
13.0550 9.9351 -1.2029 0.9363
12.1124 -13.6679 -1.7533 0.9292
10.6763 1.4820 -1.0348 0.9576
15.2087 3.5186 -1.4987 0.9392
17.2837 5.6658 -1.7462 0.9295
17.3832 7.4766 -1.8167 0.9268
12.6148 10.0856 -1.5506 0.9372
13.2828 12.7226 -1.7658 0.9288
6.5509 17.4122 -1.7860 0.9280
3.2796 17.9200 -1.7490 0.9294
0.0390 17.9158 -1.7200 0.9305
-1.5507 17.7295 -1.7086 0.9310
-6.1157 16.4725 -1.6869 0.9318
-7.5486 15.8319 -1.6839 0.9319
-8.9272 15.0860 -1.6829 0.9320
-16.5683 7.2117 -1.7348 0.9300
-18.4349 2.6408 -1.7879 0.9279
-18.8224 0.9960 -1.8096 0.9271
8.0017 -13.8988 -1.5397 0.9376
19.4667 0.4788 -1.8695 0.9247
17.3108 1.9822 -1.6728 0.9324
14.6074 3.0132 -1.4319 0.9418
17.2266 6.9257 -1.7825 0.9281
16.1460 10.1474 -1.8308 0.9262
12.7878 9.7318 -1.5428 0.9375
12.2844 13.4146 -1.7463 0.9295
2.0859 17.9766 -1.7374 0.9299
-1.1280 17.7910 -1.7115 0.9309
-2.6966 17.5176 -1.7016 0.9313
-5.7239 16.6256 -1.6881 0.9318
1.9226 -19.3164 -2.3059 0.9248
3.6611 -19.1790 -2.3193 0.9244
5.3836 -18.8610 -2.3299 0.9240
7.0690 -18.3639 -2.3374 0.9238
4.8133 -9.7917 -1.2961 0.9570
14.2467 -13.4394 -2.3265 0.9241
16.2260 -10.5708 -2.3004 0.9250
16.9781 -9.0122 -2.2833 0.9255
17.5643 -7.3966 -2.2638 0.9261
17.9821 -5.7434 -2.2423 0.9268
17.0258 -3.8026 -2.0723 0.9321
10.5573 1.4655 -1.2661 0.9580
15.2122 3.5194 -1.8547 0.9390
13.7062 7.4097 -1.8508 0.9392
12.8180 8.4903 -1.8263 0.9399
11.8527 9.4763 -1.8026 0.9407
10.8204 10.3640 -1.7798 0.9414
10.5313 12.0677 -1.9026 0.9375
6.7290 13.9564 -1.8405 0.9395
5.4024 14.3593 -1.8224 0.9401
4.0616 14.6508 -1.8059 0.9406
2.7145 14.8321 -1.7911 0.9411
0.0323 14.8711 -1.7665 0.9419
-1.2886 14.7330 -1.7568 0.9422
-5.0930 13.7179 -1.7382 0.9428
-8.5347 11.8606 -1.7357 0.9428
-9.5751 11.0688 -1.7385 0.9428
-10.5529 10.1963 -1.7431 0.9426
-11.4629 9.2468 -1.7494 0.9424
-12.2998 8.2242 -1.7576 0.9421
-13.7325 5.9774 -1.7791 0.9415
-14.3178 4.7626 -1.7924 0.9410
-14.8087 3.4940 -1.8074 0.9406
-15.4866 0.8195 -1.8422 0.9394
-15.6636 -0.5728 -1.8619 0.9388
-15.4917 -4.8739 -1.9291 0.9367
-15.1873 -6.3179 -1.9539 0.9359
-14.1913 -9.1576 -2.0062 0.9342
-11.7197 -13.1095 -2.0888 0.9316
-10.6415 -14.2908 -2.1165 0.9307
-9.4435 -15.3804 -2.1439 0.9299
-8.1326 -16.3641 -2.1706 0.9290
-5.2106 -17.9585 -2.2212 0.9274
-3.6235 -18.5433 -2.2443 0.9267
6.6229 -18.5143 -2.3357 0.9238
4.5900 -9.9307 -1.2995 0.9569
7.9986 -13.8933 -1.9043 0.9375
10.4998 -14.9659 -2.1716 0.9290
10.7382 -12.7176 -1.9772 0.9352
13.9367 -13.7918 -2.3291 0.9241
15.0423 -12.4340 -2.3182 0.9244
15.9972 -10.9757 -2.3045 0.9248
16.7930 -9.4357 -2.2881 0.9253
16.3879 1.8765 -1.9594 0.9357
14.7050 5.9119 -1.8826 0.9382
12.1179 9.2220 -1.8089 0.9405
8.3768 13.2840 -1.8655 0.9387
4.4212 14.5837 -1.8102 0.9405
3.0751 14.7943 -1.7949 0.9409
0.3887 14.8904 -1.7694 0.9418
-0.9371 14.7800 -1.7592 0.9421
-3.5208 14.2541 -1.7441 0.9426
-4.7662 13.8438 -1.7392 0.9427
-1.2469 -15.6259 -2.2211 0.9386
0.1545 -15.7800 -2.2360 0.9382
1.5720 -15.7939 -2.2489 0.9379
4.3935 -15.3923 -2.2680 0.9374
4.0570 -10.5392 -1.6001 0.9554
4.8156 -9.7965 -1.5467 0.9569
7.7476 -12.7423 -2.1130 0.9415
11.6297 -10.9707 -2.2653 0.9375
12.5116 -9.8480 -2.2560 0.9377
13.2728 -8.6469 -2.2445 0.9380
13.9069 -7.3819 -2.2308 0.9384
14.4092 -6.0679 -2.2153 0.9388
15.0100 -3.3524 -2.1792 0.9398
14.2383 -1.8661 -2.0347 0.9436
13.9251 -0.5699 -1.9747 0.9453
13.7776 0.6689 -1.9544 0.9458
13.1508 3.0425 -1.9125 0.9469
12.1251 5.2151 -1.8702 0.9481
11.4810 6.2068 -1.8492 0.9486
9.1724 8.7855 -1.7996 0.9500
8.8976 10.1956 -1.9174 0.9468
5.7122 11.8474 -1.8636 0.9483
3.4575 12.4722 -1.8338 0.9491
2.3137 12.6420 -1.8210 0.9494
1.1681 12.7178 -1.8096 0.9497
-1.1015 12.5932 -1.7911 0.9502
-2.2130 12.3962 -1.7842 0.9504
-3.3011 12.1122 -1.7788 0.9505
-6.3687 10.7624 -1.7719 0.9507
-7.3079 10.1556 -1.7728 0.9507
-8.1968 9.4755 -1.7752 0.9506
-9.0305 8.7252 -1.7792 0.9505
-9.8040 7.9086 -1.7847 0.9504
-10.5126 7.0293 -1.7918 0.9502
-11.7164 5.0998 -1.8105 0.9497
-12.6052 2.9741 -1.8351 0.9490
-12.7733 -5.3137 -1.9602 0.9456
-12.3833 -6.5043 -1.9819 0.9451
-11.8851 -7.6693 -2.0042 0.9445
-10.5664 -9.8811 -2.0498 0.9432
-9.7499 -10.9061 -2.0727 0.9426
-8.8332 -11.8624 -2.0956 0.9420
-7.8216 -12.7389 -2.1180 0.9414
-6.7214 -13.5246 -2.1399 0.9408
-1.6173 -15.5614 -2.2168 0.9388
-0.2227 -15.7524 -2.2322 0.9383
1.1920 -15.8041 -2.2456 0.9380
4.0204 -15.4792 -2.2660 0.9374
5.4024 -15.1024 -2.2726 0.9373
4.5989 -9.9500 -1.5531 0.9567
8.5610 -12.2023 -2.1120 0.9416
11.3744 -11.2561 -2.2674 0.9374
12.2872 -10.1566 -2.2587 0.9376
13.0814 -8.9751 -2.2478 0.9379
13.7500 -7.7258 -2.2347 0.9383
14.9609 -3.7193 -2.1843 0.9396
14.8485 -2.3087 -2.1292 0.9411
13.8283 0.3401 -1.9599 0.9457
13.2590 2.7351 -1.9182 0.9468
12.8185 3.8649 -1.8970 0.9473
12.2833 4.9384 -1.8758 0.9479
10.9601 6.8882 -1.8342 0.9490
10.1881 7.7533 -1.8140 0.9496
8.1511 10.6773 -1.9033 0.9472
7.0963 11.2535 -1.8850 0.9477
6.0080 11.7348 -1.8679 0.9481
3.7625 12.4107 -1.8375 0.9490
0.3319 12.7145 -1.8021 0.9499
-1.9176 12.4575 -1.7859 0.9504
-4.0799 11.8504 -1.7758 0.9506
-1.0556 -13.2282 -2.1861 0.9476
0.1306 -13.3450 -2.1985 0.9473
1.3282 -13.3448 -2.2093 0.9471
2.5247 -13.2259 -2.2182 0.9469
3.7073 -12.9883 -2.2251 0.9467
4.5830 -9.3233 -1.7114 0.9588
6.5329 -10.7446 -2.0716 0.9503
7.4615 -10.1117 -2.0702 0.9503
8.9720 -10.1243 -2.2285 0.9466
10.5663 -8.3168 -2.2152 0.9469
11.2181 -7.3083 -2.2056 0.9472
11.7650 -6.2450 -2.1943 0.9474
12.2031 -5.1389 -2.1813 0.9477
12.5297 -4.0019 -2.1669 0.9481
12.8455 -1.6836 -2.1343 0.9488
11.2498 2.6027 -1.9022 0.9543
9.8686 5.3351 -1.8481 0.9555
8.7857 7.0242 -1.8531 0.9554
8.5246 8.1651 -1.9446 0.9533
6.8166 9.3866 -1.9111 0.9541
5.9024 9.8761 -1.8954 0.9544
4.9582 10.2834 -1.8807 0.9548
2.0143 11.0064 -1.8433 0.9557
0.0241 11.0746 -1.8244 0.9561
-1.9317 10.8207 -1.8108 0.9564
-3.8084 10.2578 -1.8026 0.9566
-4.7039 9.8656 -1.8005 0.9567
-6.3842 8.8721 -1.8007 0.9567
-7.8855 7.6190 -1.8064 0.9565
-8.5576 6.9031 -1.8113 0.9564
-9.1715 6.1325 -1.8176 0.9563
-9.7231 5.3112 -1.8252 0.9561
-10.6228 3.5335 -1.8443 0.9556
-11.2262 1.6082 -1.8683 0.9551
-11.4082 0.6037 -1.8820 0.9547
-11.5061 -0.4208 -1.8968 0.9544
-11.4400 -2.5029 -1.9292 0.9536
-11.2718 -3.5462 -1.9466 0.9532
-11.0118 -4.5809 -1.9648 0.9528
-10.6593 -5.5988 -1.9835 0.9524
-9.6781 -7.5498 -2.0221 0.9515
-7.5432 -10.1300 -2.0807 0.9501
-6.6689 -10.8615 -2.0997 0.9496
-4.7102 -12.0790 -2.1358 0.9488
-3.6411 -12.5491 -2.1526 0.9484
-2.5241 -12.9172 -2.1682 0.9480
-1.3695 -13.1775 -2.1825 0.9477
-0.1884 -13.3251 -2.1954 0.9474
1.0074 -13.3564 -2.2066 0.9471
3.3930 -13.0635 -2.2235 0.9468
7.2194 -10.2901 -2.0708 0.9503
8.7318 -10.3414 -2.2297 0.9466
11.6292 -6.5342 -2.1975 0.9474
12.6975 -3.1566 -2.1554 0.9483
12.8292 -1.9947 -2.1389 0.9487
11.3375 2.3387 -1.9071 0.9542
10.9784 3.3101 -1.8890 0.9546
10.5370 4.2363 -1.8709 0.9550
8.7217 7.9626 -1.9455 0.9533
7.9212 8.6501 -1.9322 0.9536
7.0552 9.2418 -1.9154 0.9540
5.2133 10.1826 -1.8845 0.9547
2.2806 10.9723 -1.8462 0.9556
1.2844 11.0693 -1.8358 0.9558
-0.6986 11.0184 -1.8188 0.9562
-3.5634 10.3504 -1.8033 0.9566
0.1130 -11.5494 -2.1709 0.9541
2.1824 -11.4327 -2.1877 0.9537
2.6307 -9.2163 -1.8015 0.9617
3.8960 -10.1209 -2.0384 0.9568
4.5448 -9.2455 -1.9364 0.9589
5.6419 -9.2791 -2.0412 0.9568
8.4820 -8.0014 -2.1917 0.9536
9.1353 -7.1904 -2.1852 0.9538
11.0612 -2.4705 -2.1303 0.9549
11.1611 -1.4628 -2.1158 0.9552
10.2476 1.4225 -1.9446 0.9588
9.8198 2.2718 -1.8945 0.9598
8.7189 5.7752 -1.9657 0.9583
7.4956 7.1794 -1.9509 0.9586
6.0051 8.2691 -1.9209 0.9593
5.2048 8.7089 -1.9070 0.9595
4.3762 9.0764 -1.8939 0.9598
3.5255 9.3706 -1.8818 0.9601
1.7820 9.7372 -1.8606 0.9605
-6.3501 7.3407 -1.8244 0.9613
-8.1270 5.4341 -1.8376 0.9610
-8.6116 4.7041 -1.8444 0.9608
-9.0362 3.9332 -1.8524 0.9607
-9.3973 3.1258 -1.8615 0.9605
-10.0683 0.5328 -1.8951 0.9598
-10.1454 -1.2848 -1.9222 0.9592
-9.6685 -4.0221 -1.9683 0.9583
-9.3482 -4.9101 -1.9847 0.9579
-8.4674 -6.6053 -2.0185 0.9572
-7.9102 -7.3971 -2.0356 0.9569
-7.2784 -8.1415 -2.0526 0.9565
-6.5758 -8.8308 -2.0695 0.9562
-5.8068 -9.4573 -2.0859 0.9558
-4.0921 -10.4941 -2.1171 0.9552
-3.1601 -10.8913 -2.1316 0.9549
-0.1631 -11.5345 -2.1682 0.9541
2.7193 -10.4698 -2.0332 0.9569
4.3795 -9.4753 -1.9620 0.9584
8.2937 -8.2075 -2.1932 0.9536
10.0652 -5.6554 -2.1700 0.9541
11.0181 -2.7392 -2.1340 0.9548
11.1438 -1.7326 -2.1198 0.9551
11.1737 -0.7254 -2.1046 0.9554
9.8931 2.0408 -1.8987 0.9597
9.2168 3.7055 -1.8672 0.9604
8.3402 6.3470 -1.9699 0.9582
7.6817 7.0132 -1.9551 0.9585
6.2137 8.1394 -1.9247 0.9592
5.4220 8.5983 -1.9106 0.9595
3.7549 9.2991 -1.8850 0.9600
2.8919 9.5392 -1.8736 0.9602
2.0173 9.7053 -1.8632 0.9605
1.1369 9.7975 -1.8539 0.9607
0.2563 9.8164 -1.8457 0.9608
-0.6190 9.7628 -1.8387 0.9610
-0.8055 -10.0941 -2.1405 0.9594
0.0995 -10.1695 -2.1497 0.9593
1.0110 -10.1576 -2.1577 0.9591
4.2104 -8.5653 -2.0175 0.9617
4.9993 -8.2223 -2.0341 0.9614
6.1085 -8.2782 -2.1747 0.9588
7.4601 -7.0373 -2.1678 0.9589
8.0375 -6.3264 -2.1621 0.9590
8.5422 -5.5650 -2.1550 0.9592
8.9697 -4.7612 -2.1466 0.9593
9.3167 -3.9234 -2.1369 0.9595
9.5811 -3.0602 -2.1260 0.9597
9.7615 -2.1802 -2.1142 0.9599
9.8575 -1.2920 -2.1015 0.9602
9.8699 -0.4039 -2.0880 0.9604
9.1050 2.9847 -2.0254 0.9616
8.7430 3.7604 -2.0118 0.9618
7.8264 5.1840 -1.9843 0.9623
7.2782 5.8190 -1.9697 0.9626
6.6809 6.3992 -1.9555 0.9629
6.0401 6.9213 -1.9418 0.9631
4.6505 7.7814 -1.9162 0.9636
3.1545 8.3844 -1.8936 0.9640
2.3805 8.5869 -1.8835 0.9642
0.8076 8.7922 -1.8663 0.9645
-3.7460 7.8565 -1.8398 0.9650
-6.8066 5.4907 -1.8485 0.9649
-8.0986 3.5251 -1.8670 0.9645
-8.4179 2.8001 -1.8752 0.9644
-8.6766 2.0472 -1.8844 0.9642
-8.9796 -1.9646 -1.9430 0.9631
-8.8305 -2.7782 -1.9568 0.9629
-8.3165 -4.3682 -1.9857 0.9623
-7.9525 -5.1317 -2.0006 0.9620
-7.0173 -6.5622 -2.0309 0.9615
-6.4508 -7.2158 -2.0459 0.9612
-5.8226 -7.8193 -2.0608 0.9609
-4.3989 -8.8512 -2.0893 0.9604
-2.7885 -9.6109 -2.1153 0.9599
-1.9298 -9.8760 -2.1271 0.9597
-1.0454 -10.0593 -2.1378 0.9595
-0.1436 -10.1579 -2.1474 0.9593
5.9099 -8.4237 -2.1751 0.9588
6.6317 -7.8542 -2.1729 0.9588
7.2939 -7.2180 -2.1691 0.9589
8.4145 -5.7732 -2.1571 0.9591
8.8631 -4.9800 -2.1490 0.9593
9.2319 -4.1504 -2.1396 0.9595
9.7215 -2.4168 -2.1175 0.9599
9.8401 -1.5299 -2.1050 0.9601
9.6980 1.1105 -2.0634 0.9609
8.4423 4.3063 -2.0033 0.9620
7.9641 5.0053 -1.9883 0.9623
7.4299 5.6543 -1.9736 0.9625
5.5464 7.2653 -1.9321 0.9633
3.3591 8.3190 -1.8964 0.9640
1.0188 8.7801 -1.8684 0.9645
-0.5552 8.7564 -1.8547 0.9648
-1.3311 8.6472 -1.8494 0.9649
-2.0932 8.4745 -1.8452 0.9649
-0.7191 -9.0118 -2.1247 0.9635
0.0888 -9.0749 -2.1329 0.9634
0.9018 -9.0606 -2.1400 0.9633
1.7120 -8.9684 -2.1458 0.9632
3.8103 -7.7514 -2.0300 0.9651
5.4442 -7.3780 -2.1550 0.9630
7.6207 -4.9647 -2.1376 0.9633
8.3193 -3.5034 -2.1215 0.9636
8.5600 -2.7340 -2.1119 0.9638
8.8178 -1.1557 -2.0901 0.9641
8.7785 0.4262 -2.0656 0.9645
6.0204 5.7664 -1.9593 0.9663
5.4467 6.2413 -1.9469 0.9665
2.8515 7.5791 -1.9032 0.9673
0.0173 7.9647 -1.8719 0.9678
-0.6919 7.9109 -1.8663 0.9679
-2.7482 7.4021 -1.8557 0.9681
-4.0168 6.7880 -1.8537 0.9681
-5.1662 5.9722 -1.8559 0.9681
-6.6030 4.4151 -1.8668 0.9679
-6.9919 3.8193 -1.8724 0.9678
-7.3306 3.1908 -1.8790 0.9677
-7.6165 2.5335 -1.8865 0.9676
-8.1839 -0.2993 -1.9247 0.9669
-8.0969 -1.7715 -1.9480 0.9665
-7.9568 -2.5033 -1.9604 0.9663
-7.4828 -3.9303 -1.9865 0.9659
-7.1499 -4.6138 -1.9999 0.9656
-6.7548 -5.2693 -2.0134 0.9654
-6.2995 -5.8909 -2.0270 0.9652
-5.7865 -6.4727 -2.0405 0.9650
-5.2191 -7.0089 -2.0538 0.9647
-3.2325 -8.2897 -2.0912 0.9641
-2.4927 -8.5912 -2.1024 0.9639
-1.7241 -8.8230 -2.1128 0.9637
1.4960 -9.0007 -2.1444 0.9632
2.2749 -8.7585 -2.1268 0.9635
5.2671 -7.5075 -2.1554 0.9630
6.5025 -6.4349 -2.1500 0.9631
7.5061 -5.1499 -2.1394 0.9633
7.9094 -4.4441 -2.1322 0.9634
8.5028 -2.9417 -2.1146 0.9637
8.6891 -2.1601 -2.1043 0.9639
8.8006 -1.3683 -2.0932 0.9641
8.8375 -0.5737 -2.0814 0.9643
8.5130 1.7561 -2.0429 0.9649
6.6892 5.0906 -1.9756 0.9660
6.1673 5.6305 -1.9627 0.9663
5.0039 6.5547 -1.9381 0.9667
3.7150 7.2560 -1.9158 0.9671
3.0361 7.5189 -1.9057 0.9672
2.3410 7.7220 -1.8964 0.9674
1.6347 7.8647 -1.8879 0.9675
0.9221 7.9470 -1.8803 0.9677
-0.5028 7.9311 -1.8677 0.9679
-1.2060 7.8343 -1.8629 0.9680
-1.8968 7.6795 -1.8591 0.9680
-2.5711 7.4681 -1.8563 0.9681
-0.6488 -8.1307 -2.1119 0.9669
0.0801 -8.1846 -2.1192 0.9667
1.5431 -8.0837 -2.1308 0.9666
2.2631 -7.9287 -2.1349 0.9665
2.9661 -7.7054 -2.1378 0.9665
4.9051 -6.6474 -2.1390 0.9664
5.4737 -6.1767 -2.1369 0.9665
5.9941 -5.6545 -2.1336 0.9665
7.5070 -3.1613 -2.1090 0.9669
7.7276 -2.4682 -2.1004 0.9670
7.8816 -1.7603 -2.0910 0.9672
7.9684 -1.0444 -2.0808 0.9673
7.9882 -0.3269 -2.0700 0.9675
7.9418 0.3856 -2.0587 0.9677
7.8309 1.0870 -2.0470 0.9679
7.6573 1.7715 -2.0350 0.9680
6.7889 3.6701 -1.9982 0.9686
5.9549 4.7610 -1.9740 0.9690
5.4734 5.2426 -1.9624 0.9692
4.9547 5.6775 -1.9511 0.9693
4.4033 6.0634 -1.9402 0.9695
2.5992 6.9086 -1.9112 0.9700
1.9633 7.0820 -1.9028 0.9701
1.3177 7.2002 -1.8952 0.9702
0.0158 7.2705 -1.8825 0.9704
-0.6318 7.2234 -1.8774 0.9705
-1.2715 7.1222 -1.8732 0.9705
-1.8991 6.9680 -1.8699 0.9706
-2.5106 6.7621 -1.8676 0.9706
-4.2101 5.8508 -1.8663 0.9707
-4.7195 5.4558 -1.8678 0.9706
-5.1946 5.0190 -1.8702 0.9706
-6.0290 4.0313 -1.8778 0.9705
-6.9480 2.3111 -1.8959 0.9702
-7.1554 1.6882 -1.9035 0.9701
-7.3097 1.0471 -1.9119 0.9699
-7.4523 -0.2725 -1.9308 0.9697
-7.4379 -0.9419 -1.9412 0.9695
-7.3652 -1.6114 -1.9521 0.9693
-7.2336 -2.2758 -1.9634 0.9692
-6.7944 -3.5688 -1.9871 0.9688
-6.4881 -4.1868 -1.9993 0.9686
-6.1258 -4.7786 -2.0116 0.9684
-5.2411 -5.8626 -2.0361 0.9680
-4.7243 -6.3443 -2.0481 0.9678
-4.1625 -6.7793 -2.0597 0.9677
-2.9210 -7.4908 -2.0817 0.9673
-2.2513 -7.7592 -2.0918 0.9672
-0.8423 -8.1047 -2.1097 0.9669
-0.1156 -8.1769 -2.1174 0.9668
0.6170 -8.1800 -2.1240 0.9667
3.4662 -7.4994 -2.1391 0.9664
4.7454 -6.7639 -2.1393 0.9664
5.8599 -5.7990 -2.1346 0.9665
6.3419 -5.2422 -2.1304 0.9666
6.7676 -4.6433 -2.1250 0.9667
7.6751 -2.6554 -2.1028 0.9670
7.9517 -1.2363 -2.0836 0.9673
7.9894 -0.5187 -2.0729 0.9675
7.9606 0.1958 -2.0618 0.9676
7.7097 1.5904 -2.0382 0.9680
6.8860 3.5124 -2.0015 0.9686
6.5049 4.0882 -1.9892 0.9688
6.0769 4.6246 -1.9772 0.9689
5.0969 5.5659 -1.9541 0.9693
4.5538 5.9651 -1.9431 0.9695
3.9814 6.3138 -1.9326 0.9696
0.8415 7.2516 -1.8902 0.9703
0.1899 7.2739 -1.8840 0.9704
-0.4591 7.2413 -1.8787 0.9705
-1.1013 7.1545 -1.8742 0.9705
-2.3487 6.8222 -1.8681 0.9706
-0.5904 -7.3988 -2.1012 0.9696
0.0729 -7.4455 -2.1079 0.9695
2.0574 -7.2080 -2.1220 0.9693
4.9757 -5.6147 -2.1238 0.9693
5.8755 -4.6247 -2.1168 0.9694
6.8321 -2.8771 -2.0986 0.9697
7.0355 -2.2471 -2.0908 0.9698
7.2434 0.3517 -2.0530 0.9703
6.7812 2.2229 -2.0202 0.9708
5.8506 3.8753 -1.9866 0.9712
4.5398 5.2021 -1.9546 0.9717
4.0365 5.5583 -1.9447 0.9718
-2.8527 5.9831 -1.8764 0.9728
-3.3749 5.7032 -1.8760 0.9728
-4.3398 5.0169 -1.8779 0.9728
-5.1777 4.1767 -1.8832 0.9727
-5.5416 3.7054 -1.8872 0.9727
-6.7976 0.3597 -1.9270 0.9721
-6.6244 -2.0841 -1.9659 0.9715
-6.2159 -3.2649 -1.9876 0.9712
-5.5983 -4.3671 -2.0100 0.9709
-4.7848 -5.3522 -2.0324 0.9706
-3.7962 -6.1828 -2.0539 0.9703
-2.6615 -6.8253 -2.0739 0.9700
-0.7666 -7.3758 -2.0993 0.9696
0.5611 -7.4399 -2.1122 0.9695
1.2262 -7.3775 -2.1172 0.9694
1.8836 -7.2521 -2.1211 0.9693
3.7478 -6.5099 -2.1265 0.9693
4.3133 -6.1479 -2.1260 0.9693
4.8414 -5.7338 -2.1244 0.9693
5.7664 -4.7666 -2.1179 0.9694
6.1550 -4.2229 -2.1131 0.9694
6.4896 -3.6464 -2.1073 0.9695
6.9869 -2.4173 -2.0930 0.9697
7.2823 -0.4728 -2.0659 0.9701
6.5943 2.6511 -2.0120 0.9709
6.2958 3.2114 -2.0008 0.9710
5.5618 4.2326 -1.9786 0.9714
5.1335 4.6867 -1.9678 0.9715
4.1739 5.4675 -1.9473 0.9718
3.6509 5.7897 -1.9377 0.9719
3.1047 6.0640 -1.9286 0.9721
1.3695 6.5885 -1.9050 0.9724
0.1745 6.6841 -1.8929 0.9726
-1.0124 6.5771 -1.8839 0.9727
0.6773 -6.8053 -2.1035 0.9718
1.2850 -6.7314 -2.1078 0.9717
3.0334 -6.1708 -2.1149 0.9716
3.5728 -5.8762 -2.1153 0.9716
5.3813 -4.2356 -2.1064 0.9717
5.7254 -3.7299 -2.1017 0.9718
6.0197 -3.1953 -2.0962 0.9719
6.2619 -2.6370 -2.0898 0.9720
6.6509 0.3229 -2.0481 0.9725
6.5641 0.9112 -2.0383 0.9726
6.4247 1.4864 -2.0283 0.9728
5.3863 3.5677 -1.9872 0.9733
5.0205 4.0140 -1.9771 0.9735
4.6189 4.4241 -1.9672 0.9736
4.1849 4.7954 -1.9577 0.9737
2.2024 5.8538 -1.9237 0.9742
1.6646 6.0048 -1.9166 0.9743
-0.5368 6.1371 -1.8948 0.9745
-1.0806 6.0532 -1.8913 0.9746
-1.6144 5.9237 -1.8885 0.9746
-2.6380 5.5327 -1.8853 0.9747
-3.5802 4.9754 -1.8853 0.9747
-4.4159 4.2667 -1.8887 0.9746
-4.7866 3.8612 -1.8915 0.9746
-5.6783 2.4716 -1.9048 0.9744
-5.8944 1.9607 -1.9107 0.9743
-6.2731 0.3319 -1.9322 0.9741
-6.3047 -0.2305 -1.9405 0.9739
-6.2204 -1.3609 -1.9585 0.9737
-5.9376 -2.4700 -1.9780 0.9734
-5.7224 -3.0057 -1.9881 0.9733
-5.4591 -3.5227 -1.9984 0.9732
-4.7944 -4.4835 -2.0190 0.9729
-4.3970 -4.9185 -2.0292 0.9728
-3.9597 -5.3176 -2.0392 0.9726
-3.4856 -5.6769 -2.0490 0.9725
-2.9783 -5.9928 -2.0583 0.9724
-0.7026 -6.7601 -2.0905 0.9720
0.5140 -6.8153 -2.1022 0.9718
4.4328 -5.2499 -2.1134 0.9717
4.8782 -4.8275 -2.1109 0.9717
5.2811 -4.3654 -2.1075 0.9717
5.6381 -3.8683 -2.1031 0.9718
5.9460 -3.3409 -2.0978 0.9719
6.2023 -2.7884 -2.0916 0.9719
6.4053 -2.2160 -2.0847 0.9720
6.2904 1.8966 -2.0208 0.9729
5.7929 2.9549 -2.0002 0.9732
5.4776 3.4426 -1.9899 0.9733
5.1221 3.8980 -1.9798 0.9734
4.7297 4.3180 -1.9698 0.9736
3.8487 5.0415 -1.9509 0.9738
2.8649 5.5957 -1.9336 0.9740
2.3442 5.8055 -1.9257 0.9741
0.7142 6.1548 -1.9058 0.9744
-0.4988 -6.2511 -2.0845 0.9739
1.7356 -6.0805 -2.1019 0.9737
2.2740 -5.9073 -2.1041 0.9737
2.7941 -5.6840 -2.1053 0.9737
3.2910 -5.4126 -2.1056 0.9737
3.7600 -5.0955 -2.1050 0.9737
4.9584 -3.9028 -2.0975 0.9738
5.9486 -1.9000 -2.0758 0.9740
6.1472 -0.8057 -2.0608 0.9742
6.1698 -0.2525 -2.0526 0.9743
6.1416 0.2982 -2.0439 0.9744
6.0636 0.8417 -2.0349 0.9745
5.7637 1.8894 -2.0162 0.9748
4.2781 4.0977 -1.9692 0.9753
3.4502 4.7510 -1.9518 0.9756
2.0432 5.4308 -1.9288 0.9758
1.5448 5.5723 -1.9221 0.9759
0.0125 5.7337 -1.9059 0.9761
-1.0037 5.6226 -1.8985 0.9762
-1.9832 5.3417 -1.8940 0.9763
-2.4509 5.1403 -1.8929 0.9763
-5.0330 2.7493 -1.9063 0.9761
-5.4711 1.8199 -1.9166 0.9760
-5.6296 1.3283 -1.9227 0.9759
-5.8454 -0.2137 -1.9443 0.9756
-5.7633 -1.2609 -1.9611 0.9754
-5.4973 -2.2869 -1.9791 0.9752
-5.2960 -2.7817 -1.9885 0.9751
-5.0505 -3.2590 -1.9980 0.9750
-4.7619 -3.7147 -2.0075 0.9749
-4.4321 -4.1447 -2.0171 0.9747
-4.0632 -4.5450 -2.0265 0.9746
-3.6577 -4.9120 -2.0357 0.9745
-3.2186 -5.2420 -2.0447 0.9744
-2.7492 -5.5317 -2.0533 0.9743
-2.2532 -5.7781 -2.0616 0.9742
-1.7347 -5.9785 -2.0693 0.9741
-1.1980 -6.1306 -2.0764 0.9740
-0.6477 -6.2325 -2.0829 0.9739
2.1315 -5.9586 -2.1036 0.9737
3.1606 -5.4898 -2.1057 0.9737
3.6375 -5.1847 -2.1053 0.9737
5.1956 -3.5647 -2.0945 0.9738
5.4804 -3.0793 -2.0896 0.9739
6.0450 -1.5028 -2.0706 0.9741
6.1325 -0.9535 -2.0630 0.9742
6.1541 0.1514 -2.0463 0.9744
5.6082 2.2547 -2.0092 0.9748
5.0692 3.1859 -1.9902 0.9751
4.7420 3.6087 -1.9808 0.9752
4.3803 3.9991 -1.9716 0.9753
3.1222 4.9513 -1.9458 0.9756
2.1747 5.3856 -1.9306 0.9758
1.6791 5.5387 -1.9238 0.9759
1.1740 5.6483 -1.9176 0.9760
-0.8693 5.6474 -1.8993 0.9762
-1.3681 5.5390 -1.8965 0.9762
-1.8553 5.3888 -1.8945 0.9763
0.0570 -5.8244 -2.0830 0.9756
0.5781 -5.8084 -2.0874 0.9755
1.6071 -5.6304 -2.0939 0.9754
2.1055 -5.4696 -2.0959 0.9754
3.0470 -5.0113 -2.0973 0.9754
4.8873 -3.1839 -2.0859 0.9755
5.1405 -2.7286 -2.0812 0.9756
5.3497 -2.2528 -2.0758 0.9756
5.5134 -1.7610 -2.0697 0.9757
5.6305 -1.2575 -2.0631 0.9758
5.7004 -0.7471 -2.0559 0.9759
5.7230 -0.2342 -2.0483 0.9760
5.6986 0.2767 -2.0403 0.9761
4.9121 2.6555 -1.9969 0.9766
4.6348 3.0700 -1.9881 0.9767
3.6085 4.1350 -1.9626 0.9770
2.7931 4.6736 -1.9470 0.9771
2.3559 4.8863 -1.9399 0.9772
1.9036 5.0596 -1.9332 0.9773
0.4901 5.3362 -1.9163 0.9775
0.0116 5.3462 -1.9118 0.9775
-0.9362 5.2439 -1.9049 0.9776
-1.8499 4.9828 -1.9007 0.9777
-2.2863 4.7950 -1.8997 0.9777
-3.4776 4.0201 -1.9009 0.9777
-3.8263 3.6970 -1.9027 0.9777
-4.4362 2.9662 -1.9084 0.9776
-5.0994 1.6962 -1.9218 0.9774
-5.2460 1.2378 -1.9275 0.9774
-5.3529 0.7668 -1.9338 0.9773
-5.4245 -0.6870 -1.9553 0.9770
-5.3633 -1.1734 -1.9633 0.9769
-5.2592 -1.6546 -1.9716 0.9769
-4.6938 -3.0289 -1.9977 0.9765
-4.4241 -3.4512 -2.0065 0.9764
-4.1163 -3.8494 -2.0154 0.9763
-3.7724 -4.2198 -2.0241 0.9762
-3.3948 -4.5590 -2.0327 0.9761
-2.9863 -4.8638 -2.0410 0.9760
-2.5500 -5.1310 -2.0490 0.9760
-2.0894 -5.3580 -2.0566 0.9759
-1.6081 -5.5424 -2.0637 0.9758
-0.6002 -5.7750 -2.0763 0.9756
0.4388 -5.8175 -2.0863 0.9755
1.4715 -5.6654 -2.0932 0.9754
1.9736 -5.5172 -2.0954 0.9754
4.1614 -4.1182 -2.0937 0.9754
4.8123 -3.3017 -2.0870 0.9755
5.0770 -2.8526 -2.0825 0.9756
5.4741 -1.8939 -2.0714 0.9757
5.6037 -1.3931 -2.0649 0.9758
5.6863 -0.8841 -2.0579 0.9759
5.7216 -0.3714 -2.0504 0.9759
5.7097 0.1404 -2.0425 0.9760
5.4000 1.6282 -2.0169 0.9763
4.9802 2.5403 -1.9992 0.9765
4.7125 2.9617 -1.9904 0.9766
3.7105 4.0519 -1.9648 0.9769
3.3202 4.3492 -1.9567 0.9770
2.9071 4.6102 -1.9490 0.9771
2.0259 5.0172 -1.9349 0.9773
1.5646 5.1611 -1.9286 0.9774
0.6181 5.3265 -1.9176 0.9775
-0.3378 5.3276 -1.9090 0.9776
-0.8108 5.2670 -1.9057 0.9776
-1.2761 5.1664 -1.9031 0.9776
-0.4301 -5.3896 -2.0719 0.9771
0.0530 -5.4189 -2.0767 0.9771
0.5378 -5.4032 -2.0808 0.9770
1.0198 -5.3423 -2.0842 0.9770
3.2374 -4.3873 -2.0895 0.9769
3.6139 -4.0781 -2.0881 0.9769
4.7829 -2.5388 -2.0751 0.9771
5.3083 -0.6957 -2.0516 0.9773
5.2451 0.7281 -2.0293 0.9776
5.1388 1.1889 -2.0213 0.9777
4.9919 1.6364 -2.0132 0.9777
4.8061 2.0671 -2.0049 0.9778
3.7169 3.5601 -1.9723 0.9782
3.3708 3.8626 -1.9646 0.9783
2.2024 4.5680 -1.9434 0.9785
1.3463 4.8565 -1.9313 0.9786
0.9048 4.9437 -1.9260 0.9787
0.4586 4.9925 -1.9213 0.9788
-0.8762 4.9080 -1.9106 0.9789
-2.1402 4.4887 -1.9057 0.9789
-3.5815 3.4604 -1.9085 0.9789
-4.1515 2.7759 -1.9138 0.9788
-4.3911 2.3986 -1.9174 0.9788
-4.5979 2.0013 -1.9217 0.9787
-4.7701 1.5867 -1.9265 0.9787
-5.0099 -1.0961 -1.9653 0.9783
-4.3795 -2.8261 -1.9974 0.9779
-4.1266 -3.2191 -2.0057 0.9778
-3.8384 -3.5895 -2.0139 0.9777
-1.9456 -4.9894 -2.0523 0.9773
-1.4971 -5.1598 -2.0589 0.9772
-1.0334 -5.2885 -2.0650 0.9772
-0.5585 -5.3741 -2.0706 0.9771
0.4082 -5.4118 -2.0798 0.9770
0.8913 -5.3630 -2.0834 0.9770
1.3686 -5.2691 -2.0862 0.9769
1.8354 -5.1310 -2.0883 0.9769
2.7212 -4.7266 -2.0901 0.9769
3.5161 -4.1642 -2.0886 0.9769
4.1914 -3.4646 -2.0839 0.9770
4.4766 -3.0714 -2.0805 0.9770
4.7235 -2.6541 -2.0763 0.9771
5.2167 -1.2969 -2.0600 0.9772
5.2948 -0.8232 -2.0535 0.9773
5.3290 -0.3460 -2.0465 0.9774
5.2665 0.6030 -2.0314 0.9775
5.1713 1.0667 -2.0235 0.9776
4.8595 1.9537 -2.0071 0.9778
4.6464 2.3700 -1.9989 0.9779
4.1167 3.1328 -1.9824 0.9781
3.4659 3.7848 -1.9667 0.9783
3.1022 4.0636 -1.9591 0.9783
2.7169 4.3085 -1.9519 0.9784
2.3132 4.5180 -1.9451 0.9785
-1.1944 4.8358 -1.9088 0.9789
0.0495 -5.0604 -2.0712 0.9784
0.5022 -5.0451 -2.0750 0.9783
3.9880 -3.1390 -2.0771 0.9783
4.2454 -2.7658 -2.0737 0.9783
4.4667 -2.3710 -2.0697 0.9784
4.7942 -1.5312 -2.0598 0.9785
4.9611 -0.6502 -2.0478 0.9786
4.9832 -0.2039 -2.0412 0.9787
4.9645 0.2410 -2.0342 0.9787
4.9056 0.6810 -2.0270 0.9788
4.6712 1.5312 -2.0119 0.9790
3.4826 3.3357 -1.9737 0.9794
2.8132 3.8739 -1.9594 0.9795
2.0655 4.2840 -1.9465 0.9797
1.6696 4.4378 -1.9406 0.9797
0.0102 4.6956 -1.9218 0.9799
-0.4084 4.6695 -1.9184 0.9799
-3.6435 2.9391 -1.9159 0.9800
-2.0970 0.4948 -0.8818 0.9907
-2.0207 0.2895 -0.8355 0.9912
-2.0056 0.1061 -0.8220 0.9914
-2.0202 -0.2558 -0.8334 0.9912
-2.0872 -0.4566 -0.8744 0.9908
-4.6016 -1.4477 -1.9743 0.9794
-4.4708 -1.8599 -1.9818 0.9793
-4.3033 -2.2603 -1.9894 0.9792
-4.1001 -2.6458 -1.9971 0.9791
-3.8624 -3.0130 -2.0049 0.9791
-3.5917 -3.3587 -2.0126 0.9790
-3.2898 -3.6799 -2.0202 0.9789
-2.9589 -3.9736 -2.0277 0.9788
-2.6015 -4.2370 -2.0349 0.9787
-2.2203 -4.4676 -2.0418 0.9787
-1.8183 -4.6630 -2.0484 0.9786
-1.3989 -4.8212 -2.0546 0.9785
-0.5217 -5.0196 -2.0655 0.9784
-0.0715 -5.0574 -2.0701 0.9784
1.2776 -4.9191 -2.0801 0.9783
1.7134 -4.7898 -2.0820 0.9783
3.2823 -3.8873 -2.0823 0.9783
4.1800 -2.8679 -2.0747 0.9783
4.4111 -2.4785 -2.0708 0.9784
4.6048 -2.0702 -2.0663 0.9784
4.8742 -1.2118 -2.0556 0.9785
4.9735 0.1223 -2.0361 0.9787
4.9252 0.5640 -2.0290 0.9788
4.8375 0.9979 -2.0215 0.9789
4.5481 1.8285 -2.0062 0.9790
4.3498 2.2188 -1.9985 0.9791
4.1184 2.5883 -1.9908 0.9792
3.8559 2.9344 -1.9831 0.9793
2.9078 3.8090 -1.9613 0.9795
1.7767 4.4001 -1.9421 0.9797
1.3728 4.5281 -1.9365 0.9798
0.9604 4.6204 -1.9314 0.9798
0.5426 4.6766 -1.9268 0.9799
-0.2967 4.6800 -1.9193 0.9799
-0.7124 4.6278 -1.9163 0.9800
-1.1214 4.5401 -1.9140 0.9800
-1.5210 4.4179 -1.9123 0.9800
-0.3764 -4.7167 -2.0621 0.9796
0.0464 -4.7410 -2.0663 0.9795
0.4704 -4.7261 -2.0699 0.9795
1.3069 -4.5786 -2.0751 0.9794
1.7119 -4.4470 -2.0767 0.9794
2.4770 -4.0739 -2.0779 0.9794
3.4623 -3.2661 -2.0744 0.9794
3.7356 -2.9403 -2.0718 0.9795
3.9771 -2.5910 -2.0687 0.9795
4.1849 -2.2214 -2.0649 0.9795
4.5913 -1.0254 -2.0502 0.9797
4.6513 -0.6096 -2.0444 0.9797
4.6729 -0.1912 -2.0382 0.9798
4.6021 0.6388 -2.0249 0.9799
4.3842 1.4372 -2.0108 0.9801
4.2231 1.8164 -2.0035 0.9801
2.6447 3.6417 -1.9615 0.9806
2.3015 3.8510 -1.9552 0.9806
1.9425 4.0289 -1.9493 0.9807
1.5705 4.1743 -1.9437 0.9807
1.1883 4.2865 -1.9386 0.9808
0.7988 4.3649 -1.9339 0.9808
-0.3844 4.3952 -1.9228 0.9809
-0.7743 4.3375 -1.9202 0.9810
-2.2384 3.7827 -1.9156 0.9810
-2.5677 3.5683 -1.9159 0.9810
-2.8775 3.3264 -1.9168 0.9810
-3.1655 3.0585 -1.9183 0.9810
-3.6682 2.4527 -1.9231 0.9809
-4.0606 1.7675 -1.9301 0.9809
-1.4869 0.3508 -0.6658 0.9934
-1.4729 -0.1865 -0.6471 0.9935
-1.4939 -0.4700 -0.6825 0.9932
-4.0418 -2.1229 -1.9897 0.9803
-3.6259 -2.8285 -2.0042 0.9801
-3.3710 -3.1523 -2.0114 0.9801
-2.7758 -3.7277 -2.0255 0.9799
-2.4400 -3.9739 -2.0323 0.9799
-2.0820 -4.1893 -2.0388 0.9798
-1.7047 -4.3717 -2.0450 0.9797
-1.3112 -4.5192 -2.0508 0.9797
-0.9048 -4.6302 -2.0561 0.9796
-0.4888 -4.7036 -2.0609 0.9796
-0.0670 -4.7383 -2.0653 0.9795
1.1967 -4.6073 -2.0746 0.9794
1.9999 -4.3270 -2.0775 0.9794
2.7379 -3.9025 -2.0776 0.9794
3.6655 -3.0299 -2.0726 0.9795
3.9157 -2.6866 -2.0696 0.9795
4.4604 -1.5432 -2.0570 0.9796
4.6709 -0.3032 -2.0399 0.9798
4.6203 0.5290 -2.0268 0.9799
4.2695 1.7165 -2.0055 0.9801
3.8679 2.4309 -1.9909 0.9803
3.6222 2.7566 -1.9838 0.9803
3.3497 3.0581 -1.9767 0.9804
3.0525 3.3334 -1.9699 0.9805
2.7334 3.5806 -1.9632 0.9805
2.3950 3.7980 -1.9569 0.9806
1.6711 4.1386 -1.9452 0.9807
1.2914 4.2598 -1.9399 0.9808
0.9036 4.3473 -1.9351 0.9808
0.1154 4.4199 -1.9269 0.9809
-0.6706 4.3562 -1.9209 0.9810
-1.0557 4.2740 -1.9187 0.9810
-1.4319 4.1592 -1.9171 0.9810
-0.3537 -4.4319 -2.0580 0.9806
0.0436 -4.4542 -2.0619 0.9806
0.8377 -4.3884 -2.0680 0.9805
1.6078 -4.1768 -2.0717 0.9805
1.9752 -4.0182 -2.0725 0.9805
3.2521 -3.0678 -2.0695 0.9805
4.0945 -1.7242 -2.0565 0.9806
4.2227 -1.3487 -2.0519 0.9807
4.3939 -0.1798 -2.0356 0.9808
4.3290 0.6009 -2.0230 0.9809
4.1257 1.3525 -2.0097 0.9810
3.7934 2.0508 -1.9961 0.9812
2.7977 3.2058 -1.9695 0.9814
0.7534 4.1169 -1.9373 0.9817
0.3820 4.1591 -1.9333 0.9818
0.0091 4.1691 -1.9298 0.9818
-0.3627 4.1468 -1.9268 0.9818
-0.7306 4.0926 -1.9244 0.9818
-1.0921 4.0070 -1.9224 0.9819
-1.4445 3.8907 -1.9210 0.9819
-2.1123 3.5697 -1.9200 0.9819
-2.7153 3.1389 -1.9211 0.9819
-2.9870 2.8860 -1.9226 0.9819
-3.2361 2.6105 -1.9246 0.9818
-3.4608 2.3141 -1.9271 0.9818
-3.6594 1.9989 -1.9301 0.9818
-1.2667 0.4214 -0.6179 0.9941
-1.2694 0.2995 -0.6037 0.9943
-1.2752 -0.1615 -0.5950 0.9944
-2.6110 -3.5064 -2.0236 0.9809
-2.2947 -3.7373 -2.0300 0.9809
-1.2325 -4.2478 -2.0473 0.9807
-0.8503 -4.3515 -2.0523 0.9806
-0.4593 -4.4198 -2.0569 0.9806
0.3354 -4.4472 -2.0644 0.9805
0.7322 -4.4057 -2.0673 0.9805
1.8784 -4.0640 -2.0724 0.9805
2.2342 -3.8807 -2.0728 0.9805
3.4431 -2.8461 -2.0678 0.9805
4.1918 -1.4502 -2.0532 0.9806
4.2942 -1.0676 -2.0482 0.9807
4.3917 -0.2851 -2.0371 0.9808
4.3866 0.1079 -2.0311 0.9808
4.0184 1.6156 -2.0048 0.9811
3.1553 2.8807 -1.9777 0.9813
2.8760 3.1406 -1.9712 0.9814
2.5759 3.3742 -1.9650 0.9815
2.2574 3.5798 -1.9590 0.9815
1.9231 3.7561 -1.9533 0.9816
1.2178 4.0170 -1.9430 0.9817
0.4817 4.1510 -1.9343 0.9817
-0.6327 4.1102 -1.9250 0.9818
-0.9961 4.0329 -1.9229 0.9819
0.0411 -4.1952 -2.0579 0.9815
0.4162 -4.1811 -2.0611 0.9815
0.7889 -4.1324 -2.0637 0.9814
2.1904 -3.6025 -2.0681 0.9814
2.5028 -3.3918 -2.0677 0.9814
2.7943 -3.1532 -2.0667 0.9814
3.0623 -2.8888 -2.0650 0.9814
3.5187 -2.2924 -2.0600 0.9815
3.7034 -1.9658 -2.0567 0.9815
4.0663 -0.9082 -2.0438 0.9816
4.1208 -0.5401 -2.0386 0.9817
4.1414 -0.1695 -2.0331 0.9817
4.0817 0.5666 -2.0214 0.9818
4.0024 0.9260 -2.0152 0.9819
3.7500 1.6129 -2.0024 0.9820
3.5794 1.9351 -1.9959 0.9820
2.9105 2.7878 -1.9769 0.9822
2.3539 3.2414 -1.9650 0.9823
0.7121 3.8911 -1.9404 0.9825
0.3611 3.9315 -1.9366 0.9826
0.0086 3.9413 -1.9333 0.9826
-1.6883 3.5409 -1.9242 0.9827
-1.9975 3.3755 -1.9240 0.9827
-3.2719 2.1878 -1.9307 0.9826
-1.1100 0.6064 -0.6204 0.9944
-1.1271 0.3749 -0.5826 0.9947
-1.1327 0.2673 -0.5709 0.9948
-1.1438 0.1639 -0.5668 0.9949
-1.1417 0.0604 -0.5608 0.9949
-1.1347 -0.2483 -0.5698 0.9948
-1.1294 -0.3553 -0.5808 0.9947
-1.1093 -0.4615 -0.5894 0.9947
-3.2196 -2.5116 -2.0030 0.9820
-2.9920 -2.7979 -2.0094 0.9819
-2.7388 -3.0636 -2.0157 0.9819
-2.1631 -3.5231 -2.0279 0.9817
-1.5102 -3.8729 -2.0391 0.9816
-1.1613 -4.0023 -2.0442 0.9816
-0.8011 -4.0995 -2.0489 0.9816
-0.4327 -4.1633 -2.0532 0.9815
-0.0593 -4.1930 -2.0570 0.9815
0.3159 -4.1883 -2.0603 0.9815
0.6896 -4.1488 -2.0630 0.9814
1.7686 -3.8265 -2.0678 0.9814
2.1036 -3.6539 -2.0681 0.9814
2.4212 -3.4510 -2.0679 0.9814
2.7185 -3.2197 -2.0670 0.9814
3.4643 -2.3768 -2.0608 0.9815
3.6570 -2.0548 -2.0576 0.9815
3.8190 -1.7169 -2.0539 0.9815
3.9489 -1.3662 -2.0497 0.9816
4.0460 -1.0058 -2.0451 0.9816
4.0974 0.4692 -2.0230 0.9818
4.0268 0.8306 -2.0168 0.9818
3.9242 1.1832 -2.0105 0.9819
3.7908 1.5240 -2.0041 0.9820
3.4370 2.1601 -1.9912 0.9821
3.2200 2.4505 -1.9848 0.9821
2.7157 2.9656 -1.9725 0.9822
2.4327 3.1866 -1.9665 0.9823
1.4888 3.6870 -1.9504 0.9824
0.4553 3.9237 -1.9376 0.9826
0.1029 3.9417 -1.9341 0.9826
-0.2491 3.9291 -1.9312 0.9826
-1.2777 3.7112 -1.9253 0.9827
-0.3145 -3.9407 -2.0508 0.9823
0.0388 -3.9597 -2.0543 0.9823
0.3928 -3.9461 -2.0573 0.9823
0.7445 -3.8999 -2.0597 0.9823
2.6368 -2.9755 -2.0625 0.9822
2.8899 -2.7261 -2.0610 0.9823
3.3211 -2.1636 -2.0563 0.9823
3.6409 -1.5332 -2.0495 0.9824
3.8564 0.5353 -2.0198 0.9826
3.7822 0.8750 -2.0140 0.9827
3.5449 1.5247 -2.0019 0.9828
3.3842 1.8296 -1.9958 0.9828
3.1976 2.1180 -1.9897 0.9829
2.9866 2.3878 -1.9837 0.9829
2.7532 2.6371 -1.9778 0.9830
2.4995 2.8641 -1.9721 0.9830
2.2274 3.0672 -1.9665 0.9831
1.6377 3.3966 -1.9562 0.9832
1.3246 3.5208 -1.9515 0.9832
1.0027 3.6169 -1.9472 0.9832
0.3420 3.7231 -1.9396 0.9833
-0.3248 3.7134 -1.9338 0.9833
-0.6543 3.6653 -1.9316 0.9834
-1.2939 3.4851 -1.9286 0.9834
-1.5993 3.3544 -1.9279 0.9834
-1.8923 3.1977 -1.9276 0.9834
-2.6754 2.5850 -1.9300 0.9834
-2.8982 2.3379 -1.9317 0.9834
-3.0990 2.0722 -1.9340 0.9833
-0.9529 0.5205 -0.5633 0.9951
-0.9907 0.4312 -0.5605 0.9951
-1.0132 0.3370 -0.5540 0.9952
-1.0230 0.2414 -0.5453 0.9953
-1.0359 0.0548 -0.5382 0.9953
-1.0344 -0.0378 -0.5370 0.9953
-1.0370 -0.1313 -0.5422 0.9953
-1.0262 -0.2245 -0.5450 0.9953
-0.9609 -0.5047 -0.5631 0.9951
-3.0434 -2.3741 -2.0025 0.9828
-2.5880 -2.8950 -2.0145 0.9827
-2.3259 -3.1235 -2.0203 0.9826
-1.7427 -3.5066 -2.0314 0.9825
-1.4262 -3.6574 -2.0366 0.9825
-1.0965 -3.7791 -2.0414 0.9824
-0.4084 -3.9301 -2.0498 0.9824
-0.0560 -3.9578 -2.0534 0.9823
0.2981 -3.9529 -2.0565 0.9823
1.3392 -3.7436 -2.0626 0.9822
1.9850 -3.4478 -2.0639 0.9822
3.2695 -2.2432 -2.0570 0.9823
3.4517 -1.9395 -2.0540 0.9823
3.6050 -1.6207 -2.0505 0.9823
3.7281 -1.2898 -2.0466 0.9824
3.8202 -0.9497 -2.0422 0.9824
3.8807 -0.6034 -2.0374 0.9825
3.9060 0.0961 -2.0270 0.9825
3.8711 0.4433 -2.0214 0.9826
3.8050 0.7849 -2.0155 0.9826
3.7088 1.1182 -2.0096 0.9827
3.4298 1.7495 -1.9974 0.9828
2.8178 2.5725 -1.9794 0.9830
2.3019 3.0153 -1.9680 0.9831
1.7196 3.3587 -1.9575 0.9831
1.4094 3.4903 -1.9527 0.9832
0.7627 3.6692 -1.9442 0.9833
-0.5666 3.6810 -1.9321 0.9834
-0.2974 -3.7269 -2.0477 0.9831
0.3714 -3.7314 -2.0538 0.9830
1.0313 -3.6130 -2.0579 0.9830
1.6591 -3.3752 -2.0599 0.9830
2.2329 -3.0259 -2.0597 0.9830
2.9488 -2.3210 -2.0553 0.9830
3.4435 -1.4501 -2.0465 0.9831
1.8744 -0.5987 -1.0777 0.9911
1.8864 -0.4213 -1.0587 0.9912
1.8888 -0.2475 -1.0433 0.9913
1.8838 0.0915 -1.0330 0.9914
1.8886 0.2622 -1.0443 0.9913
1.8719 0.6136 -1.0789 0.9911
3.3569 1.4438 -2.0015 0.9835
3.2053 1.7328 -1.9957 0.9835
3.0290 2.0063 -1.9899 0.9836
2.6089 2.4989 -1.9786 0.9837
2.3688 2.7144 -1.9732 0.9837
1.5527 3.2204 -1.9581 0.9838
1.2561 3.3386 -1.9537 0.9839
0.9509 3.4301 -1.9495 0.9839
0.6396 3.4946 -1.9458 0.9839
0.3244 3.5315 -1.9424 0.9840
0.0077 3.5410 -1.9394 0.9840
-0.3081 3.5229 -1.9368 0.9840
-0.6208 3.4775 -1.9347 0.9840
-0.9281 3.4052 -1.9331 0.9840
-1.5175 3.1827 -1.9312 0.9840
-1.7955 3.0342 -1.9310 0.9840
-2.3078 2.6678 -1.9320 0.9840
-2.5384 2.4526 -1.9332 0.9840
-2.7497 2.2181 -1.9349 0.9840
-0.8733 0.5839 -0.5754 0.9952
-0.8780 0.4796 -0.5480 0.9954
-0.9019 0.3926 -0.5387 0.9955
-0.9183 0.3055 -0.5300 0.9956
-0.9321 0.2199 -0.5246 0.9956
-0.9454 0.1354 -0.5231 0.9957
-0.9462 0.0501 -0.5189 0.9957
-0.9450 -0.0345 -0.5179 0.9957
-0.9208 -0.2897 -0.5287 0.9956
-0.9052 -0.3766 -0.5370 0.9955
-2.4500 -2.7405 -2.0134 0.9834
-2.2015 -2.9565 -2.0189 0.9833
-1.6490 -3.3181 -2.0294 0.9832
-0.3863 -3.7170 -2.0468 0.9831
-0.0529 -3.7428 -2.0502 0.9831
0.2819 -3.7379 -2.0531 0.9830
0.6153 -3.7022 -2.0555 0.9830
0.9444 -3.6359 -2.0575 0.9830
1.2661 -3.5395 -2.0589 0.9830
1.5778 -3.4137 -2.0597 0.9830
2.4254 -2.8725 -2.0591 0.9830
2.6705 -2.6427 -2.0578 0.9830
2.8932 -2.3915 -2.0559 0.9830
3.0917 -2.1212 -2.0536 0.9830
3.2642 -1.8341 -2.0507 0.9831
3.4095 -1.5328 -2.0474 0.9831
1.8859 -0.4689 -1.0644 0.9912
1.8863 -0.1225 -1.0353 0.9914
1.8891 0.2163 -1.0414 0.9914
1.8858 0.3890 -1.0546 0.9913
1.8791 0.5666 -1.0750 0.9911
3.3931 1.3642 -2.0030 0.9835
3.0785 1.9348 -1.9915 0.9836
2.6699 2.4376 -1.9801 0.9836
2.1818 2.8580 -1.9693 0.9837
1.9129 3.0335 -1.9642 0.9838
1.6303 3.1844 -1.9594 0.9838
1.0333 3.4083 -1.9506 0.9839
0.7233 3.4800 -1.9467 0.9839
0.4090 3.5243 -1.9432 0.9839
-0.8465 3.4272 -1.9335 0.9840
-0.2817 -3.5306 -2.0449 0.9838
0.0347 -3.5470 -2.0480 0.9837
0.3518 -3.5343 -2.0506 0.9837
0.9767 -3.4218 -2.0545 0.9837
1.5712 -3.1964 -2.0564 0.9837
1.8506 -3.0436 -2.0565 0.9837
2.1146 -2.8657 -2.0562 0.9837
2.3610 -2.6643 -2.0553 0.9837
3.1315 -1.6622 -2.0469 0.9838
1.7179 -0.5487 -1.0412 0.9917
1.7417 -0.2283 -1.0142 0.9919
1.7349 -0.0710 -1.0025 0.9920
1.7155 0.5624 -1.0423 0.9917
3.0405 1.6438 -1.9956 0.9842
2.6849 2.1466 -1.9847 0.9842
2.4759 2.3715 -1.9794 0.9843
2.2483 2.5763 -1.9742 0.9843
2.0042 2.7598 -1.9692 0.9844
1.1928 3.1704 -1.9557 0.9845
0.3081 3.3546 -1.9449 0.9846
-0.2927 3.3468 -1.9397 0.9846
-0.8818 3.2354 -1.9361 0.9846
-1.4419 3.0242 -1.9343 0.9846
-1.7060 2.8830 -1.9341 0.9846
-1.9569 2.7195 -1.9343 0.9846
-0.7958 0.5321 -0.5527 0.9956
-0.8625 0.2869 -0.5248 0.9958
-0.8812 0.1262 -0.5139 0.9959
-0.8814 0.0466 -0.5096 0.9959
-0.8806 -0.0322 -0.5087 0.9959
-0.8642 -0.2719 -0.5231 0.9958
-0.8294 -0.4356 -0.5409 0.9957
-0.7991 -0.5157 -0.5491 0.9956
-2.7334 -2.1323 -2.0015 0.9841
-2.5390 -2.3743 -2.0070 0.9841
-2.3230 -2.5985 -2.0123 0.9840
-1.8331 -2.9855 -2.0226 0.9839
-1.2787 -3.2792 -2.0321 0.9839
-0.9829 -3.3874 -2.0364 0.9838
-0.6778 -3.4684 -2.0404 0.9838
-0.3660 -3.5213 -2.0440 0.9838
-0.0501 -3.5454 -2.0472 0.9838
0.2670 -3.5405 -2.0499 0.9837
0.5828 -3.5065 -2.0522 0.9837
0.8944 -3.4435 -2.0541 0.9837
1.4942 -3.2329 -2.0562 0.9837
1.7772 -3.0870 -2.0565 0.9837
2.0456 -2.9157 -2.0563 0.9837
2.2969 -2.7204 -2.0556 0.9837
3.2299 -1.4521 -2.0446 0.9838
1.7315 -0.4305 -1.0301 0.9918
1.7403 -0.2706 -1.0168 0.9919
1.7226 0.5194 -1.0388 0.9917
1.7763 0.7142 -1.1053 0.9912
3.0813 1.5717 -1.9970 0.9842
2.9206 1.8355 -1.9916 0.9842
2.5337 2.3132 -1.9808 0.9843
2.3109 2.5236 -1.9756 0.9843
2.0711 2.7129 -1.9705 0.9844
1.8160 2.8799 -1.9657 0.9844
1.5480 3.0235 -1.9611 0.9844
1.2690 3.1427 -1.9568 0.9845
0.9813 3.2368 -1.9528 0.9845
0.6870 3.3053 -1.9491 0.9845
-0.8043 3.2562 -1.9365 0.9846
