ply
format ascii 1.0
element vertex 1591
property float32 x
property float32 y
property float32 z
property float32 I
end_header
8.2704 12.1856 1.9178 0.9423
5.0659 11.4339 1.6285 0.9508
3.7928 11.1655 1.5356 0.9535
0.6017 10.2517 1.3373 0.9594
-0.3040 9.8088 1.2779 0.9612
-1.1743 9.6902 1.2711 0.9614
-2.0154 9.4464 1.2578 0.9618
-4.5548 8.7697 1.2868 0.9609
-5.4411 8.5143 1.3158 0.9601
-8.4776 7.6376 1.4859 0.9550
-11.0505 6.8376 1.6922 0.9489
-12.4380 6.2321 1.8116 0.9454
12.9801 13.5193 2.0125 0.9274
10.1623 12.6845 1.7453 0.9367
8.2179 12.3849 1.5961 0.9420
6.4615 11.9346 1.4573 0.9469
2.4991 10.8003 1.1904 0.9564
-1.2806 9.7160 1.0523 0.9613
-2.1250 9.4733 1.0425 0.9617
-2.9604 9.2331 1.0412 0.9617
-4.6584 8.7443 1.0639 0.9609
-5.5212 8.4437 1.0833 0.9602
-6.4584 8.1735 1.1186 0.9590
-7.4669 7.8826 1.1659 0.9573
-8.6179 7.6022 1.2340 0.9548
-11.2929 6.8253 1.4169 0.9483
-12.9190 6.3050 1.5437 0.9438
7.8057 -5.7933 1.0438 0.9616
13.3004 13.5660 2.0401 0.9264
5.1174 11.5500 1.3565 0.9504
3.7948 11.1714 1.2669 0.9536
2.6273 10.8370 1.1974 0.9561
-2.8629 9.2611 1.0409 0.9618
-4.5568 8.7736 1.0616 0.9610
-5.4253 8.4894 1.0819 0.9603
-3.3859 4.3785 0.5943 0.9780
-11.1142 6.8770 1.4034 0.9488
-12.7062 6.3665 1.5261 0.9444
-1.2639 -8.1711 0.8879 0.9673
10.4362 13.0265 1.4130 0.9352
2.6950 11.6468 1.0120 0.9531
-0.4128 9.9561 0.8436 0.9608
-5.5523 8.4912 0.8588 0.9601
-6.4948 8.2196 0.8868 0.9588
-11.2413 6.7941 1.1119 0.9486
-1.1876 -8.2478 0.7054 0.9671
7.7825 -5.7761 0.8204 0.9618
13.3987 13.6663 1.6201 0.9260
10.7863 13.1786 1.4416 0.9339
8.4566 12.4599 1.2747 0.9413
6.6584 11.9970 1.1615 0.9464
3.7968 11.1772 0.9993 0.9537
2.8281 11.6653 1.0161 0.9530
-0.3051 9.8447 0.8338 0.9612
-1.1753 9.6986 0.8270 0.9615
-2.0280 9.5055 0.8228 0.9617
-2.8641 9.2651 0.8209 0.9618
-3.7032 9.0237 0.8257 0.9616
-4.5588 8.7774 0.8373 0.9611
-3.3871 4.3799 0.4687 0.9780
-8.4862 7.6454 0.9669 0.9552
-1.2633 -8.1670 0.6996 0.9674
10.7394 13.4049 1.0651 0.9335
8.2713 12.4654 0.9277 0.9418
4.9588 11.5157 0.7775 0.9510
3.6531 11.1354 0.7267 0.9541
2.6963 11.6525 0.7417 0.9532
1.5709 11.3294 0.7093 0.9552
0.4934 10.2343 0.6354 0.9598
-0.4126 9.9520 0.6177 0.9609
-1.2750 9.6731 0.6050 0.9617
-2.1156 9.4315 0.5994 0.9620
-7.5128 7.9310 0.6774 0.9572
-9.7231 7.1378 0.7480 0.9528
-13.0001 6.3446 0.8970 0.9437
13.7098 13.9836 1.2143 0.9245
8.4622 12.4682 0.9344 0.9414
6.6625 12.0043 0.8514 0.9465
5.1231 11.5629 0.7842 0.9506
3.7987 11.1830 0.7324 0.9538
2.8276 11.6630 0.7442 0.9530
0.6025 10.2657 0.6377 0.9596
-2.8503 9.2202 0.5984 0.9621
-3.7048 9.0276 0.6051 0.9616
-4.5608 8.7812 0.6136 0.9611
-8.4905 7.6492 0.7087 0.9552
-11.1270 6.8849 0.8114 0.9489
-12.7858 6.4064 0.8868 0.9443
13.3139 13.8670 0.7580 0.9259
8.2767 12.4736 0.5903 0.9418
4.9615 11.5221 0.4947 0.9510
3.6525 11.1335 0.4620 0.9542
1.5717 11.3347 0.4512 0.9552
-0.4125 9.9480 0.3926 0.9609
-1.2755 9.6773 0.3849 0.9617
-2.9485 9.1962 0.3808 0.9621
-3.8052 9.0030 0.3854 0.9616
-4.6645 8.7558 0.3912 0.9611
-6.5008 8.2272 0.4135 0.9589
-7.5164 7.9348 0.4310 0.9572
-8.6310 7.6138 0.4538 0.9550
-9.7284 7.1417 0.4759 0.9528
-11.3126 6.8373 0.5212 0.9485
11.6434 14.2259 0.7249 0.9291
8.4679 12.4765 0.5946 0.9414
6.6665 12.0115 0.5417 0.9465
5.1259 11.5693 0.4990 0.9506
3.8007 11.1888 0.4659 0.9538
1.6981 11.3710 0.4533 0.9550
-0.3054 9.8534 0.3887 0.9613
-1.1763 9.7070 0.3856 0.9616
-2.0191 9.4635 0.3816 0.9620
-2.8515 9.2241 0.3807 0.9621
-3.7063 9.0314 0.3849 0.9617
-4.5628 8.7850 0.3903 0.9611
-5.4508 8.5295 0.3991 0.9603
-3.3893 4.3829 0.2185 0.9781
-7.3933 7.9702 0.4287 0.9574
-8.4947 7.6530 0.4508 0.9553
-9.5764 7.1855 0.4721 0.9532
8.2395 12.4175 0.2517 0.9421
6.4769 11.9631 0.2298 0.9470
3.6519 11.1316 0.1979 0.9542
2.6989 11.6638 0.2022 0.9532
1.5649 11.2858 0.1925 0.9554
0.4938 10.2435 0.1732 0.9598
-0.4123 9.9440 0.1681 0.9610
-2.1286 9.4895 0.1643 0.9618
-2.9498 9.2001 0.1632 0.9621
-3.8068 9.0069 0.1652 0.9616
-5.5597 8.5026 0.1716 0.9602
-7.5200 7.9386 0.1847 0.9572
-9.7336 7.1455 0.2040 0.9528
-11.2629 6.8072 0.2223 0.9487
-12.9519 6.3210 0.2434 0.9440
7.7573 -5.7574 0.1632 0.9621
13.7175 13.9914 0.3310 0.9246
11.5965 14.1685 0.3093 0.9294
8.4735 12.4848 0.2548 0.9414
6.6705 12.0187 0.2322 0.9465
5.1288 11.5757 0.2139 0.9506
0.6031 10.2750 0.1739 0.9597
-0.3055 9.8577 0.1666 0.9613
-1.1768 9.7112 0.1652 0.9616
-2.8527 9.2281 0.1632 0.9621
-3.7079 9.0353 0.1650 0.9617
-5.4532 8.5332 0.1711 0.9603
-8.4990 7.6569 0.1932 0.9553
-9.5815 7.1893 0.2023 0.9532
-12.7382 6.3825 0.2407 0.9446
-1.2614 -8.1549 0.1394 0.9675
11.3403 14.1550 -0.1021 0.9300
1.5656 11.2911 -0.0642 0.9554
-0.4121 9.9400 -0.0560 0.9610
-3.7888 8.9643 -0.0548 0.9618
-6.5068 8.2348 -0.0591 0.9589
-7.5236 7.9424 -0.0616 0.9572
-11.2694 6.8111 -0.0741 0.9487
-12.9601 6.3250 -0.0812 0.9439
7.7642 -5.7625 -0.0544 0.9621
11.6051 14.1791 -0.1032 0.9293
6.6745 12.0260 -0.0774 0.9465
3.8047 11.2004 -0.0666 0.9538
1.6915 11.3273 -0.0645 0.9552
-0.3056 9.8620 -0.0556 0.9613
-1.1773 9.7154 -0.0551 0.9616
-2.8690 9.2809 -0.0547 0.9619
-5.4557 8.5370 -0.0570 0.9603
-7.4004 7.9778 -0.0613 0.9574
-11.0907 6.8625 -0.0734 0.9492
-12.7462 6.3865 -0.0803 0.9446
-1.2609 -8.1513 -0.0464 0.9675
13.4169 13.9742 -0.5455 0.9254
6.4846 11.9774 -0.3835 0.9470
1.5663 11.2963 -0.3211 0.9554
0.4943 10.2527 -0.2890 0.9598
-2.1160 9.4331 -0.2722 0.9621
-4.6706 8.7672 -0.2797 0.9610
-7.5272 7.9462 -0.3082 0.9571
-9.7441 7.1532 -0.3404 0.9528
-11.3323 6.8492 -0.3728 0.9484
13.7412 14.0156 -0.5527 0.9245
11.6138 14.1897 -0.5163 0.9293
6.6785 12.0332 -0.3875 0.9464
2.8266 11.6591 -0.3378 0.9531
1.6923 11.3326 -0.3226 0.9552
-1.1778 9.7196 -0.2757 0.9616
-3.6920 8.9965 -0.2738 0.9618
-4.5687 8.7965 -0.2791 0.9611
-5.4581 8.5408 -0.2854 0.9603
-3.3928 4.3873 -0.1562 0.9781
-9.5918 7.1970 -0.3377 0.9531
-11.1526 6.9008 -0.3693 0.9489
-12.8180 6.4225 -0.4037 0.9442
-1.2604 -8.1482 -0.2322 0.9675
8.2985 12.5064 -0.7612 0.9417
4.9725 11.5475 -0.6376 0.9509
1.5746 11.3558 -0.5814 0.9551
-0.4123 9.9442 -0.5047 0.9609
-2.1169 9.4371 -0.4905 0.9620
-3.7920 8.9720 -0.4940 0.9617
-4.2799 8.0338 -0.4616 0.9642
-7.5308 7.9500 -0.5554 0.9571
-8.6484 7.6292 -0.5849 0.9549
-9.7493 7.1571 -0.6134 0.9527
-11.3389 6.8531 -0.6719 0.9483
-13.0415 6.3647 -0.7360 0.9435
-13.7334 5.2387 -0.7454 0.9428
-10.2561 -10.5709 -0.7470 0.9427
7.7866 -5.7791 -0.4918 0.9619
8.4904 12.5097 -0.7667 0.9412
6.6826 12.0405 -0.6984 0.9463
5.1373 11.5950 -0.6432 0.9505
3.8086 11.2120 -0.6005 0.9537
2.8280 11.6648 -0.6087 0.9531
0.6039 10.2889 -0.5227 0.9596
-0.3059 9.8707 -0.5008 0.9612
-1.1783 9.7238 -0.4967 0.9615
-2.0194 9.4652 -0.4908 0.9620
-2.8715 9.2888 -0.4931 0.9618
-5.4605 8.5446 -0.5143 0.9602
-3.3939 4.3888 -0.2814 0.9780
-8.5118 7.6684 -0.5810 0.9552
-9.5969 7.2008 -0.6085 0.9531
-11.1590 6.9047 -0.6655 0.9488
-13.4960 5.3105 -0.7355 0.9436
-1.2599 -8.1450 -0.4180 0.9675
6.3252 11.6830 -0.9741 0.9481
3.6494 11.1241 -0.8584 0.9541
2.7042 11.6866 -0.8795 0.9530
1.5753 11.3612 -0.8410 0.9550
-0.4125 9.9486 -0.7301 0.9609
-1.2850 9.7495 -0.7210 0.9613
-2.1323 9.5057 -0.7143 0.9617
-3.7937 8.9759 -0.7145 0.9617
-9.7036 7.1235 -0.8826 0.9529
-12.7137 6.2048 -1.0373 0.9448
-13.6595 5.2105 -1.0719 0.9431
-10.2721 -10.5874 -1.0816 0.9426
13.4800 13.7492 -1.4118 0.9257
8.3202 12.2589 -1.0863 0.9423
6.5145 11.7376 -0.9843 0.9476
2.8294 11.6706 -0.8805 0.9530
0.6042 10.2935 -0.7560 0.9595
-0.3060 9.8750 -0.7244 0.9611
-1.1788 9.7280 -0.7185 0.9615
-3.6952 9.0042 -0.7136 0.9617
-4.3892 8.4507 -0.6982 0.9625
-3.3950 4.3903 -0.4069 0.9780
-7.3728 7.9481 -0.7949 0.9575
-8.3931 7.5615 -0.8283 0.9557
-10.8778 6.7308 -0.9379 0.9500
-12.5036 6.2650 -1.0254 0.9455
-1.2594 -8.1419 -0.6041 0.9675
17.4847 -1.5843 -1.6855 0.9319
16.3614 9.7389 -1.8280 0.9263
10.2807 12.8324 -1.5786 0.9361
6.3291 11.6900 -1.2762 0.9480
3.6488 11.1222 -1.1238 0.9541
1.5685 11.3122 -1.0964 0.9551
-0.4041 9.7469 -0.9366 0.9616
-1.2525 9.5026 -0.9202 0.9622
-3.7167 8.7938 -0.9166 0.9624
-5.4287 8.3022 -0.9523 0.9609
-6.3510 8.0376 -0.9835 0.9597
-7.3440 7.7528 -1.0252 0.9580
-13.5861 5.1826 -1.3960 0.9432
-16.1764 4.5609 -1.6136 0.9347
-18.9136 0.1131 -1.8158 0.9268
-19.1294 -1.6035 -1.8430 0.9258
-19.2077 -3.3612 -1.8721 0.9246
-19.1415 -5.1505 -1.9030 0.9234
9.9061 -15.3239 -1.7518 0.9293
15.2985 10.8311 -1.7996 0.9274
8.3258 12.2671 -1.4233 0.9422
5.0106 11.3091 -1.1875 0.9515
3.7144 10.9348 -1.1087 0.9547
0.5889 10.0331 -0.9649 0.9604
-0.3046 9.8277 -0.9440 0.9613
-5.3247 8.3321 -0.9493 0.9610
-8.3010 7.4785 -1.0727 0.9561
-12.5115 6.2689 -1.3435 0.9453
-13.8551 5.4518 -1.4294 0.9419
-16.1066 4.7236 -1.6114 0.9348
-16.6589 3.3017 -1.6304 0.9340
-19.1112 -1.4009 -1.8397 0.9259
-19.1569 -4.9404 -1.8993 0.9236
-1.0176 -15.9137 -1.5309 0.9379
14.1028 -2.5659 -1.7027 0.9439
17.0490 -1.5448 -2.0335 0.9334
15.2642 7.3227 -2.0110 0.9341
10.2350 10.6601 -1.7554 0.9422
9.1207 11.3845 -1.7328 0.9429
7.9663 12.0058 -1.7115 0.9436
3.6482 11.1203 -1.3902 0.9540
2.6939 11.6422 -1.4195 0.9530
1.5693 11.3175 -1.3572 0.9550
0.4824 10.0069 -1.1901 0.9604
-2.8965 9.0339 -1.1269 0.9625
-6.3539 8.0413 -1.2174 0.9596
-7.3475 7.7566 -1.2691 0.9579
-11.0662 6.6883 -1.5360 0.9492
-12.8849 4.9151 -1.6381 0.9460
-14.1364 1.3555 -1.6869 0.9444
-15.6879 -1.3150 -1.8700 0.9386
-15.7075 -2.7487 -1.8942 0.9378
-15.6063 -4.1993 -1.9197 0.9370
-15.3799 -5.6571 -1.9466 0.9361
-14.5382 -8.5511 -2.0035 0.9343
-12.2090 -10.5132 -1.9138 0.9372
-9.0337 -11.1558 -1.7051 0.9438
-10.1104 -15.0655 -2.1552 0.9295
-8.8424 -16.1302 -2.1850 0.9286
-3.4519 -10.3393 -1.2948 0.9570
-4.4012 -18.5776 -2.2678 0.9260
-0.8485 -15.8748 -1.8884 0.9380
0.7111 -19.6290 -2.3332 0.9239
2.4790 -19.5985 -2.3466 0.9235
4.2371 -19.3626 -2.3544 0.9233
5.9524 -18.9043 -2.3543 0.9233
14.7976 -13.1918 -2.3548 0.9233
16.6721 -10.1959 -2.3214 0.9243
17.8747 -6.9257 -2.2771 0.9257
11.5619 -3.3252 -1.4291 0.9527
17.0542 -3.2874 -2.0631 0.9324
17.0583 -1.7256 -2.0366 0.9333
16.8909 4.4504 -2.0749 0.9321
11.4204 9.7305 -1.7822 0.9414
10.3620 10.5689 -1.7582 0.9421
-1.1554 9.5349 -1.1409 0.9621
-4.3935 8.4590 -1.1323 0.9623
-3.3973 4.3932 -0.6597 0.9779
-9.5118 7.1370 -1.4126 0.9532
-10.8905 6.7386 -1.5213 0.9497
-12.2215 6.1236 -1.6238 0.9464
-12.8203 5.0446 -1.6365 0.9460
-13.3369 3.9113 -1.6510 0.9456
-14.1033 1.5012 -1.6847 0.9445
-15.5250 0.2552 -1.8444 0.9394
-15.4129 -5.4869 -1.9434 0.9362
-14.6019 -8.3843 -2.0001 0.9344
-13.9974 -9.8005 -2.0297 0.9335
-9.9185 -10.0113 -1.6740 0.9448
-7.2838 -8.8050 -1.3574 0.9550
-4.5892 -18.5064 -2.2649 0.9261
-1.2584 -8.1355 -0.9779 0.9674
2.2730 -19.6156 -2.3456 0.9235
9.7463 -15.4282 -2.1677 0.9291
14.0452 -2.5554 -2.0227 0.9440
15.1662 -1.3742 -2.1577 0.9403
15.0580 -0.0113 -2.1336 0.9410
13.4408 5.0237 -2.0331 0.9437
12.7786 6.1303 -2.0082 0.9444
12.0305 7.1610 -1.9837 0.9450
11.0269 7.9813 -1.9287 0.9465
9.5250 8.2891 -1.7891 0.9503
7.7199 9.6360 -1.7494 0.9513
6.7555 10.1811 -1.7312 0.9518
4.7409 11.0098 -1.6985 0.9527
3.6476 11.1183 -1.6580 0.9538
-2.0800 9.2730 -1.3465 0.9623
-2.8977 9.0378 -1.3448 0.9624
-4.3125 8.0950 -1.2996 0.9636
-5.4336 8.3097 -1.4068 0.9607
-7.3511 7.7604 -1.5146 0.9577
-9.9470 6.0119 -1.6468 0.9541
-11.7558 2.2024 -1.6946 0.9528
-12.3831 1.1873 -1.7626 0.9510
-13.1945 0.0789 -1.8695 0.9481
-13.2850 -1.1136 -1.8889 0.9476
-13.2754 -2.3231 -1.9096 0.9470
-12.6155 -5.9711 -1.9776 0.9452
-12.1783 -7.1631 -2.0019 0.9445
-11.6309 -8.3261 -2.0267 0.9439
-8.9014 -9.1746 -1.8112 0.9497
-7.7595 -11.5624 -1.9730 0.9453
-7.2996 -13.3160 -2.1516 0.9405
-6.1451 -14.0677 -2.1751 0.9399
-3.4242 -10.2561 -1.5320 0.9573
-2.2510 -15.6328 -2.2378 0.9382
2.0225 -15.9896 -2.2836 0.9370
3.4610 -15.8163 -2.2940 0.9367
6.2593 -15.0282 -2.3067 0.9363
8.8422 -13.6782 -2.3077 0.9363
10.0141 -12.8107 -2.3039 0.9364
12.8974 -9.5723 -2.2757 0.9372
13.6151 -8.3264 -2.2613 0.9376
9.8530 -3.8176 -1.4972 0.9582
15.0772 -0.1690 -2.1364 0.9409
14.5190 2.4626 -2.0866 0.9422
13.5120 4.8900 -2.0360 0.9436
11.2686 7.9780 -1.9563 0.9457
9.6242 8.2001 -1.7915 0.9502
4.8609 10.9711 -1.7002 0.9527
3.7183 10.9463 -1.6380 0.9544
2.7810 11.4711 -1.6724 0.9534
0.5894 10.0423 -1.4253 0.9602
-1.1559 9.5390 -1.3615 0.9619
-2.8023 9.0652 -1.3444 0.9624
-3.3985 4.3947 -0.7872 0.9778
-7.2306 7.7949 -1.5065 0.9580
-8.3095 7.4861 -1.5847 0.9558
-9.2449 6.9367 -1.6376 0.9544
-10.4454 5.2337 -1.6554 0.9539
-11.3710 3.3348 -1.6790 0.9533
-13.1775 0.2166 -1.8674 0.9481
-13.2818 -2.1814 -1.9071 0.9471
-13.1809 -3.3993 -1.9287 0.9465
-12.9742 -4.6187 -1.9513 0.9459
-12.6594 -5.8306 -1.9748 0.9452
-12.2350 -7.0252 -1.9990 0.9446
-11.7004 -8.1922 -2.0238 0.9439
-7.2872 -8.8091 -1.6199 0.9549
-5.7019 -8.3073 -1.4276 0.9601
-7.4288 -13.2217 -2.1488 0.9406
-6.2841 -13.9853 -2.1724 0.9399
-3.5383 -10.2402 -1.5351 0.9572
-3.7646 -15.1809 -2.2161 0.9388
-1.0149 -15.8712 -2.2534 0.9378
0.4124 -16.0083 -2.2690 0.9374
3.2939 -15.8442 -2.2929 0.9367
4.7151 -15.5402 -2.3010 0.9365
6.1007 -15.0901 -2.3062 0.9364
8.6997 -13.7714 -2.3080 0.9363
12.8557 -2.3390 -2.1526 0.9484
12.8250 -0.0096 -2.1128 0.9493
12.3689 2.2312 -2.0705 0.9503
10.9794 5.2671 -2.0061 0.9518
9.6604 6.9922 -1.9646 0.9528
5.8593 8.8304 -1.7458 0.9579
5.0025 9.2398 -1.7309 0.9583
4.1223 9.5732 -1.7171 0.9586
3.2250 9.8305 -1.7044 0.9589
2.3166 10.0115 -1.6929 0.9592
1.4028 10.1169 -1.6826 0.9594
0.4829 10.0161 -1.6520 0.9602
-4.2687 8.0128 -1.4957 0.9639
-5.4361 8.3135 -1.6364 0.9605
-6.2102 7.8595 -1.6502 0.9602
-6.9024 7.2867 -1.6535 0.9601
-7.5480 6.6584 -1.6581 0.9600
-8.6836 5.2483 -1.6715 0.9597
-9.1657 4.4732 -1.6802 0.9595
-9.5857 3.6566 -1.6901 0.9593
-11.4479 0.0685 -1.8860 0.9547
-11.5106 -0.9649 -1.9029 0.9543
-11.4855 -2.0099 -1.9209 0.9538
-11.3703 -3.0595 -1.9398 0.9534
-11.1630 -4.1060 -1.9594 0.9529
-10.4682 -6.1572 -2.0007 0.9520
-9.9802 -7.1445 -2.0220 0.9515
-9.3998 -8.0941 -2.0435 0.9510
-7.3922 -9.1288 -1.9351 0.9535
-6.6117 -9.8521 -1.9546 0.9530
-5.7589 -10.5054 -1.9736 0.9526
-4.8402 -11.0804 -1.9919 0.9522
-3.4239 -10.2551 -1.7811 0.9571
-3.0562 -12.9002 -2.1840 0.9477
-0.7175 -13.4240 -2.2146 0.9470
0.4895 -13.5113 -2.2273 0.9467
5.2677 -12.6475 -2.2570 0.9460
7.4409 -11.5105 -2.2579 0.9460
10.1563 -9.0542 -2.2415 0.9463
10.8773 -8.0730 -2.2315 0.9466
10.6603 -6.5193 -2.0585 0.9506
8.4000 -4.1540 -1.5438 0.9627
11.4974 -4.4548 -2.0313 0.9512
11.5869 4.1932 -2.0300 0.9513
11.0475 5.1584 -2.0086 0.9518
10.4310 6.0621 -1.9875 0.9523
5.9575 8.7777 -1.7476 0.9579
5.1038 9.1959 -1.7326 0.9583
2.4230 9.9943 -1.6942 0.9592
1.5095 10.1085 -1.6837 0.9594
-0.3050 9.8409 -1.6220 0.9609
-1.9852 9.3046 -1.5673 0.9622
-2.8036 9.0692 -1.5638 0.9622
-4.3167 8.3112 -1.5428 0.9627
-5.3319 8.3434 -1.6312 0.9607
-3.3997 4.3963 -0.9155 0.9777
-9.1126 4.5659 -1.6791 0.9595
-9.9021 2.9040 -1.7000 0.9590
-10.1953 2.0206 -1.7122 0.9587
-11.2619 1.1988 -1.8657 0.9551
-11.4350 0.1880 -1.8840 0.9547
-11.5078 -0.8436 -1.9009 0.9543
-11.1920 -3.9843 -1.9571 0.9530
-10.9024 -5.0214 -1.9774 0.9525
-10.0420 -7.0310 -2.0195 0.9515
-8.5192 -8.5989 -1.9941 0.9521
-5.7026 -8.3084 -1.6601 0.9600
-4.4706 -7.9567 -1.5035 0.9637
-4.9506 -11.0176 -1.9898 0.9522
-1.2402 -8.0175 -1.3365 0.9676
-0.6056 -9.4705 -1.5634 0.9623
0.3479 -13.5073 -2.2259 0.9467
1.5630 -13.4881 -2.2369 0.9464
2.7747 -13.3467 -2.2457 0.9462
3.9697 -13.0834 -2.2524 0.9461
5.1344 -12.6999 -2.2567 0.9460
7.3208 -11.5887 -2.2581 0.9459
11.1574 -2.0300 -2.1316 0.9549
11.1581 -0.0084 -2.0973 0.9556
11.0181 0.9816 -2.0792 0.9560
10.4757 2.8776 -2.0420 0.9567
10.0826 3.7686 -2.0232 0.9571
9.6154 4.6128 -2.0045 0.9575
8.4821 6.1393 -1.9681 0.9583
5.8918 7.3541 -1.7712 0.9624
5.1685 7.7893 -1.7571 0.9627
4.4171 8.1586 -1.7438 0.9629
3.6434 8.4610 -1.7315 0.9632
2.8528 8.6958 -1.7202 0.9634
2.0508 8.8629 -1.7099 0.9637
0.4336 8.9948 -1.6926 0.9640
-1.1680 8.8615 -1.6800 0.9643
-4.1760 7.8388 -1.6694 0.9645
-3.4244 4.3338 -1.0382 0.9778
-6.6978 5.9084 -1.6788 0.9643
-7.2228 5.3024 -1.6842 0.9642
-7.6984 4.6529 -1.6908 0.9641
-8.1211 3.9634 -1.6985 0.9639
-8.4875 3.2376 -1.7074 0.9637
-8.7945 2.4796 -1.7175 0.9635
-9.9803 0.9569 -1.8845 0.9600
-10.1455 -0.8504 -1.9136 0.9594
-10.1121 -1.7696 -1.9296 0.9591
-9.8046 -3.6063 -1.9636 0.9584
-9.5286 -4.5100 -1.9815 0.9580
-9.1708 -5.3941 -1.9998 0.9576
-8.7318 -6.2508 -2.0184 0.9572
-8.2130 -7.0722 -2.0372 0.9568
-6.4981 -8.0246 -1.9408 0.9588
-5.7542 -8.5743 -1.9409 0.9588
-4.2020 -9.6195 -1.9731 0.9582
-2.4553 -10.3639 -2.0019 0.9576
1.9140 -8.7468 -1.6830 0.9642
3.5430 -11.2522 -2.2173 0.9531
6.4164 -9.9257 -2.2215 0.9530
7.2702 -9.3004 -2.2188 0.9531
7.5894 -5.6328 -1.7765 0.9623
8.3968 -4.1524 -1.7607 0.9626
9.9556 -3.8574 -2.0068 0.9575
10.5895 -3.0455 -2.0711 0.9561
11.1455 -2.1485 -2.1335 0.9549
11.2048 -1.1335 -2.1168 0.9552
11.0391 0.8673 -2.0813 0.9559
10.8204 1.8353 -2.0629 0.9563
10.1324 3.6669 -2.0254 0.9571
9.6736 4.5169 -2.0067 0.9575
7.8989 6.7302 -1.9505 0.9586
5.9741 7.2991 -1.7729 0.9623
5.2545 7.7419 -1.7587 0.9626
4.5061 8.1190 -1.7453 0.9629
3.7346 8.4292 -1.7329 0.9632
2.9457 8.6719 -1.7214 0.9634
0.5279 8.9944 -1.6935 0.9640
-1.0756 8.8764 -1.6806 0.9643
-1.8605 8.7203 -1.6760 0.9644
-2.6281 8.5015 -1.6726 0.9644
-3.3739 8.2215 -1.6704 0.9645
-4.7837 7.4856 -1.6698 0.9645
-6.0574 6.5300 -1.6742 0.9644
-6.6334 5.9762 -1.6782 0.9643
-7.1641 5.3754 -1.6835 0.9642
-8.0746 4.0458 -1.6976 0.9639
-8.4478 3.3241 -1.7063 0.9637
-8.7618 2.5696 -1.7162 0.9635
-9.7231 1.9271 -1.8631 0.9605
-9.8314 -3.4999 -1.9615 0.9584
-9.2167 -5.2921 -1.9977 0.9577
-7.6901 -7.7621 -2.0537 0.9565
-5.6823 -8.2787 -1.8873 0.9600
-5.0960 -9.0698 -1.9554 0.9585
-2.5441 -7.3629 -1.4642 0.9688
-2.5615 -10.3295 -2.0004 0.9576
-1.0630 -6.8723 -1.3071 0.9721
0.3006 -11.6704 -2.1943 0.9536
4.4278 -10.9523 -2.2205 0.9531
6.3128 -9.9931 -2.2217 0.9530
9.8972 -0.8968 -2.1006 0.9602
9.7510 0.8687 -2.0693 0.9608
9.5582 1.7242 -2.0530 0.9611
9.2901 2.5519 -2.0365 0.9614
8.9508 3.3455 -2.0199 0.9617
8.5448 4.0992 -2.0033 0.9620
6.9777 6.0723 -1.9553 0.9629
6.3334 6.5965 -1.9330 0.9633
5.2612 6.5670 -1.7787 0.9662
3.2613 7.5736 -1.7430 0.9668
2.5553 7.7891 -1.7328 0.9670
0.3891 8.0704 -1.7079 0.9675
-0.3335 8.0433 -1.7017 0.9676
-1.0488 7.9569 -1.6965 0.9677
-2.4402 7.6107 -1.6894 0.9679
-3.1081 7.3538 -1.6876 0.9679
-3.7521 7.0431 -1.6869 0.9679
-3.4174 4.3249 -1.1652 0.9777
-5.5032 5.8096 -1.6915 0.9678
-6.0145 5.3057 -1.6953 0.9677
-6.9081 4.1752 -1.7062 0.9675
-7.2839 3.5548 -1.7132 0.9674
-7.6084 2.9023 -1.7213 0.9673
-8.9286 0.8561 -1.8960 0.9640
-9.0238 -1.5791 -1.9364 0.9632
-8.9144 -2.3987 -1.9514 0.9630
-8.7328 -3.2121 -1.9668 0.9627
-8.4785 -4.0130 -1.9828 0.9624
-8.1518 -4.7948 -1.9991 0.9621
-7.7536 -5.5505 -2.0156 0.9618
-7.2854 -6.2734 -2.0322 0.9615
-6.1485 -7.5928 -2.0652 0.9608
-4.2768 -7.8018 -1.8807 0.9643
-2.9537 -8.8470 -1.9716 0.9626
-2.1634 -9.1319 -1.9837 0.9624
-0.9902 -6.8764 -1.4685 0.9720
-0.5062 -9.4712 -2.0049 0.9620
3.6249 -5.6074 -1.4114 0.9731
6.5635 -7.0019 -2.0287 0.9615
7.5137 -5.5766 -1.9779 0.9625
8.3677 -4.1380 -1.9732 0.9626
9.0352 -3.5008 -2.0482 0.9612
9.8341 -1.8957 -2.1170 0.9599
9.8729 -0.1107 -2.0871 0.9604
9.7684 0.7674 -2.0712 0.9607
9.5846 1.6257 -2.0549 0.9610
8.9939 3.2549 -2.0218 0.9617
8.5955 4.0135 -2.0052 0.9620
6.4119 6.5400 -1.9360 0.9632
5.3341 6.5172 -1.7802 0.9662
4.6957 6.9185 -1.7675 0.9664
2.6384 7.7671 -1.7339 0.9670
-1.6710 7.8321 -1.6928 0.9678
-2.3609 7.6371 -1.6897 0.9678
-3.0313 7.3865 -1.6877 0.9679
-4.2981 6.7257 -1.6872 0.9679
-3.3581 4.3424 -1.1603 0.9778
-6.4314 4.8256 -1.6996 0.9677
-7.5733 2.9800 -1.7203 0.9673
-8.7377 1.7318 -1.8829 0.9642
-8.9125 0.9487 -1.8946 0.9640
-9.0615 -0.6642 -1.9206 0.9635
-8.9309 -2.3032 -1.9496 0.9630
-8.7577 -3.1177 -1.9650 0.9627
-8.5119 -3.9204 -1.9809 0.9624
-8.1937 -4.7047 -1.9972 0.9621
-7.8037 -5.4639 -2.0137 0.9618
-7.3436 -6.1910 -2.0303 0.9615
-6.8153 -6.8791 -2.0469 0.9612
-5.2578 -7.6603 -1.9640 0.9627
-2.2572 -9.1025 -1.9824 0.9624
-1.0625 -6.8690 -1.4692 0.9720
-0.6049 -9.4602 -2.0038 0.9620
3.0076 -9.9125 -2.1896 0.9585
3.8882 -9.6175 -2.1928 0.9585
4.7364 -9.2369 -2.1942 0.9584
5.1410 -8.1381 -2.0347 0.9614
8.8011 -1.6013 -2.1024 0.9639
8.8316 -0.0066 -2.0756 0.9644
8.7366 0.7784 -2.0614 0.9646
8.5709 1.5461 -2.0469 0.9648
8.3374 2.2902 -2.0321 0.9651
8.0396 3.0050 -2.0172 0.9653
6.8009 4.9225 -1.9731 0.9661
6.2879 5.4720 -1.9590 0.9663
4.9925 6.2316 -1.8766 0.9677
4.1717 6.2871 -1.7733 0.9695
3.5705 6.5948 -1.7625 0.9697
2.9490 6.8484 -1.7524 0.9698
-0.3023 7.2897 -1.7147 0.9705
-1.5890 7.0840 -1.7063 0.9706
-3.9623 6.0597 -1.7016 0.9707
-4.9904 5.2683 -1.7055 0.9706
-5.4529 4.8103 -1.7090 0.9706
-6.5973 3.2197 -1.7253 0.9703
-7.1204 2.7162 -1.7911 0.9692
-7.7117 2.1743 -1.8831 0.9676
-8.1560 0.0488 -1.9169 0.9670
-8.1795 -0.6856 -1.9291 0.9668
-6.9658 -4.9866 -2.0134 0.9654
-6.0534 -6.2393 -2.0431 0.9649
-5.5100 -6.8044 -2.0577 0.9647
-4.9129 -7.3207 -2.0721 0.9644
-2.6390 -7.9042 -1.9585 0.9663
-0.9899 -6.8746 -1.6324 0.9719
0.2383 -6.5787 -1.5472 0.9733
0.8111 -6.4127 -1.5192 0.9738
1.8259 -8.3440 -2.0074 0.9655
2.5702 -8.1627 -2.0113 0.9654
6.3658 -5.6750 -2.0043 0.9656
7.2272 -4.4198 -1.9910 0.9658
8.6530 -2.4886 -2.1161 0.9637
8.8514 -0.8954 -2.0909 0.9641
8.8380 -0.0991 -2.0773 0.9643
8.3680 2.2048 -2.0338 0.9651
8.0776 2.9232 -2.0189 0.9653
7.3181 4.2530 -1.9893 0.9658
6.3500 5.4104 -1.9607 0.9663
5.7996 5.9154 -1.9470 0.9665
5.1292 6.2668 -1.9033 0.9673
4.2404 6.2477 -1.7746 0.9695
3.6418 6.5616 -1.7637 0.9696
3.0224 6.8217 -1.7536 0.9698
2.3870 7.0269 -1.7442 0.9700
-0.2261 7.2951 -1.7153 0.9705
-0.8755 7.2251 -1.7105 0.9705
-1.5152 7.1018 -1.7066 0.9706
-2.1411 6.9262 -1.7038 0.9707
-2.7494 6.6997 -1.7020 0.9707
-3.3364 6.4238 -1.7012 0.9707
-3.8985 6.1004 -1.7015 0.9707
-4.9341 5.3191 -1.7051 0.9706
-5.4009 4.8658 -1.7085 0.9706
-6.2169 3.8468 -1.7182 0.9704
-6.5602 3.2870 -1.7245 0.9703
-7.0012 2.7549 -1.7682 0.9696
-8.1800 -0.5996 -1.9276 0.9669
-8.0503 -2.0761 -1.9539 0.9664
-7.0115 -4.9092 -2.0116 0.9654
-6.5925 -5.5578 -2.0265 0.9652
-6.1132 -6.1704 -2.0414 0.9649
-5.5762 -6.7408 -2.0561 0.9647
-4.9852 -7.2631 -2.0704 0.9644
-4.1170 -7.3273 -1.9753 0.9661
-2.5436 -7.3615 -1.8305 0.9685
-2.0155 -8.1278 -1.9681 0.9662
-0.5395 -8.4374 -1.9870 0.9659
0.1702 -6.6059 -1.5531 0.9732
0.9803 -8.4597 -2.0015 0.9656
2.4057 -5.9504 -1.5084 0.9740
4.5775 -7.2461 -2.0144 0.9654
7.9862 -0.0060 -2.0678 0.9675
7.9054 0.7043 -2.0550 0.9677
6.9697 3.3436 -2.0015 0.9686
4.6730 5.8328 -1.9351 0.9696
1.5185 6.5623 -1.7440 0.9726
0.9214 6.6453 -1.7370 0.9727
0.3219 6.6774 -1.7309 0.9728
-0.2761 6.6592 -1.7257 0.9728
-1.4522 6.4740 -1.7179 0.9730
-2.5769 6.0970 -1.7138 0.9730
-3.6220 5.5392 -1.7136 0.9730
-6.7919 2.5908 -1.8821 0.9704
-7.2255 1.3537 -1.9034 0.9701
-7.4296 0.0444 -1.9237 0.9698
-7.3061 -1.9659 -1.9590 0.9692
-7.1470 -2.6288 -1.9717 0.9690
-6.9287 -3.2794 -1.9848 0.9688
-6.3171 -4.5222 -2.0115 0.9684
-5.9266 -5.1034 -2.0250 0.9682
-5.4822 -5.6505 -2.0384 0.9680
-4.4433 -6.6210 -2.0645 0.9676
-3.0670 -7.0213 -1.9838 0.9688
-2.3824 -7.1357 -1.9478 0.9694
-0.9896 -6.8728 -1.7979 0.9717
-0.4070 -7.6143 -1.9743 0.9690
0.2770 -7.6469 -1.9812 0.9689
2.3142 -7.3498 -1.9951 0.9687
2.9659 -7.1209 -1.9973 0.9686
3.5928 -6.8300 -1.9981 0.9686
5.2645 -5.6161 -1.9931 0.9687
6.7861 -4.1501 -2.0596 0.9677
7.3515 -3.6355 -2.1235 0.9667
7.9382 -1.5302 -2.0932 0.9671
7.9985 -0.8091 -2.0815 0.9673
7.9182 0.6221 -2.0565 0.9677
7.5816 1.9976 -2.0300 0.9681
7.3235 2.6503 -2.0165 0.9683
7.0097 3.2731 -2.0031 0.9685
6.2303 4.4110 -1.9765 0.9690
5.7728 4.9186 -1.9636 0.9691
5.2757 5.3811 -1.9512 0.9693
4.7394 5.7906 -1.9375 0.9696
4.0431 5.9571 -1.8641 0.9707
3.3186 5.9793 -1.7706 0.9721
2.7556 6.2194 -1.7613 0.9723
2.1773 6.4096 -1.7527 0.9724
1.5878 6.5493 -1.7449 0.9725
0.3919 6.6763 -1.7316 0.9727
-2.5132 6.1241 -1.7140 0.9730
-4.5095 4.8614 -1.7169 0.9730
-6.0541 3.0334 -1.7533 0.9724
-7.0170 2.0579 -1.8934 0.9702
-7.4478 -0.5459 -1.9335 0.9696
-7.4137 -1.2176 -1.9453 0.9694
-7.1686 -2.5520 -1.9702 0.9690
-6.9572 -3.2043 -1.9832 0.9688
-6.6870 -3.8396 -1.9965 0.9686
-6.3591 -4.4524 -2.0099 0.9684
-5.5367 -5.5886 -2.0369 0.9680
-5.0470 -6.1010 -2.0501 0.9678
-3.9268 -6.9888 -2.0756 0.9674
-3.1662 -7.0465 -2.0002 0.9686
-0.4864 -7.6063 -1.9734 0.9690
1.3020 -6.2629 -1.6563 0.9739
2.8910 -7.1509 -1.9971 0.9686
7.2908 -0.6606 -2.0724 0.9700
6.8990 1.8951 -2.0254 0.9707
6.6610 2.4897 -2.0131 0.9709
6.3723 3.0570 -2.0008 0.9710
6.0361 3.5929 -1.9886 0.9712
5.2355 4.5562 -1.9648 0.9716
2.4685 5.7325 -1.7669 0.9744
1.9369 5.9041 -1.7590 0.9745
0.8468 6.1073 -1.7455 0.9747
0.2959 6.1386 -1.7398 0.9748
-0.2539 6.1234 -1.7350 0.9748
-0.7990 6.0620 -1.7309 0.9749
-1.3358 5.9552 -1.7278 0.9749
-1.8609 5.8040 -1.7255 0.9750
-2.8624 5.3731 -1.7235 0.9750
-3.3962 4.2981 -1.5508 0.9775
-4.1956 4.4291 -1.7271 0.9750
-4.9372 3.6244 -1.7339 0.9749
-5.3524 3.2350 -1.7705 0.9743
-5.9768 2.9169 -1.8827 0.9727
-6.2539 2.3856 -1.8949 0.9726
-6.4680 1.8236 -1.9024 0.9724
-6.8155 0.0408 -1.9295 0.9721
-6.8280 -0.5724 -1.9397 0.9719
-6.7871 -1.1877 -1.9506 0.9718
-6.6920 -1.8007 -1.9619 0.9716
-6.5427 -2.4066 -1.9735 0.9714
-6.3393 -3.0005 -1.9855 0.9713
-6.0825 -3.5776 -1.9977 0.9711
-5.0044 -5.1580 -2.0345 0.9706
-3.5142 -6.4107 -2.0696 0.9701
-2.9417 -6.7344 -2.0804 0.9699
-2.2636 -6.7800 -2.0235 0.9707
-0.3701 -6.9240 -1.9629 0.9716
0.8752 -6.9193 -1.9744 0.9714
2.1024 -6.6770 -1.9817 0.9713
2.6941 -6.4685 -1.9837 0.9713
3.2635 -6.2039 -1.9845 0.9713
3.8049 -5.8859 -1.9841 0.9713
4.7830 -5.1025 -1.9799 0.9713
5.9213 -4.3947 -2.0875 0.9698
6.3859 -3.9053 -2.1191 0.9694
6.6865 -3.3066 -2.1117 0.9695
7.2295 -1.3936 -2.0843 0.9699
7.2879 -0.7373 -2.0737 0.9700
7.2225 0.5674 -2.0509 0.9703
6.6915 2.4216 -2.0145 0.9708
6.4085 2.9923 -2.0022 0.9710
6.0777 3.5321 -1.9900 0.9712
5.7024 4.0372 -1.9779 0.9714
5.2865 4.5043 -1.9661 0.9715
4.3487 5.3132 -1.9437 0.9719
3.8280 5.6401 -1.9297 0.9721
3.1660 5.7044 -1.8469 0.9732
1.9996 5.8864 -1.7599 0.9745
0.3602 6.1374 -1.7404 0.9748
-0.7357 6.0715 -1.7314 0.9749
-1.2737 5.9700 -1.7281 0.9749
-2.3122 5.6344 -1.7241 0.9750
-2.8061 5.4028 -1.7235 0.9750
-3.2788 5.1307 -1.7237 0.9750
-4.8976 3.6748 -1.7334 0.9749
-5.2709 3.2615 -1.7547 0.9746
-6.4455 1.8902 -1.9015 0.9725
-6.6173 1.3115 -1.9097 0.9723
-6.7395 0.7174 -1.9187 0.9722
-6.8106 0.1120 -1.9283 0.9721
-6.7059 -1.7294 -1.9605 0.9716
-6.5630 -2.3364 -1.9721 0.9715
-6.3658 -2.9320 -1.9841 0.9713
-5.4577 -4.6012 -2.0208 0.9708
-5.0545 -5.1018 -2.0331 0.9706
-4.1118 -5.9906 -2.0569 0.9702
-3.0102 -6.6993 -2.0792 0.9699
-1.6552 -6.6746 -1.9468 0.9718
-1.0556 -6.8242 -1.9549 0.9717
-0.4423 -6.9169 -1.9621 0.9716
0.1791 -6.9512 -1.9685 0.9715
2.0321 -6.6976 -1.9814 0.9713
3.1984 -6.2376 -1.9844 0.9713
3.7434 -5.9257 -1.9842 0.9713
6.6394 -1.2080 -2.0757 0.9722
6.5080 1.1740 -2.0340 0.9727
4.8243 4.1983 -1.9670 0.9736
4.4055 4.5885 -1.9565 0.9737
3.9567 4.9387 -1.9464 0.9739
1.7891 5.4534 -1.7653 0.9763
1.2890 5.5707 -1.7587 0.9764
0.7827 5.6445 -1.7527 0.9764
-1.2356 5.5082 -1.7363 0.9767
-2.6481 4.9707 -1.7323 0.9767
-3.0828 4.7146 -1.7326 0.9767
-3.3890 4.2891 -1.6813 0.9774
-3.8807 4.0968 -1.7357 0.9767
-4.6733 3.4307 -1.7831 0.9760
-5.5396 2.7036 -1.8960 0.9745
-6.2890 0.0376 -1.9344 0.9740
-6.2980 -0.5279 -1.9439 0.9739
-6.2575 -1.0950 -1.9539 0.9738
-6.1671 -1.6594 -1.9643 0.9736
-6.0267 -2.2167 -1.9751 0.9735
-5.8365 -2.7625 -1.9861 0.9733
-5.5973 -3.2922 -1.9973 0.9732
-5.3101 -3.8013 -2.0086 0.9730
-4.5985 -4.7396 -2.0312 0.9727
-4.1784 -5.1600 -2.0422 0.9726
-2.6982 -6.1769 -2.0732 0.9722
-2.1442 -6.4223 -2.0825 0.9721
-1.5550 -6.5638 -2.0748 0.9722
0.2306 -6.3650 -1.9590 0.9737
1.3675 -6.2493 -1.9676 0.9736
2.4654 -5.9192 -1.9722 0.9735
2.9863 -5.6769 -1.9729 0.9735
3.9470 -5.0492 -1.9712 0.9735
4.5135 -4.8149 -2.0299 0.9728
5.1426 -4.5846 -2.1190 0.9716
6.1253 -3.0291 -2.1018 0.9718
6.3488 -2.4599 -2.0942 0.9719
6.5240 1.1065 -2.0353 0.9727
5.8963 2.7532 -2.0015 0.9731
5.2517 3.7181 -1.9792 0.9734
4.8710 4.1503 -1.9683 0.9736
4.4560 4.5450 -1.9577 0.9737
3.5382 5.2131 -1.9379 0.9740
1.8469 5.4369 -1.7661 0.9763
-2.5960 4.9981 -1.7323 0.9767
-3.0332 4.7463 -1.7325 0.9767
-3.3303 4.3066 -1.6745 0.9775
-4.1983 3.7823 -1.7381 0.9766
-5.2071 3.2219 -1.8834 0.9747
-5.9542 1.7462 -1.9085 0.9744
-6.2216 0.6623 -1.9244 0.9742
-6.2848 0.1033 -1.9333 0.9740
-6.2995 -0.4618 -1.9428 0.9739
-6.1802 -1.5938 -1.9631 0.9736
-5.0178 -4.2302 -2.0186 0.9729
-4.2295 -5.1128 -2.0409 0.9726
-3.7749 -5.4998 -2.0517 0.9725
-3.2841 -5.8450 -2.0622 0.9723
-2.7611 -6.1450 -2.0721 0.9722
-1.6327 -6.5838 -2.0864 0.9720
-0.4051 -6.3354 -1.9526 0.9738
0.1640 -6.3651 -1.9584 0.9737
0.7347 -6.3406 -1.9633 0.9736
1.3018 -6.2620 -1.9672 0.9736
3.4254 -5.4223 -1.9727 0.9735
6.1160 0.5449 -2.0410 0.9744
6.0127 1.0846 -2.0309 0.9746
5.8616 1.6101 -2.0206 0.9747
5.4240 2.6021 -1.9997 0.9750
5.1425 3.0610 -1.9893 0.9751
4.4684 3.8886 -1.9690 0.9753
4.0821 4.2517 -1.9592 0.9755
3.6676 4.5779 -1.9499 0.9756
3.2283 4.8653 -1.9409 0.9757
2.7678 5.1121 -1.9324 0.9758
1.1967 5.1719 -1.7646 0.9779
-0.2181 5.2600 -1.7500 0.9781
-0.6866 5.2090 -1.7465 0.9781
-2.0384 4.8229 -1.7405 0.9782
-3.6063 3.8071 -1.7431 0.9781
-4.0801 3.5992 -1.8085 0.9773
-4.5776 3.3604 -1.8876 0.9763
-4.8839 2.9518 -1.8969 0.9762
-5.7807 0.5543 -1.9304 0.9758
-5.8322 0.0349 -1.9387 0.9757
-5.7987 -1.0147 -1.9568 0.9755
-5.7127 -1.5372 -1.9665 0.9754
-5.1785 -3.0459 -1.9970 0.9750
-4.9107 -3.5154 -2.0075 0.9749
-4.2490 -4.3794 -2.0283 0.9746
-3.8593 -4.7659 -2.0385 0.9745
-3.4339 -5.1169 -2.0484 0.9744
-1.4450 -6.0993 -2.0836 0.9739
-0.8964 -6.2257 -2.0908 0.9738
-0.3320 -6.2109 -2.0675 0.9741
0.2196 -6.0620 -2.0164 0.9748
1.2632 -5.7724 -1.9642 0.9754
2.2802 -5.4745 -1.9713 0.9753
2.7979 -5.3189 -1.9977 0.9750
4.3464 -4.6367 -2.1125 0.9736
4.7362 -4.2223 -2.1091 0.9736
5.3882 -3.2952 -2.0995 0.9737
5.6449 -2.7915 -2.0933 0.9738
6.1156 -1.1789 -2.0703 0.9741
6.1249 0.4812 -2.0422 0.9744
6.0273 1.0223 -2.0321 0.9746
5.8817 1.5497 -2.0218 0.9747
5.4543 2.5468 -2.0009 0.9749
4.5115 3.8439 -1.9702 0.9753
4.1287 4.2112 -1.9604 0.9754
3.7173 4.5418 -1.9509 0.9756
1.8018 5.3042 -1.8621 0.9767
1.2523 5.1656 -1.7668 0.9778
0.7819 5.2357 -1.7597 0.9779
-0.6322 5.2170 -1.7468 0.9781
-1.5477 5.0065 -1.7419 0.9782
-1.9880 4.8442 -1.7406 0.9782
-2.4127 4.6454 -1.7400 0.9782
-2.8191 4.4113 -1.7402 0.9782
-3.2043 4.1436 -1.7412 0.9782
-4.5398 3.4063 -1.8866 0.9764
-5.3418 2.1019 -1.9082 0.9761
-5.6709 1.1239 -1.9217 0.9759
-5.7718 0.6144 -1.9294 0.9758
-5.8285 0.0958 -1.9377 0.9757
-5.8401 -0.4281 -1.9465 0.9756
-5.8057 -0.9535 -1.9557 0.9755
-5.5982 -1.9929 -1.9753 0.9753
-5.2069 -2.9898 -1.9958 0.9750
-4.2920 -4.3322 -2.0271 0.9746
-3.9067 -4.7226 -2.0373 0.9745
-3.0310 -5.3946 -2.0569 0.9743
-1.5080 -6.0812 -2.0827 0.9739
-0.3983 -6.2286 -2.0747 0.9740
0.1566 -6.0792 -2.0214 0.9747
2.7368 -5.3374 -1.9938 0.9750
3.2689 -5.1746 -2.0345 0.9745
5.5816 1.0069 -2.0282 0.9762
5.4433 1.4952 -2.0187 0.9763
4.7808 2.8457 -1.9896 0.9766
4.4853 3.2465 -1.9801 0.9768
4.1571 3.6177 -1.9707 0.9769
3.4144 4.2619 -1.9529 0.9771
3.0064 4.5309 -1.9445 0.9772
-0.2034 4.9065 -1.7561 0.9794
-1.4927 4.6556 -1.7484 0.9794
-3.0790 3.8966 -1.7760 0.9791
-3.5497 3.7474 -1.8459 0.9783
-3.9667 3.4992 -1.8916 0.9778
-4.2807 3.1425 -1.8990 0.9777
-4.7978 2.3415 -1.9092 0.9776
-5.0024 1.9082 -1.9146 0.9775
-5.4317 0.0325 -1.9425 0.9772
-3.5816 -4.4230 -2.0353 0.9761
-3.1857 -4.7471 -2.0444 0.9760
-2.3078 -5.2832 -2.0617 0.9758
-0.3119 -5.8349 -2.0896 0.9755
2.2652 -5.4385 -2.1068 0.9753
2.7436 -5.2156 -2.1075 0.9753
3.1989 -4.9485 -2.1072 0.9753
4.7077 -3.4940 -2.0965 0.9754
5.4223 -2.1009 -2.0795 0.9756
5.5694 -1.6018 -2.0724 0.9757
5.6693 -1.0928 -2.0647 0.9758
5.7214 -0.5788 -2.0564 0.9759
5.7259 -0.0642 -2.0478 0.9760
5.6834 0.4465 -2.0387 0.9761
5.5949 0.9490 -2.0293 0.9762
5.4617 1.4390 -2.0198 0.9763
5.2855 1.9128 -2.0101 0.9764
5.0685 2.3667 -2.0004 0.9765
4.8130 2.7971 -1.9907 0.9766
3.0551 4.5014 -1.9455 0.9772
2.6292 4.7373 -1.9375 0.9772
1.7258 5.0806 -1.9188 0.9775
1.2455 5.1372 -1.8903 0.9778
-1.0214 4.7873 -1.7505 0.9794
-1.4441 4.6715 -1.7486 0.9794
-2.6306 4.1163 -1.7469 0.9795
-3.0261 3.9132 -1.7690 0.9792
-3.9282 3.5390 -1.8908 0.9778
-4.2455 3.1855 -1.8981 0.9777
-4.7716 2.3908 -1.9086 0.9776
-4.9804 1.9597 -1.9139 0.9775
-5.1520 1.5109 -1.9200 0.9775
-5.4285 0.0892 -1.9415 0.9772
-5.4375 -0.3986 -1.9497 0.9771
-5.3270 -1.3738 -1.9673 0.9769
-5.2071 -1.8537 -1.9766 0.9768
-5.0444 -2.3233 -1.9860 0.9767
-4.8396 -2.7788 -1.9957 0.9766
-3.6257 -4.3830 -2.0342 0.9761
-1.3973 -5.6349 -2.0761 0.9756
-0.8904 -5.7560 -2.0829 0.9756
-0.3728 -5.8295 -2.0889 0.9755
0.1508 -5.8543 -2.0942 0.9754
0.6755 -5.8297 -2.0987 0.9754
1.1966 -5.7556 -2.1023 0.9753
2.2080 -5.4616 -2.1067 0.9753
2.6889 -5.2440 -2.1074 0.9753
3.1471 -4.9819 -2.1073 0.9753
5.3307 -0.4830 -2.0512 0.9773
5.2025 0.9385 -2.0259 0.9776
4.9080 1.8345 -2.0079 0.9778
4.4619 2.6559 -1.9899 0.9780
4.1874 3.0309 -1.9809 0.9781
3.8822 3.3785 -1.9722 0.9782
3.5490 3.6964 -1.9637 0.9783
2.8101 4.2350 -1.9477 0.9785
2.4106 4.4525 -1.9403 0.9785
1.1279 4.8743 -1.9173 0.9788
0.6842 4.9344 -1.9091 0.9789
0.2337 4.8476 -1.8598 0.9794
-0.6083 4.6153 -1.7840 0.9803
-1.0097 4.5011 -1.7678 0.9804
-1.8040 4.2682 -1.7758 0.9803
-2.6269 4.0174 -1.8395 0.9796
-3.7223 3.2836 -1.9022 0.9790
-4.2657 2.5782 -1.9101 0.9789
-4.6804 1.7854 -1.9197 0.9788
-4.8358 1.3634 -1.9254 0.9787
-4.9545 0.9282 -1.9317 0.9786
-2.3042 -0.1931 -0.8861 0.9901
-5.0421 -0.8823 -1.9616 0.9783
-4.8460 -1.7824 -1.9787 0.9781
-4.6879 -2.2189 -1.9876 0.9780
-4.2556 -3.0464 -2.0056 0.9778
-3.3376 -4.1216 -2.0324 0.9775
-2.9678 -4.4223 -2.0409 0.9774
-1.7059 -5.1096 -2.0643 0.9772
-0.7726 -5.3655 -2.0773 0.9770
0.1972 -5.4442 -2.0877 0.9769
0.6850 -5.4152 -2.0917 0.9769
1.1686 -5.3404 -2.0950 0.9769
2.5505 -4.8485 -2.0994 0.9768
2.9738 -4.6002 -2.0992 0.9768
3.3717 -4.3132 -2.0980 0.9768
3.7405 -3.9903 -2.0959 0.9768
4.8641 -2.4054 -2.0795 0.9770
5.1835 -1.4908 -2.0669 0.9772
5.2778 -1.0174 -2.0598 0.9772
5.3335 -0.0598 -2.0440 0.9774
3.5892 3.6609 -1.9647 0.9783
2.8555 4.2073 -1.9486 0.9785
2.0445 4.6145 -1.9342 0.9786
1.1794 4.8649 -1.9183 0.9788
0.7361 4.9293 -1.9100 0.9789
-0.5609 4.6286 -1.7867 0.9802
-3.3643 3.6268 -1.8958 0.9790
-4.2375 2.6220 -1.9096 0.9789
-4.4654 2.2374 -1.9140 0.9788
-4.6600 1.8336 -1.9191 0.9788
-4.8195 1.4134 -1.9247 0.9787
-4.9426 0.9796 -1.9309 0.9786
-2.3029 0.2451 -0.8875 0.9901
-2.2927 0.0377 -0.8787 0.9902
-4.9753 -1.2831 -1.9690 0.9782
-4.8618 -1.7308 -1.9777 0.9781
-4.7084 -2.1686 -1.9865 0.9780
-4.5158 -2.5929 -1.9955 0.9779
-4.0174 -3.3868 -2.0136 0.9777
-3.7146 -3.7494 -2.0226 0.9776
-3.3788 -4.0845 -2.0314 0.9775
-3.0124 -4.3889 -2.0400 0.9775
-2.6181 -4.6596 -2.0482 0.9774
-1.7585 -5.0894 -2.0635 0.9772
-0.3467 -5.4226 -2.0823 0.9770
0.1402 -5.4446 -2.0872 0.9769
0.6282 -5.4209 -2.0913 0.9769
2.0527 -5.0773 -2.0987 0.9768
2.4997 -4.8749 -2.0994 0.9768
2.9256 -4.6312 -2.0992 0.9768
4.8663 0.8778 -2.0238 0.9789
4.5934 1.7169 -2.0070 0.9790
4.1783 2.4871 -1.9901 0.9792
2.6350 3.9712 -1.9506 0.9796
2.2610 4.1761 -1.9436 0.9797
1.8719 4.3471 -1.9371 0.9798
0.6437 4.6424 -1.9182 0.9799
0.2249 4.6652 -1.9116 0.9800
-0.1929 4.6533 -1.9061 0.9801
-0.6058 4.5964 -1.8975 0.9802
-3.4972 3.0850 -1.9086 0.9800
-3.7651 2.7640 -1.9116 0.9800
-4.0048 2.4205 -1.9152 0.9800
-4.2146 2.0569 -1.9194 0.9799
-4.3928 1.6757 -1.9242 0.9799
-4.5378 1.2794 -1.9296 0.9798
-2.0521 -0.3591 -0.8526 0.9910
-4.6516 -1.2516 -1.9715 0.9794
-4.5396 -1.6697 -1.9796 0.9793
-4.3903 -2.0780 -1.9879 0.9792
-4.2045 -2.4730 -1.9964 0.9791
-3.9831 -2.8514 -2.0049 0.9791
-3.7277 -3.2099 -2.0133 0.9790
-2.7746 -4.1345 -2.0379 0.9787
-2.4025 -4.3826 -2.0455 0.9786
-2.0078 -4.5964 -2.0528 0.9786
-1.5937 -4.7735 -2.0597 0.9785
-1.1637 -4.9120 -2.0660 0.9784
-0.2709 -5.0675 -2.0769 0.9783
0.1841 -5.0823 -2.0814 0.9783
1.0907 -4.9842 -2.0882 0.9782
1.5340 -4.8718 -2.0904 0.9782
2.3801 -4.5245 -2.0924 0.9781
3.8052 -3.3923 -2.0864 0.9782
4.0867 -3.0331 -2.0829 0.9782
4.5419 -2.2461 -2.0738 0.9783
4.7121 -1.8257 -2.0682 0.9784
4.8421 -1.3926 -2.0621 0.9785
4.9313 -0.9506 -2.0554 0.9785
4.9792 -0.5037 -2.0483 0.9786
4.9859 -0.0559 -2.0407 0.9787
4.6134 1.6696 -2.0080 0.9790
4.4267 2.0670 -1.9995 0.9791
3.6722 3.1288 -1.9745 0.9794
2.6776 3.9451 -1.9514 0.9796
2.3055 4.1539 -1.9444 0.9797
1.9180 4.3289 -1.9378 0.9797
0.6925 4.6375 -1.9191 0.9799
-0.1443 4.6565 -1.9067 0.9801
-0.5586 4.6097 -1.9004 0.9801
-0.9593 4.4962 -1.8816 0.9803
-1.7502 4.2648 -1.8867 0.9803
-2.1362 4.1129 -1.8968 0.9802
-2.8421 3.6752 -1.9015 0.9801
-3.4642 3.1209 -1.9083 0.9800
-2.0738 0.4110 -0.8653 0.9909
-1.9945 0.0328 -0.8164 0.9914
-2.0406 -0.3351 -0.8463 0.9911
-4.6622 -1.2023 -1.9706 0.9794
-4.5546 -1.6214 -1.9787 0.9793
-4.0108 -2.8082 -2.0039 0.9791
-3.7592 -3.1692 -2.0123 0.9790
-3.1599 -3.8198 -2.0289 0.9788
-2.8164 -4.1034 -2.0369 0.9787
-2.4471 -4.3554 -2.0446 0.9786
-1.6429 -4.7548 -2.0589 0.9785
-0.7736 -5.0011 -2.0712 0.9784
-0.3237 -5.0630 -2.0764 0.9783
0.5863 -5.0600 -2.0848 0.9782
1.4828 -4.8870 -2.0902 0.9782
1.9155 -4.7381 -2.0917 0.9782
2.3326 -4.5491 -2.0923 0.9781
2.7302 -4.3218 -2.0922 0.9781
4.6739 -0.0035 -2.0370 0.9798
4.5657 0.8236 -2.0219 0.9800
4.4564 1.2241 -2.0141 0.9800
4.1339 1.9832 -1.9982 0.9802
3.6849 2.6671 -1.9824 0.9803
2.4778 3.7342 -1.9531 0.9806
2.1265 3.9278 -1.9466 0.9807
1.7609 4.0894 -1.9404 0.9808
0.9981 4.3135 -1.9295 0.9809
0.2122 4.4008 -1.9202 0.9810
-0.1820 4.3903 -1.9150 0.9810
-0.5730 4.3472 -1.9110 0.9810
-0.9583 4.2720 -1.9081 0.9811
-2.0566 3.8605 -1.9063 0.9811
-2.3961 3.6644 -1.9081 0.9811
-3.0162 3.1841 -1.9114 0.9810
-3.2927 2.9047 -1.9136 0.9810
-3.5446 2.6021 -1.9164 0.9810
-3.7699 2.2785 -1.9198 0.9810
-3.9669 1.9360 -1.9238 0.9809
-1.5297 0.5835 -0.7135 0.9929
-1.4936 0.4211 -0.6763 0.9933
-1.4269 0.0085 -0.6219 0.9938
-1.4929 -0.4017 -0.6738 0.9933
-4.1236 -1.9518 -1.9883 0.9803
-3.9481 -2.3222 -1.9962 0.9802
-3.7393 -2.6768 -2.0042 0.9801
-2.9279 -3.6157 -2.0276 0.9799
-1.4936 -4.4737 -2.0555 0.9796
-1.0904 -4.6027 -2.0614 0.9796
-0.6759 -4.6941 -2.0668 0.9795
-0.2537 -4.7467 -2.0717 0.9795
1.4363 -4.5616 -2.0842 0.9793
1.8399 -4.4175 -2.0855 0.9793
2.5983 -4.0193 -2.0858 0.9793
3.2687 -3.4871 -2.0830 0.9794
3.5634 -3.1767 -2.0805 0.9794
3.8273 -2.8406 -2.0772 0.9794
4.4150 -1.7106 -2.0635 0.9796
4.5377 -1.3050 -2.0578 0.9796
4.6755 -0.0524 -2.0378 0.9798
4.6446 0.3649 -2.0304 0.9799
4.5761 0.7762 -2.0228 0.9800
4.3305 1.5672 -2.0071 0.9801
2.5177 3.7096 -1.9539 0.9806
2.1683 3.9068 -1.9473 0.9807
1.8042 4.0722 -1.9411 0.9808
1.4283 4.2049 -1.9354 0.9808
-0.5276 4.3539 -1.9114 0.9810
-2.0160 3.8815 -1.9062 0.9811
-2.3573 3.6887 -1.9078 0.9811
-2.9824 3.2151 -1.9112 0.9810
-3.2617 2.9385 -1.9133 0.9810
-3.9455 1.9769 -1.9233 0.9809
-1.4934 0.4380 -0.6783 0.9932
-1.4724 0.2918 -0.6542 0.9935
-1.4705 0.1565 -0.6445 0.9936
-1.4338 0.0236 -0.6250 0.9938
-1.4618 -0.1072 -0.6388 0.9936
-1.4727 -0.2419 -0.6504 0.9935
-4.1419 -1.9077 -1.9874 0.9803
-3.9703 -2.2797 -1.9953 0.9802
-3.2605 -3.2911 -2.0190 0.9800
-2.9642 -3.5833 -2.0267 0.9799
-2.2945 -4.0837 -2.0415 0.9798
-0.7247 -4.6854 -2.0662 0.9795
-0.3033 -4.7426 -2.0711 0.9795
0.9723 -4.6769 -2.0819 0.9794
1.3884 -4.5759 -2.0840 0.9794
1.7935 -4.4362 -2.0854 0.9793
2.1840 -4.2592 -2.0860 0.9793
2.5562 -4.0464 -2.0859 0.9793
4.3516 -0.7917 -2.0473 0.9807
4.3914 -0.3979 -2.0410 0.9808
4.3950 -0.0033 -2.0344 0.9808
4.2951 0.7748 -2.0202 0.9809
4.1932 1.1519 -2.0129 0.9810
4.0583 1.5168 -2.0054 0.9811
3.8916 1.8669 -1.9979 0.9812
2.9457 3.0681 -1.9688 0.9814
2.6501 3.3079 -1.9620 0.9815
2.0049 3.7032 -1.9493 0.9816
1.6605 3.8563 -1.9435 0.9817
1.3052 3.9784 -1.9381 0.9817
-0.1720 4.1476 -1.9215 0.9819
-0.5417 4.1095 -1.9187 0.9819
-0.9062 4.0399 -1.9165 0.9819
-1.6097 3.8085 -1.9139 0.9819
-2.2626 3.4603 -1.9137 0.9819
-2.5643 3.2453 -1.9146 0.9819
-3.3449 2.4555 -1.9207 0.9819
-3.7426 1.8265 -1.9277 0.9818
-1.2579 0.4798 -0.6232 0.9941
-1.2740 0.1222 -0.5924 0.9944
-1.2726 -0.2227 -0.5980 0.9943
-1.2608 -0.4638 -0.6218 0.9941
-1.2679 -0.6001 -0.6493 0.9938
-3.7169 -2.1862 -1.9960 0.9812
-3.5195 -2.5195 -2.0035 0.9811
-3.2921 -2.8348 -2.0110 0.9810
-2.4470 -3.6462 -2.0326 0.9808
-2.1178 -3.8633 -2.0394 0.9808
-1.0246 -4.3249 -2.0573 0.9806
-0.2383 -4.4589 -2.0669 0.9805
0.9591 -4.3828 -2.0768 0.9804
1.3487 -4.2834 -2.0787 0.9804
2.4397 -3.7740 -2.0802 0.9804
2.7664 -3.5389 -2.0792 0.9804
3.0695 -3.2745 -2.0776 0.9804
3.3464 -2.9833 -2.0752 0.9804
3.5947 -2.6679 -2.0721 0.9805
3.8122 -2.3314 -2.0685 0.9805
3.9973 -1.9768 -2.0642 0.9805
4.3964 -0.0493 -2.0352 0.9808
4.3048 0.7301 -2.0211 0.9809
4.0757 1.4750 -2.0063 0.9811
3.9127 1.8269 -1.9988 0.9811
3.7195 2.1616 -1.9913 0.9812
2.9789 3.0384 -1.9696 0.9814
2.6856 3.2813 -1.9627 0.9815
1.3471 3.9657 -1.9387 0.9817
0.6156 4.1221 -1.9292 0.9818
0.2437 4.1521 -1.9253 0.9818
-0.1286 4.1499 -1.9219 0.9819
-1.5698 3.8253 -1.9140 0.9819
-2.2262 3.4836 -1.9137 0.9819
-2.5301 3.2717 -1.9144 0.9819
-2.8148 3.0344 -1.9158 0.9819
-3.0782 2.7732 -1.9178 0.9819
-3.5338 2.1866 -1.9235 0.9819
-1.2621 0.0207 -0.5843 0.9945
-1.2717 -0.0932 -0.5902 0.9944
-1.2705 -0.3277 -0.6073 0.9942
-1.2631 -0.4496 -0.6206 0.9941
-1.2611 -0.5808 -0.6427 0.9939
-3.5441 -2.4814 -2.0027 0.9811
-3.0676 -3.0963 -2.0175 0.9810
-2.1573 -3.8395 -2.0386 0.9808
-1.8108 -4.0299 -2.0450 0.9807
-1.4471 -4.1882 -2.0511 0.9807
0.9131 -4.3921 -2.0765 0.9804
1.3037 -4.2969 -2.0785 0.9804
1.6841 -4.1656 -2.0798 0.9804
2.0507 -3.9993 -2.0804 0.9804
2.4002 -3.7995 -2.0802 0.9804
4.1001 -0.7460 -2.0442 0.9816
4.1384 -0.3750 -2.0383 0.9817
4.0500 0.7306 -2.0187 0.9818
3.8283 1.4309 -2.0048 0.9820
3.6719 1.7615 -1.9977 0.9820
3.4872 2.0757 -1.9906 0.9821
3.2759 2.3711 -1.9837 0.9821
2.7817 2.8972 -1.9701 0.9823
2.2064 3.3253 -1.9575 0.9824
0.1893 3.9271 -1.9286 0.9826
-0.5122 3.8862 -1.9228 0.9827
-0.8570 3.8206 -1.9207 0.9827
-1.8383 3.4507 -1.9178 0.9827
-2.4253 3.0693 -1.9189 0.9827
-2.6921 2.8420 -1.9202 0.9827
-3.1629 2.3220 -1.9247 0.9827
-3.3634 2.0328 -1.9277 0.9826
-1.0859 0.5300 -0.5927 0.9946
-1.1179 0.4265 -0.5869 0.9947
-1.1322 0.3192 -0.5770 0.9948
-1.1439 -0.0959 -0.5631 0.9949
-3.5072 -2.0629 -1.9959 0.9820
-3.1051 -2.6738 -2.0100 0.9819
-2.3065 -3.4370 -2.0304 0.9817
-1.6670 -3.8162 -2.0427 0.9816
-0.5981 -4.1535 -2.0584 0.9815
-0.2244 -4.1990 -2.0626 0.9814
0.5294 -4.1854 -2.0694 0.9814
0.9029 -4.1262 -2.0719 0.9814
1.2697 -4.0324 -2.0737 0.9813
1.6263 -3.9047 -2.0748 0.9813
1.9697 -3.7443 -2.0753 0.9813
2.2966 -3.5527 -2.0751 0.9813
3.1506 -2.8087 -2.0704 0.9814
3.3846 -2.5120 -2.0675 0.9814
3.9073 -1.5139 -2.0555 0.9815
4.0172 -1.1553 -2.0504 0.9815
4.0934 -0.7891 -2.0449 0.9816
4.1357 -0.4184 -2.0390 0.9817
4.1438 -0.0464 -2.0328 0.9817
3.9675 1.0454 -2.0126 0.9819
3.6916 1.7237 -1.9985 0.9820
3.0688 2.6147 -1.9776 0.9822
2.8129 2.8691 -1.9709 0.9823
1.9315 3.4801 -1.9524 0.9824
0.2304 3.9258 -1.9290 0.9826
-0.4716 3.8919 -1.9230 0.9827
-0.8171 3.8298 -1.9209 0.9827
-1.1556 3.7382 -1.9193 0.9827
-1.4847 3.6179 -1.9183 0.9827
-1.8021 3.4697 -1.9178 0.9827
-2.1056 3.2948 -1.9180 0.9827
-2.3929 3.0943 -1.9187 0.9827
-2.6620 2.8697 -1.9200 0.9827
-1.1315 0.3318 -0.5784 0.9948
-1.1383 0.2256 -0.5692 0.9948
-1.1443 0.1218 -0.5645 0.9949
-1.1434 -0.0838 -0.5624 0.9949
-1.1424 -0.1876 -0.5679 0.9949
-1.1232 -0.3998 -0.5848 0.9947
-1.0956 -0.5046 -0.5917 0.9946
-3.3435 -2.3410 -2.0021 0.9820
-2.3415 -3.4114 -2.0296 0.9817
-2.0332 -3.6186 -2.0360 0.9817
-0.6413 -4.1459 -2.0579 0.9815
0.4855 -4.1901 -2.0691 0.9814
1.2273 -4.0451 -2.0735 0.9813
1.5853 -3.9213 -2.0747 0.9813
1.9304 -3.7647 -2.0753 0.9813
2.2594 -3.5766 -2.0752 0.9813
3.8714 -0.7044 -2.0414 0.9824
3.9128 -0.0029 -2.0299 0.9825
3.8268 0.6903 -2.0173 0.9826
3.6146 1.3510 -2.0019 0.9828
2.8758 2.5026 -1.9777 0.9830
1.7932 3.3121 -1.9539 0.9832
1.1680 3.5604 -1.9439 0.9833
0.8428 3.6423 -1.9395 0.9833
0.1793 3.7198 -1.9320 0.9834
-0.1540 3.7151 -1.9290 0.9834
-0.8120 3.6197 -1.9245 0.9834
-1.4424 3.4128 -1.9222 0.9834
-1.7418 3.2695 -1.9218 0.9834
-2.2978 2.9081 -1.9228 0.9834
-2.7840 2.4559 -1.9259 0.9834
-0.9741 0.4754 -0.5623 0.9951
-1.0042 0.3831 -0.5576 0.9952
-1.0377 0.0995 -0.5408 0.9953
-1.0303 0.0062 -0.5345 0.9954
-1.0375 -0.0870 -0.5401 0.9953
-1.0071 -0.3704 -0.5567 0.9952
-3.1386 -2.2468 -2.0024 0.9828
-2.7055 -2.7886 -2.0157 0.9826
-2.4529 -3.0292 -2.0221 0.9826
0.4995 -3.9493 -2.0651 0.9822
2.1667 -3.3517 -2.0705 0.9822
2.9728 -2.6502 -2.0661 0.9822
3.3878 -2.0718 -2.0601 0.9823
3.8903 0.3056 -2.0244 0.9826
3.7495 0.9879 -2.0115 0.9827
3.4901 1.6296 -1.9982 0.9828
3.3191 1.9290 -1.9916 0.9828
3.1228 2.2109 -1.9850 0.9829
2.6614 2.7145 -1.9721 0.9830
2.4003 2.9326 -1.9660 0.9831
1.5221 3.4354 -1.9493 0.9832
1.2055 3.5490 -1.9444 0.9833
0.2183 3.7185 -1.9324 0.9834
-0.1152 3.7172 -1.9293 0.9834
-0.4468 3.6870 -1.9268 0.9834
-1.0949 3.5418 -1.9232 0.9834
-1.4067 3.4279 -1.9222 0.9834
-2.9727 2.2305 -1.9280 0.9834
-0.9678 0.5989 -0.5904 0.9949
-1.0015 0.3941 -0.5584 0.9952
-1.0376 0.1105 -0.5413 0.9953
-1.0319 0.0170 -0.5354 0.9954
-1.0339 -0.1698 -0.5435 0.9953
-1.0094 -0.3593 -0.5558 0.9952
-0.9535 -0.5475 -0.5704 0.9951
-2.7335 -2.7591 -2.0149 0.9827
-2.4836 -3.0022 -2.0213 0.9826
-2.2118 -3.2224 -2.0276 0.9825
-1.6112 -3.5857 -2.0394 0.9824
-1.2872 -3.7253 -2.0447 0.9824
1.4957 -3.6995 -2.0701 0.9822
2.1316 -3.3743 -2.0705 0.9822
1.8887 -0.1711 -1.0387 0.9914
1.8720 -0.0014 -1.0253 0.9915
1.8886 0.1683 -1.0385 0.9914
1.8847 0.3400 -1.0489 0.9913
1.8836 0.5174 -1.0699 0.9911
3.4195 1.2781 -1.9994 0.9835
3.2878 1.5773 -1.9973 0.9835
2.9354 2.1247 -1.9847 0.9836
2.4943 2.5979 -1.9726 0.9837
2.2452 2.8025 -1.9668 0.9838
1.9798 2.9837 -1.9612 0.9838
1.7003 3.1405 -1.9560 0.9838
1.4089 3.2718 -1.9510 0.9839
0.7994 3.4549 -1.9423 0.9840
-0.7705 3.4348 -1.9280 0.9841
-1.6529 3.1027 -1.9255 0.9841
-1.9241 2.9426 -1.9257 0.9841
-2.6417 2.3304 -1.9294 0.9841
-0.9105 0.3473 -0.5338 0.9956
-0.9241 0.2606 -0.5259 0.9956
-0.9474 0.0908 -0.5213 0.9957
-0.9422 -0.1649 -0.5239 0.9956
-0.9251 -0.2489 -0.5247 0.9956
-0.9124 -0.3356 -0.5325 0.9956
-0.8945 -0.4234 -0.5420 0.9955
-0.8674 -0.5102 -0.5511 0.9954
-2.9721 -2.1276 -2.0020 0.9835
-2.7785 -2.3926 -2.0083 0.9834
-2.5612 -2.6398 -2.0145 0.9834
-2.3216 -2.8670 -2.0206 0.9833
-1.7835 -3.2535 -2.0321 0.9832
-1.4891 -3.4090 -2.0375 0.9832
-0.8617 -3.6371 -2.0472 0.9831
1.1324 -3.5963 -2.0650 0.9830
1.7565 -3.3391 -2.0665 0.9829
3.2032 -1.9589 -2.0565 0.9830
1.8818 -0.5412 -1.0724 0.9911
1.8846 -0.3633 -1.0512 0.9913
1.8752 -0.0210 -1.0271 0.9915
1.8878 0.1483 -1.0371 0.9914
1.8848 0.4966 -1.0676 0.9911
3.4287 1.2409 -1.9971 0.9835
3.1440 1.8272 -1.9917 0.9836
2.9586 2.0946 -1.9854 0.9836
2.7507 2.3437 -1.9793 0.9837
2.5222 2.5726 -1.9732 0.9837
2.2752 2.7798 -1.9674 0.9838
1.7336 3.1235 -1.9566 0.9838
1.4434 3.2578 -1.9516 0.9839
0.8357 3.4472 -1.9427 0.9840
0.5229 3.5013 -1.9389 0.9840
0.2071 3.5278 -1.9355 0.9840
-0.4240 3.4985 -1.9302 0.9841
-1.3350 3.2530 -1.9259 0.9841
-2.1515 2.7822 -1.9263 0.9841
-2.6169 2.3576 -1.9292 0.9841
-2.8206 2.1164 -1.9314 0.9840
-0.8886 0.4452 -0.5444 0.9955
-0.9231 0.2707 -0.5269 0.9956
-0.9390 0.1861 -0.5243 0.9956
-0.9472 0.1008 -0.5217 0.9957
-0.9429 0.0155 -0.5165 0.9957
-0.9471 -0.0694 -0.5201 0.9957
-0.9273 -0.2391 -0.5245 0.9956
-0.9145 -0.3256 -0.5317 0.9956
-0.8971 -0.4132 -0.5409 0.9955
-0.8788 -0.6153 -0.5876 0.9951
-2.5877 -2.6119 -2.0138 0.9834
-2.3507 -2.8416 -2.0199 0.9833
-2.0931 -3.0495 -2.0258 0.9833
-1.8169 -3.2336 -2.0315 0.9832
-1.5242 -3.3922 -2.0369 0.9832
-1.2176 -3.5238 -2.0420 0.9831
-0.5724 -3.7006 -2.0510 0.9831
0.0968 -3.7565 -2.0581 0.9830
0.4331 -3.7378 -2.0609 0.9830
1.0946 -3.6076 -2.0649 0.9830
1.4138 -3.4970 -2.0660 0.9829
2.0149 -3.1896 -2.0663 0.9829
1.7407 -0.1577 -1.0091 0.9920
1.7262 -0.0013 -0.9966 0.9921
1.7373 0.3134 -1.0192 0.9919
1.7283 0.4748 -1.0348 0.9918
1.6994 0.6352 -1.0475 0.9917
2.3675 2.4659 -1.9736 0.9843
2.1314 2.6604 -1.9681 0.9844
1.6145 2.9821 -1.9579 0.9845
1.0522 3.2073 -1.9488 0.9845
0.7594 3.2818 -1.9448 0.9846
0.1616 3.3529 -1.9381 0.9846
-0.4375 3.3195 -1.9331 0.9847
-0.7322 3.2640 -1.9313 0.9847
-1.3008 3.0778 -1.9292 0.9847
-1.5708 2.9485 -1.9288 0.9847
-1.8285 2.7964 -1.9290 0.9847
-2.3000 2.4280 -1.9309 0.9847
-2.5102 2.2144 -1.9326 0.9847
