ply
format ascii 1.0
element vertex 1171
property float32 x
property float32 y
property float32 z
property float32 I
end_header
2.7733 -6.3897 1.2282 0.9721
18.3798 -3.2601 3.2915 0.9270
18.0586 -1.5557 3.1960 0.9290
14.5808 12.8035 3.4215 0.9242
9.1554 11.5329 2.5964 0.9419
4.7477 11.1627 2.1389 0.9519
3.5460 10.9744 2.0336 0.9542
-0.7700 16.7547 2.9574 0.9341
-4.8284 14.8296 2.7500 0.9386
-5.1238 11.9724 2.2963 0.9485
-6.1619 11.4420 2.2915 0.9486
-8.9578 13.5655 2.8664 0.9361
2.7089 -6.4202 1.2287 0.9721
0.9994 -7.0581 1.0920 0.9716
2.7660 -6.3727 1.0643 0.9723
17.4406 -3.0935 2.7135 0.9308
18.9250 -1.6303 2.9099 0.9260
11.4601 12.0432 2.5468 0.9349
9.3937 11.8330 2.3145 0.9407
6.1100 11.4069 1.9824 0.9490
4.7401 11.1447 1.8553 0.9522
2.4483 10.8007 1.6966 0.9562
-0.8149 17.7319 2.7193 0.9307
-0.8109 5.9461 0.9193 0.9760
2.7018 -6.4035 1.0647 0.9723
0.9991 -7.0564 0.9281 0.9717
14.4301 12.6711 2.5007 0.9255
11.7369 12.3340 2.2171 0.9336
6.2321 11.6348 1.7187 0.9482
4.8717 11.4543 1.6209 0.9510
2.4953 11.0079 1.4698 0.9555
0.9989 -7.0548 0.7651 0.9717
2.7545 -6.3463 0.7429 0.9726
6.2519 11.6718 1.4218 0.9481
4.8740 11.4595 1.3372 0.9511
2.5078 11.0633 1.2181 0.9554
0.4668 10.6773 1.1476 0.9579
-0.8504 18.5024 1.9889 0.9282
-0.8115 5.9501 0.6448 0.9761
2.6910 -6.3779 0.7433 0.9725
2.7486 -6.3328 0.5844 0.9727
14.9452 13.1235 1.6837 0.9233
7.8278 11.9121 1.2066 0.9444
4.8762 11.4647 1.0547 0.9512
3.6374 11.2571 1.0015 0.9536
2.5089 11.0679 0.9607 0.9555
1.4606 10.8920 0.9303 0.9568
0.4720 10.7972 0.9149 0.9575
0.9984 -7.0515 0.4416 0.9719
2.7410 -6.3152 0.4269 0.9728
6.2569 11.6810 0.8218 0.9483
3.6389 11.2620 0.7339 0.9537
1.4611 10.8963 0.6817 0.9569
-0.9018 19.6212 1.2180 0.9243
-0.8120 5.9540 0.3726 0.9762
0.9982 -7.0498 0.2808 0.9719
2.7334 -6.2977 0.2707 0.9729
14.9537 13.1310 0.7847 0.9234
9.7634 12.2988 0.6192 0.9391
7.8734 11.9816 0.5653 0.9442
6.2593 11.6856 0.5227 0.9483
1.4617 10.9007 0.4337 0.9569
0.4731 10.8221 0.4271 0.9576
-0.9021 19.6288 0.7748 0.9244
2.6714 -6.3314 0.2710 0.9729
0.9980 -7.0482 0.1202 0.9719
2.7291 -6.2877 0.1158 0.9730
14.9580 13.1347 0.3363 0.9235
9.7690 12.3058 0.2654 0.9391
7.8775 11.9878 0.2423 0.9442
6.2618 11.6902 0.2240 0.9483
4.8828 11.4804 0.2107 0.9513
0.4736 10.8346 0.1832 0.9575
-0.9025 19.6363 0.3320 0.9244
-0.8125 5.9580 0.1016 0.9762
0.9979 -7.0477 -0.0401 0.9719
2.7284 -6.2862 -0.0386 0.9730
14.9622 13.1384 -0.1121 0.9234
9.7745 12.3128 -0.0885 0.9391
3.6436 11.2766 -0.0667 0.9537
2.5130 11.0862 -0.0640 0.9555
1.4559 10.8574 -0.0617 0.9571
-0.7921 17.2350 -0.0971 0.9333
-0.8128 5.9600 -0.0339 0.9762
0.9979 -7.0474 -0.2004 0.9719
14.9692 13.1446 -0.5610 0.9234
9.7801 12.3198 -0.4429 0.9390
4.8640 11.4360 -0.3499 0.9515
1.4635 10.9138 -0.3101 0.9569
-0.7740 16.8409 -0.4747 0.9348
-0.8131 5.9619 -0.1694 0.9762
2.6837 -6.3605 -0.1944 0.9728
2.7337 -6.2983 -0.3482 0.9729
14.6939 12.9028 -0.9917 0.9247
7.8523 11.9495 -0.7251 0.9443
6.2692 11.7040 -0.6733 0.9482
4.8662 11.4412 -0.6305 0.9514
3.6468 11.2863 -0.6015 0.9536
2.5151 11.0954 -0.5770 0.9555
1.3436 10.0196 -0.5127 0.9603
0.9978 -7.0470 -0.5219 0.9719
2.7344 -6.3000 -0.5036 0.9728
14.7046 12.9122 -1.4348 0.9245
11.8226 12.4241 -1.2575 0.9335
9.5586 12.0408 -1.1272 0.9402
7.7063 11.7273 -1.0289 0.9453
4.7754 11.2277 -0.8946 0.9522
3.5616 11.0226 -0.8493 0.9546
2.4664 10.8804 -0.8180 0.9562
1.3412 10.0021 -0.7399 0.9603
-0.7746 16.8539 -1.2371 0.9346
2.6891 -6.3733 -0.5072 0.9726
12.7929 -6.0914 -1.3603 0.9447
19.2395 0.0708 -1.8471 0.9256
18.3588 3.3959 -1.7924 0.9277
17.0118 6.4447 -1.7465 0.9295
16.1676 7.8447 -1.7252 0.9303
12.1592 10.6771 -1.5535 0.9370
9.5641 12.0477 -1.4768 0.9401
7.7104 11.7334 -1.3479 0.9451
6.1427 11.4679 -1.2490 0.9491
4.7776 11.2329 -1.1719 0.9521
2.4573 10.8405 -1.0671 0.9563
0.4659 10.6570 -1.0241 0.9580
-0.7422 16.1493 -1.5521 0.9371
-3.6677 16.0134 -1.5772 0.9361
-6.6011 15.4244 -1.6107 0.9348
-8.0533 14.9543 -1.6306 0.9340
-13.2649 13.8774 -1.8430 0.9258
-14.6902 12.8414 -1.8732 0.9246
2.6970 -6.3920 -0.6660 0.9725
-15.1058 7.0982 -1.9826 0.9350
-15.9193 5.8049 -2.0128 0.9340
-17.6818 1.4322 -2.1072 0.9310
-18.1864 -1.7955 -2.1708 0.9290
-18.2094 -3.4647 -2.2018 0.9281
-17.7621 -6.8331 -2.2606 0.9262
-16.6334 -10.1175 -2.3126 0.9246
-15.8137 -11.6781 -2.3351 0.9239
-14.8293 -13.1567 -2.3549 0.9233
1.0116 -19.8023 -2.3553 0.9232
0.9977 -7.0465 -0.8454 0.9717
6.0380 -18.2274 -2.2809 0.9256
2.7335 -6.2979 -0.8155 0.9727
8.9962 -16.5023 -2.2326 0.9271
10.2965 -15.4207 -2.2026 0.9280
7.9296 -6.8604 -1.2455 0.9586
14.1879 -10.2066 -2.0761 0.9320
10.8573 -6.4200 -1.4983 0.9505
15.9306 -1.3724 -1.8993 0.9376
15.7769 0.0580 -1.8741 0.9384
15.5098 1.4511 -1.8504 0.9392
15.1354 2.7996 -1.8284 0.9399
14.0882 5.3372 -1.7895 0.9411
10.9587 8.0065 -1.6122 0.9468
10.1342 8.8989 -1.6020 0.9471
9.2488 9.7194 -1.5937 0.9474
8.3078 10.4651 -1.5872 0.9476
7.3162 11.1336 -1.5825 0.9478
6.1457 11.4735 -1.5461 0.9489
4.7797 11.2380 -1.4506 0.9520
3.5647 11.0322 -1.3772 0.9544
-0.6187 13.4619 -1.6008 0.9472
-0.8142 5.9699 -0.7157 0.9760
-3.0491 13.3127 -1.6223 0.9465
-8.4681 12.8239 -1.8255 0.9400
-10.8819 11.3843 -1.8707 0.9385
-12.0158 10.5036 -1.8958 0.9377
-14.0886 8.4283 -1.9501 0.9360
-15.0067 7.2399 -1.9792 0.9351
-15.8315 5.9571 -2.0093 0.9341
-17.9778 0.0258 -2.1355 0.9301
-18.2148 -3.2730 -2.1983 0.9282
-18.0940 -4.9571 -2.2285 0.9272
-15.9157 -11.5037 -2.3327 0.9239
-14.9498 -12.9927 -2.3528 0.9233
0.8097 -19.8289 -2.3574 0.9232
4.1888 -18.7283 -2.2796 0.9256
5.8565 -18.3047 -2.2829 0.9255
2.7219 -6.4510 -0.8317 0.9722
3.2820 -6.1698 -0.8301 0.9722
-13.8869 3.6949 -2.0361 0.9436
-14.9252 -0.1312 -2.1148 0.9415
-15.0352 -1.4844 -2.1407 0.9408
-15.0171 -2.8573 -2.1659 0.9401
-14.8663 -4.2368 -2.1903 0.9395
-14.1568 -6.9587 -2.2351 0.9383
-13.5974 -8.2708 -2.2550 0.9377
-12.9044 -9.5297 -2.2729 0.9372
-10.0807 -12.8327 -2.3122 0.9362
-8.9210 -13.7283 -2.3198 0.9360
-3.5379 -15.9865 -2.3199 0.9360
0.8242 -16.1336 -2.2889 0.9368
0.9977 -7.0463 -1.0083 0.9717
4.9616 -14.9778 -2.2356 0.9382
2.7389 -6.3103 -0.9747 0.9726
8.4909 -12.7165 -2.1665 0.9401
10.3715 -10.7399 -2.1155 0.9415
7.9288 -6.8597 -1.4855 0.9585
11.8189 -8.5023 -2.0629 0.9429
7.4734 -4.4191 -1.2302 0.9655
11.8857 -5.6594 -1.8652 0.9482
12.1890 -4.5154 -1.8417 0.9488
12.3887 -3.3642 -1.8189 0.9495
13.4620 -1.1597 -1.9145 0.9469
13.1590 1.2312 -1.8726 0.9480
12.8645 2.3796 -1.8537 0.9485
12.0127 4.5509 -1.8201 0.9494
11.4653 5.5631 -1.8056 0.9498
10.8435 6.5200 -1.7928 0.9502
9.7134 7.0966 -1.7045 0.9526
8.6807 7.6226 -1.6369 0.9544
7.9282 8.3316 -1.6296 0.9546
7.1257 8.9761 -1.6239 0.9548
5.3893 10.0613 -1.6172 0.9549
4.4647 10.4973 -1.6163 0.9550
3.5089 10.8594 -1.6170 0.9549
2.4594 10.8496 -1.5763 0.9561
1.3274 9.8987 -1.4151 0.9605
0.4670 10.6821 -1.5150 0.9577
-3.6409 11.1822 -1.6663 0.9536
-4.6636 10.8970 -1.6794 0.9532
-5.6690 10.5267 -1.6941 0.9528
-6.6505 10.0714 -1.7101 0.9524
-9.2172 9.6427 -1.8900 0.9475
-10.1568 8.8785 -1.9114 0.9470
-11.0393 8.0275 -1.9340 0.9463
-12.5992 6.0784 -1.9821 0.9451
-13.2593 4.9892 -2.0073 0.9444
-14.2972 2.6115 -2.0593 0.9430
-14.6586 1.3384 -2.0856 0.9423
-14.9048 0.0214 -2.1118 0.9416
-14.8903 -4.0794 -2.1875 0.9395
-12.9901 -9.3891 -2.2710 0.9373
-12.1825 -10.5877 -2.2869 0.9369
-11.2518 -11.7039 -2.3004 0.9365
-10.2068 -12.7231 -2.3111 0.9362
-9.0582 -13.6321 -2.3191 0.9360
-7.8185 -14.4189 -2.3240 0.9359
-3.7024 -15.9541 -2.3206 0.9360
-0.7930 -16.2369 -2.3033 0.9364
0.6596 -16.1526 -2.2906 0.9368
2.0884 -15.9216 -2.2752 0.9372
4.8131 -15.0436 -2.2380 0.9382
2.7322 -6.4756 -0.9958 0.9720
-10.9142 5.1285 -1.9866 0.9523
-11.9113 3.1693 -2.0305 0.9513
-12.2810 2.1136 -2.0529 0.9507
-12.5563 1.0170 -2.0753 0.9502
-12.7649 -2.4288 -2.1406 0.9487
-12.6155 -3.5953 -2.1610 0.9482
-11.9763 -5.8869 -2.1984 0.9473
-11.4873 -6.9873 -2.2150 0.9470
-10.8884 -8.0409 -2.2298 0.9466
-10.1838 -9.0352 -2.2428 0.9463
-6.4505 -12.1920 -2.2723 0.9456
-5.3366 -12.7276 -2.2736 0.9456
0.6947 -13.5981 -2.2431 0.9463
0.9977 -7.0461 -1.1723 0.9716
4.1972 -12.6704 -2.1989 0.9473
2.7546 -6.3466 -1.1398 0.9723
4.9584 -7.4260 -1.4710 0.9644
8.0747 -10.0193 -2.1199 0.9492
8.8470 -9.1612 -2.0981 0.9497
10.2128 -4.8629 -1.8634 0.9552
10.4920 -3.8868 -1.8432 0.9557
11.5163 -3.1273 -1.9659 0.9528
9.4618 5.6892 -1.8188 0.9562
8.8658 6.4774 -1.8088 0.9565
7.6966 6.7584 -1.6874 0.9593
6.2332 7.8518 -1.6515 0.9602
5.4933 8.3595 -1.6479 0.9603
3.9078 9.1878 -1.6448 0.9603
-2.2751 9.9334 -1.6788 0.9595
-4.0620 9.4914 -1.7008 0.9590
-5.7791 8.7517 -1.7277 0.9584
-7.9874 8.3562 -1.9043 0.9542
-8.7884 7.6824 -1.9230 0.9538
-10.2257 6.1174 -1.9630 0.9528
-10.8478 5.2335 -1.9842 0.9523
-11.3959 4.2880 -2.0059 0.9518
-12.2434 2.2363 -2.0503 0.9508
-12.5298 1.1440 -2.0727 0.9503
-12.7170 0.0183 -2.0950 0.9498
-12.8001 -1.1316 -2.1169 0.9492
-12.6382 -3.4624 -2.1587 0.9483
-12.0250 -5.7589 -2.1964 0.9474
-11.5487 -6.8639 -2.2132 0.9470
-10.9622 -7.9234 -2.2282 0.9466
-8.5897 -10.7073 -2.2614 0.9459
-7.6189 -11.4661 -2.2679 0.9457
-6.5740 -12.1237 -2.2720 0.9456
-5.4664 -12.6722 -2.2736 0.9456
-4.3086 -13.1051 -2.2726 0.9456
-3.1138 -13.4177 -2.2692 0.9457
1.7619 -13.4321 -2.2318 0.9466
4.0710 -12.7240 -2.2008 0.9473
3.2519 -6.1131 -1.1407 0.9723
7.1141 -10.8943 -2.1435 0.9486
7.9811 -10.1131 -2.1223 0.9491
-9.5720 4.4978 -1.9879 0.9579
-10.4181 2.7720 -2.0263 0.9571
-10.7267 1.8461 -2.0458 0.9567
-10.9521 0.8871 -2.0653 0.9563
-11.1368 -1.0995 -2.1035 0.9555
-11.0894 -2.1100 -2.1218 0.9551
-10.9459 -3.1195 -2.1393 0.9547
-10.7052 -4.1183 -2.1559 0.9544
-8.7920 -7.8004 -2.2092 0.9533
-6.4676 -9.9528 -2.2310 0.9528
-2.5649 -11.5898 -2.2311 0.9528
-1.5138 -11.7451 -2.2259 0.9529
0.9807 -6.9262 -1.3148 0.9719
6.2697 -9.3899 -2.1222 0.9551
9.5875 -3.5517 -1.9218 0.9592
10.2234 -1.8134 -1.9516 0.9586
10.2523 -0.8832 -1.9342 0.9590
10.2018 0.0375 -1.9175 0.9593
10.0741 0.9426 -1.9018 0.9597
9.2574 3.5071 -1.8607 0.9605
7.8620 5.7440 -1.8301 0.9611
7.2751 6.3883 -1.8198 0.9614
6.1885 6.5033 -1.6874 0.9641
4.8790 7.4247 -1.6699 0.9645
3.4715 8.1620 -1.6671 0.9645
1.9636 8.6626 -1.6695 0.9645
1.1827 8.8200 -1.6727 0.9644
-0.4110 8.9430 -1.6827 0.9642
-0.8050 5.9029 -1.1198 0.9760
-2.0165 8.8041 -1.6977 0.9639
-3.5948 8.3998 -1.7173 0.9635
-4.3611 8.0982 -1.7288 0.9633
-5.1051 7.7311 -1.7414 0.9630
-7.0410 7.3661 -1.9153 0.9594
-8.3869 6.0988 -1.9491 0.9587
-8.9813 5.3729 -1.9672 0.9583
-9.9826 3.7562 -2.0048 0.9575
-10.3779 2.8753 -2.0241 0.9571
-10.6955 1.9536 -2.0436 0.9567
-10.9307 0.9980 -2.0631 0.9563
-11.1361 -0.9845 -2.1013 0.9555
-10.9672 -3.0046 -2.1374 0.9548
-9.4724 -6.8466 -2.1968 0.9535
-8.1762 -8.5047 -2.2175 0.9531
-5.6655 -10.4482 -2.2340 0.9528
-4.7105 -10.9198 -2.2353 0.9527
-3.7130 -11.2935 -2.2345 0.9528
-0.5760 -11.7945 -2.2195 0.9531
0.9122 -6.9540 -1.3183 0.9719
2.5401 -11.3568 -2.1874 0.9537
3.5236 -11.0132 -2.1734 0.9540
4.4635 -10.5787 -2.1581 0.9543
-9.2489 2.4609 -2.0230 0.9616
-9.5125 1.6371 -2.0403 0.9613
-9.8137 -0.0863 -2.0745 0.9607
-7.7270 -6.8555 -2.1835 0.9586
-7.1084 -7.5470 -2.1915 0.9585
-6.4230 -8.1765 -2.1978 0.9584
-3.1569 -9.9437 -2.2053 0.9582
-2.2515 -10.1736 -2.2025 0.9583
-0.3998 -10.3607 -2.1917 0.9585
0.5271 -10.3173 -2.1837 0.9586
0.9774 -6.9028 -1.4737 0.9719
2.3357 -9.9636 -2.1632 0.9590
2.8389 -6.5408 -1.5072 0.9713
3.3032 -6.0593 -1.4588 0.9722
3.8665 -5.7906 -1.4718 0.9719
5.7592 -7.1462 -1.9401 0.9632
6.3251 -6.5497 -1.9247 0.9635
7.4480 -4.4041 -1.8290 0.9652
8.8250 -3.2692 -1.9893 0.9623
9.0063 -2.4457 -1.9727 0.9626
9.1484 -0.7881 -1.9409 0.9632
9.1117 0.0335 -1.9260 0.9634
8.8322 1.6337 -1.8986 0.9639
8.2945 3.1423 -1.8749 0.9644
7.0563 5.1554 -1.8472 0.9649
6.5420 5.7446 -1.8403 0.9650
5.9688 6.2724 -1.8302 0.9652
3.7657 7.0302 -1.6858 0.9679
3.1202 7.3360 -1.6851 0.9679
2.4518 7.5881 -1.6856 0.9679
-0.3691 8.0304 -1.6992 0.9677
-0.8029 5.8875 -1.2560 0.9760
-4.8433 7.3346 -1.8579 0.9647
-5.6340 7.0645 -1.9100 0.9637
-6.9058 6.0367 -1.9388 0.9632
-7.9995 4.7856 -1.9704 0.9626
-9.2143 2.5529 -2.0211 0.9617
-9.4861 1.7327 -2.0383 0.9613
-9.8050 0.0141 -2.0726 0.9607
-9.8454 -0.8704 -2.0892 0.9604
-9.8032 -1.7615 -2.1054 0.9601
-9.6768 -2.6511 -2.1209 0.9598
-8.3306 -6.0213 -2.1727 0.9588
-7.7931 -6.7729 -2.1825 0.9587
-7.1826 -7.4711 -2.1907 0.9585
-6.5045 -8.1080 -2.1972 0.9584
-5.7653 -8.6765 -2.2020 0.9583
-4.9724 -9.1701 -2.2050 0.9582
-3.2587 -9.9117 -2.2055 0.9582
-2.3559 -10.1519 -2.2029 0.9583
0.4217 -10.3268 -2.1847 0.9586
3.1029 -9.6982 -2.1524 0.9592
-7.6623 3.6005 -1.9897 0.9658
-8.3076 2.2104 -2.0204 0.9653
-8.5370 1.4692 -2.0359 0.9650
-8.8127 -0.8700 -2.0813 0.9643
-8.7593 -1.6666 -2.0956 0.9640
-8.6309 -2.4598 -2.1092 0.9638
-8.4273 -3.2420 -2.1221 0.9636
-8.1490 -4.0056 -2.1341 0.9634
-7.3751 -5.4464 -2.1547 0.9630
-6.8850 -6.1084 -2.1632 0.9629
-5.0539 -7.7774 -2.1799 0.9626
-4.3425 -8.2077 -2.1823 0.9626
-3.5919 -8.5667 -2.1832 0.9625
-2.0042 -9.0564 -2.1800 0.9626
-0.3561 -9.2280 -2.1704 0.9628
0.4696 -9.1930 -2.1634 0.9629
0.9741 -6.8794 -1.6329 0.9719
1.9325 -8.2434 -1.9899 0.9658
5.1553 -6.3969 -1.9309 0.9668
6.1237 -5.2980 -1.9031 0.9673
6.5239 -4.6932 -1.8888 0.9675
6.8652 -4.0595 -1.8745 0.9678
8.1102 -2.2024 -1.9751 0.9661
8.2514 -0.7108 -1.9464 0.9665
8.2245 0.0302 -1.9330 0.9668
8.1345 0.7611 -1.9201 0.9670
5.9307 5.2078 -1.8550 0.9681
4.8690 6.1334 -1.8405 0.9683
0.9639 7.1882 -1.7045 0.9706
0.3174 7.2611 -1.7082 0.9706
-0.8008 5.8720 -1.3928 0.9759
-1.6389 7.1554 -1.7252 0.9703
-2.9153 6.8121 -1.7414 0.9700
-3.5323 6.5592 -1.7509 0.9699
-5.0895 6.3818 -1.9184 0.9670
-5.6776 5.9398 -1.9311 0.9668
-6.7399 4.9011 -1.9586 0.9663
-7.2045 4.3099 -1.9731 0.9661
-7.6185 3.6755 -1.9880 0.9658
-7.9775 3.0018 -2.0032 0.9656
-8.5141 1.5552 -2.0341 0.9651
-8.6844 0.7929 -2.0495 0.9648
-8.8140 -0.7792 -2.0796 0.9643
-8.6494 -2.3696 -2.1077 0.9638
-8.1846 -3.9196 -2.1328 0.9634
-7.8413 -4.6604 -2.1438 0.9632
-6.9443 -6.0352 -2.1623 0.9629
-4.4258 -8.1621 -2.1821 0.9626
-3.6794 -8.5294 -2.1832 0.9626
-2.9005 -8.8220 -2.1826 0.9626
-0.4506 -9.2269 -2.1711 0.9628
0.9041 -6.8929 -1.6339 0.9718
2.5686 -8.0281 -1.9810 0.9660
3.0438 -7.2141 -1.8402 0.9683
3.6285 -5.5566 -1.5597 0.9731
3.9520 -5.0077 -1.4993 0.9741
-7.5328 2.0043 -2.0182 0.9683
-7.7352 1.3313 -2.0322 0.9681
-7.8769 0.6380 -2.0461 0.9679
-7.9552 -0.0700 -2.0598 0.9677
-7.9149 -1.5060 -2.0861 0.9673
-7.7940 -2.2213 -2.0984 0.9671
-7.3505 -3.6131 -2.1207 0.9667
-6.6461 -4.9080 -2.1392 0.9664
-6.2020 -5.5025 -2.1467 0.9663
-5.7014 -6.0532 -2.1530 0.9662
-5.1487 -6.5543 -2.1580 0.9661
-4.5491 -7.0005 -2.1616 0.9661
-3.9083 -7.3870 -2.1638 0.9661
-1.0655 -8.2668 -2.1581 0.9661
-0.3207 -8.3098 -2.1532 0.9662
0.4230 -8.2809 -2.1469 0.9663
0.9701 -6.8515 -1.7917 0.9718
1.7422 -7.4317 -1.9764 0.9690
2.3893 -7.2128 -1.9673 0.9691
2.4889 -5.7343 -1.6185 0.9745
3.7007 -5.5424 -1.7255 0.9728
5.1271 -5.3092 -1.9110 0.9700
7.3692 -2.0012 -1.9771 0.9689
7.4101 0.6933 -1.9270 0.9697
7.2765 1.3459 -1.9160 0.9699
7.0885 1.9810 -1.9057 0.9700
6.8485 2.5945 -1.8962 0.9702
6.5589 3.1824 -1.8876 0.9703
5.4190 4.7585 -1.8672 0.9706
4.4633 5.6223 -1.8587 0.9708
2.0339 6.2947 -1.7128 0.9730
1.4636 6.4567 -1.7142 0.9730
-0.3057 6.6524 -1.7242 0.9729
-0.7987 5.8565 -1.5304 0.9759
-3.4557 6.4169 -1.8870 0.9703
-4.0745 6.1703 -1.9145 0.9699
-4.6367 5.8139 -1.9254 0.9697
-5.6682 4.9548 -1.9493 0.9694
-6.1288 4.4567 -1.9620 0.9692
-6.9183 3.3377 -1.9888 0.9688
-7.7151 1.4092 -2.0306 0.9681
-7.8639 0.7180 -2.0446 0.9679
-7.9702 -0.7046 -2.0717 0.9675
-7.6305 -2.8462 -2.1086 0.9669
-7.3829 -3.5357 -2.1195 0.9667
-7.0697 -4.2018 -2.1294 0.9666
-5.2143 -6.4998 -2.1575 0.9662
-4.6197 -6.9525 -2.1613 0.9661
-3.9833 -7.3460 -2.1636 0.9661
-0.4058 -8.3085 -2.1538 0.9662
2.3167 -7.2409 -1.9684 0.9691
2.4238 -5.7446 -1.6144 0.9746
2.7472 -5.1644 -1.5146 0.9761
4.6053 -5.8355 -1.9247 0.9698
-6.6494 2.4247 -2.0036 0.9710
-7.2643 -0.7172 -2.0665 0.9701
-7.0977 -2.0228 -2.0893 0.9698
-6.6874 -3.2872 -2.1095 0.9695
-6.0418 -4.4618 -2.1262 0.9693
-4.6768 -5.9536 -2.1433 0.9690
-4.1315 -6.3579 -2.1465 0.9690
-3.5492 -6.7083 -2.1485 0.9689
-2.9356 -7.0012 -2.1492 0.9689
-0.9679 -7.5091 -2.1434 0.9690
-0.2914 -7.5498 -2.1389 0.9691
0.3566 -6.9806 -1.9787 0.9714
0.9634 -6.8040 -1.9454 0.9718
1.5844 -6.7585 -1.9652 0.9716
2.4878 -5.7319 -1.7689 0.9744
4.2494 -5.2728 -1.9171 0.9722
4.6766 -4.8427 -1.9058 0.9724
6.1320 -3.6259 -2.0167 0.9708
6.8402 -1.2133 -1.9666 0.9715
6.8799 -0.5927 -1.9549 0.9717
6.8654 0.0253 -1.9436 0.9719
6.6782 1.2353 -1.9226 0.9722
4.9839 4.3764 -1.8777 0.9728
2.4917 5.8585 -1.8023 0.9739
0.8107 6.0457 -1.7268 0.9750
0.2669 6.1050 -1.7299 0.9749
-1.9148 5.8811 -1.7509 0.9746
-3.1986 5.9395 -1.9097 0.9723
-4.2538 5.3338 -1.9313 0.9720
-4.7401 4.9590 -1.9420 0.9719
-5.1948 4.5410 -1.9533 0.9717
-5.6138 4.0822 -1.9650 0.9716
-5.9933 3.5854 -1.9771 0.9714
-7.0462 1.2870 -2.0277 0.9707
-6.9458 -2.5908 -2.0986 0.9697
-6.7173 -3.2170 -2.1084 0.9695
-6.4296 -3.8214 -2.1174 0.9694
-6.0847 -4.3980 -2.1254 0.9693
-5.2345 -5.4448 -2.1382 0.9691
-4.1958 -6.3144 -2.1462 0.9690
-3.6174 -6.6712 -2.1483 0.9689
-2.3706 -7.2103 -2.1487 0.9689
-1.0448 -7.5003 -2.1438 0.9690
-0.3687 -7.5484 -2.1395 0.9691
0.3076 -7.5316 -2.1339 0.9691
1.5158 -6.7774 -1.9660 0.9715
2.1076 -6.5873 -1.9579 0.9717
3.5891 -5.4962 -1.8583 0.9731
-5.8599 2.7535 -1.9915 0.9733
-6.1184 2.2311 -2.0031 0.9731
-6.3304 1.6844 -2.0149 0.9730
-6.6635 -0.0586 -2.0496 0.9725
-6.6675 -0.6583 -2.0608 0.9724
-6.6161 -1.2588 -2.0715 0.9722
-6.5087 -1.8550 -2.0817 0.9721
-6.1276 -3.0120 -2.1001 0.9718
-5.8558 -3.5619 -2.1082 0.9717
-5.5324 -4.0856 -2.1153 0.9716
-4.7408 -5.0333 -2.1267 0.9715
-4.2796 -5.4479 -2.1308 0.9714
-2.6856 -6.4050 -2.1362 0.9714
-0.8856 -6.8712 -2.1309 0.9714
-0.2666 -6.9097 -2.1269 0.9715
0.3265 -6.3902 -1.9681 0.9736
0.8944 -6.3169 -1.9623 0.9737
1.9918 -6.0127 -1.9482 0.9738
2.4619 -5.6723 -1.9019 0.9745
3.0052 -5.5126 -1.9311 0.9741
3.4694 -5.1960 -1.9217 0.9742
3.9003 -4.8396 -1.9118 0.9743
4.9979 -4.3240 -2.0327 0.9727
5.3494 -3.8483 -2.0269 0.9728
5.8808 -2.8002 -2.0034 0.9731
6.2132 -1.6872 -1.9802 0.9734
6.3429 -0.5464 -1.9582 0.9737
6.3324 0.0233 -1.9477 0.9738
6.2726 0.5869 -1.9378 0.9740
6.1649 1.1403 -1.9284 0.9741
6.0106 1.6798 -1.9196 0.9742
5.8115 2.2016 -1.9115 0.9743
4.9659 3.6281 -1.8916 0.9746
4.6091 4.0473 -1.8866 0.9747
3.7988 4.7853 -1.8793 0.9748
3.3511 5.0997 -1.8769 0.9748
2.8791 5.3750 -1.8755 0.9748
2.3813 5.5989 -1.8714 0.9749
1.8553 5.7417 -1.8559 0.9751
1.2833 5.6614 -1.7855 0.9760
0.7521 5.6089 -1.7406 0.9766
-1.3060 5.7023 -1.7993 0.9758
-2.9573 5.4915 -1.9184 0.9742
-4.7896 4.1868 -1.9567 0.9737
-5.1735 3.7621 -1.9675 0.9736
-6.4773 1.1831 -2.0253 0.9728
-6.5949 0.6021 -2.0369 0.9727
-6.6596 0.0096 -2.0484 0.9725
-6.5238 -1.7873 -2.0805 0.9721
-6.3671 -2.3749 -2.0902 0.9720
-6.1552 -2.9478 -2.0991 0.9718
-5.5718 -4.0273 -2.1146 0.9716
-5.2046 -4.5233 -2.1209 0.9716
-4.7909 -4.9833 -2.1262 0.9715
-3.8389 -5.7774 -2.1335 0.9714
-2.7510 -6.3772 -2.1362 0.9714
-2.1687 -6.5964 -2.1358 0.9714
-1.5685 -6.7589 -2.1341 0.9714
2.3976 -5.6824 -1.8970 0.9745
2.7414 -5.1536 -1.7954 0.9759
3.4181 -5.2342 -1.9228 0.9742
3.8529 -4.8822 -1.9129 0.9743
-5.6602 2.0640 -2.0027 0.9749
-5.8537 1.5575 -2.0135 0.9748
-6.1023 0.4943 -2.0351 0.9745
-6.1538 -0.0541 -2.0456 0.9744
-6.1549 -0.6076 -2.0559 0.9743
-6.1049 -1.1616 -2.0657 0.9741
-6.0036 -1.7110 -2.0751 0.9740
-5.8511 -2.2509 -2.0839 0.9739
-5.6482 -2.7763 -2.0920 0.9738
-5.0966 -3.7638 -2.1060 0.9736
-3.9402 -5.0159 -2.1202 0.9735
-2.9891 -5.6496 -2.1246 0.9734
-2.4721 -5.8960 -2.1252 0.9734
-1.9341 -6.0920 -2.1246 0.9734
-0.8154 -6.3264 -2.1203 0.9735
-0.2455 -6.3627 -2.1166 0.9735
0.3070 -6.0102 -2.0004 0.9750
1.3373 -5.7044 -1.9476 0.9756
2.3155 -5.3349 -1.9332 0.9758
2.7719 -5.0847 -1.9250 0.9759
3.6821 -4.5688 -1.9505 0.9756
4.2755 -4.4273 -2.0459 0.9744
4.9443 -3.5569 -2.0246 0.9747
5.2147 -3.0835 -2.0138 0.9748
5.4403 -2.5904 -2.0029 0.9749
5.6198 -2.0819 -1.9921 0.9751
5.7527 -1.5622 -1.9815 0.9752
5.8702 0.0216 -1.9513 0.9756
5.7191 1.0579 -1.9333 0.9758
5.1716 2.5093 -1.9107 0.9761
4.9103 2.9525 -1.9045 0.9761
4.6132 3.3704 -1.8991 0.9762
3.5307 4.4475 -1.8876 0.9763
3.1148 4.7401 -1.8854 0.9764
1.7408 5.3874 -1.8820 0.9764
-0.2560 5.5699 -1.8534 0.9768
-3.2030 4.8505 -1.9322 0.9758
-3.6405 4.5648 -1.9408 0.9757
-4.4386 3.8800 -1.9596 0.9755
-5.8339 1.6163 -2.0123 0.9748
-5.9872 1.0936 -2.0231 0.9747
-6.0933 0.5563 -2.0339 0.9745
-6.1504 0.0088 -2.0444 0.9744
-6.1573 -0.5443 -2.0547 0.9743
-6.0178 -1.6487 -2.0740 0.9740
-5.8711 -2.1899 -2.0829 0.9739
-3.9906 -4.9745 -2.1199 0.9735
-3.5342 -5.3187 -2.1227 0.9734
-3.0465 -5.6184 -2.1245 0.9734
-2.5323 -5.8704 -2.1252 0.9734
-1.9964 -6.0723 -2.1247 0.9734
-1.4439 -6.2222 -2.1232 0.9734
-0.8802 -6.3188 -2.1207 0.9735
-0.3107 -6.3613 -2.1171 0.9735
1.7799 -5.5631 -1.9415 0.9757
2.2619 -5.3608 -1.9341 0.9758
3.1538 -4.8296 -1.9174 0.9760
3.6163 -4.5823 -1.9404 0.9757
-5.0421 2.3693 -1.9922 0.9766
-5.2602 1.9181 -2.0023 0.9765
-5.4380 1.4469 -2.0123 0.9764
-5.5734 0.9592 -2.0224 0.9763
-5.6647 0.4588 -2.0324 0.9761
-5.7093 -0.5636 -2.0516 0.9759
-5.5652 -1.5860 -2.0694 0.9757
-5.2326 -2.5721 -2.0850 0.9755
-4.9977 -3.0400 -2.0919 0.9755
-4.3995 -3.9032 -2.1032 0.9753
-2.7660 -5.2279 -2.1151 0.9752
1.7008 -5.1344 -1.9342 0.9773
2.5947 -4.7596 -1.9386 0.9772
3.9673 -4.1082 -2.0424 0.9760
4.2985 -3.7189 -2.0326 0.9761
5.2247 -1.9355 -1.9925 0.9766
5.3503 -1.4529 -1.9826 0.9767
5.4322 -0.9635 -1.9729 0.9768
5.4654 0.0201 -1.9545 0.9771
5.4176 0.5069 -1.9458 0.9772
5.3281 0.9855 -1.9377 0.9772
5.1980 1.4527 -1.9301 0.9773
5.0286 1.9050 -1.9230 0.9774
4.8218 2.3396 -1.9166 0.9775
4.5792 2.7534 -1.9108 0.9776
4.3030 3.1438 -1.9057 0.9776
3.9952 3.5082 -1.9013 0.9777
2.9068 4.4235 -1.8928 0.9778
2.4976 4.6628 -1.8916 0.9778
1.6263 5.0330 -1.8915 0.9778
1.1700 5.1615 -1.8926 0.9778
-0.2436 5.3013 -1.8978 0.9777
-0.7191 5.2727 -1.9030 0.9776
-1.1924 5.2063 -1.9100 0.9776
-2.1147 4.9413 -1.9221 0.9774
-4.1312 3.6113 -1.9622 0.9770
-4.7544 2.8443 -1.9812 0.9767
-5.0147 2.4193 -1.9911 0.9766
-5.2373 1.9707 -2.0011 0.9765
-5.4199 1.5016 -2.0112 0.9764
-5.7074 0.0082 -2.0410 0.9760
-5.4408 -2.0294 -2.0766 0.9756
-5.2565 -2.5174 -2.0842 0.9755
-4.4380 -3.8570 -2.1027 0.9753
-3.6934 -4.6039 -2.1107 0.9752
-2.8192 -5.1990 -2.1150 0.9752
-2.3433 -5.4321 -2.1156 0.9752
-1.3362 -5.7580 -2.1138 0.9752
-0.8147 -5.8480 -2.1115 0.9752
0.2400 -5.8783 -2.1039 0.9753
0.7081 -5.3987 -1.9471 0.9771
1.1848 -5.2975 -1.9412 0.9772
1.6489 -5.1536 -1.9350 0.9773
2.5378 -4.7708 -1.9324 0.9773
3.0492 -4.6694 -1.9943 0.9766
3.5563 -4.5064 -2.0529 0.9759
-4.7059 2.2113 -1.9926 0.9780
-4.9078 1.7896 -2.0019 0.9779
-5.0720 1.3495 -2.0113 0.9778
-5.1966 0.8944 -2.0207 0.9777
-5.1807 -1.4765 -2.0644 0.9772
-5.0462 -1.9413 -2.0719 0.9771
-4.0909 -3.6295 -2.0958 0.9768
-3.7569 -3.9887 -2.0998 0.9768
-3.3901 -4.3155 -2.1030 0.9768
-2.9935 -4.6067 -2.1054 0.9767
-1.1871 -5.3642 -2.1054 0.9767
1.1903 -5.0775 -1.9985 0.9779
2.5787 -4.7303 -2.0646 0.9772
2.9800 -4.4631 -2.0565 0.9773
3.3536 -4.1613 -2.0481 0.9774
4.2809 -3.0796 -2.0209 0.9777
5.0732 -0.8999 -1.9745 0.9782
5.1074 0.0188 -1.9573 0.9784
5.0642 0.4738 -1.9492 0.9784
4.8615 1.3586 -1.9344 0.9786
4.2856 2.5768 -1.9163 0.9788
3.7402 3.2843 -1.9075 0.9789
2.7220 4.1423 -1.8995 0.9790
2.3389 4.3666 -1.8983 0.9790
1.9383 4.5573 -1.8978 0.9790
1.5230 4.7133 -1.8982 0.9790
1.0956 4.8334 -1.8993 0.9790
0.2170 4.9628 -1.9037 0.9789
-0.2285 4.9709 -1.9069 0.9789
-0.6738 4.9408 -1.9109 0.9789
-2.7903 4.2256 -1.9405 0.9785
-4.1645 3.0284 -1.9733 0.9782
-4.4390 2.6556 -1.9823 0.9781
-4.6805 2.2581 -1.9915 0.9780
-5.2790 -0.9486 -2.0554 0.9773
-5.1933 -1.4228 -2.0635 0.9772
-5.0637 -1.8888 -2.0711 0.9771
-4.6761 -2.7792 -2.0846 0.9770
-4.1268 -3.5866 -2.0953 0.9769
-3.0402 -4.5753 -2.1051 0.9767
-2.6204 -4.8325 -2.1066 0.9767
-1.7171 -5.2228 -2.1069 0.9767
-1.2421 -5.3523 -2.1056 0.9767
-0.7573 -5.4363 -2.1034 0.9768
-0.2674 -5.4742 -2.1003 0.9768
0.2232 -5.4659 -2.0964 0.9768
0.7034 -5.3627 -2.0727 0.9771
1.1403 -5.0986 -2.0021 0.9779
2.0422 -4.8400 -2.0131 0.9777
2.5250 -4.7467 -2.0604 0.9772
3.3125 -4.1974 -2.0491 0.9774
-4.4069 2.0708 -1.9928 0.9792
-4.5947 1.6754 -2.0016 0.9791
-2.0136 0.1631 -0.8268 0.9913
-1.9925 -0.0175 -0.8155 0.9914
-2.0171 -0.1991 -0.8296 0.9913
-2.0678 -0.3934 -0.8615 0.9909
-4.5467 -2.2349 -2.0735 0.9783
-4.3408 -2.6404 -2.0794 0.9783
-4.0974 -3.0258 -2.0847 0.9782
-3.8184 -3.3877 -2.0892 0.9782
-1.9839 -4.7316 -2.0999 0.9781
-0.6547 -5.0793 -2.0960 0.9781
0.2605 -5.0982 -2.0893 0.9782
0.7141 -5.0435 -2.0848 0.9782
1.1597 -4.9470 -2.0796 0.9783
2.0110 -4.6332 -2.0672 0.9784
2.4093 -4.4196 -2.0601 0.9785
2.7850 -4.1710 -2.0527 0.9786
3.4566 -3.5794 -2.0365 0.9787
3.7474 -3.2421 -2.0280 0.9788
4.0053 -2.8814 -2.0194 0.9789
4.5665 -1.6916 -1.9931 0.9792
4.6791 -1.2706 -1.9844 0.9793
4.7537 -0.8432 -1.9759 0.9793
4.7491 0.4443 -1.9522 0.9796
4.5611 1.2747 -1.9383 0.9797
4.0231 2.4190 -1.9213 0.9799
3.5121 3.0840 -1.9129 0.9800
3.2166 3.3803 -1.9097 0.9800
2.5567 3.8907 -1.9054 0.9801
2.1969 4.1015 -1.9043 0.9801
1.4305 4.4272 -1.9042 0.9801
1.0291 4.5399 -1.9052 0.9801
-1.4566 4.4738 -1.9256 0.9799
-1.8566 4.3381 -1.9312 0.9798
-2.6174 3.9637 -1.9440 0.9797
-4.1584 2.4877 -1.9832 0.9793
-4.3833 2.1147 -1.9919 0.9792
-4.7314 1.3109 -2.0094 0.9790
-2.0158 0.1840 -0.8284 0.9913
-1.9903 0.0029 -0.8146 0.9914
-4.8524 -1.3294 -2.0591 0.9785
-4.5678 -2.1875 -2.0728 0.9783
-3.8520 -3.3477 -2.0887 0.9782
-3.5435 -3.6858 -2.0926 0.9781
-3.2041 -3.9940 -2.0957 0.9781
-2.8369 -4.2693 -2.0979 0.9781
-2.0322 -4.7110 -2.0999 0.9781
-1.6022 -4.8733 -2.0995 0.9781
-0.7067 -5.0730 -2.0963 0.9781
-0.2495 -5.1089 -2.0934 0.9781
0.2083 -5.1018 -2.0898 0.9782
1.9642 -4.6553 -2.0679 0.9784
2.3649 -4.4458 -2.0610 0.9785
-1.4644 0.1186 -0.6403 0.9936
-1.4288 -0.0126 -0.6227 0.9938
-1.4690 -0.1450 -0.6433 0.9936
-1.4936 -0.4257 -0.6769 0.9932
-4.2599 -2.0939 -2.0687 0.9795
-4.0662 -2.4733 -2.0742 0.9794
-3.8376 -2.8340 -2.0791 0.9794
-3.5758 -3.1725 -2.0833 0.9794
-3.2831 -3.4857 -2.0869 0.9793
-2.2458 -4.2447 -2.0929 0.9793
-1.0371 -4.6861 -2.0917 0.9793
0.2439 -4.7743 -2.0834 0.9794
1.0863 -4.6340 -2.0743 0.9794
1.4927 -4.5062 -2.0688 0.9795
1.8845 -4.3418 -2.0628 0.9796
2.9398 -3.6478 -2.0418 0.9798
3.5159 -3.0418 -2.0261 0.9799
4.1465 -1.9744 -2.0015 0.9802
4.4659 0.4178 -1.9548 0.9806
4.3954 0.8130 -1.9481 0.9807
4.1539 1.5736 -1.9359 0.9808
3.7868 2.2769 -1.9257 0.9809
3.5600 2.6010 -1.9215 0.9809
2.7284 3.4369 -1.9125 0.9810
2.0690 3.8626 -1.9097 0.9811
0.9691 4.2754 -1.9106 0.9811
0.5831 4.3486 -1.9122 0.9810
-0.2020 4.3949 -1.9174 0.9810
-2.1116 3.9211 -1.9409 0.9808
-2.7953 3.5051 -1.9539 0.9806
-3.1091 3.2526 -1.9610 0.9806
-3.6672 2.6667 -1.9761 0.9804
-1.5157 0.5703 -0.7058 0.9930
-1.4673 0.1340 -0.6421 0.9936
-1.4238 0.0020 -0.6205 0.9938
-1.4665 -0.1296 -0.6416 0.9936
-1.4704 -0.2642 -0.6511 0.9935
-1.4933 -0.4091 -0.6748 0.9933
-1.5069 -0.5621 -0.7009 0.9930
-4.2797 -2.0496 -2.0680 0.9795
-3.8654 -2.7939 -2.0786 0.9794
-3.6073 -3.1351 -2.0829 0.9794
-3.3180 -3.4513 -2.0865 0.9793
-2.2890 -4.2213 -2.0928 0.9793
-1.9025 -4.4103 -2.0933 0.9793
0.6206 -4.7315 -2.0797 0.9794
1.0392 -4.6462 -2.0749 0.9794
1.8406 -4.3623 -2.0635 0.9796
2.2166 -4.1669 -2.0570 0.9796
2.5719 -3.9384 -2.0500 0.9797
-1.2661 0.5949 -0.6475 0.9939
-1.2615 0.4600 -0.6215 0.9941
-1.2706 0.3381 -0.6086 0.9942
-1.2705 -0.3621 -0.6115 0.9942
-1.2571 -0.4836 -0.6235 0.9941
-4.0024 -1.9674 -2.0644 0.9805
-3.8198 -2.3235 -2.0695 0.9805
-3.6045 -2.6619 -2.0741 0.9804
-3.3582 -2.9795 -2.0781 0.9804
-1.7438 -4.1588 -2.0874 0.9803
-0.9737 -4.3999 -2.0859 0.9803
-0.1734 -4.4934 -2.0815 0.9804
1.4025 -4.2338 -2.0645 0.9805
1.7709 -4.0800 -2.0588 0.9806
2.1225 -3.8935 -2.0526 0.9806
3.0493 -3.1576 -2.0319 0.9808
3.7360 -2.2091 -2.0090 0.9811
3.9035 -1.8587 -2.0013 0.9811
4.0385 -1.4961 -1.9935 0.9812
4.2083 -0.7464 -1.9784 0.9813
4.2429 0.0156 -1.9640 0.9815
4.0466 1.1309 -1.9449 0.9817
2.8586 3.0040 -1.9195 0.9819
2.5752 3.2440 -1.9172 0.9819
2.2726 3.4585 -1.9156 0.9819
1.2717 3.9357 -1.9145 0.9819
0.5504 4.1046 -1.9169 0.9819
-0.5620 4.1211 -1.9252 0.9818
-0.9305 4.0625 -1.9292 0.9818
-1.6478 3.8504 -1.9386 0.9817
-1.9914 3.6978 -1.9441 0.9817
-2.9303 3.0656 -1.9630 0.9815
-3.2043 2.8011 -1.9701 0.9814
-3.4549 2.5123 -1.9773 0.9813
-3.6797 2.2013 -1.9848 0.9813
-1.2749 0.6151 -0.6552 0.9938
-1.2590 0.4737 -0.6227 0.9941
-1.2706 0.3520 -0.6103 0.9942
-1.2736 0.1163 -0.5920 0.9944
-1.2586 0.0018 -0.5826 0.9945
-1.2721 -0.2286 -0.5982 0.9943
-1.2707 -0.3481 -0.6098 0.9942
-1.2597 -0.4699 -0.6224 0.9941
-3.6307 -2.6242 -2.0736 0.9804
-2.8169 -3.5114 -2.0837 0.9804
-1.7862 -4.1407 -2.0874 0.9803
-1.0188 -4.3901 -2.0861 0.9803
-0.6213 -4.4598 -2.0843 0.9803
0.1832 -4.4868 -2.0786 0.9804
0.5829 -4.4441 -2.0747 0.9804
0.9762 -4.3646 -2.0702 0.9805
2.4177 -3.7024 -2.0468 0.9807
-1.1215 0.4089 -0.5856 0.9947
-1.1328 0.3014 -0.5750 0.9948
-1.1416 0.1965 -0.5682 0.9949
-1.1353 -0.0100 -0.5569 0.9950
-1.1443 -0.1130 -0.5640 0.9949
-1.1394 -0.2168 -0.5689 0.9948
-1.1320 -0.3226 -0.5774 0.9948
-1.0858 -0.5337 -0.5935 0.9946
-3.3940 -2.5064 -2.0696 0.9814
-3.1618 -2.8052 -2.0734 0.9813
-2.6181 -3.3328 -2.0789 0.9813
-1.9847 -3.7513 -2.0817 0.9813
-1.6413 -3.9145 -2.0821 0.9813
-1.2842 -4.0450 -2.0818 0.9813
-0.5418 -4.2035 -2.0790 0.9813
-0.1632 -4.2301 -2.0765 0.9813
0.2157 -4.2215 -2.0734 0.9813
0.5915 -4.1778 -2.0697 0.9814
1.6682 -3.8435 -2.0552 0.9815
2.8747 -2.9768 -2.0299 0.9817
3.1187 -2.6982 -2.0228 0.9818
3.9733 -0.7048 -1.9794 0.9822
4.0064 -0.3451 -1.9725 0.9822
3.9773 0.3721 -1.9595 0.9824
3.9159 0.7243 -1.9534 0.9824
3.8242 1.0688 -1.9478 0.9825
3.5541 1.7245 -1.9377 0.9826
3.3779 2.0311 -1.9334 0.9826
2.4356 3.0681 -1.9215 0.9827
1.8473 3.4487 -1.9190 0.9827
1.5309 3.5995 -1.9187 0.9827
0.8652 3.8170 -1.9198 0.9827
0.5206 3.8821 -1.9213 0.9827
0.1712 3.9172 -1.9233 0.9827
-0.5314 3.8968 -1.9291 0.9826
-0.8797 3.8410 -1.9329 0.9826
-1.2226 3.7550 -1.9371 0.9826
-3.0261 2.6453 -1.9716 0.9823
-3.4736 2.0780 -1.9855 0.9821
-1.0880 0.5249 -0.5925 0.9946
-1.1324 0.3137 -0.5764 0.9948
-1.1404 0.2083 -0.5687 0.9948
-1.1408 -0.2050 -0.5685 0.9948
-1.0893 -0.5217 -0.5924 0.9946
-3.6185 -2.1506 -2.0648 0.9814
-3.4187 -2.4710 -2.0692 0.9814
-2.9333 -3.0512 -2.0761 0.9813
-2.3473 -3.5326 -2.0805 0.9813
-1.3256 -4.0318 -2.0818 0.9813
-0.2065 -4.2289 -2.0768 0.9813
0.5489 -4.1845 -2.0702 0.9814
0.9193 -4.1102 -2.0659 0.9814
1.2805 -4.0021 -2.0612 0.9815
1.6293 -3.8615 -2.0559 0.9815
1.9628 -3.6899 -2.0501 0.9816
2.2783 -3.4889 -2.0440 0.9816
-1.0198 0.2713 -0.5474 0.9953
-1.0306 -0.1961 -0.5443 0.9953
-1.0035 -0.3861 -0.5578 0.9952
-0.9729 -0.4782 -0.5624 0.9951
-0.9647 -0.5868 -0.5858 0.9949
-3.2029 -2.3653 -2.0655 0.9822
-2.4700 -3.1443 -2.0743 0.9821
-2.1804 -3.3554 -2.0759 0.9821
-1.8723 -3.5388 -2.0770 0.9821
-0.8647 -3.9071 -2.0760 0.9821
-0.5111 -3.9657 -2.0743 0.9821
0.5582 -3.9424 -2.0656 0.9822
0.9070 -3.8690 -2.0616 0.9823
1.2469 -3.7640 -2.0570 0.9823
3.1524 -2.2678 -2.0146 0.9827
3.3313 -1.9698 -2.0077 0.9827
3.4822 -1.6581 -2.0008 0.9828
3.6041 -1.3351 -1.9939 0.9828
3.6964 -1.0038 -1.9871 0.9829
3.7587 -0.6667 -1.9804 0.9829
3.7645 0.3522 -1.9615 0.9831
3.6208 1.0119 -1.9504 0.9832
3.0089 2.1983 -1.9332 0.9833
2.5613 2.6916 -1.9275 0.9834
2.3077 2.9070 -1.9255 0.9834
1.4507 3.4107 -1.9228 0.9834
0.1622 3.7114 -1.9272 0.9834
-0.5034 3.6914 -1.9327 0.9834
-0.8333 3.6381 -1.9363 0.9833
-1.1579 3.5563 -1.9403 0.9833
-1.7819 3.3089 -1.9497 0.9832
-2.3565 2.9548 -1.9607 0.9831
-1.0376 0.0947 -0.5405 0.9953
-1.0296 0.0015 -0.5341 0.9954
-1.0376 -0.0917 -0.5404 0.9953
-1.0319 -0.1854 -0.5439 0.9953
-1.0060 -0.3753 -0.5570 0.9952
-0.9772 -0.4680 -0.5621 0.9951
-0.9603 -0.5707 -0.5795 0.9950
-3.0098 -2.6158 -2.0687 0.9822
-1.9083 -3.5193 -2.0769 0.9821
-1.5860 -3.6767 -2.0773 0.9821
-1.2505 -3.8034 -2.0770 0.9821
-0.5517 -3.9607 -2.0745 0.9821
-0.1949 -3.9899 -2.0723 0.9822
0.5180 -3.9487 -2.0661 0.9822
0.8676 -3.8790 -2.0621 0.9822
1.2086 -3.7775 -2.0576 0.9823
1.8532 -3.4838 -2.0471 0.9824
2.4304 -3.0796 -2.0352 0.9825
-0.9255 0.2462 -0.5245 0.9956
-0.9426 0.1622 -0.5239 0.9956
-0.9420 -0.0083 -0.5159 0.9957
-0.9402 -0.1789 -0.5242 0.9956
-0.9239 -0.2633 -0.5262 0.9956
-0.9101 -0.3501 -0.5341 0.9956
-0.8907 -0.4378 -0.5436 0.9955
-0.8620 -0.5243 -0.5526 0.9954
-3.0282 -2.2363 -2.0618 0.9830
-2.8205 -2.5023 -2.0651 0.9830
-1.4635 -3.4903 -2.0729 0.9829
-1.1451 -3.6067 -2.0726 0.9829
-0.8173 -3.6931 -2.0717 0.9829
-0.4832 -3.7486 -2.0701 0.9829
-0.1456 -3.7728 -2.0679 0.9829
0.5278 -3.7274 -2.0619 0.9830
1.1791 -3.5595 -2.0538 0.9830
1.4895 -3.4318 -2.0490 0.9831
1.7861 -3.2764 -2.0438 0.9831
2.3286 -2.8894 -2.0325 0.9832
2.7893 -2.4132 -2.0201 0.9833
2.9846 -2.1471 -2.0137 0.9834
3.2980 -1.5703 -2.0006 0.9835
1.8852 -0.3344 -1.0486 0.9913
1.8884 -0.1627 -1.0381 0.9914
1.8730 0.0069 -1.0258 0.9915
3.3261 1.2601 -1.9481 0.9839
2.8548 2.0857 -1.9365 0.9840
2.6527 2.3293 -1.9335 0.9840
2.1900 2.7587 -1.9292 0.9841
1.3767 3.2370 -1.9266 0.9841
1.0817 3.3476 -1.9268 0.9841
0.7780 3.4324 -1.9276 0.9841
0.4681 3.4906 -1.9289 0.9841
-0.1620 3.5258 -1.9331 0.9840
-0.7905 3.4516 -1.9394 0.9840
-1.0984 3.3736 -1.9432 0.9839
-2.9243 2.1265 -1.9804 0.9836
-0.9113 0.3429 -0.5333 0.9956
-0.9413 0.1719 -0.5241 0.9956
-0.9474 0.0865 -0.5210 0.9957
-0.9474 -0.0837 -0.5209 0.9957
-0.9247 -0.2533 -0.5251 0.9956
-0.8934 -0.4278 -0.5425 0.9955
-0.8657 -0.5145 -0.5516 0.9954
-3.0503 -2.2048 -2.0614 0.9830
-2.8454 -2.4729 -2.0648 0.9830
-2.6163 -2.7214 -2.0676 0.9829
-2.3648 -2.9478 -2.0698 0.9829
-2.0932 -3.1501 -2.0715 0.9829
-0.8551 -3.6848 -2.0718 0.9829
-0.5215 -3.7438 -2.0703 0.9829
-0.1842 -3.7717 -2.0682 0.9829
0.1539 -3.7681 -2.0655 0.9829
0.4897 -3.7334 -2.0623 0.9830
0.8204 -3.6679 -2.0585 0.9830
1.1429 -3.5723 -2.0543 0.9830
1.7530 -3.2955 -2.0444 0.9831
2.2997 -2.9140 -2.0332 0.9832
-0.8587 0.3131 -0.5277 0.9958
-0.8690 0.2312 -0.5192 0.9959
-0.8821 0.0715 -0.5110 0.9959
-0.8786 -0.0077 -0.5073 0.9960
-0.8781 -0.1671 -0.5160 0.9959
-0.8559 -0.3293 -0.5295 0.9958
-0.8368 -0.4113 -0.5383 0.9957
-2.2107 -2.8142 -2.0662 0.9836
-1.9514 -3.0030 -2.0677 0.9836
-1.6755 -3.1669 -2.0686 0.9836
-1.3856 -3.3046 -2.0689 0.9836
-1.0842 -3.4149 -2.0686 0.9836
-0.4575 -3.5494 -2.0662 0.9836
-0.1379 -3.5726 -2.0642 0.9836
1.1170 -3.3718 -2.0508 0.9837
1.6924 -3.1044 -2.0414 0.9838
2.4363 -2.5228 -2.0249 0.9839
2.8301 -2.0359 -2.0128 0.9840
2.9917 -1.7690 -2.0067 0.9841
1.7007 -0.6300 -1.0471 0.9917
1.7289 -0.4695 -1.0343 0.9918
1.7270 0.0064 -0.9971 0.9921
1.7410 0.1629 -1.0095 0.9920
1.7366 0.3212 -1.0196 0.9919
1.7274 0.4828 -1.0355 0.9917
1.7055 0.6461 -1.0530 0.9916
3.0331 1.4717 -1.9464 0.9845
2.7125 1.9817 -1.9395 0.9846
2.5206 2.2133 -1.9367 0.9846
2.0812 2.6216 -1.9325 0.9847
1.8369 2.7954 -1.9312 0.9847
1.5787 2.9473 -1.9304 0.9847
1.3084 3.0763 -1.9301 0.9847
1.0280 3.1815 -1.9303 0.9847
0.4448 3.3172 -1.9323 0.9847
0.1463 3.3467 -1.9341 0.9846
-0.1540 3.3503 -1.9363 0.9846
-0.4538 3.3278 -1.9391 0.9846
-0.7511 3.2792 -1.9423 0.9846
-1.3288 3.1050 -1.9499 0.9845
-1.6050 2.9804 -1.9544 0.9845
-1.8699 2.8317 -1.9592 0.9844
-2.5760 2.2518 -1.9754 0.9843
-0.8571 0.3225 -0.5287 0.9958
-0.8673 0.2403 -0.5196 0.9959
-0.8787 0.1605 -0.5157 0.9959
-0.8822 0.0806 -0.5115 0.9959
-0.8778 0.0013 -0.5068 0.9960
-0.8822 -0.0780 -0.5113 0.9959
-0.8789 -0.1579 -0.5156 0.9959
-0.8014 -0.5793 -0.5709 0.9954
-2.6946 -2.3419 -2.0612 0.9836
-2.4774 -2.5770 -2.0638 0.9836
-2.2392 -2.7912 -2.0660 0.9836
-1.9819 -2.9826 -2.0675 0.9836
-0.4938 -3.5449 -2.0664 0.9836
-0.1744 -3.5715 -2.0644 0.9836
0.4638 -3.5357 -2.0588 0.9837
0.7770 -3.4740 -2.0553 0.9837
1.0827 -3.3839 -2.0513 0.9837
2.1796 -2.7618 -2.0313 0.9839
