ply
format ascii 1.0
element vertex 1288
property float32 x
property float32 y
property float32 z
property float32 I
end_header
11.7304 12.1416 2.9768 0.9337
9.4931 11.7764 2.6672 0.9404
7.8928 11.8201 2.5061 0.9439
6.2455 11.4587 2.3011 0.9484
4.9865 11.4944 2.2093 0.9504
1.6323 11.5686 2.0601 0.9537
0.5834 11.5525 2.0396 0.9541
-2.1998 9.8987 1.7880 0.9597
-5.1853 9.7727 1.9507 0.9561
-6.2658 9.6152 2.0236 0.9545
-7.4253 9.4254 2.1157 0.9524
-9.0717 9.6027 2.3293 0.9478
-12.9454 9.5262 2.8341 0.9368
-13.7363 -5.0524 2.5807 0.9423
-14.2083 -6.7267 2.7719 0.9381
-14.1968 -8.3541 2.9045 0.9353
13.8424 11.9681 2.8033 0.9286
6.4247 11.7874 2.0566 0.9471
5.1252 11.8141 1.9728 0.9492
2.7483 11.7434 1.8476 0.9524
0.5899 11.6802 1.7916 0.9538
-1.3020 10.0396 1.5509 0.9599
-2.2253 10.0133 1.5714 0.9593
-6.3722 9.7785 1.7880 0.9539
-15.9148 9.6415 2.8506 0.9275
8.6415 -6.3804 1.6456 0.9575
11.4705 11.8726 2.1498 0.9356
9.6286 11.9444 1.9979 0.9400
6.5072 11.9388 1.7706 0.9466
5.1754 11.9298 1.6934 0.9489
1.6687 11.8263 1.5553 0.9530
-0.4620 11.7645 1.5332 0.9536
-1.3015 10.0355 1.3178 0.9600
-2.2244 10.0092 1.3352 0.9595
-5.2655 9.9238 1.4629 0.9557
-6.4456 9.8911 1.5374 0.9535
-15.5697 9.4324 2.3705 0.9292
13.9590 12.0689 1.9815 0.9285
5.1731 11.9245 1.3958 0.9491
2.7741 11.8537 1.3073 0.9522
0.5997 11.8732 1.2766 0.9533
-0.4629 11.7858 1.2665 0.9537
-1.3105 10.1049 1.0942 0.9598
-5.3679 10.1168 1.2298 0.9550
-6.4425 9.8864 1.2671 0.9536
-7.7596 9.8498 1.3465 0.9508
-11.0355 9.7596 1.5819 0.9425
-13.0263 9.5857 1.7367 0.9370
-15.4162 9.3394 1.9355 0.9301
8.6564 -6.3914 1.1555 0.9576
8.6894 -6.3730 0.9122 0.9577
13.3723 11.5617 1.4964 0.9315
11.7030 12.1132 1.4258 0.9346
8.1857 12.2588 1.2478 0.9425
6.6569 12.2135 1.1775 0.9457
5.2808 12.1728 1.1233 0.9481
-2.2779 10.2498 0.8888 0.9587
-4.2867 10.1928 0.9360 0.9566
-5.3917 10.1616 0.9738 0.9549
-6.5997 10.1276 1.0233 0.9526
-7.9487 10.0899 1.0873 0.9497
-9.4452 9.9981 1.1643 0.9463
-11.0290 9.7538 1.2464 0.9426
-13.1740 9.6944 1.3846 0.9364
8.6641 -6.3971 0.9117 0.9577
8.7101 -6.3881 0.6698 0.9576
11.9191 7.0394 0.8584 0.9460
13.1168 11.3407 1.0752 0.9329
9.9184 12.3040 0.9800 0.9386
8.1817 12.2527 0.9136 0.9427
6.6538 12.2078 0.8622 0.9458
-0.4692 11.9464 0.7414 0.9532
-1.3096 10.0981 0.6314 0.9600
-2.4013 10.8053 0.6864 0.9566
-4.3944 10.4488 0.7029 0.9556
-5.3631 10.1077 0.7095 0.9552
-9.4861 10.0415 0.8566 0.9461
-11.1033 9.8195 0.9191 0.9423
8.6844 -6.4120 0.6694 0.9577
12.9211 6.0920 0.8858 0.9444
11.9543 7.0088 0.8593 0.9460
13.0960 6.2257 0.5718 0.9436
9.8330 5.8074 0.4503 0.9553
15.8142 11.3663 0.7679 0.9250
11.9383 12.3568 0.6775 0.9335
9.9132 12.2975 0.6228 0.9387
8.1776 12.2467 0.5807 0.9428
2.8296 12.0909 0.4896 0.9515
1.7009 12.0544 0.4800 0.9524
-1.3123 10.1189 0.4023 0.9600
-3.4925 10.9634 0.4537 0.9550
-4.5451 10.8072 0.4623 0.9542
-7.9408 10.0798 0.5060 0.9499
-9.4810 10.0361 0.5444 0.9462
-13.4188 9.8746 0.6569 0.9355
-15.9716 9.6759 0.7363 0.9280
13.1016 6.1771 0.5712 0.9437
9.9231 5.8180 0.4535 0.9550
13.1435 6.2483 0.2458 0.9434
9.8228 5.8014 0.1927 0.9554
11.9315 12.3497 0.2901 0.9336
9.9080 12.2910 0.2667 0.9388
6.6476 12.1965 0.2346 0.9459
5.2738 12.1567 0.2238 0.9484
4.0111 12.1201 0.2157 0.9502
-1.3118 10.1149 0.1723 0.9600
-2.4173 10.8772 0.1882 0.9564
-3.4753 10.9093 0.1934 0.9552
-5.3845 10.1479 0.1941 0.9551
-11.1192 9.8336 0.2507 0.9423
8.7677 -6.4304 -0.0612 0.9574
13.1462 6.2496 -0.0820 0.9434
9.8223 5.8011 -0.0642 0.9554
8.1696 12.2347 -0.0828 0.9429
6.6446 12.1908 -0.0782 0.9460
5.2715 12.1513 -0.0746 0.9484
-1.3112 10.1108 -0.0574 0.9600
-4.5407 10.7967 -0.0659 0.9542
-14.3789 10.5811 -0.1005 0.9311
-15.9897 9.6869 -0.1053 0.9279
8.7431 -6.4554 -0.0612 0.9575
13.1519 6.2008 -0.0819 0.9435
9.9238 5.8183 -0.0648 0.9550
11.6838 -10.2997 -0.4386 0.9396
13.1490 6.2509 -0.4100 0.9434
9.8244 5.8023 -0.3213 0.9554
6.6415 12.1852 -0.3908 0.9460
5.2691 12.1459 -0.3728 0.9484
4.0077 12.1098 -0.3592 0.9502
1.6988 12.0397 -0.3424 0.9525
0.6040 11.9599 -0.3372 0.9532
-1.3107 10.1068 -0.2870 0.9600
-2.4161 10.8718 -0.3136 0.9564
-7.8904 10.0158 -0.3590 0.9503
-9.4658 10.0200 -0.3881 0.9463
-15.9779 9.6797 -0.5260 0.9280
8.7851 -6.4864 -0.3075 0.9572
13.1547 6.2021 -0.4095 0.9435
11.1877 -9.8623 -0.7564 0.9420
8.8256 -6.4729 -0.5551 0.9571
18.5552 -5.2143 -0.9775 0.9257
13.1517 6.2522 -0.7385 0.9433
9.8266 5.8036 -0.5788 0.9553
9.8924 12.2716 -0.7994 0.9388
4.0060 12.1047 -0.6466 0.9502
1.6910 11.9845 -0.6138 0.9527
-0.4702 11.9725 -0.6076 0.9531
-2.4155 10.8691 -0.5647 0.9564
-3.4709 10.8956 -0.5799 0.9552
-4.5364 10.7863 -0.5934 0.9542
-5.3773 10.1344 -0.5818 0.9551
-7.8865 10.0109 -0.6463 0.9502
-9.4607 10.0146 -0.6987 0.9463
-11.0997 9.8163 -0.7515 0.9424
-14.3655 10.5712 -0.9045 0.9311
10.4594 -11.1072 -0.7737 0.9407
18.5347 -5.2724 -0.9773 0.9257
8.8619 -6.4995 -0.8058 0.9569
18.5646 -5.2169 -1.4139 0.9256
13.1545 6.2535 -1.0680 0.9433
9.8287 5.8048 -0.8370 0.9553
8.1576 12.2167 -1.0771 0.9428
5.2645 12.1352 -0.9699 0.9483
2.8237 12.0659 -0.9086 0.9515
1.6903 11.9797 -0.8871 0.9526
0.6060 11.9986 -0.8809 0.9530
-6.5781 10.0944 -0.8834 0.9528
-7.8825 10.0059 -0.9340 0.9502
-14.3588 10.5663 -1.3072 0.9310
-15.8757 9.6178 -1.3610 0.9283
2.5333 -19.7818 -1.4623 0.9231
4.2876 -19.4395 -1.4596 0.9233
13.1602 6.2047 -1.0668 0.9433
9.9299 5.8219 -0.8440 0.9549
-7.3546 -17.0276 -1.7807 0.9282
0.7164 -17.5271 -1.6841 0.9319
2.2671 -17.2653 -1.6718 0.9324
3.7822 -16.8914 -1.6618 0.9328
5.2561 -16.4090 -1.6542 0.9331
8.0598 -15.1318 -1.6459 0.9334
9.3797 -14.3435 -1.6453 0.9335
10.6382 -13.4595 -1.6471 0.9334
9.1851 -8.0970 -1.1755 0.9520
14.9577 -9.0291 -1.6774 0.9322
18.6750 -0.0897 -1.7929 0.9277
18.8910 1.6079 -1.8202 0.9266
18.9732 3.3473 -1.8496 0.9255
18.9145 5.1196 -1.8812 0.9243
17.2823 6.3880 -1.7689 0.9286
16.9487 8.0572 -1.8017 0.9274
15.8320 11.3791 -1.8718 0.9246
15.0402 13.0037 -1.9088 0.9232
5.1525 11.8770 -1.2429 0.9493
2.8108 12.0106 -1.1842 0.9516
1.6967 12.0250 -1.1659 0.9524
0.6057 11.9938 -1.1529 0.9529
-0.4698 11.9629 -1.1494 0.9530
-1.3091 10.0945 -0.9772 0.9599
-4.5320 10.7759 -1.1223 0.9541
-9.4046 9.9552 -1.3148 0.9465
-15.8640 9.6107 -1.7807 0.9282
-17.8889 -8.4692 -1.9002 0.9235
-13.7720 -14.2093 -1.8998 0.9236
-12.2293 -15.1211 -1.8671 0.9248
-10.6476 -15.8907 -1.8364 0.9260
-7.4127 -17.0125 -1.7816 0.9281
-0.9210 -17.6764 -1.6993 0.9313
0.6606 -17.5344 -1.6846 0.9319
2.2125 -17.2766 -1.6722 0.9324
3.7289 -16.9066 -1.6621 0.9328
5.2044 -16.4279 -1.6544 0.9331
6.6337 -15.8440 -1.6490 0.9333
8.0118 -15.1580 -1.6460 0.9334
9.3337 -14.3732 -1.6453 0.9335
10.5945 -13.4926 -1.6470 0.9334
10.9790 -9.7408 -1.4091 0.9427
14.6588 -7.2002 -1.5679 0.9365
15.3865 -5.9123 -1.5825 0.9359
16.8085 -4.7814 -1.6777 0.9322
18.3178 -1.7956 -1.7670 0.9287
18.6649 -0.1493 -1.7920 0.9277
18.9727 3.2847 -1.8486 0.9255
17.2915 6.3287 -1.7678 0.9287
-7.3940 -13.6176 -1.8406 0.9395
-6.0707 -14.0549 -1.8186 0.9402
-2.7680 -8.4089 -1.0516 0.9650
-0.7192 -14.7061 -1.7490 0.9424
1.8915 -14.4050 -1.7258 0.9432
3.1587 -14.1070 -1.7172 0.9434
6.7418 -12.6573 -1.7035 0.9439
7.8463 -11.9986 -1.7030 0.9439
8.8975 -11.2573 -1.7045 0.9438
8.3538 -7.3641 -1.3228 0.9561
12.9210 -4.9176 -1.6422 0.9458
14.3542 -4.0337 -1.7711 0.9417
14.8018 -2.7583 -1.7885 0.9412
15.1509 -1.4363 -1.8078 0.9405
15.4601 4.1846 -1.9025 0.9375
9.8330 5.8074 -1.3565 0.9550
9.6708 11.9968 -1.8304 0.9398
7.9797 11.9502 -1.7069 0.9438
3.9175 11.8371 -1.4811 0.9510
1.6607 11.7695 -1.4119 0.9532
0.5929 11.7390 -1.3962 0.9538
-0.4598 11.7087 -1.3919 0.9539
-1.3022 10.0407 -1.2027 0.9600
-3.4666 10.8820 -1.3566 0.9550
-4.5093 10.7221 -1.3817 0.9542
-6.4123 9.8399 -1.3951 0.9538
-7.7209 9.8007 -1.4820 0.9510
-9.2161 9.7556 -1.5942 0.9474
-11.0255 9.7507 -1.7484 0.9424
-14.3434 10.5550 -2.1154 0.9308
-15.7176 9.5220 -2.1829 0.9286
-18.7242 3.5201 -2.2631 0.9261
-17.7192 -3.0969 -2.1367 0.9301
-17.1026 -4.5999 -2.1038 0.9311
-15.8255 -5.8208 -2.0030 0.9343
-14.3882 -6.8118 -1.8910 0.9379
-11.5215 -6.7798 -1.5880 0.9476
-12.4115 -10.6963 -1.9463 0.9361
-10.0096 -12.3765 -1.8908 0.9379
-7.4408 -13.5999 -1.8415 0.9395
-3.4391 -14.5902 -1.7806 0.9414
-2.0984 -14.7018 -1.7641 0.9419
5.5472 -13.2490 -1.7062 0.9438
6.7016 -12.6792 -1.7035 0.9439
12.2080 -5.9963 -1.6156 0.9467
14.7875 -2.8045 -1.7879 0.9412
15.5569 2.6934 -1.8754 0.9384
15.2018 5.5639 -1.9229 0.9369
13.7745 6.4944 -1.8090 0.9405
9.8510 5.7756 -1.3564 0.9550
-7.3692 -11.0743 -1.8848 0.9477
-6.2787 -11.5634 -1.8644 0.9482
-5.1642 -11.9564 -1.8454 0.9487
-2.7710 -8.4180 -1.2557 0.9648
-2.8941 -12.4562 -1.8119 0.9496
-1.7525 -12.5652 -1.7976 0.9500
-0.6153 -12.5823 -1.7849 0.9504
3.7705 -11.7711 -1.7513 0.9513
3.4964 -8.2765 -1.2730 0.9644
5.3451 -5.6400 -1.1010 0.9691
8.2746 -7.2943 -1.5629 0.9564
7.6369 -5.6010 -1.3419 0.9625
12.2588 -3.4449 -1.8042 0.9499
13.0864 -0.0629 -1.8542 0.9485
13.1707 2.3236 -1.8950 0.9474
12.8481 4.7490 -1.9408 0.9462
11.6617 5.5439 -1.8295 0.9492
9.8352 5.8086 -1.6184 0.9549
10.0795 8.7147 -1.8879 0.9476
9.3807 9.7095 -1.9129 0.9469
8.5840 10.6486 -1.9380 0.9462
5.1479 11.8664 -1.8327 0.9491
3.9158 11.8320 -1.7659 0.9509
2.7614 11.7996 -1.7171 0.9522
1.6600 11.7646 -1.6834 0.9531
0.5926 11.7342 -1.6647 0.9536
-0.4597 11.7039 -1.6596 0.9538
-2.3960 10.7811 -1.5648 0.9564
-3.4651 10.8774 -1.6175 0.9549
-6.4092 9.8353 -1.6633 0.9537
-12.1272 8.9241 -2.1334 0.9410
-12.7988 7.7538 -2.1203 0.9413
-13.3440 6.5279 -2.1048 0.9418
-15.1913 4.2951 -2.2368 0.9382
-15.3676 2.8891 -2.2156 0.9388
-15.3945 1.4842 -2.1913 0.9394
-15.0493 -1.2567 -2.1397 0.9408
-14.2162 -3.8236 -2.0859 0.9423
-13.6369 -5.0158 -2.0588 0.9430
-11.3150 -6.6583 -1.8602 0.9483
-10.5353 -7.5467 -1.8362 0.9490
-9.4816 -9.7827 -1.9303 0.9464
-6.3179 -11.5477 -1.8651 0.9482
-4.0741 -12.2447 -1.8285 0.9492
-2.9347 -12.4506 -1.8125 0.9496
-0.6556 -12.5832 -1.7853 0.9504
2.6714 -12.1116 -1.7573 0.9511
5.7554 -10.8889 -1.7451 0.9515
6.7058 -10.3263 -1.7446 0.9515
5.3388 -5.6695 -1.1034 0.9690
8.2799 -7.3461 -1.5683 0.9563
9.8931 -6.0150 -1.6405 0.9543
11.7946 -4.5321 -1.7903 0.9502
12.2442 -3.4830 -1.8037 0.9499
12.8918 -1.2637 -1.8354 0.9490
13.0814 -0.1046 -1.8536 0.9485
13.1762 1.0791 -1.8732 0.9480
12.8575 4.7059 -1.9400 0.9462
11.7592 5.5442 -1.8420 0.9488
9.8406 5.7696 -1.6163 0.9550
-5.9263 -8.9059 -1.7623 0.9576
-5.4511 -10.0393 -1.8819 0.9547
-4.4896 -10.3945 -1.8653 0.9551
-2.7773 -8.4370 -1.4633 0.9646
-1.5979 -6.8774 -1.1632 0.9718
-0.4103 -8.3909 -1.3840 0.9665
0.4468 -10.9304 -1.8022 0.9566
1.4177 -10.7968 -1.7939 0.9568
2.3705 -10.5867 -1.7872 0.9570
3.7067 -5.6682 -1.1157 0.9729
8.6659 -5.2311 -1.6675 0.9598
9.8587 -4.8034 -1.8066 0.9565
10.3088 -3.9234 -1.8171 0.9563
10.9942 -2.0487 -1.8423 0.9557
11.2224 -1.0639 -1.8571 0.9553
11.4332 0.9731 -1.8903 0.9545
11.4101 2.0130 -1.9087 0.9541
11.0947 4.1009 -1.9486 0.9532
10.7909 5.1299 -1.9683 0.9527
9.6172 5.6799 -1.8400 0.9557
9.1720 6.5923 -1.8608 0.9552
8.6415 7.4714 -1.8819 0.9547
7.3316 9.0950 -1.9245 0.9537
5.7122 10.4803 -1.9663 0.9528
3.8252 11.5583 -2.0057 0.9518
2.7603 11.7946 -1.9955 0.9521
0.5924 11.7294 -1.9348 0.9535
-0.4595 11.6992 -1.9288 0.9536
-3.4636 10.8728 -1.8799 0.9548
-4.5049 10.7115 -1.9143 0.9540
-5.2349 9.8660 -1.8399 0.9557
-6.4061 9.8306 -1.9330 0.9535
-8.7664 9.2797 -2.1030 0.9496
-10.2077 7.5116 -2.0878 0.9499
-10.7834 6.5328 -2.0770 0.9502
-11.2557 5.5063 -2.0643 0.9505
-12.8581 3.6355 -2.2013 0.9473
-12.5335 -2.1905 -2.0961 0.9497
-12.1522 -3.2684 -2.0731 0.9503
-11.1210 -5.2650 -2.0270 0.9513
-9.7267 -5.7237 -1.8592 0.9553
-9.0729 -6.4991 -1.8386 0.9558
-7.0177 -6.0479 -1.5262 0.9631
-5.9568 -8.8900 -1.7629 0.9575
-4.5242 -10.3833 -1.8658 0.9551
-1.6193 -6.8697 -1.1627 0.9718
-1.5641 -10.9584 -1.8236 0.9561
-0.4373 -8.3924 -1.3844 0.9665
2.3369 -10.5955 -1.7874 0.9570
5.0393 -9.5341 -1.7765 0.9572
6.1801 -7.8706 -1.6485 0.9602
7.5149 -6.6674 -1.6550 0.9601
8.6477 -5.2579 -1.6673 0.9598
9.8414 -4.8339 -1.8063 0.9565
10.2939 -3.9554 -1.8167 0.9563
10.9846 -2.0833 -1.8418 0.9557
11.2156 -1.0994 -1.8565 0.9553
11.3659 -0.0909 -1.8725 0.9550
11.4325 0.9363 -1.8897 0.9546
11.3034 3.0208 -1.9275 0.9537
10.8063 5.0949 -1.9682 0.9527
9.6314 5.6469 -1.8393 0.9557
-5.2258 -7.8532 -1.7730 0.9623
-4.4638 -8.2210 -1.7583 0.9626
-3.6803 -8.5207 -1.7446 0.9629
-2.7952 -8.4914 -1.6803 0.9643
-1.5963 -6.8703 -1.3257 0.9717
-1.3545 -9.7116 -1.8431 0.9609
0.3964 -9.6974 -1.8242 0.9613
2.1050 -9.4012 -1.8108 0.9615
2.7192 -8.4889 -1.6754 0.9644
5.5140 -6.9763 -1.6714 0.9645
5.3496 -5.6447 -1.4618 0.9688
6.6941 -5.9011 -1.6773 0.9643
9.4668 -2.6603 -1.8483 0.9608
9.9223 -0.9407 -1.8734 0.9602
10.0878 0.8586 -1.9030 0.9596
9.9449 2.6918 -1.9365 0.9589
9.7537 3.6052 -1.9545 0.9586
9.0977 5.3731 -1.9860 0.9579
8.0307 5.7720 -1.8589 0.9605
7.5555 6.5324 -1.8773 0.9602
7.0084 7.2541 -1.8959 0.9598
5.7099 8.5511 -1.9327 0.9590
4.1667 9.6046 -1.9679 0.9583
3.3171 10.0229 -1.9844 0.9579
2.4247 10.3607 -2.0000 0.9576
1.4974 10.6126 -2.0145 0.9573
-0.4258 10.8421 -2.0395 0.9568
-0.7360 5.6751 -1.0756 0.9770
-2.3753 10.6883 -2.0580 0.9564
-5.1663 9.7367 -2.0718 0.9561
-6.0195 9.2372 -2.0724 0.9561
-6.8180 8.6546 -2.0709 0.9561
-8.2173 7.2672 -2.0619 0.9563
-8.8038 6.4785 -2.0545 0.9565
-9.3070 5.6384 -2.0453 0.9567
-9.9203 4.8530 -2.0758 0.9560
-11.1295 3.1467 -2.1739 0.9540
-11.2818 2.1210 -2.1577 0.9544
-11.2894 0.0723 -2.1220 0.9551
-10.2032 -3.7529 -2.0434 0.9567
-9.7295 -4.6063 -2.0234 0.9571
-9.1866 -5.4058 -2.0035 0.9575
-7.9597 -5.7017 -1.8404 0.9609
-5.2524 -7.8389 -1.7736 0.9623
-4.4913 -8.2091 -1.7588 0.9626
-2.9096 -8.7447 -1.7323 0.9632
-1.6172 -6.8607 -1.3249 0.9717
-1.3858 -9.7092 -1.8434 0.9609
2.6922 -8.4982 -1.6756 0.9644
3.4366 -8.2079 -1.6725 0.9644
4.1538 -7.8589 -1.6708 0.9645
3.6972 -5.6934 -1.2760 0.9727
5.4915 -6.9937 -1.6713 0.9645
6.6746 -5.9219 -1.6772 0.9643
8.2733 -5.0302 -1.8199 0.9614
8.7290 -4.2875 -1.8279 0.9612
9.1244 -3.5060 -1.8373 0.9610
9.4562 -2.6899 -1.8479 0.9608
9.7213 -1.8437 -1.8598 0.9605
9.9166 -0.9721 -1.8729 0.9603
10.0395 -0.0803 -1.8871 0.9600
10.0875 0.8261 -1.9024 0.9596
9.9502 2.6592 -1.9359 0.9589
9.4925 4.4755 -1.9726 0.9582
9.1140 5.3435 -1.9858 0.9579
-4.6692 -7.0168 -1.7816 0.9661
-1.3643 -5.8721 -1.2743 0.9757
-1.1269 -8.0799 -1.7245 0.9672
0.3301 -8.0765 -1.7086 0.9675
1.0486 -7.9853 -1.7024 0.9676
1.7545 -7.8358 -1.6973 0.9677
1.8480 -5.7691 -1.2805 0.9755
3.1126 -7.3680 -1.6907 0.9678
3.7568 -7.0531 -1.6892 0.9679
3.7102 -5.6737 -1.4330 0.9727
4.9569 -6.2716 -1.6898 0.9678
5.3419 -5.6366 -1.6415 0.9687
6.0157 -5.3031 -1.6951 0.9677
7.8491 -3.8243 -1.8456 0.9649
8.4883 -2.3853 -1.8638 0.9646
8.7180 -1.6246 -1.8745 0.9644
8.8843 -0.8423 -1.8864 0.9642
8.9848 -0.0432 -1.8992 0.9639
9.0176 0.7675 -1.9130 0.9637
8.9808 1.5844 -1.9277 0.9634
8.8733 2.4017 -1.9431 0.9631
8.1188 4.7950 -1.9931 0.9622
6.2132 6.4310 -1.8902 0.9641
5.6605 7.0219 -1.9065 0.9638
5.0509 7.5642 -1.9226 0.9635
3.6781 8.4783 -1.9535 0.9629
2.1362 9.1282 -1.9816 0.9624
1.3182 9.3421 -1.9943 0.9622
0.4786 9.4769 -2.0058 0.9619
-0.3743 9.5300 -2.0160 0.9618
-2.0856 9.3845 -2.0321 0.9615
-4.5323 8.5420 -2.0440 0.9612
-5.9818 7.5931 -2.0432 0.9613
-6.6281 7.0162 -2.0402 0.9613
-8.1778 4.9543 -2.0211 0.9617
-9.9437 1.8694 -2.1387 0.9595
-9.9996 0.9641 -2.1235 0.9598
-9.9699 0.0638 -2.1075 0.9601
-9.3927 -2.5263 -2.0560 0.9610
-9.0499 -3.3287 -2.0383 0.9613
-8.6393 -4.0901 -2.0205 0.9617
-8.1662 -4.8054 -2.0029 0.9620
-6.5438 -5.6395 -1.8260 0.9653
-4.6929 -7.0037 -1.7821 0.9661
-4.0164 -7.3410 -1.7688 0.9664
-3.3191 -7.6175 -1.7564 0.9666
-2.6060 -7.8325 -1.7449 0.9668
-1.3827 -5.8660 -1.2739 0.9757
1.7297 -7.8421 -1.6975 0.9677
1.8297 -5.7754 -1.2806 0.9755
3.7344 -7.0652 -1.6892 0.9679
5.3244 -5.6542 -1.6417 0.9687
5.9983 -5.3218 -1.6950 0.9677
6.8955 -5.0912 -1.8118 0.9656
7.8357 -3.8488 -1.8453 0.9649
8.9824 -0.0718 -1.8988 0.9639
8.9834 1.5553 -1.9271 0.9634
8.7015 3.1848 -1.9587 0.9628
8.4526 3.9852 -1.9753 0.9625
-2.9783 -6.8954 -1.7653 0.9696
-1.9386 -5.8892 -1.4572 0.9748
-1.0207 -7.3182 -1.7366 0.9701
-0.3593 -7.3474 -1.7289 0.9702
1.5915 -7.1076 -1.7118 0.9705
3.4092 -6.4006 -1.7044 0.9706
3.7120 -5.6764 -1.5940 0.9725
4.4982 -5.6912 -1.7049 0.9706
4.9956 -5.2712 -1.7068 0.9706
6.7506 -4.0749 -1.8532 0.9681
7.6863 -2.1600 -1.8764 0.9677
8.0356 -0.7618 -1.8970 0.9674
8.1213 -0.0390 -1.9087 0.9672
8.1452 0.6933 -1.9212 0.9670
8.1060 1.4301 -1.9345 0.9667
7.3038 4.3136 -1.9936 0.9657
6.9382 4.9868 -2.0081 0.9655
6.2017 5.3620 -1.9268 0.9669
5.5746 5.7700 -1.8856 0.9676
5.0742 6.2946 -1.9002 0.9673
3.2887 7.5808 -1.9421 0.9666
2.6135 7.8969 -1.9550 0.9664
1.9072 8.1495 -1.9671 0.9662
1.1760 8.3347 -1.9783 0.9660
-3.3323 7.9234 -2.0202 0.9653
-4.6985 7.2101 -2.0226 0.9653
-6.4212 5.6787 -2.0146 0.9654
-6.8848 5.0664 -2.0090 0.9655
-7.8651 4.7648 -2.1612 0.9629
-8.2482 4.0351 -2.1581 0.9630
-8.7465 2.4730 -2.1362 0.9633
-8.9177 0.0571 -2.0959 0.9640
-8.8239 -0.7368 -2.0810 0.9643
-8.4232 -2.2655 -2.0500 0.9648
-7.7613 -3.6745 -2.0182 0.9653
-5.3746 -5.5452 -1.8149 0.9688
-4.8206 -5.9605 -1.8017 0.9690
-4.2371 -6.3236 -1.7890 0.9692
-3.6290 -6.6329 -1.7770 0.9694
-3.0009 -6.8874 -1.7657 0.9696
-1.9594 -5.8891 -1.4587 0.9748
-1.6138 -6.8464 -1.6532 0.9715
0.2759 -7.3234 -1.7224 0.9703
0.9278 -7.2450 -1.7166 0.9704
2.1953 -6.9295 -1.7084 0.9706
2.8031 -6.6950 -1.7058 0.9706
3.3888 -6.4116 -1.7044 0.9706
3.7007 -5.6988 -1.5970 0.9725
5.7798 -5.1279 -1.8159 0.9687
6.3238 -4.6692 -1.8475 0.9682
6.7368 -4.0960 -1.8530 0.9681
7.1020 -3.4884 -1.8596 0.9680
7.4166 -2.8498 -1.8673 0.9679
7.6780 -2.1841 -1.8761 0.9677
7.8837 -1.4952 -1.8859 0.9676
8.0315 -0.7873 -1.8966 0.9674
8.1085 1.4038 -1.9340 0.9668
7.8416 2.8701 -1.9625 0.9663
7.6109 3.5884 -1.9776 0.9660
7.3155 4.2891 -1.9930 0.9658
-1.5337 -6.6012 -1.7547 0.9724
-0.9319 -6.6816 -1.7467 0.9725
-0.3282 -6.7109 -1.7396 0.9726
0.2734 -6.6895 -1.7335 0.9727
0.8690 -6.6180 -1.7282 0.9728
1.4549 -6.4974 -1.7240 0.9729
3.6290 -5.5496 -1.7168 0.9730
4.1146 -5.2059 -1.7181 0.9730
4.8847 -5.1542 -1.8386 0.9711
5.3787 -4.7415 -1.8565 0.9708
5.7945 -4.2498 -1.8605 0.9707
6.1688 -3.7237 -1.8657 0.9707
6.4989 -3.1664 -1.8718 0.9706
6.7822 -2.5812 -1.8789 0.9705
7.0163 -1.9717 -1.8870 0.9703
7.4197 0.6315 -1.9280 0.9697
7.3795 1.3019 -1.9402 0.9695
7.2807 1.9707 -1.9529 0.9693
7.1230 2.6328 -1.9662 0.9691
6.6310 3.9163 -1.9940 0.9687
6.2983 4.5268 -2.0082 0.9685
5.8986 5.0999 -2.0190 0.9683
4.0922 6.1284 -1.9080 0.9700
2.9709 6.8481 -1.9328 0.9696
2.3594 7.1292 -1.9443 0.9694
1.7207 7.3527 -1.9552 0.9693
0.3846 7.6156 -1.9743 0.9690
-0.3005 7.6505 -1.9824 0.9689
-1.6716 7.5219 -1.9951 0.9687
-2.9986 7.1299 -2.0027 0.9685
-3.6286 6.8386 -2.0045 0.9685
-4.2275 6.4873 -2.0048 0.9685
-4.7893 6.0794 -2.0038 0.9685
-5.3084 5.6192 -2.0015 0.9686
-6.6853 4.9196 -2.1491 0.9663
-7.8889 2.2305 -2.1226 0.9667
-8.0142 1.5067 -2.1114 0.9669
-8.0705 0.7781 -2.0993 0.9671
-7.8344 -1.3693 -2.0592 0.9677
-7.6274 -2.0515 -2.0451 0.9679
-7.3609 -2.7075 -2.0307 0.9681
-7.0384 -3.3322 -2.0163 0.9683
-5.7748 -4.9768 -1.9738 0.9690
-4.4231 -5.4690 -1.8212 0.9714
-0.9534 -6.6796 -1.7470 0.9725
-0.3497 -6.7107 -1.7399 0.9726
0.2521 -6.6911 -1.7337 0.9727
1.4342 -6.5026 -1.7241 0.9729
2.5633 -6.1221 -1.7184 0.9729
3.6113 -5.5611 -1.7168 0.9730
6.1562 -3.7430 -1.8655 0.9707
7.0088 -1.9937 -1.8867 0.9703
7.3245 -0.7180 -1.9055 0.9700
7.4201 0.6077 -1.9276 0.9697
7.3819 1.2780 -1.9397 0.9695
7.2852 1.9470 -1.9525 0.9693
7.1296 2.6094 -1.9657 0.9691
6.9150 3.2603 -1.9794 0.9689
6.6418 3.8941 -1.9935 0.9687
-3.0157 -5.5539 -1.7891 0.9741
-2.4926 -5.7710 -1.7796 0.9742
-1.9558 -5.9416 -1.7708 0.9743
0.2515 -6.1522 -1.7431 0.9747
0.7994 -6.0879 -1.7382 0.9748
1.3386 -5.9782 -1.7343 0.9749
2.3769 -5.6265 -1.7291 0.9749
2.8739 -5.3955 -1.7306 0.9749
3.4109 -5.2160 -1.7643 0.9744
5.3309 -3.9098 -1.8715 0.9729
5.9761 -2.9117 -1.8819 0.9727
6.4477 -1.8119 -1.8960 0.9725
6.6129 -1.2323 -1.9043 0.9724
6.7937 -0.0326 -1.9233 0.9722
6.8064 0.5793 -1.9338 0.9720
6.7660 1.1937 -1.9450 0.9718
6.6718 1.8059 -1.9567 0.9717
6.3213 3.0051 -1.9814 0.9713
5.7579 4.1384 -2.0074 0.9710
3.2356 5.9364 -1.9140 0.9723
2.7062 6.2382 -1.9250 0.9721
0.9646 6.8360 -1.9544 0.9717
0.3497 6.9240 -1.9626 0.9716
-0.7348 5.6657 -1.6174 0.9765
-2.1287 6.6824 -1.9854 0.9713
-2.7227 6.4740 -1.9882 0.9712
-3.2945 6.2090 -1.9898 0.9712
-4.8203 5.1025 -1.9871 0.9712
-5.6207 4.9708 -2.1242 0.9693
-6.0956 4.4856 -2.1425 0.9690
-6.4544 3.9102 -2.1363 0.9691
-7.2944 1.3714 -2.1012 0.9696
-7.3494 0.7086 -2.0902 0.9698
-7.3423 0.0470 -2.0786 0.9699
-7.2741 -0.6074 -2.0664 0.9701
-6.7229 -2.4728 -2.0279 0.9707
-6.4323 -3.0453 -2.0147 0.9708
-6.0937 -3.5858 -2.0016 0.9710
-4.8270 -4.9803 -1.9635 0.9716
-4.3348 -5.3599 -1.9515 0.9717
-3.6435 -5.4376 -1.8530 0.9732
-3.0340 -5.5454 -1.7895 0.9741
-2.5115 -5.7641 -1.7799 0.9742
-1.9751 -5.9363 -1.7711 0.9743
-1.4287 -6.0614 -1.7630 0.9744
1.3196 -5.9829 -1.7344 0.9749
2.8523 -5.3964 -1.7280 0.9749
3.3880 -5.2173 -1.7611 0.9745
6.4409 -1.8322 -1.8957 0.9725
6.6079 -1.2532 -1.9040 0.9724
6.7923 -0.0543 -1.9229 0.9722
6.5297 2.3899 -1.9684 0.9715
6.3294 2.9842 -1.9810 0.9713
6.0758 3.5622 -1.9938 0.9711
-3.5016 -5.2621 -1.9441 0.9739
-2.3328 -5.4009 -1.8095 0.9757
-1.8065 -5.4880 -1.7771 0.9761
-0.2790 -5.7045 -1.7567 0.9764
0.7394 -5.6311 -1.7469 0.9765
1.2384 -5.5305 -1.7432 0.9766
2.7843 -5.2274 -1.8217 0.9755
3.3321 -5.0954 -1.8726 0.9748
4.1932 -4.4245 -1.8749 0.9748
4.5790 -4.0365 -1.8775 0.9748
4.9314 -3.6168 -1.8810 0.9747
5.2478 -3.1678 -1.8854 0.9747
5.7635 -2.1935 -1.8968 0.9745
5.9586 -1.6744 -1.9037 0.9744
6.1093 -1.1384 -1.9114 0.9743
6.2140 -0.5891 -1.9199 0.9742
6.2806 0.5346 -1.9388 0.9740
6.2405 1.1009 -1.9491 0.9738
6.1507 1.6648 -1.9599 0.9737
6.0111 2.2219 -1.9711 0.9735
5.8219 2.7677 -1.9827 0.9734
0.8836 6.2624 -1.9453 0.9739
-0.7345 5.6632 -1.7565 0.9764
-1.3894 6.2518 -1.9698 0.9736
-1.9475 6.1135 -1.9735 0.9735
-5.1960 4.5953 -2.1335 0.9714
-5.5782 4.1048 -2.1302 0.9714
-6.1855 3.0260 -2.1180 0.9716
-6.5758 1.8592 -2.1019 0.9718
-6.6862 1.2570 -2.0926 0.9719
-6.7395 0.6498 -2.0825 0.9721
-6.7361 0.0431 -2.0719 0.9722
-6.6768 -0.5576 -2.0608 0.9724
-6.3968 -1.7205 -2.0374 0.9727
-6.1803 -2.2732 -2.0254 0.9728
-5.9163 -2.8010 -2.0133 0.9730
-5.6077 -3.2999 -2.0013 0.9731
-5.2579 -3.7664 -1.9893 0.9733
-4.8704 -4.1974 -1.9776 0.9735
-3.9971 -4.9423 -1.9551 0.9737
-3.5190 -5.2519 -1.9445 0.9739
-2.3534 -5.4012 -1.8121 0.9756
-1.3201 -5.6006 -1.7698 0.9762
-0.8099 -5.6743 -1.7630 0.9763
-0.2972 -5.7042 -1.7569 0.9764
0.7215 -5.6339 -1.7470 0.9765
1.2208 -5.5348 -1.7433 0.9766
1.7089 -5.3943 -1.7404 0.9766
2.7635 -5.2285 -1.8190 0.9756
3.7612 -4.7901 -1.8733 0.9748
4.1789 -4.4377 -1.8749 0.9748
4.5658 -4.0509 -1.8774 0.9748
4.9194 -3.6322 -1.8809 0.9747
5.2372 -3.1842 -1.8852 0.9747
6.2111 -0.6088 -1.9196 0.9742
6.2703 -0.0502 -1.9287 0.9741
6.1548 1.6448 -1.9595 0.9737
6.0169 2.2022 -1.9707 0.9735
5.5930 3.2792 -1.9942 0.9732
-2.7830 -5.1254 -1.9387 0.9757
-2.3021 -5.3298 -1.9299 0.9758
-1.2456 -5.3611 -1.8295 0.9771
-0.2610 -5.3370 -1.7762 0.9777
0.2175 -5.3220 -1.7705 0.9778
1.1833 -5.2846 -1.8001 0.9774
2.6612 -4.9961 -1.8816 0.9764
3.8979 -4.1129 -1.8836 0.9764
4.2561 -3.7519 -1.8860 0.9764
5.1337 -2.5013 -1.8983 0.9762
5.3533 -2.0374 -1.9040 0.9761
5.6713 -1.0568 -1.9176 0.9760
5.3901 2.5624 -1.9839 0.9752
4.9002 3.5220 -2.0059 0.9749
4.5904 3.9688 -2.0171 0.9747
2.8617 5.2504 -1.9877 0.9751
1.3229 5.6530 -1.9298 0.9758
0.2950 5.8418 -1.9443 0.9756
-0.2303 5.8631 -1.9504 0.9756
-0.7567 5.8345 -1.9557 0.9755
-1.2792 5.7559 -1.9600 0.9755
-1.7928 5.6278 -1.9633 0.9754
-2.7736 5.2273 -1.9670 0.9754
-3.2995 5.0632 -2.0089 0.9748
-3.9483 5.0118 -2.1208 0.9735
-4.3905 4.6475 -2.1252 0.9734
-4.7861 4.2327 -2.1238 0.9734
-5.1361 3.7795 -2.1197 0.9735
-5.6979 2.7874 -2.1085 0.9736
-6.0611 1.7137 -2.0937 0.9738
-6.2165 0.5993 -2.0760 0.9740
-6.0612 -1.0593 -2.0453 0.9744
-5.4712 -2.5902 -2.0122 0.9748
-4.8668 -3.4862 -1.9900 0.9751
-3.2627 -4.8693 -1.9484 0.9756
-2.7998 -5.1174 -1.9390 0.9757
-2.3194 -5.3233 -1.9302 0.9758
-1.2638 -5.3615 -1.8310 0.9770
-0.7637 -5.3505 -1.7966 0.9775
0.2005 -5.3225 -1.7705 0.9778
1.1658 -5.2854 -1.7991 0.9774
1.6672 -5.2626 -1.8350 0.9770
2.1875 -5.2247 -1.8828 0.9764
3.0826 -4.7469 -1.8814 0.9764
3.4966 -4.4531 -1.8820 0.9764
3.8846 -4.1252 -1.8835 0.9764
5.1252 -2.5174 -1.8981 0.9762
5.3461 -2.0542 -1.9038 0.9761
5.5273 -1.5723 -1.9102 0.9761
5.7641 -0.5650 -1.9252 0.9759
5.8170 -0.0465 -1.9337 0.9758
5.7871 1.0019 -1.9523 0.9755
5.7032 1.5242 -1.9623 0.9754
5.3972 2.5447 -1.9835 0.9752
5.1760 3.0347 -1.9944 0.9750
-2.5923 -4.7742 -1.9427 0.9772
-1.2149 -5.2291 -1.9198 0.9775
-0.7391 -5.2992 -1.9134 0.9775
0.6912 -5.2635 -1.8984 0.9777
2.4838 -4.6632 -1.8894 0.9778
2.8913 -4.4214 -1.8892 0.9778
4.2765 -3.1364 -1.8965 0.9777
4.5495 -2.7462 -1.9003 0.9777
4.7888 -2.3332 -1.9050 0.9776
4.9925 -1.9001 -1.9103 0.9776
5.1590 -1.4497 -1.9163 0.9775
5.2866 -0.9851 -1.9231 0.9774
5.4203 -0.0260 -1.9383 0.9772
5.3858 0.9502 -1.9558 0.9770
4.8036 2.8370 -1.9950 0.9766
4.2640 3.6866 -2.0157 0.9763
3.9366 4.0746 -2.0261 0.9762
3.1776 4.7587 -2.0463 0.9760
2.7455 5.0373 -2.0516 0.9759
1.7279 5.2210 -1.9667 0.9769
1.2258 5.2377 -1.9237 0.9774
0.7556 5.3554 -1.9341 0.9773
-0.2132 5.4282 -1.9426 0.9772
-0.7004 5.4006 -1.9475 0.9771
-1.1839 5.3270 -1.9515 0.9771
-2.1463 5.1034 -1.9798 0.9768
-2.6913 5.0722 -2.0534 0.9759
-3.6646 4.6518 -2.1177 0.9752
-4.0657 4.3037 -2.1172 0.9752
-4.4291 3.9170 -2.1144 0.9752
-4.7537 3.4981 -2.1106 0.9752
-5.0367 3.0513 -2.1059 0.9753
-5.2758 2.5809 -2.1003 0.9754
-5.6150 1.5876 -2.0867 0.9755
-5.7129 1.0740 -2.0788 0.9756
-5.7175 -0.4774 -2.0517 0.9759
-5.3054 -1.9514 -2.0215 0.9763
-5.0831 -2.4065 -2.0112 0.9764
-4.5250 -3.2414 -1.9905 0.9766
-3.8350 -3.9568 -1.9705 0.9769
-3.4482 -4.2636 -1.9609 0.9770
-2.6079 -4.7666 -1.9430 0.9772
-2.1611 -4.9600 -1.9348 0.9773
-1.7013 -5.1133 -1.9271 0.9774
-0.2770 -5.3163 -1.9037 0.9776
0.1997 -5.3014 -1.8972 0.9777
0.6744 -5.2661 -1.8986 0.9777
2.0417 -4.8763 -1.8905 0.9778
2.4689 -4.6711 -1.8894 0.9778
3.2635 -4.1562 -1.8897 0.9778
3.6255 -3.8500 -1.8911 0.9778
3.9605 -3.5138 -1.8934 0.9778
4.5403 -2.7605 -1.9002 0.9777
4.9859 -1.9158 -1.9101 0.9776
5.2827 -1.0019 -1.9228 0.9774
5.3716 -0.5266 -1.9301 0.9773
5.4193 -0.0433 -1.9381 0.9772
5.4250 0.4443 -1.9465 0.9771
5.3879 0.9328 -1.9554 0.9770
5.1850 1.8977 -1.9745 0.9768
4.8118 2.8211 -1.9947 0.9766
-2.8254 -4.2460 -1.9545 0.9784
-2.4235 -4.4633 -1.9463 0.9785
-2.0059 -4.6441 -1.9386 0.9786
0.6471 -4.9281 -1.9048 0.9789
2.3262 -4.3674 -1.8963 0.9790
2.7079 -4.1409 -1.8961 0.9790
3.4069 -3.5948 -1.8980 0.9790
4.6725 -1.7783 -1.9159 0.9788
4.8273 -1.3566 -1.9216 0.9787
4.9456 -0.9216 -1.9279 0.9787
5.0681 -0.0244 -1.9422 0.9785
4.9552 1.3412 -1.9673 0.9782
4.8374 1.7880 -1.9764 0.9782
4.2482 3.0533 -2.0049 0.9778
3.9766 3.4382 -2.0145 0.9777
3.6701 3.7987 -2.0242 0.9776
2.9604 4.4335 -2.0430 0.9774
2.1371 4.9262 -2.0578 0.9773
1.6910 5.1095 -2.0625 0.9772
1.2147 5.1903 -2.0428 0.9774
0.7314 5.1834 -2.0061 0.9778
0.2613 5.1737 -1.9852 0.9781
-0.2027 5.1611 -1.9794 0.9781
-1.1393 5.1266 -2.0125 0.9778
-2.5765 4.8558 -2.1065 0.9767
-3.0073 4.6149 -2.1109 0.9767
-3.7789 4.0001 -2.1088 0.9767
-4.1170 3.6410 -2.1062 0.9767
-4.4193 3.2521 -2.1027 0.9768
-2.3038 0.2221 -0.8869 0.9901
-2.2890 0.0147 -0.8772 0.9902
-5.2410 -0.9160 -2.0389 0.9775
-4.7412 -2.2447 -2.0103 0.9778
-4.4993 -2.6476 -2.0006 0.9779
-4.2237 -3.0255 -1.9910 0.9780
-3.2218 -3.9836 -1.9634 0.9783
-2.8394 -4.2376 -1.9548 0.9784
-2.4381 -4.4562 -1.9466 0.9785
-1.1525 -4.8893 -1.9250 0.9787
1.0688 -4.8457 -1.9016 0.9790
1.9121 -4.5668 -1.8973 0.9790
2.3123 -4.3748 -1.8963 0.9790
2.6946 -4.1495 -1.8961 0.9790
3.0565 -3.8926 -1.8966 0.9790
3.9946 -2.9494 -1.9028 0.9790
4.2508 -2.5845 -1.9064 0.9789
4.8423 1.7723 -1.9760 0.9782
4.4907 2.6329 -1.9949 0.9779
-2.6492 -3.9812 -1.9572 0.9795
-1.8817 -4.3566 -1.9423 0.9797
-1.0668 -4.5916 -1.9293 0.9798
-0.2290 -4.6822 -1.9186 0.9799
1.0183 -4.5477 -1.9074 0.9801
1.8097 -4.2839 -1.9033 0.9801
2.1852 -4.1026 -1.9024 0.9801
2.8828 -3.6474 -1.9028 0.9801
3.2002 -3.3767 -1.9040 0.9801
3.9998 -2.4144 -1.9121 0.9800
4.5310 -1.2733 -1.9263 0.9799
4.6411 -0.8649 -1.9322 0.9798
4.7157 -0.4471 -1.9387 0.9797
4.7549 0.4047 -1.9531 0.9796
4.7185 0.8324 -1.9610 0.9795
4.5325 1.6753 -1.9777 0.9793
4.1979 2.4793 -1.9954 0.9791
3.9768 2.8583 -2.0044 0.9791
3.7215 3.2176 -2.0135 0.9790
3.1149 3.8641 -2.0313 0.9788
2.3953 4.3947 -2.0484 0.9786
1.5841 4.7864 -2.0634 0.9784
1.1514 4.9199 -2.0680 0.9784
-0.6557 5.0563 -2.0868 0.9782
-1.9896 4.7307 -2.1004 0.9781
-2.4087 4.5396 -2.1033 0.9780
-3.1796 4.0361 -2.1029 0.9780
-3.8416 3.3975 -2.0989 0.9781
-4.3710 2.6480 -2.0916 0.9782
-4.5801 2.2406 -2.0868 0.9782
-4.7497 1.8164 -2.0812 0.9783
-2.0655 0.3883 -0.8602 0.9910
-1.9918 0.0128 -0.8152 0.9914
-4.6287 -1.7025 -2.0185 0.9789
-4.2125 -2.4788 -2.0004 0.9791
-3.9556 -2.8335 -1.9914 0.9792
-3.3566 -3.4632 -1.9739 0.9794
-1.4932 -4.4878 -1.9357 0.9798
-1.0816 -4.5887 -1.9295 0.9798
-0.6642 -4.6534 -1.9238 0.9799
-0.2439 -4.6818 -1.9188 0.9799
0.5930 -4.6303 -1.9105 0.9800
1.0038 -4.5512 -1.9075 0.9801
1.7961 -4.2898 -1.9034 0.9801
2.8711 -3.6565 -1.9027 0.9801
3.4835 -3.0906 -1.9059 0.9801
3.7516 -2.7700 -1.9086 0.9800
3.9918 -2.4270 -1.9120 0.9800
4.3808 -1.6833 -1.9207 0.9799
4.6378 -0.8796 -1.9320 0.9798
4.7137 -0.4621 -1.9384 0.9797
4.7531 -0.0380 -1.9454 0.9797
4.7204 0.8172 -1.9607 0.9795
4.2052 2.4655 -1.9951 0.9792
-2.1376 -3.9369 -1.9524 0.9806
-1.3913 -4.2265 -1.9392 0.9808
-1.0040 -4.3210 -1.9333 0.9808
0.1798 -4.3997 -1.9191 0.9810
0.5722 -4.3578 -1.9155 0.9810
0.9589 -4.2826 -1.9126 0.9810
2.0581 -3.8640 -1.9080 0.9811
2.3958 -3.6637 -1.9078 0.9811
3.2899 -2.9002 -1.9114 0.9810
3.5413 -2.5972 -1.9139 0.9810
3.9625 -1.9306 -1.9210 0.9810
4.3672 -0.8138 -1.9361 0.9808
4.4714 -0.0215 -1.9488 0.9807
4.4361 0.7826 -1.9632 0.9805
3.9426 2.3285 -1.9955 0.9802
3.7339 2.6837 -2.0040 0.9801
3.2220 3.3349 -2.0209 0.9800
2.2460 4.1207 -2.0453 0.9797
1.4851 4.4873 -2.0600 0.9796
1.0806 4.6172 -2.0666 0.9795
0.6645 4.7094 -2.0728 0.9795
-0.6156 4.7471 -2.0862 0.9793
-1.8640 4.4321 -2.0955 0.9792
-2.6267 4.0308 -2.0968 0.9792
-3.8615 2.8416 -2.0895 0.9793
-4.2895 2.0984 -2.0812 0.9794
-1.5323 0.5860 -0.7150 0.9929
-1.4685 0.1416 -0.6430 0.9936
-1.4272 0.0091 -0.6220 0.9938
-1.4712 -0.2571 -0.6509 0.9935
-1.4929 -0.4015 -0.6738 0.9933
-3.7154 -2.6615 -1.9918 0.9803
-3.1545 -3.2547 -1.9754 0.9804
-2.8388 -3.5101 -1.9675 0.9805
-2.5032 -3.7359 -1.9599 0.9806
-2.1505 -3.9306 -1.9526 0.9806
-1.7834 -4.0931 -1.9458 0.9807
-1.4049 -4.2225 -1.9394 0.9808
-1.0179 -4.3182 -1.9335 0.9808
-0.6251 -4.3799 -1.9282 0.9809
-0.2296 -4.4073 -1.9234 0.9809
0.5583 -4.3599 -1.9156 0.9810
2.0458 -3.8706 -1.9080 0.9811
2.3841 -3.6713 -1.9078 0.9811
3.0036 -3.1897 -1.9094 0.9811
3.5328 -2.6084 -1.9138 0.9810
3.7585 -2.2852 -1.9170 0.9810
4.4380 0.7683 -1.9629 0.9805
4.3684 1.1674 -1.9706 0.9805
4.1236 1.9442 -1.9869 0.9803
3.9494 2.3155 -1.9952 0.9802
-2.3479 -3.5284 -1.9618 0.9815
-2.0153 -3.7116 -1.9550 0.9816
-1.6692 -3.8645 -1.9485 0.9816
-1.3122 -3.9862 -1.9425 0.9817
-0.5765 -4.1337 -1.9319 0.9818
-0.2034 -4.1590 -1.9274 0.9818
0.1697 -4.1520 -1.9235 0.9819
0.5401 -4.1129 -1.9202 0.9819
1.2622 -3.9405 -1.9153 0.9819
1.9429 -3.6476 -1.9130 0.9819
2.8450 -3.0019 -1.9144 0.9819
3.1054 -2.7375 -1.9162 0.9819
3.3424 -2.4514 -1.9186 0.9819
3.7392 -1.8218 -1.9253 0.9818
3.8958 -1.4827 -1.9295 0.9818
4.0229 -1.1305 -1.9343 0.9817
4.1193 -0.7676 -1.9396 0.9817
4.1839 -0.3966 -1.9453 0.9816
4.2151 0.3588 -1.9582 0.9815
4.1809 0.7376 -1.9652 0.9815
3.5149 2.5263 -2.0036 0.9811
3.0315 3.1378 -2.0196 0.9810
2.7488 3.4100 -2.0274 0.9809
1.3957 4.2172 -2.0562 0.9806
1.0153 4.3385 -2.0625 0.9806
0.6243 4.4243 -2.0682 0.9805
-0.1762 4.4858 -2.0780 0.9804
-3.0989 3.2803 -2.0888 0.9803
-3.3769 2.9865 -2.0867 0.9803
-3.6260 2.6683 -2.0839 0.9804
-4.0288 1.9709 -2.0761 0.9804
-1.2726 -0.2224 -0.5980 0.9943
-1.2706 -0.3418 -0.6091 0.9942
-3.2473 -2.7986 -1.9843 0.9813
-2.9720 -3.0664 -1.9767 0.9814
-2.6752 -3.3078 -1.9692 0.9814
-2.3595 -3.5213 -1.9620 0.9815
-1.6817 -3.8596 -1.9488 0.9816
-1.3250 -3.9824 -1.9427 0.9817
-0.2167 -4.1587 -1.9276 0.9818
0.1565 -4.1528 -1.9236 0.9818
1.2497 -3.9447 -1.9154 0.9819
1.5968 -3.8138 -1.9139 0.9819
2.2506 -3.4658 -1.9128 0.9820
2.5527 -3.2510 -1.9133 0.9819
3.8908 -1.4950 -1.9294 0.9818
4.0189 -1.1432 -1.9341 0.9818
4.1164 -0.7807 -1.9394 0.9817
4.1821 -0.4100 -1.9451 0.9816
4.2158 0.3453 -1.9579 0.9815
4.0164 1.4700 -1.9797 0.9813
3.7187 2.1803 -1.9954 0.9812
-1.9041 -3.5067 -1.9573 0.9824
-1.2402 -3.7674 -1.9456 0.9825
-0.5451 -3.9080 -1.9355 0.9826
-0.1923 -3.9325 -1.9313 0.9826
0.1605 -3.9263 -1.9275 0.9826
0.5108 -3.8897 -1.9244 0.9827
1.1939 -3.7272 -1.9198 0.9827
1.8378 -3.4503 -1.9176 0.9827
2.1394 -3.2715 -1.9174 0.9827
2.4244 -3.0674 -1.9179 0.9827
3.3611 -2.0289 -1.9258 0.9827
3.8031 -1.0687 -1.9378 0.9826
3.8936 -0.7256 -1.9428 0.9825
3.9837 -0.0191 -1.9541 0.9824
3.9821 0.3389 -1.9604 0.9824
3.9490 0.6967 -1.9670 0.9823
3.8842 1.0514 -1.9739 0.9822
3.6609 1.7403 -1.9883 0.9821
3.5033 2.0691 -1.9958 0.9820
3.3163 2.3836 -2.0033 0.9820
2.8590 2.9592 -2.0183 0.9818
2.5918 3.2151 -2.0257 0.9818
2.3015 3.4466 -2.0329 0.9817
1.3149 3.9731 -2.0528 0.9815
0.9564 4.0866 -2.0587 0.9815
0.5879 4.1668 -2.0641 0.9814
-0.1659 4.2235 -2.0733 0.9813
-0.9200 4.1396 -2.0801 0.9813
-1.2886 4.0451 -2.0825 0.9813
-1.9923 3.7548 -2.0850 0.9812
-2.6300 3.3385 -2.0847 0.9812
-3.6189 2.1924 -2.0755 0.9813
-1.0855 0.5310 -0.5928 0.9946
-1.1177 0.4274 -0.5870 0.9947
-1.1322 0.3201 -0.5771 0.9948
-1.1442 0.1103 -0.5639 0.9949
-1.1413 -0.1995 -0.5683 0.9949
-1.1209 -0.4123 -0.5858 0.9947
-3.5140 -2.0678 -2.0000 0.9820
-3.3022 -2.3654 -1.9925 0.9821
-2.8062 -2.8953 -1.9778 0.9822
-2.5265 -3.1240 -1.9708 0.9823
-2.2288 -3.3263 -1.9640 0.9823
-1.2523 -3.7638 -1.9458 0.9825
-0.9076 -3.8504 -1.9405 0.9825
-0.5576 -3.9066 -1.9357 0.9826
0.1480 -3.9270 -1.9277 0.9826
0.8439 -3.8260 -1.9218 0.9827
1.1820 -3.7311 -1.9198 0.9827
1.5104 -3.6075 -1.9184 0.9827
1.8268 -3.4562 -1.9176 0.9827
2.6819 -2.8480 -1.9189 0.9827
3.5299 -1.7339 -1.9291 0.9826
3.8908 -0.7379 -1.9426 0.9825
3.9832 -0.0319 -1.9539 0.9824
3.9507 0.6840 -1.9667 0.9823
3.8871 1.0388 -1.9736 0.9822
3.6659 1.7284 -1.9881 0.9821
3.5094 2.0576 -1.9955 0.9820
-1.8024 -3.3194 -1.9595 0.9831
-1.4933 -3.4573 -1.9537 0.9832
-0.5163 -3.7015 -1.9388 0.9833
-0.1822 -3.7250 -1.9348 0.9833
0.1520 -3.7196 -1.9312 0.9834
0.8111 -3.6224 -1.9258 0.9834
1.7415 -3.2696 -1.9218 0.9834
2.5499 -2.6906 -1.9231 0.9834
2.9951 -2.1966 -1.9269 0.9834
3.6018 -1.0122 -1.9409 0.9833
3.6870 -0.6871 -1.9457 0.9832
3.7437 -0.3549 -1.9509 0.9832
3.7712 -0.0181 -1.9564 0.9831
3.7691 0.3208 -1.9624 0.9831
3.6751 0.9947 -1.9752 0.9830
3.3127 1.9565 -1.9959 0.9828
2.9311 2.5342 -2.0101 0.9827
2.7017 2.7964 -2.0172 0.9826
2.1740 3.2558 -2.0310 0.9825
1.8796 3.4486 -2.0375 0.9825
1.2414 3.7511 -2.0498 0.9824
-0.1565 3.9853 -2.0691 0.9822
-0.5138 3.9619 -2.0726 0.9822
-0.8679 3.9053 -2.0754 0.9821
-1.2156 3.8159 -2.0777 0.9821
-1.5538 3.6945 -2.0792 0.9821
-2.1893 3.3596 -2.0803 0.9821
-2.7515 2.9126 -2.0786 0.9821
-0.9737 0.4764 -0.5624 0.9951
-1.0188 0.2880 -0.5492 0.9952
-1.0309 0.1938 -0.5442 0.9953
-1.0304 0.0066 -0.5346 0.9954
-1.0375 -0.0866 -0.5401 0.9953
-0.9790 -0.4635 -0.5619 0.9951
-2.8996 -2.4989 -1.9858 0.9829
-2.1093 -3.1480 -1.9658 0.9831
-1.8131 -3.3140 -1.9597 0.9831
-1.1858 -3.5639 -1.9485 0.9832
-0.5281 -3.7001 -1.9390 0.9833
0.1402 -3.7203 -1.9314 0.9834
0.4722 -3.6869 -1.9283 0.9834
0.7996 -3.6251 -1.9258 0.9834
1.4313 -3.4184 -1.9226 0.9834
2.0174 -3.1066 -1.9216 0.9834
3.3439 -1.6425 -1.9327 0.9834
3.4844 -1.3389 -1.9365 0.9833
3.5983 -1.0236 -1.9408 0.9833
3.7707 -0.0302 -1.9562 0.9832
3.7696 0.3087 -1.9622 0.9831
3.7387 0.6473 -1.9684 0.9830
3.5872 1.3129 -1.9817 0.9829
3.3185 1.9456 -1.9956 0.9828
-1.9899 -2.9903 -1.9673 0.9838
-1.1137 -3.3834 -1.9509 0.9839
-0.1728 -3.5342 -1.9380 0.9840
0.1443 -3.5293 -1.9346 0.9840
0.4592 -3.4970 -1.9318 0.9840
1.0736 -3.3517 -1.9276 0.9841
1.6529 -3.1031 -1.9257 0.9841
2.8422 -2.0845 -1.9305 0.9841
3.0216 -1.8240 -1.9331 0.9840
3.1780 -1.5484 -1.9362 0.9840
3.3101 -1.2598 -1.9398 0.9840
1.8828 -0.5291 -1.0711 0.9911
1.8839 -0.3511 -1.0496 0.9913
1.8889 -0.1791 -1.0392 0.9914
1.8853 0.3326 -1.0485 0.9913
1.8841 0.5100 -1.0690 0.9911
3.3956 1.2551 -1.9828 0.9836
2.9692 2.1341 -2.0027 0.9835
2.7754 2.3996 -2.0095 0.9834
2.5577 2.6474 -2.0162 0.9834
2.3178 2.8753 -2.0228 0.9833
1.7785 3.2630 -2.0354 0.9832
1.4833 3.4192 -2.0413 0.9831
1.1742 3.5481 -2.0470 0.9831
0.1898 3.7588 -2.0614 0.9830
-0.4857 3.7453 -2.0685 0.9829
-1.1490 3.6068 -2.0733 0.9829
-1.4686 3.4919 -2.0748 0.9829
-1.7762 3.3476 -2.0756 0.9829
-2.3448 2.9764 -2.0753 0.9829
-2.6006 2.7529 -2.0742 0.9829
-2.8344 2.5067 -2.0724 0.9829
-3.0441 2.2401 -2.0701 0.9829
-0.8912 0.4360 -0.5434 0.9955
-0.9241 0.2613 -0.5260 0.9956
-0.9405 0.1768 -0.5242 0.9956
-0.9473 -0.0791 -0.5207 0.9957
-0.8673 -0.5104 -0.5512 0.9954
-2.9582 -2.1191 -1.9930 0.9835
-2.7473 -2.3677 -1.9864 0.9836
-2.5159 -2.5958 -1.9799 0.9836
-1.9996 -2.9843 -1.9675 0.9838
-1.4267 -3.2743 -1.9562 0.9838
-1.1246 -3.3801 -1.9511 0.9839
-0.8153 -3.4588 -1.9463 0.9839
-0.1841 -3.5339 -1.9381 0.9840
0.1330 -3.5300 -1.9348 0.9840
0.4481 -3.4987 -1.9319 0.9840
0.7588 -3.4402 -1.9295 0.9841
1.0629 -3.3552 -1.9277 0.9841
1.6430 -3.1084 -1.9257 0.9841
1.9147 -2.9485 -1.9255 0.9841
2.4118 -2.5612 -1.9269 0.9841
2.6337 -2.3367 -1.9284 0.9841
1.8843 -0.3574 -1.0504 0.9913
1.8858 0.3265 -1.0482 0.9913
1.8845 0.5036 -1.0683 0.9911
3.2849 1.5487 -1.9891 0.9836
3.1434 1.8430 -1.9958 0.9835
-1.8892 -2.8390 -1.9688 0.9844
-1.3448 -3.1135 -1.9581 0.9845
-1.0578 -3.2135 -1.9532 0.9845
-0.1642 -3.3579 -1.9410 0.9846
0.1371 -3.3536 -1.9378 0.9846
1.0203 -3.1854 -1.9311 0.9847
1.5709 -2.9493 -1.9292 0.9847
2.3000 -2.4269 -1.9304 0.9847
2.5100 -2.2127 -1.9319 0.9847
2.7009 -1.9809 -1.9338 0.9846
1.7271 -0.4853 -1.0358 0.9917
1.7273 -0.0083 -0.9972 0.9921
1.7379 0.3066 -1.0188 0.9919
1.7011 0.6288 -1.0470 0.9917
3.1125 1.4797 -1.9898 0.9842
2.9769 1.7582 -1.9961 0.9842
2.8164 2.0243 -2.0025 0.9841
2.4253 2.5103 -2.0152 0.9840
2.1974 2.7259 -2.0215 0.9840
1.6856 3.0925 -2.0334 0.9839
0.8088 3.4562 -2.0493 0.9837
0.1798 3.5600 -2.0580 0.9837
-0.7768 3.4954 -2.0673 0.9836
-0.8025 0.5906 -0.5753 0.9954
-0.8097 0.4905 -0.5466 0.9956
-0.8663 0.2449 -0.5198 0.9959
-0.8822 -0.0737 -0.5111 0.9959
-0.8793 -0.1537 -0.5154 0.9959
-0.8685 -0.2336 -0.5193 0.9959
-0.8405 -0.3979 -0.5369 0.9957
-0.8008 -0.5737 -0.5687 0.9955
-2.1509 -2.6596 -1.9748 0.9843
-1.6324 -2.9836 -1.9635 0.9844
-1.0682 -3.2104 -1.9534 0.9845
-0.7744 -3.2856 -1.9489 0.9845
0.1264 -3.3542 -1.9379 0.9846
0.4258 -3.3246 -1.9352 0.9846
0.7211 -3.2693 -1.9329 0.9847
1.0102 -3.1887 -1.9312 0.9847
2.6945 -1.9895 -1.9338 0.9846
1.7217 -0.6616 -1.0649 0.9915
1.7358 -0.3292 -1.0200 0.9919
1.7383 0.3010 -1.0185 0.9919
1.7296 0.4622 -1.0336 0.9918
1.7024 0.6231 -1.0467 0.9917
3.1169 1.4696 -1.9895 0.9842
