ply
format ascii 1.0
element vertex 1587
property float32 x
property float32 y
property float32 z
property float32 I
end_header
13.4299 10.4203 2.2135 0.9337
8.1062 10.8336 1.7620 0.9469
6.7145 10.8815 1.6651 0.9497
5.1775 10.3627 1.5085 0.9543
4.0824 10.4067 1.4557 0.9559
3.0548 10.4530 1.4181 0.9570
0.9499 4.8140 0.6390 0.9804
0.0760 4.8130 0.6268 0.9808
-2.1848 4.7414 0.6798 0.9792
-8.1318 11.6144 1.8463 0.9444
-9.8710 11.7112 1.9945 0.9401
-12.2711 10.1573 2.0744 0.9378
-4.3515 -6.9185 1.0643 0.9676
5.3416 -7.7703 1.2279 0.9627
16.2076 10.0083 2.4805 0.9260
9.9774 10.7302 1.9080 0.9426
6.9655 10.8664 1.6808 0.9493
4.2864 10.3981 1.4646 0.9556
1.0366 4.8168 0.6416 0.9803
0.5938 4.8246 0.6330 0.9806
0.1588 4.8185 0.6278 0.9807
-0.2704 4.7750 0.6228 0.9809
-0.7006 4.7613 0.6267 0.9808
-1.1462 4.7744 0.6394 0.9804
-2.0883 4.7445 0.6750 0.9793
-7.8415 11.6193 1.8254 0.9450
-12.2198 10.4734 2.0958 0.9371
-4.1092 -6.7891 0.8522 0.9686
7.5563 4.8472 0.9640 0.9645
12.9688 10.0625 1.7626 0.9361
11.1012 10.3291 1.6283 0.9408
5.0915 10.1907 1.2233 0.9552
4.0214 10.2513 1.1825 0.9567
3.0121 10.3070 1.1531 0.9577
-1.5653 6.0601 0.6721 0.9751
-6.6924 11.6530 1.4430 0.9474
-8.1969 11.7073 1.5347 0.9441
-9.9758 11.8355 1.6621 0.9396
-11.9307 11.8249 1.8038 0.9347
-12.4849 10.3343 1.7403 0.9369
-14.9592 10.2762 1.9488 0.9296
11.1733 10.0440 1.6133 0.9413
5.3093 10.1853 1.2334 0.9548
3.2019 10.2965 1.1579 0.9575
0.2016 6.1164 0.6571 0.9757
-0.3454 6.0990 0.6560 0.9757
-0.8948 6.0814 0.6601 0.9756
-1.4556 6.0636 0.6696 0.9752
-2.0376 6.0451 0.6850 0.9747
-2.0358 4.6254 0.5427 0.9799
-6.4206 11.6379 1.4273 0.9479
-4.1115 -6.7929 0.6722 0.9686
12.6234 9.7945 1.3525 0.9379
6.8804 11.1504 1.1091 0.9488
4.0137 10.2316 0.9304 0.9568
1.0993 10.4023 0.8855 0.9589
0.0965 6.1126 0.5175 0.9758
-0.8553 11.5788 0.9829 0.9545
-1.0011 6.0776 0.5214 0.9756
-3.0086 11.6482 1.0184 0.9529
-2.0738 5.8203 0.5230 0.9755
-8.4001 11.9976 1.2398 0.9429
5.3460 -7.7768 0.7989 0.9628
13.0722 9.7879 1.3824 0.9365
10.1975 10.9669 1.2677 0.9417
5.3084 10.1836 0.9722 0.9549
4.2135 10.2213 0.9359 0.9566
2.2225 10.3275 0.8943 0.9585
0.3793 11.5104 0.9749 0.9548
-2.8056 11.6870 1.0174 0.9529
-6.5627 11.8955 1.1501 0.9469
-9.7837 12.0205 1.3120 0.9397
-11.6270 11.9265 1.4100 0.9353
-14.5788 10.3877 1.5154 0.9307
7.5529 4.8450 0.5564 0.9647
8.2846 11.0720 0.8575 0.9461
4.0013 10.2001 0.6794 0.9570
2.9971 10.2557 0.6626 0.9581
1.2130 6.1478 0.3886 0.9752
-0.4519 6.1170 0.3804 0.9757
-1.0010 6.0771 0.3819 0.9756
-1.5708 6.0814 0.3895 0.9751
-6.8104 11.8585 0.8480 0.9467
-10.1481 12.0399 0.9764 0.9388
-12.2682 12.1594 1.0711 0.9331
-15.5643 10.6919 1.1709 0.9271
10.1968 10.9662 0.9286 0.9418
8.5726 11.0560 0.8675 0.9455
5.2821 10.1331 0.7086 0.9552
4.2002 10.1891 0.6834 0.9568
1.1490 5.3390 0.3387 0.9784
1.2740 10.3512 0.6467 0.9591
-1.4607 6.0849 0.3880 0.9752
-2.0537 6.0928 0.3987 0.9746
-5.1796 11.7680 0.7973 0.9498
-6.5338 11.8431 0.8387 0.9472
-11.8304 12.1351 1.0509 0.9343
-14.9585 10.6582 1.1390 0.9290
-3.7615 -7.0675 0.4965 0.9684
-4.1265 -6.8177 0.3142 0.9686
7.5518 4.8443 0.3538 0.9647
9.8670 10.9836 0.5822 0.9426
8.2841 11.0713 0.5452 0.9462
6.8796 11.1491 0.5166 0.9489
4.6430 11.8358 0.5013 0.9504
1.1772 5.9665 0.2398 0.9759
1.2062 11.4133 0.4525 0.9551
-0.4518 6.1166 0.2418 0.9757
-1.0009 6.0767 0.2428 0.9756
-1.5706 6.0809 0.2476 0.9752
-8.3989 11.9960 0.5774 0.9431
-12.3189 12.2096 0.6839 0.9329
-12.5942 10.4247 0.6447 0.9366
-15.4834 10.6363 0.7407 0.9276
12.8756 11.5742 0.6827 0.9330
8.5721 11.0553 0.5516 0.9455
7.1375 11.1348 0.5215 0.9484
1.4095 11.4521 0.4550 0.9549
0.3793 11.5092 0.4541 0.9549
-0.3466 6.1199 0.2417 0.9758
-0.8979 6.1023 0.2432 0.9756
-1.4606 6.0844 0.2467 0.9753
-2.0518 6.0871 0.2533 0.9746
-5.2019 11.8186 0.5092 0.9496
-8.0488 11.9265 0.5673 0.9440
-11.8793 12.1852 0.6710 0.9341
-12.5747 10.7777 0.6530 0.9359
-4.1296 -6.8229 0.1347 0.9686
7.5506 4.8435 0.1515 0.9647
14.5897 11.3202 0.3119 0.9288
9.8663 10.9829 0.2494 0.9426
5.6053 11.2190 0.2118 0.9511
3.5190 12.0416 0.2119 0.9511
-1.0009 6.0762 0.1040 0.9757
-1.5705 6.0804 0.1061 0.9752
-6.8392 11.9087 0.2320 0.9465
-8.3984 11.9952 0.2473 0.9431
-10.1466 12.0382 0.2659 0.9390
-12.3179 12.2087 0.2930 0.9330
-12.6152 10.4421 0.2766 0.9366
14.8248 11.1002 0.3128 0.9286
12.8746 11.5733 0.2924 0.9331
3.7560 12.0785 0.2137 0.9507
1.1968 5.5610 0.0961 0.9775
1.4094 11.4515 0.1949 0.9549
-0.8978 6.1019 0.1042 0.9756
-1.4605 6.0839 0.1057 0.9753
-2.0499 6.0815 0.1084 0.9747
-8.0482 11.9257 0.2430 0.9441
-11.8784 12.1843 0.2874 0.9342
-12.7354 10.9154 0.2833 0.9351
-15.9832 11.3884 0.3315 0.9245
14.5917 11.3217 -0.1040 0.9288
11.6941 10.8808 -0.0899 0.9381
8.2830 11.0699 -0.0778 0.9462
5.6050 11.2183 -0.0706 0.9511
4.6443 11.8393 -0.0716 0.9504
3.5188 12.0409 -0.0706 0.9511
1.1771 5.9656 -0.0342 0.9760
1.2061 11.4121 -0.0646 0.9551
-0.4518 6.1156 -0.0345 0.9758
-1.5704 6.0799 -0.0354 0.9752
-5.4517 11.8311 -0.0733 0.9492
-6.8388 11.9080 -0.0773 0.9466
-8.3978 11.9944 -0.0824 0.9431
-10.1459 12.0373 -0.0886 0.9390
-12.6109 10.4386 -0.0922 0.9366
-16.2647 11.1730 -0.1111 0.9241
12.8737 11.5725 -0.0975 0.9331
8.5710 11.0539 -0.0788 0.9456
5.7648 11.0593 -0.0702 0.9513
-0.3465 6.1190 -0.0345 0.9758
-0.8977 6.1014 -0.0347 0.9756
-2.0480 6.0759 -0.0361 0.9747
-6.5611 11.8926 -0.0765 0.9471
-8.0477 11.9249 -0.0810 0.9441
-9.8237 12.0696 -0.0876 0.9396
-11.8277 12.1323 -0.0954 0.9345
-15.9796 11.3858 -0.1105 0.9245
-3.7419 -7.0306 -0.0448 0.9686
-4.1618 -6.8760 -0.2263 0.9683
7.5484 4.8421 -0.2525 0.9648
11.6933 10.8800 -0.4497 0.9381
8.2825 11.0692 -0.3893 0.9462
5.6047 11.2177 -0.3531 0.9511
1.2060 11.4115 -0.3231 0.9551
-2.0836 5.8478 -0.1748 0.9755
-5.4514 11.8304 -0.3668 0.9492
-12.2643 12.1556 -0.4862 0.9332
-3.6748 -7.1999 -0.2276 0.9682
5.3593 -7.7961 -0.2664 0.9629
12.3691 -14.9332 -0.5460 0.9253
12.8727 11.5716 -0.4874 0.9331
8.5704 11.0532 -0.3938 0.9456
7.1363 11.1328 -0.3724 0.9485
4.8155 11.6815 -0.3558 0.9507
1.4092 11.4503 -0.3248 0.9549
-0.3465 6.1185 -0.1726 0.9758
-0.8977 6.1009 -0.1736 0.9756
-2.0461 6.0702 -0.1804 0.9747
-5.2010 11.8166 -0.3635 0.9496
-15.9760 11.3833 -0.5524 0.9245
-3.7367 -7.0208 -0.2239 0.9687
10.4716 -14.6864 -0.9147 0.9303
15.0015 4.6704 -0.7968 0.9390
7.5473 4.8414 -0.4547 0.9647
11.6924 10.8793 -0.8100 0.9380
9.8643 10.9807 -0.7486 0.9426
6.8779 11.1464 -0.6642 0.9489
5.6044 11.2171 -0.6359 0.9510
3.5184 12.0397 -0.6361 0.9510
1.2059 11.4109 -0.5819 0.9551
-0.4517 6.1147 -0.3109 0.9757
-5.4511 11.8297 -0.6606 0.9492
-6.8379 11.9065 -0.6963 0.9465
-8.3967 11.9928 -0.7425 0.9431
-13.3627 -10.1856 -0.8521 0.9349
5.3652 -7.8047 -0.4803 0.9628
12.2151 -14.7473 -0.9711 0.9262
17.1125 -9.8203 -1.0006 0.9240
8.5699 11.0525 -0.7093 0.9455
1.2008 5.5796 -0.2894 0.9774
1.4092 11.4497 -0.5850 0.9548
0.3774 11.4529 -0.5811 0.9551
-0.8976 6.1005 -0.3127 0.9756
-1.4602 6.0825 -0.3172 0.9753
-6.5603 11.8911 -0.6887 0.9471
-8.0467 11.9234 -0.7295 0.9440
-12.7223 10.9041 -0.8498 0.9351
9.0880 -15.5146 -1.3184 0.9304
15.0055 4.6716 -1.1523 0.9389
11.4377 10.6422 -1.1455 0.9393
9.6495 10.7415 -1.0587 0.9437
8.1016 10.8275 -0.9915 0.9472
3.5183 12.0390 -0.9197 0.9509
1.1768 5.9642 -0.4457 0.9759
-1.0006 6.0743 -0.4514 0.9756
-6.8375 11.9058 -1.0067 0.9464
-12.5502 10.3883 -1.1946 0.9367
-16.2101 11.1355 -1.4420 0.9242
-15.5143 -9.7651 -1.3441 0.9291
-3.6548 -7.1606 -0.5895 0.9683
15.4986 -7.1355 -1.2510 0.9339
8.3833 10.8118 -1.0031 0.9466
7.1044 11.0831 -0.9653 0.9486
3.7552 12.0759 -0.9273 0.9505
-0.3464 6.1176 -0.4493 0.9757
-0.8975 6.1000 -0.4521 0.9756
-1.4600 6.0820 -0.4586 0.9752
-8.0461 11.9226 -1.0547 0.9439
-12.5306 10.7398 -1.2101 0.9360
-12.5884 5.9271 -1.0202 0.9457
-3.7250 -6.9988 -0.5813 0.9687
-1.9024 -19.6101 -1.8915 0.9239
-0.1417 -19.6989 -1.8912 0.9239
1.6325 -19.7856 -1.9060 0.9233
6.6725 -18.2303 -1.8637 0.9250
5.4975 -7.7102 -0.9091 0.9627
12.2637 -14.2991 -1.8085 0.9271
17.4836 -5.8869 -1.7711 0.9285
18.2558 -2.6799 -1.7714 0.9285
18.4491 -1.0387 -1.7740 0.9284
18.2399 3.9316 -1.7913 0.9278
15.5499 8.1122 -1.6838 0.9319
11.4368 10.6414 -1.4998 0.9392
9.6488 10.7408 -1.3861 0.9436
8.1011 10.8268 -1.2982 0.9471
6.7278 10.9031 -1.2300 0.9498
5.4820 10.9722 -1.1775 0.9519
4.6274 11.7961 -1.2165 0.9504
3.5181 12.0384 -1.2041 0.9509
1.1767 5.9637 -0.5836 0.9759
1.1848 11.2106 -1.0823 0.9557
0.0964 6.1089 -0.5866 0.9757
-1.0005 6.0739 -0.5910 0.9756
-1.5699 6.0780 -0.6027 0.9751
-2.0593 5.7796 -0.5890 0.9756
-5.3321 11.5715 -1.2232 0.9501
-8.2133 11.7308 -1.3748 0.9441
-9.9659 11.8238 -1.4846 0.9398
-12.0456 11.9387 -1.6282 0.9341
-16.2064 11.1330 -1.8876 0.9240
-15.4266 -9.7099 -1.7500 0.9294
-10.7799 -8.2169 -1.3013 0.9470
-11.6997 -10.7002 -1.5221 0.9383
-3.6406 -7.1328 -0.7688 0.9683
-0.4796 -19.6821 -1.8901 0.9239
1.2899 -19.7691 -1.9020 0.9235
4.7454 -19.0458 -1.8844 0.9242
6.3694 -18.3737 -1.8669 0.9248
7.9173 -17.5773 -1.8508 0.9255
9.3813 -16.6647 -1.8360 0.9260
12.0306 -14.5245 -1.8106 0.9270
13.2042 -13.3137 -1.8002 0.9274
18.2039 -2.9924 -1.7711 0.9285
18.2890 3.6148 -1.7898 0.9278
16.1992 6.3608 -1.6708 0.9325
15.6662 7.8337 -1.6816 0.9320
14.2340 10.6578 -1.7071 0.9310
11.8146 10.6204 -1.5252 0.9382
8.3827 10.8111 -1.3134 0.9465
5.7128 10.9594 -1.1865 0.9515
3.7397 12.0261 -1.2091 0.9507
1.2034 5.5920 -0.5492 0.9773
-0.3464 6.1171 -0.5882 0.9757
-1.4599 6.0816 -0.6004 0.9752
-5.0872 11.5579 -1.2123 0.9505
-6.4170 11.6315 -1.2753 0.9480
-7.9052 11.7138 -1.3567 0.9448
-12.5263 10.7361 -1.5839 0.9359
-12.4752 5.8738 -1.3238 0.9461
-16.1279 -9.7689 -1.8102 0.9270
-3.7295 -7.0073 -0.7621 0.9686
-10.3703 -14.1104 -2.0801 0.9319
-8.9856 -14.8457 -2.0613 0.9325
-7.5524 -15.4462 -2.0424 0.9331
-1.5997 -16.4901 -1.9680 0.9354
-0.1181 -16.4195 -1.9505 0.9360
2.3942 -8.9515 -1.1007 0.9634
5.4632 -14.9264 -1.8881 0.9380
7.9261 -13.5310 -1.8628 0.9388
5.4310 -7.6169 -1.1112 0.9630
10.0954 -11.7709 -1.8420 0.9394
11.0559 -10.7712 -1.8335 0.9397
12.4176 -6.8454 -1.6843 0.9445
14.8177 -3.5520 -1.8100 0.9405
15.0827 -2.2141 -1.8108 0.9404
15.2180 1.8780 -1.8214 0.9401
15.0402 3.2419 -1.8276 0.9399
13.6267 4.2423 -1.6953 0.9441
3.5179 12.0377 -1.4897 0.9507
1.1768 5.9641 -0.7221 0.9758
1.1847 11.2100 -1.3390 0.9556
0.0964 6.1084 -0.7257 0.9757
-1.0004 6.0734 -0.7312 0.9755
-2.0763 5.8273 -0.7348 0.9754
-5.3318 11.5708 -1.5133 0.9500
-6.6882 11.6458 -1.5953 0.9473
-9.9652 11.8230 -1.8367 0.9396
-14.1885 9.7468 -2.0448 0.9330
-15.0507 8.4662 -2.0513 0.9328
-18.2148 4.5320 -2.2296 0.9272
-15.8036 -6.3625 -2.0237 0.9337
-9.1176 -8.3387 -1.4677 0.9514
-7.7084 -8.4340 -1.3572 0.9550
-10.6292 -13.9542 -2.0837 0.9318
-3.6434 -7.1384 -0.9520 0.9682
-6.3679 -15.8320 -2.0270 0.9336
1.0616 -16.2702 -1.9368 0.9364
2.4908 -15.9751 -1.9205 0.9369
3.8776 -15.5629 -1.9052 0.9374
4.0472 -8.9851 -1.1706 0.9611
5.2772 -7.6767 -1.1066 0.9632
9.9014 -11.9539 -1.8438 0.9394
10.9156 -9.1943 -1.6953 0.9441
9.7260 -6.8049 -1.4100 0.9533
12.1835 -6.9917 -1.6686 0.9450
13.8638 -6.3829 -1.8130 0.9404
15.2172 -1.1190 -1.8125 0.9404
15.2838 0.2462 -1.8157 0.9403
13.7858 4.0337 -1.7062 0.9438
13.3350 5.2361 -1.7017 0.9439
12.8814 6.4412 -1.7108 0.9436
12.3266 7.6118 -1.7209 0.9433
11.6723 8.7398 -1.7321 0.9430
10.9207 9.8169 -1.7443 0.9426
9.9699 10.7222 -1.7392 0.9427
8.3822 10.8104 -1.6249 0.9464
-1.4598 6.0811 -0.7429 0.9751
-5.0869 11.5572 -1.4999 0.9504
-6.4166 11.6308 -1.5779 0.9479
-9.6069 11.8032 -1.8078 0.9405
-12.5219 10.7324 -1.9590 0.9357
-14.0092 9.9818 -2.0433 0.9331
-18.1340 4.8439 -2.2296 0.9272
-18.4890 3.2025 -2.2289 0.9272
-18.7013 -0.1407 -2.2215 0.9274
-18.5578 -1.8064 -2.2148 0.9276
-15.9284 -6.0972 -2.0260 0.9336
-15.2254 -7.4506 -2.0135 0.9340
-13.3943 -11.8342 -2.1231 0.9305
-12.1807 -12.8763 -2.1055 0.9311
-9.5232 -14.5795 -2.0686 0.9323
-3.7356 -7.0188 -0.9445 0.9685
-6.6507 -15.7485 -2.0307 0.9335
-5.1677 -16.1286 -2.0118 0.9341
-7.4669 -8.4568 -1.5985 0.9554
-6.2463 -8.4990 -1.4945 0.9583
-7.4947 -12.3826 -2.0508 0.9432
-3.5988 -7.3603 -1.1609 0.9674
-2.5978 -13.7881 -1.9880 0.9449
-1.3444 -13.8582 -1.9728 0.9453
-0.0994 -13.8185 -1.9580 0.9457
0.7258 -8.7969 -1.2507 0.9650
4.6212 -12.6260 -1.9050 0.9471
5.6974 -12.0902 -1.8937 0.9474
6.7184 -11.4693 -1.8834 0.9477
5.6218 -6.5548 -1.2235 0.9657
8.7140 -8.4896 -1.7238 0.9520
9.4063 -7.6509 -1.7180 0.9522
10.0248 -6.7606 -1.7132 0.9523
12.2967 -4.1404 -1.8384 0.9489
12.6143 -3.0238 -1.8380 0.9489
11.2535 4.6433 -1.7249 0.9520
10.8430 5.6566 -1.7328 0.9518
7.4336 4.7685 -1.2513 0.9649
8.3643 9.3109 -1.7734 0.9507
5.4814 10.9710 -1.7377 0.9517
3.5177 12.0371 -1.7769 0.9506
0.0964 6.1079 -0.8655 0.9756
-0.4516 6.1128 -0.8685 0.9755
-2.0745 5.8221 -0.8757 0.9753
-6.6878 11.6450 -1.9027 0.9472
-10.0009 9.9122 -1.9951 0.9447
-11.6913 8.0313 -2.0097 0.9443
-12.3948 6.9722 -2.0150 0.9442
-14.5905 5.0526 -2.1878 0.9395
-14.9896 3.7295 -2.1886 0.9395
-14.9862 -3.0959 -2.1682 0.9401
-14.5911 -4.4056 -2.1596 0.9403
-13.0552 -5.2560 -1.9941 0.9447
-10.7512 -8.1950 -1.9154 0.9469
-3.6377 -7.1271 -1.1338 0.9682
-2.5973 -8.6123 -1.2746 0.9643
-2.8383 -13.7619 -1.9910 0.9448
-0.3371 -13.8345 -1.9608 0.9456
0.8944 -13.7081 -1.9464 0.9460
2.1013 -13.4773 -1.9327 0.9464
3.2754 -13.1460 -1.9196 0.9467
4.4090 -12.7185 -1.9073 0.9471
4.0468 -8.9843 -1.3962 0.9610
6.5272 -11.5947 -1.8853 0.9477
5.2580 -7.6487 -1.3151 0.9632
9.2791 -7.8159 -1.7190 0.9522
9.9121 -6.9351 -1.7141 0.9523
11.0094 -6.3179 -1.7985 0.9500
11.7994 -5.4324 -1.8405 0.9489
12.2253 -4.3514 -1.8387 0.9489
12.8033 -2.1046 -1.8384 0.9489
12.9518 -0.9525 -1.8401 0.9489
13.0051 0.2095 -1.8429 0.9488
12.8230 2.5345 -1.8520 0.9486
12.5811 3.6812 -1.8573 0.9484
10.9285 5.4646 -1.7312 0.9518
7.6690 4.7357 -1.2771 0.9642
9.2376 8.3039 -1.7600 0.9511
6.8395 10.6698 -1.7957 0.9501
5.7121 10.9581 -1.7509 0.9513
1.2062 5.6047 -0.8123 0.9771
1.3783 11.1987 -1.5987 0.9554
-0.3464 6.1162 -0.8680 0.9756
-0.8973 6.0986 -0.8734 0.9754
-5.0865 11.5565 -1.7890 0.9503
-7.7916 11.5454 -1.9735 0.9453
-8.8393 10.8601 -1.9840 0.9450
-10.7263 9.1934 -2.0016 0.9445
-11.5450 8.2260 -2.0086 0.9443
-14.4693 5.2905 -2.1829 0.9397
-14.9231 3.9862 -2.1886 0.9395
-15.3754 1.2635 -2.1859 0.9396
-15.3998 -0.1158 -2.1821 0.9397
-13.2172 -5.0594 -2.0053 0.9444
-12.5886 -6.1603 -1.9858 0.9450
-9.5448 -5.7814 -1.5811 0.9559
-11.1583 -8.2064 -1.9626 0.9456
-11.1167 -9.8219 -2.1018 0.9418
-9.0607 -11.4807 -2.0723 0.9426
-7.9385 -12.1534 -2.0568 0.9430
-5.5609 -13.1681 -2.0253 0.9439
-3.5813 -7.3246 -1.3432 0.9675
-2.2358 -11.8672 -1.9894 0.9522
-1.1583 -11.9403 -1.9763 0.9525
-0.0857 -11.9185 -1.9635 0.9528
1.5478 -8.9185 -1.4912 0.9640
4.9363 -10.4751 -1.9077 0.9541
5.4036 -9.2247 -1.7612 0.9576
5.4051 -7.5806 -1.5338 0.9630
5.6235 -6.5568 -1.4230 0.9656
10.3390 -4.5466 -1.8607 0.9552
10.6957 -3.6014 -1.8592 0.9553
10.9724 -2.6302 -1.8588 0.9553
11.1673 -1.6393 -1.8594 0.9553
11.3070 0.3763 -1.8637 0.9552
11.1091 2.3946 -1.8721 0.9550
10.8834 3.3883 -1.8778 0.9548
10.2018 4.2094 -1.8181 0.9562
9.4064 4.9072 -1.7478 0.9579
7.4104 4.7536 -1.4504 0.9649
8.4603 6.5644 -1.7641 0.9575
5.7528 9.3230 -1.8047 0.9566
4.9275 9.8623 -1.8162 0.9563
4.0524 10.3304 -1.8281 0.9560
1.1772 5.9661 -1.0018 0.9756
1.1846 11.2088 -1.8568 0.9553
-1.5695 6.0766 -1.0339 0.9749
-2.0726 5.8170 -1.0173 0.9753
-6.8111 9.7281 -1.9564 0.9530
-12.9503 2.0148 -2.1591 0.9483
-13.0658 0.8482 -2.1570 0.9483
-12.9583 -1.4864 -2.1487 0.9485
-12.7375 -2.6314 -2.1427 0.9486
-10.6190 -5.4244 -1.9644 0.9528
-9.0820 -5.7164 -1.7679 0.9574
-8.6608 -7.9209 -1.9335 0.9535
-7.6376 -8.3566 -1.8650 0.9551
-7.5737 -9.9428 -2.0590 0.9506
-3.6349 -7.1216 -1.3172 0.9681
-3.1802 -7.9066 -1.4039 0.9660
-2.5974 -8.6128 -1.4820 0.9642
-2.4424 -11.8422 -1.9919 0.9522
-0.9961 -8.7093 -1.4441 0.9651
-0.2907 -11.9299 -1.9659 0.9528
4.0465 -8.9835 -1.6231 0.9608
5.2491 -9.3244 -1.7628 0.9575
5.2403 -7.6231 -1.5239 0.9632
6.7685 -8.1716 -1.7480 0.9579
7.4457 -7.5074 -1.7419 0.9580
8.8801 -6.2130 -1.7854 0.9570
10.6334 -3.7848 -1.8594 0.9553
10.9256 -2.8182 -1.8588 0.9553
8.5635 6.4120 -1.7624 0.9576
4.2238 10.2464 -1.8258 0.9561
3.3128 10.6532 -1.8379 0.9558
1.2075 5.6111 -0.9455 0.9770
0.3709 11.2539 -1.8550 0.9554
-0.3463 6.1157 -1.0091 0.9755
-0.8972 6.0981 -1.0154 0.9753
-1.4596 6.0801 -1.0301 0.9750
-2.0347 6.0364 -1.0494 0.9745
-8.3534 8.5686 -1.9714 0.9526
-9.1178 7.8148 -1.9783 0.9525
-9.8086 6.9888 -1.9841 0.9523
-10.4185 6.0983 -1.9887 0.9522
-11.3533 5.3456 -2.0673 0.9504
-12.3074 4.5000 -2.1588 0.9483
-12.6661 3.3833 -2.1598 0.9482
-13.0766 -0.0984 -2.1543 0.9484
-12.4802 -3.5356 -2.1369 0.9488
-12.0679 -4.6194 -2.1287 0.9490
-10.7201 -5.2459 -1.9661 0.9528
-10.1593 -6.1536 -1.9567 0.9530
-9.5186 -7.0005 -1.9465 0.9532
-8.8053 -7.7797 -1.9356 0.9535
-7.7526 -9.8233 -2.0615 0.9505
-4.7229 -7.2305 -1.4227 0.9656
-3.7457 -7.0377 -1.3134 0.9682
-3.6459 -8.6333 -1.5439 0.9627
-6.7302 -7.6225 -1.9113 0.9595
-4.4402 -6.0416 -1.4093 0.9699
-3.5608 -7.2825 -1.5237 0.9675
-3.8272 -10.0081 -2.0140 0.9573
-2.9001 -10.2497 -2.0022 0.9576
-0.0753 -10.4684 -1.9677 0.9583
1.7707 -10.2027 -1.9464 0.9587
2.3764 -8.8848 -1.7287 0.9633
4.0359 -8.5644 -1.7796 0.9622
4.7653 -8.1351 -1.7721 0.9624
5.3921 -7.5624 -1.7458 0.9629
6.6839 -6.5118 -1.7540 0.9627
9.1393 -4.0190 -1.8766 0.9602
9.4555 -3.1837 -1.8753 0.9602
9.9407 1.2268 -1.8826 0.9601
9.3288 3.8492 -1.8968 0.9598
8.3009 4.3305 -1.7598 0.9626
7.3872 4.7387 -1.6496 0.9649
7.4558 5.7850 -1.7738 0.9623
6.9407 6.4580 -1.7820 0.9621
6.3667 7.0872 -1.7907 0.9620
4.3273 8.6610 -1.8198 0.9614
3.5560 9.0649 -1.8303 0.9611
1.1773 5.9670 -1.1432 0.9755
1.0415 9.8553 -1.8627 0.9605
0.0964 6.1070 -1.1480 0.9754
-0.4515 6.1119 -1.1519 0.9754
-0.9623 5.8418 -1.1128 0.9762
-4.2858 9.3008 -1.9249 0.9592
-5.1236 8.9215 -1.9338 0.9590
-5.9258 8.4636 -1.9420 0.9588
-8.6246 5.9247 -1.9667 0.9583
-9.3240 5.2449 -2.0108 0.9574
-10.3630 4.6637 -2.1360 0.9548
-10.7474 3.7218 -2.1378 0.9548
-11.2384 1.7485 -2.1378 0.9548
-11.3401 0.7362 -2.1360 0.9548
-9.9595 -5.0875 -2.1021 0.9555
-8.7426 -5.5028 -1.9417 0.9588
-8.1779 -6.2335 -1.9327 0.9590
-4.1789 -6.6441 -1.4753 0.9686
-2.4560 -6.1060 -1.2371 0.9736
-2.5976 -8.6132 -1.6910 0.9640
-0.9963 -8.7109 -1.6480 0.9649
-0.2553 -10.4768 -1.9698 0.9582
0.6785 -10.3996 -1.9589 0.9585
3.6457 -6.4761 -1.3969 0.9702
5.9743 -7.2127 -1.7604 0.9626
7.2797 -6.1317 -1.7890 0.9620
9.0707 -4.1761 -1.8769 0.9602
9.8450 -1.6183 -1.8753 0.9602
9.9571 -0.7323 -1.8766 0.9602
9.9945 0.1610 -1.8788 0.9601
9.6549 2.8250 -1.8908 0.9599
7.6303 4.7118 -1.6856 0.9642
7.5477 5.6514 -1.7723 0.9624
6.4812 6.9702 -1.7890 0.9620
5.8620 7.5602 -1.7982 0.9618
5.1904 8.0972 -1.8078 0.9616
4.4705 8.5762 -1.8178 0.9614
3.7070 8.9926 -1.8282 0.9612
1.2089 5.6176 -1.0801 0.9769
1.2092 9.8248 -1.8606 0.9605
-0.3463 6.1152 -1.1513 0.9754
-1.4595 6.0796 -1.1752 0.9749
-5.7751 8.5574 -1.9405 0.9589
-6.5426 8.0384 -1.9481 0.9587
-7.2604 7.4474 -1.9549 0.9586
-8.5180 6.0692 -1.9659 0.9583
-9.0448 5.2942 -1.9699 0.9582
-11.3281 0.9309 -2.1364 0.9548
-11.3514 -0.0854 -2.1337 0.9548
-11.1081 -2.0966 -2.1248 0.9550
-10.8452 -3.0725 -2.1187 0.9552
-10.4922 -4.0163 -2.1117 0.9553
-7.6754 -6.7814 -1.9251 0.9592
-7.0022 -7.4021 -1.9152 0.9594
-3.9722 -6.0813 -1.3653 0.9709
-3.5272 -6.6270 -1.4111 0.9699
-2.5611 -6.0647 -1.2374 0.9736
-3.6897 -6.0960 -1.5062 0.9713
-1.6180 -8.5876 -1.8472 0.9649
-0.8394 -8.6530 -1.8377 0.9651
-0.0622 -8.6495 -1.8284 0.9653
1.4647 -8.4400 -1.8107 0.9656
2.2033 -8.2376 -1.8025 0.9657
4.2581 -7.2691 -1.7808 0.9661
4.8741 -6.8359 -1.7747 0.9663
5.4489 -6.3533 -1.7692 0.9664
6.2302 -6.0698 -1.8386 0.9651
7.4292 -5.0102 -1.8941 0.9640
8.6849 -2.0819 -1.8878 0.9641
8.8963 1.0979 -1.8948 0.9640
8.5961 2.6762 -1.9031 0.9639
8.3456 3.4435 -1.9084 0.9638
6.6586 5.1664 -1.7815 0.9661
6.1955 5.7646 -1.7888 0.9660
5.6801 6.3229 -1.7966 0.9658
3.8539 7.7135 -1.8227 0.9654
3.1650 8.0681 -1.8320 0.9652
2.4437 8.3619 -1.8415 0.9650
0.9252 8.7545 -1.8608 0.9646
-0.9787 5.9419 -1.2729 0.9757
-2.0492 5.7514 -1.2906 0.9753
-3.7929 8.2313 -1.9158 0.9636
-4.5320 7.8914 -1.9236 0.9635
-5.2390 7.4827 -1.9308 0.9633
-6.5295 6.4716 -1.9433 0.9631
-9.9164 1.5428 -2.1213 0.9598
-10.0072 0.6496 -2.1198 0.9598
-10.0129 -0.2473 -2.1172 0.9599
-9.7709 -2.0185 -2.1090 0.9600
-9.5265 -2.8764 -2.1035 0.9601
-8.8053 -4.4979 -2.0900 0.9604
-8.3365 -5.2472 -2.0822 0.9605
-5.4387 -7.1400 -1.8972 0.9640
-3.3847 -6.6315 -1.5738 0.9700
-2.4555 -6.1049 -1.3909 0.9735
-1.7669 -8.5671 -1.8490 0.9649
-0.2109 -8.6554 -1.8301 0.9652
0.5609 -8.5969 -1.8211 0.9654
2.0633 -8.2813 -1.8040 0.9657
2.7832 -8.0285 -1.7962 0.9659
3.4755 -7.7159 -1.7888 0.9660
4.1355 -7.3462 -1.7820 0.9661
4.7591 -6.9229 -1.7758 0.9662
6.0151 -6.0650 -1.8056 0.9657
7.3445 -5.1387 -1.8947 0.9640
8.4160 -2.9956 -1.8883 0.9641
8.8075 1.7408 -1.8977 0.9640
8.6365 2.5270 -1.9021 0.9639
8.3987 3.2978 -1.9073 0.9638
8.0826 4.0416 -1.9102 0.9637
7.1386 4.4081 -1.7735 0.9663
6.7412 5.0475 -1.7801 0.9662
6.2884 5.6528 -1.7874 0.9660
5.2275 6.7419 -1.8033 0.9657
3.9819 7.6388 -1.8209 0.9654
3.2998 8.0047 -1.8302 0.9652
1.2103 5.6241 -1.2160 0.9768
1.0743 8.7286 -1.8590 0.9647
-0.3463 6.1148 -1.2946 0.9753
-1.4594 6.0792 -1.3215 0.9748
-2.0309 6.0249 -1.3440 0.9743
-3.6481 8.2884 -1.9142 0.9637
-6.4140 6.5792 -1.9422 0.9631
-6.9952 5.9955 -1.9474 0.9630
-8.6190 5.0450 -2.1110 0.9600
-9.0711 4.2711 -2.1194 0.9598
-9.4245 3.4459 -2.1211 0.9598
-9.9964 0.8215 -2.1202 0.9598
-10.0184 -0.0754 -2.1177 0.9599
-9.8085 -1.8513 -2.1099 0.9600
-9.5796 -2.7139 -2.1046 0.9601
-8.4316 -5.1072 -2.0837 0.9605
-5.5657 -7.0523 -1.8990 0.9639
-3.5308 -6.6340 -1.5885 0.9697
-2.5617 -6.0660 -1.3919 0.9734
-2.6857 -8.3823 -1.8606 0.9647
-5.3491 -6.0582 -1.8994 0.9673
-4.7653 -6.4838 -1.8911 0.9675
-2.1506 -7.6008 -1.8565 0.9681
-1.4557 -7.7263 -1.8478 0.9682
-0.0560 -7.7899 -1.8309 0.9685
0.6377 -7.7293 -1.8227 0.9686
1.3204 -7.6086 -1.8149 0.9688
4.4026 -6.1746 -1.7823 0.9693
5.1558 -6.0115 -1.8613 0.9680
5.8251 -5.6751 -1.9113 0.9671
6.7169 -4.5298 -1.9041 0.9673
7.3992 -3.2538 -1.8997 0.9673
7.6562 -2.5779 -1.8986 0.9674
7.9935 -1.1734 -1.8988 0.9673
8.0716 -0.4544 -1.9000 0.9673
7.9364 1.7107 -1.9081 0.9672
7.5400 3.1111 -1.9170 0.9670
7.2523 3.7834 -1.9225 0.9669
6.8252 4.3782 -1.9057 0.9672
6.0098 4.6630 -1.7877 0.9692
5.5896 5.2008 -1.7944 0.9691
5.1224 5.7021 -1.8015 0.9690
2.1984 7.5225 -1.8419 0.9683
1.2118 6.1415 -1.4712 0.9746
0.0963 6.1060 -1.4352 0.9752
-1.0000 6.0710 -1.4461 0.9750
-3.3984 7.3751 -1.9085 0.9672
-4.6902 6.6989 -1.9219 0.9670
-5.8416 5.7898 -1.9330 0.9668
-7.3462 5.0465 -2.0947 0.9640
-7.8046 4.3902 -2.1046 0.9639
-8.1748 3.6790 -2.1069 0.9638
-8.7070 2.1664 -2.1087 0.9638
-8.9519 -0.2211 -2.1045 0.9639
-8.8827 -1.0189 -2.1013 0.9639
-8.7391 -1.8054 -2.0973 0.9640
-8.2364 -3.3160 -2.0867 0.9642
-7.4662 -4.6994 -2.0734 0.9644
-5.4567 -5.9704 -1.9010 0.9673
-2.4551 -6.1038 -1.5462 0.9733
-0.1899 -7.7946 -1.8324 0.9685
0.5054 -7.7456 -1.8243 0.9686
1.1906 -7.6363 -1.8164 0.9687
3.7340 -6.6329 -1.7889 0.9692
4.2984 -6.2528 -1.7833 0.9693
5.7293 -5.7768 -1.9122 0.9671
6.6402 -4.6459 -1.9046 0.9672
7.3434 -3.3809 -1.9000 0.9673
7.8213 -2.0174 -1.8983 0.9674
7.9716 -1.3104 -1.8987 0.9674
8.0898 0.1303 -1.9015 0.9673
7.9617 1.5736 -1.9074 0.9672
7.8054 2.2838 -1.9114 0.9671
7.5885 2.9797 -1.9160 0.9671
7.3120 3.6563 -1.9214 0.9670
5.2155 5.6090 -1.8001 0.9690
4.7125 6.0777 -1.8075 0.9689
3.5862 6.8797 -1.8234 0.9686
2.9703 7.2056 -1.8317 0.9685
1.1660 5.4179 -1.3025 0.9775
-0.3196 5.6442 -1.3286 0.9770
-0.8275 5.6242 -1.3360 0.9769
-1.3409 5.5856 -1.3500 0.9767
-1.8662 5.5365 -1.3731 0.9763
-3.2689 7.4269 -1.9071 0.9672
-5.1750 6.3582 -1.9267 0.9669
-6.2568 5.3626 -1.9367 0.9667
-8.1090 3.8181 -2.1065 0.9638
-8.8395 1.5311 -2.1084 0.9638
-8.5699 -2.4278 -2.0934 0.9641
-4.9935 -6.3271 -1.8943 0.9674
-4.2935 -6.5732 -1.8452 0.9683
-3.5018 -6.5794 -1.7517 0.9698
-2.5623 -6.0673 -1.5479 0.9733
-4.8578 -5.5018 -1.9003 0.9701
-4.3174 -5.8744 -1.8876 0.9703
-3.1760 -6.4955 -1.8721 0.9706
-2.5717 -6.7249 -1.8642 0.9707
-0.6864 -7.0754 -1.8405 0.9711
0.5798 -7.0267 -1.8255 0.9713
3.5015 -5.9775 -1.7937 0.9718
4.8359 -5.6385 -1.9233 0.9698
5.7389 -4.6679 -1.9154 0.9699
6.4604 -3.5614 -1.9100 0.9700
6.9817 -2.3508 -1.9074 0.9700
7.3600 -0.4144 -1.9086 0.9700
7.0796 2.2041 -1.9198 0.9698
6.6061 3.4463 -1.9292 0.9697
5.7274 4.4439 -1.8769 0.9705
5.0868 4.7330 -1.7990 0.9717
4.1934 5.6043 -1.8123 0.9715
3.6901 5.9803 -1.8194 0.9714
3.1535 6.3118 -1.8269 0.9713
2.5874 6.5959 -1.8345 0.9711
1.9959 6.8296 -1.8423 0.9710
-1.8243 7.0628 -1.8887 0.9703
-2.1402 6.0066 -1.6510 0.9740
-3.6715 6.3930 -1.9088 0.9700
-4.2412 6.0576 -1.9146 0.9699
-5.2795 5.2327 -1.9246 0.9698
-7.0497 3.9655 -2.0942 0.9671
-7.6553 2.6510 -2.0976 0.9671
-8.0859 -0.1997 -2.0942 0.9671
-8.0247 -0.9204 -2.0913 0.9672
-7.7027 -2.3257 -2.0833 0.9673
-7.4458 -2.9977 -2.0782 0.9674
-6.3256 -4.8217 -2.0594 0.9677
-5.8485 -5.3489 -2.0521 0.9678
-3.2896 -6.4452 -1.8736 0.9705
-2.4546 -6.1027 -1.7031 0.9732
-1.4431 -6.9972 -1.8498 0.9709
2.8556 -6.3398 -1.8003 0.9717
3.4003 -6.0402 -1.7947 0.9718
4.0945 -5.9562 -1.8714 0.9706
4.7406 -5.7233 -1.9242 0.9698
5.2213 -5.2646 -1.9198 0.9698
7.1323 -1.8397 -1.9071 0.9700
7.2693 -1.1949 -1.9074 0.9700
7.3449 0.7787 -1.9124 0.9699
7.2573 1.4344 -1.9154 0.9699
7.1135 2.0814 -1.9190 0.9698
5.1689 4.6465 -1.7996 0.9717
4.7450 5.1030 -1.8042 0.9716
4.2858 5.5274 -1.8110 0.9715
3.7893 5.9115 -1.8181 0.9714
3.2589 6.2518 -1.8254 0.9713
2.6981 6.5452 -1.8330 0.9712
1.5021 6.9800 -1.8486 0.9709
-1.0569 7.1832 -1.8799 0.9704
-1.7015 7.0878 -1.8873 0.9703
-4.6785 5.7481 -1.9190 0.9698
-5.1866 5.3202 -1.9238 0.9698
-7.9830 1.3827 -2.0977 0.9671
-8.0900 -0.0609 -2.0947 0.9671
-8.0416 -0.7828 -2.0920 0.9672
-7.9261 -1.4960 -2.0885 0.9672
-7.4998 -2.8708 -2.0792 0.9674
-7.1937 -3.5203 -2.0736 0.9674
-5.9436 -5.2513 -2.0535 0.9678
-2.5628 -6.0687 -1.7056 0.9731
-2.1911 -6.8384 -1.8593 0.9708
-3.4343 -5.6741 -1.8776 0.9728
-2.9023 -5.9357 -1.8705 0.9729
-0.6281 -6.4750 -1.8416 0.9733
-0.0466 -6.4806 -1.8346 0.9734
1.1001 -6.3390 -1.8213 0.9736
2.1966 -6.0015 -1.8092 0.9738
2.7778 -5.8947 -1.8448 0.9733
3.4618 -5.9098 -1.9389 0.9719
3.9660 -5.5623 -1.9339 0.9720
4.4371 -5.1735 -1.9295 0.9721
5.6213 -3.7909 -1.9194 0.9722
6.4103 -2.1584 -1.9148 0.9723
6.6926 -0.9825 -1.9149 0.9723
6.6395 1.4311 -1.9228 0.9722
6.4967 2.0226 -1.9263 0.9721
6.3031 2.6007 -1.9303 0.9721
6.0597 3.1613 -1.9349 0.9720
4.8307 4.4948 -1.8680 0.9729
4.2700 4.7533 -1.8088 0.9738
3.8413 5.1337 -1.8151 0.9737
3.3791 5.4762 -1.8217 0.9736
2.8868 5.7779 -1.8285 0.9735
1.8257 6.2474 -1.8426 0.9733
1.2116 6.1405 -1.7718 0.9743
0.6894 6.5233 -1.8570 0.9731
-0.9998 6.0700 -1.7415 0.9747
-2.1400 6.0061 -1.8050 0.9738
-3.3482 5.8301 -1.9033 0.9724
-6.9719 2.4143 -2.0887 0.9698
-7.1611 1.7817 -2.0891 0.9698
-7.2904 1.1342 -2.0887 0.9698
-7.3586 0.4777 -2.0875 0.9698
-7.3102 -0.8385 -2.0830 0.9699
-7.1945 -1.4863 -2.0797 0.9699
-6.4989 -3.3197 -2.0659 0.9701
-6.1590 -3.8766 -2.0602 0.9702
-5.7703 -4.3984 -2.0540 0.9703
-5.3367 -4.8808 -2.0474 0.9704
-4.8624 -5.3201 -2.0404 0.9705
-4.2054 -5.5209 -1.9647 0.9716
-3.5338 -5.6184 -1.8790 0.9728
-1.8944 -6.2815 -1.8574 0.9731
-1.3201 -6.4007 -1.8501 0.9732
-0.7397 -6.4680 -1.8430 0.9733
0.4207 -6.4476 -1.8292 0.9735
0.9918 -6.3612 -1.8226 0.9736
1.5511 -6.2255 -1.8163 0.9737
2.0945 -6.0420 -1.8103 0.9738
2.6536 -5.8913 -1.8292 0.9735
3.3262 -5.9087 -1.9195 0.9722
4.3495 -5.2511 -1.9303 0.9721
4.7914 -4.8311 -1.9262 0.9721
5.5568 -3.8878 -1.9199 0.9722
6.3727 -2.2683 -1.9149 0.9723
6.7489 -0.4963 -1.9157 0.9723
6.5281 1.9101 -1.9255 0.9721
6.3441 2.4911 -1.9295 0.9721
6.1102 3.0553 -1.9340 0.9720
5.8277 3.5986 -1.9390 0.9719
5.4927 4.1127 -1.9425 0.9719
4.9846 4.4808 -1.8974 0.9725
4.3482 4.6763 -1.8077 0.9738
2.4692 5.9898 -1.8341 0.9734
1.9313 6.2105 -1.8412 0.9733
0.2167 6.5767 -1.8628 0.9730
-0.3735 6.5948 -1.8699 0.9729
-0.9651 6.5594 -1.8769 0.9728
-2.6986 6.1312 -1.8964 0.9725
-4.2646 5.2395 -1.9125 0.9723
-5.5669 4.7713 -2.0756 0.9700
-6.3569 3.7209 -2.0852 0.9698
-6.6706 3.1408 -2.0872 0.9698
-6.9289 2.5335 -2.0885 0.9698
-7.1294 1.9044 -2.0891 0.9698
-7.2703 1.2593 -2.0888 0.9698
-7.3503 0.6040 -2.0878 0.9698
-7.3687 -0.0554 -2.0861 0.9698
-7.3255 -0.7131 -2.0836 0.9699
-6.5582 -3.2093 -2.0670 0.9701
-6.2281 -3.7724 -2.0613 0.9702
-5.8485 -4.3013 -2.0552 0.9703
-5.4232 -4.7915 -2.0487 0.9704
-2.0034 -6.2528 -1.8588 0.9731
-4.3805 -4.9612 -2.0357 0.9727
-3.9065 -5.3153 -2.0289 0.9728
-3.3636 -5.5572 -1.9980 0.9732
-1.6427 -5.8056 -1.8558 0.9751
-1.1131 -5.9079 -1.8491 0.9752
-0.5784 -5.9626 -1.8426 0.9752
-0.0429 -5.9695 -1.8361 0.9753
0.4899 -5.9381 -1.8326 0.9754
1.5596 -5.8312 -1.8566 0.9751
2.1410 -5.8496 -1.9159 0.9743
2.7006 -5.7308 -1.9486 0.9738
3.6596 -5.1326 -1.9389 0.9740
4.0950 -4.7747 -1.9347 0.9740
5.7202 -2.5155 -1.9220 0.9742
5.9196 -1.9932 -1.9212 0.9742
6.0733 -1.4558 -1.9209 0.9742
6.2397 -0.3513 -1.9222 0.9742
6.2143 0.7669 -1.9259 0.9741
5.9967 1.8669 -1.9318 0.9741
5.5914 2.9170 -1.9398 0.9740
4.0739 4.5350 -1.8750 0.9748
2.1802 5.5577 -1.8363 0.9753
1.6806 5.7509 -1.8428 0.9752
1.1640 5.8992 -1.8495 0.9752
0.6342 6.0011 -1.8561 0.9751
-0.9911 6.0169 -1.8756 0.9748
-2.5761 5.5906 -1.8933 0.9746
-3.0741 5.3527 -1.8986 0.9745
-4.1851 4.9653 -1.9974 0.9732
-5.5633 3.8217 -2.0760 0.9721
-5.8895 3.3129 -2.0784 0.9721
-6.3938 2.2141 -2.0812 0.9721
-6.5672 1.6340 -2.0815 0.9721
-6.7552 -0.1668 -2.0784 0.9721
-6.7055 -0.7691 -2.0760 0.9721
-6.6003 -1.3635 -2.0730 0.9722
-5.9654 -3.0472 -2.0603 0.9724
-5.6547 -3.5592 -2.0551 0.9724
-4.9023 -4.4834 -2.0433 0.9726
-3.9997 -5.2509 -2.0302 0.9728
-3.4893 -5.5476 -2.0158 0.9729
-2.2677 -5.6379 -1.8691 0.9749
-1.7433 -5.7805 -1.8571 0.9750
-1.2152 -5.8920 -1.8504 0.9751
-0.6812 -5.9558 -1.8438 0.9752
0.3876 -5.9405 -1.8311 0.9754
0.9141 -5.8626 -1.8250 0.9755
1.4519 -5.8275 -1.8472 0.9752
2.6032 -5.7793 -1.9496 0.9738
3.5726 -5.1970 -1.9397 0.9740
4.0140 -4.8462 -1.9355 0.9740
4.4226 -4.4593 -1.9318 0.9741
4.7956 -4.0393 -1.9285 0.9741
5.1304 -3.5895 -1.9259 0.9741
5.4248 -3.1131 -1.9238 0.9742
5.6768 -2.6136 -1.9222 0.9742
6.1635 -1.0132 -1.9212 0.9742
6.2321 -0.4583 -1.9220 0.9742
6.2527 0.1007 -1.9234 0.9742
6.0258 1.7631 -1.9311 0.9741
4.2058 4.5231 -1.8997 0.9745
3.6186 4.6669 -1.8164 0.9756
2.7481 5.2719 -1.8286 0.9754
1.2642 5.8743 -1.8482 0.9752
0.7366 5.9853 -1.8548 0.9751
-0.8871 6.0291 -1.8744 0.9748
-2.9802 5.4019 -1.8976 0.9745
-3.4601 5.1271 -1.9025 0.9744
-4.0393 4.9628 -1.9682 0.9736
-4.6838 4.8045 -2.0638 0.9723
-5.8306 3.4128 -2.0780 0.9721
-6.3544 2.3234 -2.0810 0.9721
-6.6674 1.1549 -2.0813 0.9721
-6.6247 -1.2504 -2.0736 0.9722
-6.4754 -1.8345 -2.0701 0.9722
-6.2730 -2.4012 -2.0660 0.9723
-6.0196 -2.9457 -2.0613 0.9723
-5.7178 -3.4634 -2.0561 0.9724
-5.3706 -3.9498 -2.0505 0.9725
-1.8435 -5.7537 -1.8583 0.9750
-4.0476 -4.5842 -2.0328 0.9746
-3.6105 -4.9127 -2.0266 0.9746
-3.1469 -5.1993 -2.0202 0.9747
-2.6609 -5.4421 -2.0136 0.9748
-1.0713 -5.6864 -1.9234 0.9759
-0.0413 -5.7410 -1.9084 0.9761
0.4756 -5.7645 -1.9226 0.9759
1.0041 -5.7857 -1.9520 0.9756
1.5257 -5.7041 -1.9627 0.9754
2.0238 -5.5295 -1.9573 0.9755
3.3938 -4.7598 -1.9432 0.9757
4.5114 -3.6695 -1.9330 0.9758
5.3080 -2.3342 -1.9275 0.9759
5.4933 -1.8496 -1.9267 0.9759
5.6360 -1.3510 -1.9265 0.9759
5.7352 -0.8419 -1.9268 0.9759
5.8003 0.1931 -1.9291 0.9758
5.7657 0.7115 -1.9311 0.9758
5.6863 1.2257 -1.9336 0.9758
5.5626 1.7318 -1.9366 0.9757
5.3952 2.2261 -1.9400 0.9757
5.1851 2.7050 -1.9440 0.9756
4.6423 3.6020 -1.9532 0.9755
3.9379 4.3836 -1.9587 0.9755
3.4173 4.5671 -1.8961 0.9762
2.8834 4.6729 -1.8252 0.9771
0.5866 5.5506 -1.8553 0.9767
-0.4139 5.6028 -1.8675 0.9766
-1.4137 5.4733 -1.8790 0.9765
-1.9028 5.3404 -1.8845 0.9764
-2.3791 5.1631 -1.8897 0.9763
-3.9860 4.7290 -2.0559 0.9743
-4.4098 4.3707 -2.0638 0.9742
-5.6891 2.5603 -2.0738 0.9740
-5.8979 2.0424 -2.0747 0.9740
-6.0578 1.5072 -2.0750 0.9740
-6.2255 0.4041 -2.0738 0.9740
-5.2212 -3.2864 -2.0507 0.9743
-4.8940 -3.7304 -2.0455 0.9744
-4.5284 -4.1416 -2.0399 0.9745
-4.1281 -4.5167 -2.0340 0.9745
-3.6965 -4.8529 -2.0278 0.9746
-3.2377 -5.1476 -2.0214 0.9747
-2.7556 -5.3990 -2.0149 0.9748
-2.2545 -5.6053 -2.0083 0.9749
-1.7032 -5.6477 -1.9608 0.9754
-1.1715 -5.6805 -1.9280 0.9758
-0.6530 -5.7098 -1.9104 0.9761
-0.1398 -5.7362 -1.9073 0.9761
0.3758 -5.7601 -1.9188 0.9760
0.9015 -5.7818 -1.9451 0.9756
1.9296 -5.5663 -1.9583 0.9755
2.4131 -5.3574 -1.9531 0.9755
2.8753 -5.1076 -1.9483 0.9756
3.3129 -4.8193 -1.9440 0.9757
3.7229 -4.4947 -1.9400 0.9757
4.4490 -3.7474 -1.9336 0.9758
5.6119 -1.4475 -1.9265 0.9759
5.7195 -0.9402 -1.9267 0.9759
5.7758 0.6123 -1.9307 0.9758
5.7050 1.1276 -1.9331 0.9758
5.2286 2.6145 -1.9432 0.9757
4.7012 3.5201 -1.9522 0.9755
4.3791 3.9365 -1.9573 0.9755
2.5446 4.8816 -1.8299 0.9771
2.1048 5.1060 -1.8358 0.9770
1.6454 5.2911 -1.8419 0.9769
1.1697 5.4350 -1.8480 0.9768
0.6814 5.5362 -1.8541 0.9768
0.1843 5.5934 -1.8603 0.9767
-0.3174 5.6056 -1.8663 0.9766
-1.3188 5.4936 -1.8780 0.9765
-1.8099 5.3694 -1.8835 0.9764
-2.2890 5.2005 -1.8887 0.9763
-2.7518 4.9880 -1.8936 0.9763
-4.7205 4.0459 -2.0666 0.9741
-5.0704 3.6128 -2.0695 0.9741
-5.3790 3.1485 -2.0718 0.9741
-5.6436 2.6573 -2.0735 0.9740
-6.0310 1.6110 -2.0750 0.9740
-6.1503 1.0653 -2.0748 0.9740
-6.1994 -0.6035 -2.0704 0.9741
-5.7897 -2.2162 -2.0607 0.9742
-5.2793 -3.1977 -2.0517 0.9743
-4.2074 -4.4477 -2.0351 0.9745
-3.7815 -4.7915 -2.0290 0.9746
-3.3276 -5.0944 -2.0227 0.9747
-3.7578 -4.2560 -2.0303 0.9762
-2.0040 -5.2405 -2.0064 0.9764
-1.5228 -5.3820 -2.0002 0.9765
-1.0324 -5.4796 -1.9940 0.9766
-0.5368 -5.5330 -1.9879 0.9767
0.4544 -5.5073 -1.9761 0.9768
1.4199 -5.3087 -1.9652 0.9769
1.8839 -5.1472 -1.9601 0.9770
2.3309 -4.9462 -1.9553 0.9770
3.1607 -4.4329 -1.9469 0.9771
3.8861 -3.7860 -1.9402 0.9772
4.4868 -3.0258 -1.9353 0.9773
4.7350 -2.6103 -1.9335 0.9773
4.9463 -2.1751 -1.9323 0.9773
5.1190 -1.7236 -1.9316 0.9773
5.2520 -1.2590 -1.9314 0.9773
5.3444 -0.7845 -1.9317 0.9773
5.3721 0.6630 -1.9357 0.9773
4.8289 2.5192 -1.9477 0.9771
4.3220 3.3535 -1.9563 0.9770
4.0148 3.7356 -1.9611 0.9770
3.6744 4.0902 -1.9662 0.9769
3.2949 4.4035 -1.9667 0.9769
2.8340 4.5927 -1.9299 0.9773
2.3161 4.6356 -1.8531 0.9782
1.8766 4.7837 -1.8376 0.9784
1.4458 4.9474 -1.8432 0.9783
-0.3844 5.2036 -1.8659 0.9781
-0.8505 5.1635 -1.8714 0.9780
-1.3124 5.0811 -1.8767 0.9780
-2.2457 4.8736 -1.9190 0.9775
-4.7590 3.2692 -2.0647 0.9758
-5.0372 2.8335 -2.0668 0.9757
-5.6156 1.3972 -2.0694 0.9757
-5.6473 -1.1666 -2.0621 0.9758
-5.3319 -2.1466 -2.0554 0.9759
-5.1085 -2.6095 -2.0514 0.9759
-3.8323 -4.1931 -2.0314 0.9762
-2.5599 -5.0155 -2.0137 0.9764
-2.0949 -5.2084 -2.0076 0.9764
-1.1270 -5.4643 -1.9952 0.9766
1.3293 -5.3351 -1.9662 0.9769
1.7962 -5.1813 -1.9611 0.9770
2.6774 -4.7560 -1.9518 0.9771
3.0854 -4.4882 -1.9477 0.9771
4.1448 -3.4912 -1.9380 0.9772
4.4350 -3.1030 -1.9357 0.9773
5.0889 -1.8113 -1.9317 0.9773
5.2296 -1.3489 -1.9314 0.9773
5.3299 -0.8761 -1.9316 0.9773
5.3889 -0.3963 -1.9323 0.9773
5.3816 0.5705 -1.9353 0.9773
5.2072 1.5236 -1.9402 0.9772
4.8696 2.4350 -1.9470 0.9771
4.6419 2.8664 -1.9510 0.9771
3.7421 4.0245 -1.9652 0.9769
2.9383 4.5838 -1.9471 0.9771
1.9573 4.7480 -1.8365 0.9784
1.5296 4.9190 -1.8422 0.9784
1.0871 5.0516 -1.8478 0.9783
0.6331 5.1444 -1.8536 0.9782
0.1712 5.1963 -1.8592 0.9782
-0.7613 5.1745 -1.8703 0.9780
-1.2243 5.1002 -1.8757 0.9780
-2.1439 4.8710 -1.9032 0.9776
-2.6945 4.8840 -1.9947 0.9766
-3.6271 4.4563 -2.0547 0.9759
-4.0181 4.1216 -2.0584 0.9758
-5.7647 0.4737 -2.0684 0.9757
-5.7802 -0.0435 -2.0671 0.9757
-5.6679 -1.0698 -2.0627 0.9758
-5.5415 -1.5699 -2.0597 0.9758
-5.3698 -2.0555 -2.0562 0.9759
-5.1546 -2.5224 -2.0522 0.9759
-4.8980 -2.9668 -2.0478 0.9760
-3.9058 -4.1288 -2.0325 0.9761
-3.5112 -4.4490 -2.0268 0.9762
-3.0904 -4.7313 -2.0209 0.9763
-3.5028 -3.9672 -2.0281 0.9776
-3.1259 -4.2532 -2.0228 0.9776
-2.7257 -4.5033 -2.0172 0.9777
-1.8696 -4.8889 -2.0058 0.9778
-1.4209 -5.0219 -2.0000 0.9779
-0.9635 -5.1141 -1.9943 0.9780
0.4243 -5.1430 -1.9776 0.9781
0.8801 -5.0710 -1.9723 0.9782
1.3265 -4.9594 -1.9673 0.9782
2.5772 -4.3997 -1.9540 0.9784
3.3074 -3.8564 -1.9469 0.9785
3.9302 -3.1967 -1.9414 0.9785
4.1957 -2.8295 -1.9393 0.9786
4.4281 -2.4411 -1.9377 0.9786
4.9120 -1.1775 -1.9357 0.9786
4.9983 -0.7337 -1.9360 0.9786
5.0459 -0.2841 -1.9367 0.9786
5.0544 0.1682 -1.9380 0.9786
4.8448 1.5083 -1.9445 0.9785
4.6979 1.9384 -1.9475 0.9785
4.5138 2.3548 -1.9510 0.9784
4.2936 2.7542 -1.9548 0.9784
4.0388 3.1337 -1.9590 0.9783
2.7058 4.3850 -1.9746 0.9782
0.5085 4.8113 -1.8541 0.9795
0.0765 4.8513 -1.8593 0.9794
-0.3584 4.8523 -1.8646 0.9794
-0.7929 4.8139 -1.8696 0.9793
-2.2190 4.8156 -2.0319 0.9775
-2.6514 4.6168 -2.0403 0.9775
-3.4502 4.0933 -2.0515 0.9773
-4.1364 3.4239 -2.0577 0.9773
-4.6898 2.6381 -2.0620 0.9772
-4.9101 2.2097 -2.0634 0.9772
-5.0900 1.7626 -2.0642 0.9772
-2.3018 -0.2640 -0.8879 0.9901
-5.1332 -1.5499 -2.0549 0.9773
-4.9660 -1.9993 -2.0515 0.9773
-4.5131 -2.8407 -2.0436 0.9774
-4.2317 -3.2256 -2.0391 0.9775
-3.9171 -3.5825 -2.0342 0.9775
-3.2001 -4.2011 -2.0238 0.9776
-2.8040 -4.4582 -2.0183 0.9777
-2.3876 -4.6779 -2.0126 0.9778
-1.9543 -4.8587 -2.0069 0.9778
-0.5900 -5.1584 -1.9897 0.9780
0.7933 -5.0879 -1.9733 0.9782
1.6782 -4.8410 -1.9635 0.9783
3.5731 -3.6027 -1.9445 0.9785
3.8756 -3.2645 -1.9419 0.9785
4.3862 -2.5171 -1.9380 0.9786
4.5907 -2.1136 -1.9367 0.9786
5.0558 0.0814 -1.9377 0.9786
4.8686 1.4245 -1.9440 0.9785
4.5519 2.2761 -1.9503 0.9784
4.0903 3.0626 -1.9582 0.9783
3.4959 3.7596 -1.9674 0.9782
3.1538 4.0674 -1.9724 0.9782
2.7802 4.3372 -1.9743 0.9782
2.3836 4.5726 -1.9761 0.9782
1.9144 4.6441 -1.9250 0.9787
1.4548 4.6783 -1.8775 0.9792
1.0145 4.7141 -1.8479 0.9796
-0.7098 4.8244 -1.8687 0.9793
-1.6291 4.8331 -1.9545 0.9784
-2.5698 4.6579 -2.0386 0.9775
-3.3782 4.1506 -2.0508 0.9773
-4.3773 3.1189 -2.0597 0.9772
-5.0587 1.8496 -2.0641 0.9772
-5.2047 1.3903 -2.0645 0.9772
-5.3077 0.9194 -2.0643 0.9772
-2.3042 0.1893 -0.8860 0.9901
-2.3037 -0.2243 -0.8870 0.9901
-5.2777 -0.9962 -2.0582 0.9773
-5.1605 -1.4620 -2.0554 0.9773
-5.0012 -1.9144 -2.0522 0.9773
-4.5630 -2.7639 -2.0444 0.9774
-2.0385 -4.8271 -2.0080 0.9778
-1.5942 -4.9757 -2.0023 0.9779
-3.2767 -3.7111 -2.0262 0.9788
-2.5506 -4.2140 -2.0160 0.9789
-1.7501 -4.5765 -2.0053 0.9790
-1.3304 -4.7019 -1.9999 0.9791
-0.9023 -4.7891 -1.9945 0.9792
-0.4693 -4.8376 -1.9892 0.9792
0.3976 -4.8187 -1.9789 0.9793
0.8247 -4.7520 -1.9740 0.9794
1.6500 -4.5082 -1.9648 0.9795
2.0421 -4.3334 -1.9606 0.9795
3.1019 -3.6167 -1.9501 0.9796
3.4079 -3.3202 -1.9473 0.9796
3.6866 -2.9986 -1.9449 0.9797
3.9359 -2.6544 -1.9430 0.9797
4.3399 -1.9085 -1.9404 0.9797
4.4916 -1.5124 -1.9397 0.9797
4.6084 -1.1047 -1.9395 0.9797
4.7416 0.1578 -1.9417 0.9797
4.7125 0.5816 -1.9433 0.9797
4.5441 1.4147 -1.9478 0.9796
4.2327 2.2081 -1.9539 0.9796
4.0258 2.5824 -1.9575 0.9795
2.5403 4.1168 -1.9799 0.9793
0.9258 4.6923 -1.9575 0.9795
0.4987 4.7186 -1.9420 0.9797
0.0748 4.7421 -1.9411 0.9797
-0.7876 4.7815 -1.9833 0.9793
-1.2342 4.7782 -2.0198 0.9789
-2.8651 4.0922 -2.0445 0.9786
-3.2250 3.8262 -2.0480 0.9786
-3.5595 3.5280 -2.0512 0.9786
-3.8657 3.1998 -2.0538 0.9785
-2.1047 0.5237 -0.8877 0.9907
-2.0310 0.3160 -0.8413 0.9912
-2.0094 0.1304 -0.8241 0.9913
-2.0192 -0.2316 -0.8318 0.9913
-2.0795 -0.4296 -0.8690 0.9909
-4.2196 -2.6559 -2.0406 0.9787
-2.6238 -4.1716 -2.0170 0.9789
-2.2345 -4.3780 -2.0117 0.9790
-1.4116 -4.6808 -2.0010 0.9791
-0.5526 -4.8313 -1.9902 0.9792
0.7434 -4.7677 -1.9749 0.9794
1.5731 -4.5378 -1.9656 0.9795
1.9682 -4.3696 -1.9614 0.9795
3.6354 -3.0621 -1.9453 0.9797
4.3068 -1.9829 -1.9405 0.9797
4.5888 -1.1836 -1.9395 0.9797
4.6766 -0.7688 -1.9397 0.9797
4.7430 0.0764 -1.9414 0.9797
4.5665 1.3361 -1.9473 0.9796
3.2765 3.5237 -1.9693 0.9794
2.6093 4.0706 -1.9789 0.9793
1.4419 4.6367 -1.9873 0.9792
1.0086 4.6869 -1.9621 0.9795
0.5802 4.7138 -1.9438 0.9797
0.1561 4.7378 -1.9401 0.9797
-0.2695 4.7591 -1.9509 0.9796
-1.5808 4.6897 -2.0255 0.9788
-2.4076 4.3640 -2.0399 0.9787
-3.4975 3.5876 -2.0506 0.9786
-4.0906 2.9146 -2.0557 0.9785
-4.8631 1.2990 -2.0601 0.9785
-2.0138 0.1655 -0.8270 0.9913
-4.2662 -2.5841 -2.0414 0.9787
-3.4053 -3.5998 -2.0280 0.9788
-2.6964 -4.1280 -2.0180 0.9789
-2.3105 -4.3412 -2.0127 0.9790
-3.0745 -3.4821 -2.0244 0.9799
-2.7445 -3.7343 -2.0197 0.9800
-2.0258 -4.1431 -2.0099 0.9801
-1.2493 -4.4153 -1.9998 0.9802
-0.4408 -4.5442 -1.9897 0.9803
0.7750 -4.4659 -1.9754 0.9804
1.9199 -4.0742 -1.9629 0.9805
2.6055 -3.6542 -1.9559 0.9806
2.9173 -3.4014 -1.9529 0.9806
3.4677 -2.8205 -1.9481 0.9807
3.7024 -2.4969 -1.9462 0.9807
4.0827 -1.7954 -1.9438 0.9807
4.2256 -1.4228 -1.9432 0.9807
4.3355 -1.0393 -1.9430 0.9807
4.4605 0.1485 -1.9450 0.9807
4.4328 0.5470 -1.9466 0.9807
4.3705 0.9421 -1.9485 0.9807
4.2739 1.3306 -1.9508 0.9807
2.7168 3.6308 -1.9763 0.9804
1.2826 4.3890 -1.9928 0.9802
0.4825 4.5652 -2.0007 0.9802
-0.3399 4.6012 -2.0107 0.9801
-1.1607 4.4939 -2.0228 0.9800
-1.5630 4.3866 -2.0295 0.9799
-2.6868 3.8375 -2.0416 0.9798
-4.1079 2.3107 -2.0541 0.9796
-1.4900 0.3707 -0.6691 0.9933
-1.4587 0.0947 -0.6371 0.9936
-1.4388 -0.0355 -0.6273 0.9937
-1.4718 -0.1688 -0.6456 0.9936
-1.4939 -0.4511 -0.6801 0.9932
-4.3526 -1.7524 -2.0449 0.9797
-3.9575 -2.4910 -2.0380 0.9798
-3.4368 -3.1432 -2.0298 0.9799
-2.8095 -3.6883 -2.0206 0.9800
-1.7175 -4.2700 -2.0058 0.9801
-1.3255 -4.3953 -2.0008 0.9802
-0.5190 -4.5381 -1.9907 0.9803
-0.1110 -4.5550 -1.9858 0.9803
0.6986 -4.4805 -1.9763 0.9804
1.0938 -4.3902 -1.9718 0.9805
2.5432 -3.6995 -1.9565 0.9806
4.2007 -1.4952 -1.9433 0.9807
4.3170 -1.1135 -1.9430 0.9807
4.3996 -0.7232 -1.9432 0.9807
4.4481 -0.3271 -1.9438 0.9807
4.3851 0.8667 -1.9481 0.9807
3.8251 2.3620 -1.9593 0.9806
3.6053 2.6995 -1.9629 0.9805
3.3562 3.0170 -1.9668 0.9805
3.0796 3.3120 -1.9710 0.9805
2.4518 3.8250 -1.9801 0.9804
2.1052 4.0386 -1.9848 0.9803
1.7396 4.2200 -1.9893 0.9803
1.3574 4.3650 -1.9922 0.9803
0.5605 4.5543 -1.9998 0.9802
0.1515 4.5969 -2.0045 0.9801
-0.2607 4.6039 -2.0097 0.9801
-1.0828 4.5104 -2.0216 0.9800
-1.8794 4.2701 -2.0332 0.9798
-3.2792 3.3637 -2.0473 0.9797
-4.0671 2.3806 -2.0538 0.9796
-1.4870 0.5437 -0.6900 0.9931
-1.4928 0.3987 -0.6734 0.9933
-1.4647 0.1204 -0.6405 0.9936
-1.4684 -0.2772 -0.6513 0.9935
-1.4936 -0.4231 -0.6766 0.9932
-1.5333 -0.5869 -0.7155 0.9929
-4.2091 -2.0597 -2.0423 0.9798
-4.0011 -2.4235 -2.0387 0.9798
-3.7612 -2.7662 -2.0348 0.9798
-3.4917 -3.0850 -2.0306 0.9799
-3.1950 -3.3774 -2.0262 0.9799
-2.1688 -4.0750 -2.0118 0.9801
-1.4015 -4.3741 -2.0017 0.9802
-2.8925 -3.2759 -2.0229 0.9809
-2.5824 -3.5137 -2.0185 0.9810
-1.9066 -3.8995 -2.0092 0.9810
-1.5467 -4.0447 -2.0045 0.9811
-0.4152 -4.2795 -1.9902 0.9812
0.3519 -4.2653 -1.9811 0.9813
1.1011 -4.1167 -1.9725 0.9814
1.4618 -3.9938 -1.9686 0.9814
1.8095 -3.8399 -1.9649 0.9815
2.1418 -3.6563 -1.9615 0.9815
2.7503 -3.2068 -1.9555 0.9816
3.0221 -2.9443 -1.9530 0.9816
3.2697 -2.6595 -1.9509 0.9816
3.4912 -2.3544 -1.9492 0.9816
3.6852 -2.0315 -1.9478 0.9816
3.8501 -1.6931 -1.9469 0.9816
3.9849 -1.3417 -1.9463 0.9816
4.0885 -0.9801 -1.9461 0.9816
4.1799 0.5158 -1.9495 0.9816
4.1209 0.8883 -1.9513 0.9816
3.9063 1.6118 -1.9560 0.9815
3.7521 1.9574 -1.9589 0.9815
3.5679 2.2887 -1.9621 0.9815
3.1148 2.8981 -1.9694 0.9814
2.5595 3.4207 -1.9776 0.9813
2.2485 3.6439 -1.9820 0.9813
1.9181 3.8390 -1.9865 0.9813
0.8367 4.2403 -2.0006 0.9811
0.4551 4.3067 -2.0046 0.9811
-0.7090 4.3045 -2.0193 0.9810
-1.0934 4.2331 -2.0237 0.9809
-1.8371 3.9867 -2.0319 0.9808
-2.1901 3.8135 -2.0356 0.9808
-2.5265 3.6085 -2.0390 0.9808
-3.1376 3.1098 -2.0449 0.9807
-3.8613 2.1720 -2.0507 0.9807
-1.2647 0.4380 -0.6195 0.9941
-1.2702 0.3160 -0.6059 0.9942
-1.2638 -0.0312 -0.5852 0.9944
-1.2750 -0.1462 -0.5940 0.9944
-1.2680 -0.2620 -0.5993 0.9943
-1.2697 -0.3834 -0.6139 0.9942
-1.2526 -0.5043 -0.6250 0.9941
-3.4910 -2.6610 -2.0319 0.9808
-3.2329 -2.9567 -2.0279 0.9809
-2.9495 -3.2271 -2.0237 0.9809
-2.3174 -3.6844 -2.0148 0.9810
-1.6167 -4.0194 -2.0054 0.9811
-1.2479 -4.1380 -2.0006 0.9811
-0.1045 -4.2902 -1.9865 0.9813
0.6581 -4.2212 -1.9775 0.9813
1.0307 -4.1367 -1.9733 0.9814
1.3935 -4.0198 -1.9693 0.9814
1.7440 -3.8717 -1.9656 0.9815
2.0794 -3.6938 -1.9621 0.9815
2.9718 -2.9965 -1.9535 0.9816
3.6502 -2.0947 -1.9481 0.9816
3.8208 -1.7591 -1.9470 0.9816
3.9614 -1.4100 -1.9464 0.9816
4.1490 -0.6820 -1.9463 0.9816
4.1946 -0.3085 -1.9469 0.9816
4.2075 0.0678 -1.9478 0.9816
4.0495 1.1849 -1.9531 0.9816
2.9019 3.1208 -1.9726 0.9814
1.9828 3.8039 -1.9856 0.9813
1.6387 3.9751 -1.9902 0.9812
1.2798 4.1154 -1.9950 0.9812
0.5288 4.2965 -2.0038 0.9811
0.1429 4.3361 -2.0082 0.9811
-0.2459 4.3422 -2.0131 0.9810
-0.6348 4.3142 -2.0185 0.9810
-1.0201 4.2495 -2.0229 0.9809
-1.3988 4.1499 -2.0271 0.9809
-1.7677 4.0162 -2.0312 0.9808
-2.1236 3.8492 -2.0349 0.9808
-3.3574 2.8776 -2.0468 0.9807
-3.6048 2.5685 -2.0488 0.9807
-1.2666 0.5964 -0.6480 0.9938
-1.2706 0.3394 -0.6088 0.9942
-1.2727 0.1046 -0.5911 0.9944
-1.2601 -0.0095 -0.5833 0.9945
-1.2709 -0.2399 -0.5987 0.9943
-3.2844 -2.9018 -2.0287 0.9809
-3.0057 -3.1773 -2.0245 0.9809
-2.0412 -3.8352 -2.0110 0.9810
-1.6862 -3.9929 -2.0063 0.9811
-1.3194 -4.1178 -2.0015 0.9811
-2.7276 -3.0892 -2.0215 0.9818
-2.4355 -3.3138 -2.0173 0.9818
-2.1249 -3.5108 -2.0130 0.9819
-1.1098 -3.9225 -1.9996 0.9820
-0.7531 -3.9970 -1.9951 0.9820
-0.3919 -4.0393 -1.9907 0.9821
-0.0291 -4.0492 -1.9863 0.9821
1.3805 -3.7719 -1.9702 0.9823
2.0232 -3.4539 -1.9635 0.9823
2.3204 -3.2543 -1.9605 0.9824
2.5984 -3.0297 -1.9579 0.9824
2.8555 -2.7820 -1.9555 0.9824
3.0896 -2.5130 -1.9535 0.9824
3.8638 -0.9262 -1.9490 0.9825
3.9316 -0.5772 -1.9492 0.9825
3.9498 0.4874 -1.9522 0.9824
3.8073 1.1853 -1.9560 0.9824
3.6906 1.5228 -1.9584 0.9824
3.5446 1.8492 -1.9611 0.9823
3.3703 2.1619 -1.9641 0.9823
2.6903 2.9948 -1.9747 0.9822
0.0646 4.0960 -2.0095 0.9819
-0.3025 4.0943 -2.0138 0.9819
-0.6687 4.0595 -2.0181 0.9818
-1.0310 3.9917 -2.0223 0.9818
-1.3864 3.8911 -2.0262 0.9818
-1.7319 3.7585 -2.0300 0.9817
-2.3814 3.4012 -2.0367 0.9817
-2.9569 2.9307 -2.0422 0.9816
-1.1249 0.3895 -0.5839 0.9947
-1.1430 0.1778 -0.5674 0.9949
-1.1428 0.0742 -0.5617 0.9949
-1.1369 -0.2349 -0.5695 0.9948
-1.1129 -0.4480 -0.5885 0.9947
-1.0909 -0.5573 -0.6009 0.9946
-3.5083 -2.2082 -2.0334 0.9817
-3.0481 -2.7877 -2.0262 0.9818
-2.7813 -3.0431 -2.0222 0.9818
-2.4930 -3.2728 -2.0181 0.9818
-2.1858 -3.4752 -2.0138 0.9819
-1.8623 -3.6487 -2.0094 0.9819
-1.1775 -3.9045 -2.0005 0.9820
-0.8219 -3.9852 -1.9960 0.9820
0.6214 -3.9857 -1.9787 0.9822
0.9733 -3.9063 -1.9747 0.9822
1.3161 -3.7964 -1.9709 0.9823
1.6472 -3.6569 -1.9674 0.9823
2.5467 -3.0746 -1.9583 0.9824
3.2609 -2.2815 -1.9522 0.9824
3.4494 -1.9795 -1.9508 0.9824
3.8473 -0.9924 -1.9490 0.9825
3.9640 -0.2915 -1.9497 0.9824
3.9760 0.0640 -1.9506 0.9824
3.9570 0.4195 -1.9519 0.9824
3.9070 0.7722 -1.9535 0.9824
3.5748 1.7875 -1.9605 0.9824
3.2095 2.4031 -1.9667 0.9823
2.4708 3.1866 -1.9779 0.9822
0.8577 3.9853 -1.9996 0.9820
0.4991 4.0551 -2.0041 0.9820
0.1349 4.0926 -2.0086 0.9819
-0.2320 4.0972 -2.0130 0.9819
-0.5986 4.0688 -2.0173 0.9818
-0.9620 4.0072 -2.0215 0.9818
-1.6666 3.7864 -2.0293 0.9817
-2.0019 3.6286 -2.0328 0.9817
-2.3220 3.4406 -2.0361 0.9817
-2.6241 3.2240 -2.0390 0.9817
-2.9055 2.9803 -2.0417 0.9816
-3.1639 2.7117 -2.0440 0.9816
-3.3968 2.4203 -2.0459 0.9816
-3.6022 2.1085 -2.0474 0.9816
-1.1328 0.3026 -0.5751 0.9948
-1.1415 0.1977 -0.5683 0.9949
-1.1438 0.0940 -0.5630 0.9949
-1.1443 -0.1114 -0.5639 0.9949
-1.1321 -0.3207 -0.5772 0.9948
-1.0854 -0.5312 -0.5928 0.9946
-3.3349 -2.4527 -2.0306 0.9817
-1.5908 -3.7670 -2.0058 0.9819
-2.5774 -2.9191 -2.0202 0.9826
0.3143 -3.8093 -1.9829 0.9829
1.6174 -3.4323 -1.9684 0.9830
1.9148 -3.2688 -1.9653 0.9831
2.1962 -3.0802 -1.9625 0.9831
3.1233 -2.1063 -1.9543 0.9832
3.2970 -1.8175 -1.9531 0.9832
3.5655 -1.2005 -1.9517 0.9832
3.6583 -0.8769 -1.9516 0.9832
3.7575 -0.2116 -1.9524 0.9832
3.7393 0.4615 -1.9546 0.9832
3.6862 0.7946 -1.9562 0.9832
3.6040 1.1220 -1.9582 0.9831
3.4933 1.4414 -1.9605 0.9831
3.3549 1.7502 -1.9631 0.9831
2.9987 2.3267 -1.9690 0.9830
2.0079 3.2541 -1.9837 0.9829
1.7125 3.4275 -1.9877 0.9829
1.4022 3.5744 -1.9919 0.9828
0.4061 3.8427 -2.0046 0.9827
0.0611 3.8717 -2.0088 0.9827
-0.2859 3.8697 -2.0130 0.9827
-0.6319 3.8363 -2.0170 0.9826
