ply
format ascii 1.0
element vertex 1500
property float32 x
property float32 y
property float32 z
property float32 I
end_header
-5.7395 9.9425 2.0243 0.9544
-6.9463 9.8842 2.1302 0.9521
-9.9084 9.8046 2.4579 0.9450
-11.7351 9.7069 2.6854 0.9400
-16.1371 -4.7870 2.9680 0.9339
-13.9742 -7.0363 2.7588 0.9384
-13.4091 -8.3231 2.7828 0.9379
14.9645 10.6704 3.2407 0.9281
12.2768 10.5197 2.8507 0.9364
10.4610 10.7176 2.6408 0.9410
8.5677 10.5035 2.3900 0.9464
7.2752 10.7444 2.2880 0.9487
6.0681 10.9468 2.2069 0.9504
3.7757 11.0928 2.0662 0.9535
0.6904 11.3143 1.9987 0.9550
-0.3194 11.3660 2.0049 0.9549
-1.3415 11.3995 2.0239 0.9544
-2.3874 11.4147 2.0563 0.9537
-3.4749 11.4264 2.1059 0.9526
-5.0797 9.9187 1.9650 0.9557
-10.6176 9.7206 2.5383 0.9432
-6.0104 -7.0018 1.6271 0.9632
-4.5936 9.8985 1.6717 0.9568
-5.7248 9.9170 1.7542 0.9547
-10.1369 10.0307 2.1847 0.9439
-16.2143 -6.4277 2.6720 0.9319
14.6881 10.4733 2.7636 0.9296
7.3984 10.9264 2.0215 0.9480
6.1385 11.0737 1.9396 0.9501
4.9450 11.1597 1.8699 0.9518
3.8163 11.2121 1.8144 0.9532
1.7036 11.2728 1.7465 0.9549
-0.3197 11.3761 1.7434 0.9550
-1.3419 11.4031 1.7589 0.9546
-10.9989 10.0697 2.2845 0.9414
-12.9882 9.9205 2.5037 0.9360
-16.0601 10.1415 2.9098 0.9260
-17.1095 -5.8067 2.7679 0.9295
-6.0090 -7.0002 1.4133 0.9634
-7.1790 10.2154 1.6259 0.9509
-12.3814 10.2415 2.0924 0.9372
-14.9160 10.2495 2.3567 0.9296
-16.1724 -8.1431 2.3579 0.9296
14.4160 10.2793 2.3056 0.9311
7.4781 11.0440 1.7368 0.9476
6.1376 11.0721 1.6485 0.9502
4.9459 11.1617 1.5898 0.9519
2.7930 11.4614 1.5362 0.9535
1.7394 11.5100 1.5159 0.9541
0.7079 11.6004 1.5134 0.9542
-2.4468 11.6986 1.5564 0.9529
-4.3782 10.8275 1.5209 0.9540
-5.1865 10.1273 1.4817 0.9551
-9.2092 10.0770 1.7777 0.9464
-13.3247 10.1775 2.1834 0.9346
-16.0787 10.1532 2.4763 0.9262
-17.2982 -7.6468 2.4629 0.9265
-6.0077 -6.9986 1.2011 0.9635
-15.1065 10.3804 1.9682 0.9289
10.0803 10.3275 1.5497 0.9436
8.9544 10.9776 1.5212 0.9446
7.6108 11.2401 1.4576 0.9469
5.0554 11.4087 1.3400 0.9510
3.9014 11.4621 1.3002 0.9525
-0.3276 11.6572 1.2523 0.9542
-3.5745 11.7540 1.3192 0.9518
-6.4516 10.2370 1.2994 0.9525
-9.3132 10.1908 1.4824 0.9460
-16.5415 10.4455 2.1008 0.9243
4.2599 -7.1514 0.8939 0.9671
-6.3147 10.9390 1.0692 0.9506
-7.3746 10.4937 1.0857 0.9498
-8.6970 10.2914 1.1406 0.9473
-10.5357 10.4253 1.2547 0.9422
-15.5010 10.6515 1.5921 0.9273
8.3121 4.8745 0.8157 0.9621
6.2473 4.4546 0.6495 0.9697
9.0747 11.1251 1.2153 0.9440
5.0563 11.4107 1.0565 0.9511
3.8853 11.4148 1.0207 0.9527
1.7400 11.5139 0.9857 0.9543
0.7055 11.5615 0.9805 0.9546
-1.3713 11.6532 0.9933 0.9540
-2.4476 11.7026 1.0121 0.9531
-3.5746 11.7543 1.0400 0.9519
-4.3828 10.8388 0.9897 0.9542
-5.4929 10.7255 1.0201 0.9528
-7.8155 10.2512 1.0912 0.9496
-9.3154 10.1932 1.1689 0.9461
-11.4320 10.4662 1.3121 0.9397
-13.8467 10.5762 1.4750 0.9324
-7.6889 10.9409 0.8292 0.9478
-8.7429 10.3458 0.8399 0.9472
-12.7276 10.5279 1.0243 0.9359
8.1413 5.8051 0.6200 0.9607
9.0714 11.1210 0.8899 0.9441
7.6466 11.2930 0.8457 0.9468
5.0572 11.4127 0.7741 0.9512
2.8065 11.5166 0.7350 0.9536
1.7478 11.5654 0.7253 0.9542
0.7087 11.6133 0.7215 0.9544
-0.3277 11.6610 0.7234 0.9543
-1.3775 11.7054 0.7309 0.9539
-3.5906 11.8071 0.7653 0.9517
-4.3851 10.8444 0.7254 0.9542
-5.5299 10.7979 0.7523 0.9525
-6.9451 11.0199 0.8077 0.9491
-9.3427 10.2231 0.8588 0.9460
-10.5408 10.4304 0.5847 0.9424
-12.7311 10.5308 0.6515 0.9360
6.2419 5.3485 0.3241 0.9676
9.0920 11.1463 0.5672 0.9440
3.9034 11.4680 0.4777 0.9527
2.8069 11.5185 0.4675 0.9536
1.7481 11.5673 0.4613 0.9542
0.7088 11.6152 0.4589 0.9545
-0.3278 11.6629 0.4601 0.9544
-2.4590 11.7571 0.4736 0.9531
-4.3874 10.8501 0.4615 0.9542
-8.1039 10.6294 0.5270 0.9479
-9.3449 10.2255 0.5462 0.9461
-13.8546 10.5822 0.6874 0.9326
-6.0048 -6.9952 0.3635 0.9638
-4.6462 10.0117 0.1864 0.9568
-6.3481 10.9967 0.2145 0.9505
-8.7468 10.3504 0.2289 0.9472
-16.3773 -6.4923 0.2976 0.9319
9.6794 4.5728 0.1809 0.9581
9.5623 5.6077 0.1873 0.9566
8.2207 5.8617 0.1705 0.9604
6.2602 5.3642 0.1393 0.9676
9.0887 11.1422 0.2429 0.9441
6.2969 11.3596 0.2194 0.9494
3.9041 11.4699 0.2047 0.9527
1.7484 11.5692 0.1976 0.9543
-3.5770 11.7622 0.2077 0.9520
-4.3897 10.8557 0.1978 0.9542
-6.9478 11.0243 0.2201 0.9492
-11.4407 10.4742 0.2620 0.9398
4.2774 -7.1808 0.1412 0.9671
-4.6470 10.0136 -0.0622 0.9568
-8.7487 10.3527 -0.0763 0.9472
-10.4929 10.3830 -0.0831 0.9427
-16.2876 -6.4567 -0.0986 0.9323
9.5601 5.6064 -0.0624 0.9566
8.2234 5.8636 -0.0569 0.9604
6.2586 5.3629 -0.0464 0.9676
11.5438 11.8270 -0.0930 0.9360
5.0598 11.4187 -0.0703 0.9513
2.8079 11.5224 -0.0668 0.9537
1.7487 11.5711 -0.0659 0.9543
0.7090 11.6190 -0.0655 0.9545
-4.3919 10.8613 -0.0660 0.9542
-5.5293 10.7966 -0.0683 0.9526
-6.9492 11.0265 -0.0734 0.9492
-9.3492 10.2302 -0.0780 0.9461
-11.4436 10.4768 -0.0874 0.9398
-7.6970 10.9525 -0.3769 0.9478
-8.7506 10.3550 -0.3817 0.9472
-16.2287 -6.4334 -0.4916 0.9325
9.5579 5.6051 -0.3120 0.9566
11.5464 11.8296 -0.4655 0.9360
7.6525 11.3016 -0.3843 0.9468
5.0607 11.4207 -0.3517 0.9512
3.9054 11.4738 -0.3413 0.9527
1.7490 11.5730 -0.3296 0.9542
-1.3724 11.6627 -0.3307 0.9541
-2.4603 11.7630 -0.3384 0.9530
-6.9506 11.0287 -0.3671 0.9492
-11.4466 10.4795 -0.4370 0.9398
-6.0030 -6.9932 -0.2595 0.9638
-4.6487 10.0173 -0.5601 0.9567
-6.3518 11.0031 -0.6443 0.9504
-8.7526 10.3573 -0.6877 0.9471
-10.5511 10.4405 -0.7528 0.9423
-12.6808 10.4891 -0.8346 0.9362
-15.1392 10.4028 -0.9316 0.9291
9.5558 5.6038 -0.5618 0.9566
6.2554 5.3601 -0.4178 0.9675
11.5957 11.8801 -0.8419 0.9357
9.0788 11.1301 -0.7284 0.9441
6.3004 11.3658 -0.6590 0.9493
5.0616 11.4227 -0.6336 0.9512
3.9061 11.4758 -0.6148 0.9526
-0.3280 11.6705 -0.5921 0.9543
-1.3727 11.6647 -0.5956 0.9540
-3.5937 11.8173 -0.6264 0.9517
-4.3965 10.8726 -0.5948 0.9541
-5.5288 10.7957 -0.6151 0.9526
-6.9520 11.0309 -0.6613 0.9491
4.3006 -7.2196 -0.4262 0.9669
-4.6496 10.0191 -0.8099 0.9567
-8.5343 10.0990 -0.9695 0.9484
-12.4277 10.2798 -1.1826 0.9374
-15.1439 10.4061 -1.3473 0.9290
-13.8016 -5.4712 -1.0886 0.9422
-15.8647 -7.9882 -1.3024 0.9312
2.7345 -11.6109 -0.8746 0.9533
3.6225 -10.9188 -0.8435 0.9549
4.1122 -7.5556 -0.6307 0.9661
7.6225 11.2573 -0.9968 0.9469
6.3015 11.3679 -0.9530 0.9492
1.7495 11.5768 -0.8585 0.9541
0.7094 11.6247 -0.8539 0.9544
-0.3280 11.6724 -0.8562 0.9542
-11.1643 10.2211 -1.1098 0.9411
-13.5254 10.3308 -1.2479 0.9340
-17.8826 -7.9051 -1.4336 0.9246
-6.0019 -6.9918 -0.6756 0.9637
-1.7109 -19.8311 -1.4595 0.9233
3.0235 -10.9201 -0.8308 0.9556
17.3427 -9.4588 -1.4484 0.9238
-6.3245 10.9559 -1.2145 0.9504
-3.9833 5.6680 -0.6651 0.9725
-10.2907 10.1829 -1.3899 0.9435
-14.0541 9.6572 -1.6371 0.9338
-14.8768 8.3803 -1.6393 0.9337
-15.5972 7.0396 -1.6429 0.9335
-16.2108 5.6419 -1.6479 0.9334
-18.8047 1.2768 -1.8095 0.9271
-18.9842 -2.1023 -1.8337 0.9261
-18.8668 -3.8114 -1.8479 0.9256
-17.2582 -5.1196 -1.7282 0.9302
3.5619 -10.7363 -1.0860 0.9556
15.6953 -9.3682 -1.7548 0.9292
9.5514 5.6013 -1.0630 0.9565
8.2343 5.8715 -0.9709 0.9602
11.5540 11.8373 -1.5880 0.9357
7.4924 11.0652 -1.2829 0.9477
6.1673 11.1258 -1.2213 0.9502
3.8235 11.2331 -1.1392 0.9534
2.7494 11.2824 -1.1149 0.9544
-1.3494 11.4672 -1.1085 0.9547
-5.0912 9.9412 -1.0723 0.9561
-6.9222 10.9837 -1.2464 0.9492
-4.2942 5.6324 -0.6800 0.9719
-9.3101 10.1873 -1.3249 0.9461
-11.1672 10.2237 -1.4535 0.9410
-14.4250 9.1089 -1.6379 0.9337
-15.2037 7.8033 -1.6407 0.9336
-15.8780 6.4370 -1.6449 0.9335
-17.7656 5.4199 -1.7832 0.9281
-18.9889 -1.1418 -1.8263 0.9264
-18.7715 -4.5568 -1.8545 0.9253
-17.1119 -5.8075 -1.7349 0.9300
-15.6273 -6.9081 -1.6403 0.9336
-1.7106 -19.8273 -1.9106 0.9231
4.0331 -10.7426 -1.1016 0.9549
5.1793 -10.7717 -1.1475 0.9531
4.3266 -7.2634 -0.8117 0.9666
14.0346 -9.3635 -1.6197 0.9345
17.3382 -9.4564 -1.8960 0.9237
15.7209 -6.8378 -1.6459 0.9334
-4.6276 9.9716 -1.3058 0.9567
-6.3258 10.9581 -1.5030 0.9503
-10.0094 9.9045 -1.6727 0.9449
-10.8466 8.9719 -1.6721 0.9449
-11.6056 7.9748 -1.6727 0.9449
-12.2821 6.9187 -1.6745 0.9448
-12.8720 5.8096 -1.6775 0.9447
-14.4756 5.0380 -1.8207 0.9401
-15.2481 2.4112 -1.8338 0.9397
-15.4722 1.0505 -1.8421 0.9394
-15.5846 -0.3312 -1.8517 0.9391
-13.3590 -6.7265 -1.7767 0.9415
-12.8114 -7.9521 -1.7911 0.9411
-13.1061 -9.8509 -1.9475 0.9361
-12.2843 -11.0730 -1.9645 0.9356
-11.3512 -12.2296 -1.9820 0.9350
-7.9325 -15.1983 -2.0364 0.9333
-5.2062 -16.6558 -2.0729 0.9321
-3.7363 -17.1990 -2.0907 0.9316
-2.2102 -17.6074 -2.1079 0.9310
-0.6407 -17.8737 -2.1245 0.9305
0.9583 -17.9920 -2.1402 0.9300
1.5187 -10.6039 -1.2724 0.9578
9.1421 -6.6260 -1.3412 0.9555
11.1275 -6.6418 -1.5393 0.9491
14.0677 -6.7795 -1.8550 0.9390
16.8509 -6.3434 -2.1388 0.9300
17.8165 -4.9499 -2.1965 0.9282
18.1056 -3.3312 -2.1868 0.9285
18.2070 -0.0704 -2.1627 0.9293
18.0235 1.5389 -2.1487 0.9297
17.6895 3.1134 -2.1336 0.9302
15.3301 5.6360 -1.9402 0.9363
7.3869 5.2672 -1.0777 0.9641
6.2506 5.3560 -0.9778 0.9674
10.9182 11.1860 -1.8568 0.9390
8.9727 11.0000 -1.6862 0.9444
1.7125 11.3319 -1.3614 0.9549
0.6943 11.3787 -1.3541 0.9551
-0.3211 11.4255 -1.3577 0.9550
-3.5184 11.5694 -1.4364 0.9525
-4.2050 10.3990 -1.3324 0.9558
-4.2358 5.5559 -0.8299 0.9723
-11.9109 7.5214 -1.6733 0.9448
-12.5501 6.4414 -1.6757 0.9448
-13.4503 5.4528 -1.7240 0.9432
-15.3593 1.8212 -1.8373 0.9396
-15.5351 0.4504 -1.8461 0.9393
-15.5980 -0.9379 -1.8562 0.9390
-14.6763 -4.9809 -1.8410 0.9395
-13.6197 -6.0207 -1.7689 0.9418
-12.5387 -8.4739 -1.7977 0.9409
-12.7618 -10.3910 -1.9549 0.9359
-11.8911 -11.5858 -1.9721 0.9353
-6.0007 -6.9905 -1.0943 0.9636
-8.6415 -14.7057 -2.0261 0.9336
-7.3656 -15.5554 -2.0444 0.9330
-4.5732 -16.9086 -2.0807 0.9319
-3.0773 -17.3941 -2.0983 0.9313
-1.5306 -17.7413 -2.1152 0.9308
0.0535 -17.9438 -2.1315 0.9303
1.0100 -10.9446 -1.3056 0.9567
3.9991 -10.6520 -1.3515 0.9552
4.3272 -7.2644 -1.0044 0.9665
14.5494 -11.7030 -2.2180 0.9275
15.1724 -8.2751 -2.0529 0.9328
17.9621 -4.2471 -2.1925 0.9283
18.1458 0.6343 -2.1568 0.9295
-6.0184 10.4257 -1.7057 0.9525
-3.9792 5.6621 -0.9806 0.9724
-8.5175 8.4283 -1.6978 0.9527
-11.8119 5.3311 -1.8362 0.9490
-12.6757 3.1810 -1.8517 0.9486
-13.2045 -1.4623 -1.8824 0.9477
-13.0920 -2.6448 -1.8925 0.9475
-12.8793 -3.8206 -1.9035 0.9472
-12.5659 -4.9814 -1.9152 0.9469
-11.2708 -5.6751 -1.7880 0.9503
-9.5742 -8.6301 -1.8263 0.9493
-7.6719 -11.9670 -2.0141 0.9442
-5.5128 -13.3356 -2.0446 0.9434
-4.3368 -13.8742 -2.0596 0.9430
-3.1079 -14.3062 -2.0743 0.9426
-0.5315 -14.8270 -2.1022 0.9418
1.5066 -10.5194 -1.5057 0.9580
2.4811 -10.5348 -1.5335 0.9572
3.5106 -10.5815 -1.5796 0.9560
5.9250 -8.8979 -1.5147 0.9577
9.6070 -11.9653 -2.1742 0.9399
10.6468 -11.0781 -2.1770 0.9398
7.4583 -6.4915 -1.4010 0.9608
9.1404 -6.6247 -1.5995 0.9554
12.2306 -7.3002 -2.0182 0.9441
14.3164 -5.3893 -2.1674 0.9401
14.6636 2.5808 -2.1096 0.9416
14.2786 3.8483 -2.0953 0.9420
11.5454 6.7706 -1.8964 0.9474
6.2490 5.3546 -1.1660 0.9673
9.1409 9.3651 -1.8543 0.9485
8.2095 10.0644 -1.8403 0.9489
6.1696 11.1299 -1.8031 0.9499
0.6945 11.3806 -1.6155 0.9550
-1.3499 11.4710 -1.6365 0.9544
-2.4094 11.5200 -1.6676 0.9536
-4.2058 10.4009 -1.5896 0.9557
-5.0932 9.9450 -1.5831 0.9559
-4.2373 5.5578 -0.9902 0.9722
-8.0872 8.8493 -1.6986 0.9527
-13.1814 0.3822 -1.8685 0.9481
-13.1678 -1.9780 -1.8867 0.9476
-13.0116 -3.1586 -1.8972 0.9473
-12.7550 -4.3288 -1.9085 0.9470
-11.0747 -6.1261 -1.7932 0.9502
-10.5592 -7.1361 -1.8058 0.9498
-7.1762 -5.8431 -1.3112 0.9633
-5.9068 -6.8810 -1.2849 0.9640
-7.2255 -12.2961 -2.0208 0.9440
-5.0073 -13.5830 -2.0512 0.9432
-2.3124 -8.5495 -1.2549 0.9649
-2.5581 -14.4596 -2.0806 0.9424
4.2358 -8.8094 -1.3850 0.9613
8.9846 -12.4195 -2.1719 0.9400
11.0724 -10.6603 -2.1778 0.9398
11.1107 -8.9370 -2.0203 0.9440
9.8766 -6.5894 -1.6823 0.9532
12.3976 -6.7617 -2.0009 0.9445
14.0474 -6.1099 -2.1705 0.9400
15.0133 -2.1638 -2.1492 0.9406
15.0776 -0.8165 -2.1395 0.9408
14.8245 1.8475 -2.1167 0.9414
-4.4143 9.5121 -1.7275 0.9584
-5.2302 9.0603 -1.7234 0.9585
-7.4065 7.3289 -1.7165 0.9586
-8.0267 6.6395 -1.7161 0.9587
-8.5877 5.9010 -1.7165 0.9586
-9.3642 5.2750 -1.7706 0.9574
-10.6969 3.7229 -1.8659 0.9551
-11.2461 1.7784 -1.8757 0.9549
-11.3978 0.7739 -1.8820 0.9547
-11.4649 -0.2437 -1.8892 0.9546
-11.4462 -1.2676 -1.8972 0.9544
-11.1477 -3.3069 -1.9156 0.9540
-10.8674 -4.3081 -1.9258 0.9537
-10.2665 -5.1694 -1.8936 0.9545
-8.8215 -6.6305 -1.8180 0.9562
-7.4282 -9.5884 -1.9981 0.9520
-5.6856 -10.8933 -2.0243 0.9514
-3.5305 -8.5403 -1.5224 0.9632
-3.7128 -11.8778 -2.0501 0.9508
0.6771 -12.7123 -2.0972 0.9497
2.9284 -8.8267 -1.5320 0.9630
4.1952 -6.3001 -1.2469 0.9698
8.1593 -10.1623 -2.1470 0.9485
9.1386 -6.6235 -1.8593 0.9553
10.3863 -6.1994 -1.9927 0.9521
12.7114 -2.3387 -2.1292 0.9490
12.8245 -0.0496 -2.1127 0.9493
12.7197 1.0860 -2.1030 0.9496
12.1990 3.2878 -2.0814 0.9501
9.8886 5.7990 -1.8885 0.9546
8.5944 7.3643 -1.8645 0.9552
7.8542 8.0469 -1.8524 0.9554
7.0614 8.6569 -1.8404 0.9557
6.2233 9.1910 -1.8286 0.9560
5.3472 9.6463 -1.8169 0.9563
4.4405 10.0211 -1.8057 0.9565
3.5106 10.3138 -1.7948 0.9568
2.5646 10.5239 -1.7844 0.9570
-0.2996 10.6603 -1.7569 0.9577
-3.9373 9.7369 -1.7302 0.9583
-4.7748 9.3234 -1.7256 0.9584
-5.5730 8.8428 -1.7219 0.9585
-7.0319 7.6946 -1.7172 0.9586
-8.8127 5.5649 -1.7170 0.9586
-10.0234 5.1445 -1.8560 0.9554
-10.4848 4.2505 -1.8638 0.9552
-11.1239 2.3369 -1.8725 0.9550
-11.3225 1.3426 -1.8783 0.9548
-11.4375 0.3316 -1.8850 0.9547
-11.4109 -1.7141 -1.9009 0.9543
-11.2673 -2.7351 -1.9101 0.9541
-10.7180 -4.7380 -1.9305 0.9536
-9.5655 -5.2913 -1.8008 0.9567
-9.1116 -6.1578 -1.8117 0.9564
-7.1784 -5.8448 -1.5250 0.9632
-7.9761 -7.7714 -1.8346 0.9559
-5.8901 -6.8616 -1.4897 0.9640
-6.2027 -10.5555 -2.0169 0.9516
-4.2894 -11.6354 -2.0429 0.9510
1.0056 -10.8969 -1.8028 0.9566
2.9280 -10.5754 -1.8077 0.9565
4.3710 -7.3379 -1.4071 0.9660
7.6319 -10.5497 -2.1450 0.9486
8.7197 -8.3951 -1.9940 0.9521
9.4337 -7.5881 -1.9945 0.9521
10.0670 -6.7164 -1.9937 0.9521
12.7731 -1.8409 -2.1260 0.9490
12.7919 0.4472 -2.1086 0.9494
12.6410 1.5754 -2.0986 0.9497
-3.8987 8.4010 -1.7408 0.9630
-7.5902 5.2156 -1.7310 0.9632
-9.9292 1.5702 -1.8895 0.9599
-10.0591 0.6830 -1.8951 0.9598
-9.9938 -2.0189 -1.9164 0.9594
-9.8179 -2.9124 -1.9249 0.9592
-9.2356 -4.6503 -1.9436 0.9588
-8.4654 -5.2545 -1.8728 0.9603
-7.2390 -6.5252 -1.8318 0.9611
-4.1297 -9.9897 -2.0318 0.9570
-3.2427 -10.3740 -2.0429 0.9567
-0.3953 -11.0289 -2.0743 0.9561
1.5784 -11.0205 -2.0926 0.9557
2.5619 -10.8780 -2.1006 0.9555
3.5311 -10.6434 -2.1078 0.9554
2.7010 -6.2250 -1.2754 0.9728
4.1939 -6.2981 -1.4222 0.9697
6.5701 -8.1830 -1.9725 0.9582
8.5078 -6.1663 -1.9750 0.9581
9.7217 -5.8026 -2.1280 0.9550
10.1870 -4.9093 -2.1255 0.9550
10.8528 -3.0152 -2.1172 0.9552
11.0480 -2.0327 -2.1115 0.9553
11.1577 -0.0431 -2.0972 0.9556
11.0730 0.9454 -2.0889 0.9558
7.5209 6.4444 -1.8616 0.9605
5.4591 8.0623 -1.8301 0.9611
3.9012 8.8040 -1.8100 0.9616
0.5750 9.4230 -1.7744 0.9623
-1.0943 9.2991 -1.7599 0.9626
-2.7059 8.8978 -1.7481 0.9629
-4.9239 7.8129 -1.7358 0.9631
-4.1946 5.5018 -1.3004 0.9722
-6.2149 6.8006 -1.7316 0.9632
-6.7916 6.2178 -1.7307 0.9632
-8.2625 5.2175 -1.8367 0.9610
-9.2640 3.7556 -1.8789 0.9601
-9.5789 2.9223 -1.8824 0.9601
-10.1140 -0.6082 -1.9045 0.9596
-10.0589 -1.5110 -1.9119 0.9594
-9.7171 -3.2978 -1.9287 0.9591
-8.0058 -5.4105 -1.8162 0.9614
-6.9975 -6.8178 -1.8363 0.9610
-5.7439 -8.0404 -1.8573 0.9606
-3.9996 -8.4468 -1.7567 0.9627
-2.2282 -6.0442 -1.2108 0.9741
-2.3126 -8.5503 -1.6649 0.9646
-1.9079 -10.7840 -2.0585 0.9564
-0.7407 -8.5853 -1.6197 0.9655
1.0207 -11.0601 -2.0877 0.9558
1.9182 -10.4780 -2.0022 0.9576
3.9467 -10.5126 -2.1106 0.9553
3.7496 -7.7983 -1.6264 0.9654
6.8860 -7.9257 -1.9734 0.9582
8.1886 -6.5866 -1.9753 0.9581
9.9350 -5.4186 -2.1271 0.9550
10.3628 -4.5073 -2.1241 0.9550
10.7018 -3.5610 -2.1200 0.9551
10.9494 -2.5890 -2.1148 0.9552
11.1321 0.3892 -2.0937 0.9557
11.0076 1.3718 -2.0850 0.9559
-4.1346 7.1623 -1.7481 0.9668
-4.7253 5.5916 -1.5475 0.9705
-5.8599 5.7985 -1.7426 0.9669
-7.3361 5.0410 -1.8815 0.9643
-8.1489 3.6779 -1.8898 0.9641
-8.9939 0.6107 -1.9055 0.9638
-8.9248 -1.8030 -1.9246 0.9635
-8.7636 -2.5997 -1.9322 0.9633
-8.2352 -4.1466 -1.9490 0.9630
-7.0747 -5.3175 -1.8708 0.9645
-6.4436 -5.8082 -1.8337 0.9652
-5.3665 -6.9272 -1.8523 0.9648
-4.7533 -7.4145 -1.8617 0.9646
-4.0957 -7.8472 -1.8711 0.9645
-1.9066 -8.7767 -1.8985 0.9639
2.1003 -8.9182 -1.9367 0.9632
2.8938 -8.7224 -1.9426 0.9631
2.7013 -6.2257 -1.4345 0.9726
5.7993 -7.2229 -1.9580 0.9628
8.0957 -5.8676 -2.1135 0.9599
8.5804 -5.1215 -2.1123 0.9600
9.3280 -3.5115 -2.1068 0.9601
9.5845 -2.6629 -2.1027 0.9601
9.7943 0.8362 -2.0779 0.9606
9.1127 3.3502 -2.0523 0.9611
8.7311 4.1248 -2.0412 0.9613
6.6795 5.7235 -1.8593 0.9647
6.1131 6.2630 -1.8500 0.9649
5.5039 6.7475 -1.8406 0.9650
3.4755 7.8434 -1.8134 0.9655
1.2646 8.3680 -1.7889 0.9660
-0.2359 8.3930 -1.7748 0.9663
-0.9778 8.3095 -1.7686 0.9664
-1.7074 8.1635 -1.7629 0.9665
-3.1099 7.6908 -1.7536 0.9667
-4.1692 5.4686 -1.4536 0.9723
-5.5631 6.0873 -1.7431 0.9668
-6.0796 5.5660 -1.7423 0.9669
-6.7583 5.1621 -1.7976 0.9658
-7.9488 4.0798 -1.8886 0.9641
-8.5705 2.6147 -1.8941 0.9640
-8.9381 1.0599 -1.9026 0.9639
-9.0222 0.2616 -1.9079 0.9638
-8.6717 -2.9430 -1.9357 0.9633
-8.0842 -4.4719 -1.9529 0.9629
-6.7084 -5.4621 -1.8286 0.9653
-3.5265 -6.0012 -1.4713 0.9719
-2.2298 -6.0487 -1.3627 0.9740
-1.5690 -8.8688 -1.9038 0.9638
0.8124 -8.8034 -1.8688 0.9645
2.4411 -8.8166 -1.9338 0.9633
3.7287 -7.7547 -1.8188 0.9654
4.9970 -6.9074 -1.8021 0.9657
9.1483 -3.9790 -2.1088 0.9600
9.4497 -3.1444 -2.1052 0.9601
9.6711 -2.2867 -2.1006 0.9602
9.8440 0.3441 -2.0821 0.9605
9.7385 1.2136 -2.0744 0.9607
-3.1525 6.7930 -1.7601 0.9697
-6.1927 5.1224 -1.8888 0.9675
-6.6519 4.5708 -1.8969 0.9674
-7.0361 3.9635 -1.8980 0.9674
-7.3677 3.3253 -1.8998 0.9673
-8.1642 -0.1735 -1.9192 0.9670
-8.1409 -0.9015 -1.9250 0.9669
-8.0550 -1.6272 -1.9313 0.9668
-7.9064 -2.3454 -1.9382 0.9667
-7.6956 -3.0507 -1.9456 0.9666
-7.4234 -3.7379 -1.9534 0.9664
-7.0912 -4.4015 -1.9615 0.9663
-5.9526 -5.3656 -1.8835 0.9676
-5.3363 -5.7492 -1.8435 0.9683
-4.8258 -6.2292 -1.8519 0.9681
-3.6793 -7.0493 -1.8688 0.9679
-3.0514 -7.3814 -1.8772 0.9677
-0.2909 -8.1148 -1.9084 0.9672
0.4334 -8.1378 -1.9153 0.9671
0.8844 -6.1752 -1.4661 0.9747
2.5895 -7.8052 -1.9327 0.9668
2.7016 -6.2264 -1.5952 0.9725
4.1912 -6.2941 -1.7772 0.9694
5.1851 -6.4579 -1.9464 0.9665
5.7432 -5.9758 -1.9479 0.9665
6.7430 -5.8689 -2.1010 0.9639
7.2375 -5.2456 -2.1008 0.9639
7.6713 -4.5788 -2.0997 0.9640
8.3419 -3.1403 -2.0949 0.9640
8.5731 -2.3819 -2.0912 0.9641
8.7323 -1.6066 -2.0867 0.9642
8.8184 -0.8217 -2.0815 0.9643
8.8314 -0.0342 -2.0756 0.9644
8.1717 3.0042 -2.0462 0.9649
7.4300 4.3572 -2.0243 0.9652
6.0016 5.1426 -1.8575 0.9680
4.9504 6.0689 -1.8407 0.9683
4.3713 6.4558 -1.8323 0.9685
2.4794 7.2845 -1.8085 0.9689
1.8144 7.4455 -1.8011 0.9690
1.1407 7.5478 -1.7940 0.9691
0.4632 7.5913 -1.7874 0.9692
-0.2129 7.5762 -1.7813 0.9693
-2.1862 7.1890 -1.7660 0.9696
-5.0304 5.5045 -1.7525 0.9698
-6.8256 4.3102 -1.8973 0.9674
-7.1872 3.6889 -1.8987 0.9673
-7.4952 3.0385 -1.9008 0.9673
-7.9414 1.6683 -1.9072 0.9672
-8.0760 0.9576 -1.9113 0.9671
-8.1498 0.2363 -1.9162 0.9671
-8.1617 -0.4908 -1.9217 0.9670
-7.9979 -1.9415 -1.9343 0.9667
-7.8222 -2.6547 -1.9414 0.9666
-7.5845 -3.3528 -1.9489 0.9665
-6.9280 -4.6820 -1.9652 0.9662
-6.5125 -5.3027 -1.9738 0.9661
-5.1193 -5.9637 -1.8472 0.9682
-4.5896 -6.4245 -1.8556 0.9681
-3.4097 -7.2008 -1.8725 0.9678
-2.2315 -6.0532 -1.5162 0.9738
-2.0984 -7.7584 -1.8889 0.9675
-0.6965 -8.0727 -1.9043 0.9673
0.0242 -8.1330 -1.9115 0.9671
0.7500 -8.1269 -1.9181 0.9670
2.1911 -7.9136 -1.9299 0.9668
2.8934 -7.7070 -1.9348 0.9667
4.0841 -6.8563 -1.8756 0.9677
4.8513 -6.7060 -1.9452 0.9666
5.4338 -6.2543 -1.9472 0.9665
7.4343 -4.9599 -2.1004 0.9639
8.1804 -3.5581 -2.0966 0.9640
8.8331 -0.4783 -2.0790 0.9643
8.8143 0.3081 -2.0728 0.9644
-2.8732 6.1913 -1.7672 0.9722
-3.4071 5.9021 -1.7645 0.9722
-3.9137 5.5690 -1.7624 0.9723
-4.3896 5.1944 -1.7608 0.9723
-5.6677 4.6881 -1.9044 0.9701
-6.0652 4.1677 -1.9054 0.9701
-7.3126 1.1564 -1.9169 0.9699
-7.4026 0.5026 -1.9211 0.9698
-7.4131 -0.8209 -1.9311 0.9697
-7.1952 -2.1344 -1.9432 0.9695
-6.7509 -3.3992 -1.9570 0.9693
-5.6805 -5.1204 -1.9801 0.9689
-3.3364 -6.3924 -1.8670 0.9706
-2.1686 -6.9376 -1.8820 0.9704
-1.5490 -7.1302 -1.8892 0.9703
0.3921 -7.3624 -1.9090 0.9700
3.5674 -6.5546 -1.9322 0.9696
4.6881 -5.8390 -1.9388 0.9695
7.5367 -2.8372 -2.0851 0.9673
7.7469 -2.1523 -2.0818 0.9673
7.8923 -1.4521 -2.0778 0.9674
7.9860 -0.0309 -2.0677 0.9675
7.9344 0.6774 -2.0618 0.9676
7.6393 2.0589 -2.0485 0.9678
7.3995 2.7203 -2.0412 0.9680
6.7489 3.9578 -2.0257 0.9682
6.3244 4.5096 -2.0112 0.9684
4.4937 5.5090 -1.8407 0.9711
3.9696 5.8626 -1.8332 0.9712
2.8453 6.4212 -1.8185 0.9714
2.2543 6.6231 -1.8115 0.9715
1.0378 6.8675 -1.7983 0.9717
0.4216 6.9093 -1.7923 0.9718
-0.1938 6.8978 -1.7867 0.9719
-0.8041 6.8334 -1.7815 0.9720
-1.4049 6.7172 -1.7768 0.9720
-2.5613 6.3342 -1.7690 0.9722
-4.1251 5.4107 -1.7616 0.9723
-5.8474 4.4663 -1.9051 0.9701
-6.5527 3.3632 -1.9070 0.9700
-7.2374 1.5204 -1.9148 0.9699
-7.3587 0.8726 -1.9186 0.9698
-7.4242 0.2152 -1.9231 0.9698
-7.3851 -1.1094 -1.9336 0.9696
-7.2798 -1.7672 -1.9396 0.9695
-6.8988 -3.0496 -1.9530 0.9693
-6.6247 -3.6646 -1.9602 0.9692
-5.9169 -4.8177 -1.9756 0.9690
-0.6305 -7.3075 -1.8991 0.9701
0.0183 -6.1497 -1.5923 0.9749
0.6784 -7.3515 -1.9115 0.9700
1.3333 -7.2831 -1.9171 0.9699
1.9809 -7.1544 -1.9221 0.9698
2.6152 -6.9659 -1.9265 0.9697
3.2307 -6.7190 -1.9303 0.9697
3.8216 -6.4156 -1.9335 0.9696
4.3825 -6.0580 -1.9359 0.9696
6.2915 -5.0607 -2.0906 0.9672
7.0822 -3.8627 -2.0887 0.9672
7.3902 -3.2144 -2.0866 0.9672
7.6362 -2.5410 -2.0837 0.9673
7.8183 -1.8486 -2.0801 0.9673
7.8917 0.9835 -2.0591 0.9677
-3.1273 5.4174 -1.7708 0.9743
-4.7969 4.7466 -1.9104 0.9723
-6.3960 2.2260 -1.9172 0.9722
-6.5780 1.6508 -1.9199 0.9722
-6.7102 1.0611 -1.9232 0.9722
-6.7915 0.4611 -1.9271 0.9721
-6.7982 -0.7528 -1.9363 0.9720
-6.7228 -1.3581 -1.9416 0.9719
-6.4151 -2.5431 -1.9536 0.9717
-6.1841 -3.1138 -1.9601 0.9716
-4.7790 -5.1487 -1.9887 0.9712
-4.2084 -5.4322 -1.9453 0.9718
-3.0490 -5.8416 -1.8654 0.9730
-2.5267 -6.1122 -1.8723 0.9729
-1.4140 -6.5092 -1.8857 0.9727
-0.7652 -6.0959 -1.7393 0.9748
-0.2402 -6.7003 -1.8980 0.9725
1.5496 -6.5799 -1.9137 0.9723
2.6753 -6.1658 -1.9027 0.9724
3.2503 -5.9719 -1.9248 0.9721
3.8560 -5.7908 -1.9695 0.9715
4.6001 -5.7293 -2.0800 0.9699
5.0945 -5.3009 -2.0813 0.9699
5.9541 -4.3154 -2.0817 0.9699
6.8662 -2.5847 -2.0769 0.9700
7.1924 -1.3233 -2.0703 0.9701
7.2666 -0.6771 -2.0660 0.9701
7.2809 -0.0281 -2.0612 0.9702
6.1641 3.6148 -2.0229 0.9707
5.3669 4.5987 -2.0008 0.9710
4.5720 4.6842 -1.8530 0.9732
4.1101 5.0387 -1.8408 0.9733
3.6320 5.3640 -1.8339 0.9734
3.1290 5.6447 -1.8271 0.9735
2.0647 6.0659 -1.8140 0.9737
0.3865 6.3337 -1.7964 0.9740
-0.1777 6.3248 -1.7912 0.9740
-0.7375 6.2673 -1.7865 0.9741
-2.3505 5.8128 -1.7750 0.9743
-2.8535 5.5719 -1.7722 0.9743
-3.8438 5.0417 -1.7948 0.9740
-4.5444 4.9726 -1.9070 0.9724
-4.9826 4.5617 -1.9124 0.9723
-6.2720 2.5427 -1.9159 0.9723
-6.7520 0.8006 -1.9248 0.9721
-6.6735 -1.6200 -1.9441 0.9719
-6.5229 -2.2138 -1.9500 0.9718
-6.0677 -3.3564 -1.9630 0.9716
-5.0208 -4.8919 -1.9845 0.9713
-4.5831 -5.3391 -1.9920 0.9712
-3.8973 -5.4554 -1.8980 0.9725
-3.3314 -5.6692 -1.8615 0.9730
-2.2230 -6.0302 -1.8194 0.9736
0.6187 -6.7043 -1.9060 0.9724
2.3833 -6.3483 -1.9196 0.9722
2.9437 -6.1222 -1.9231 0.9722
3.4816 -5.8449 -1.9260 0.9721
4.8204 -5.5483 -2.0807 0.9699
6.1162 -4.0806 -2.0814 0.9699
6.4511 -3.5185 -2.0802 0.9699
7.2321 -1.0423 -2.0685 0.9701
7.2802 -0.3942 -2.0640 0.9701
7.2685 0.2541 -2.0589 0.9702
7.1975 0.8970 -2.0533 0.9703
-2.4342 5.2452 -1.7786 0.9761
-2.8915 5.0089 -1.7789 0.9761
-4.0223 4.7597 -1.9167 0.9743
-4.4344 4.3880 -1.9188 0.9742
-5.1416 3.5330 -1.9188 0.9742
-5.4378 3.0632 -1.9197 0.9742
-5.9049 2.0551 -1.9231 0.9742
-6.0722 1.5238 -1.9256 0.9741
-6.2714 -0.6945 -1.9407 0.9739
-5.6994 -2.8698 -1.9627 0.9736
-3.4972 -5.4551 -1.9931 0.9732
0.8776 -6.1278 -1.9040 0.9744
1.4223 -6.0393 -1.9084 0.9744
2.4897 -5.7381 -1.9239 0.9742
3.1293 -5.7496 -2.0134 0.9730
4.2193 -5.2551 -2.0729 0.9722
4.6726 -4.8618 -2.0741 0.9722
5.7890 -3.4553 -2.0736 0.9722
6.0690 -2.9248 -2.0722 0.9722
6.4759 -1.7992 -2.0673 0.9723
6.6832 -0.0258 -2.0556 0.9724
6.5492 1.1527 -2.0454 0.9726
6.4028 1.7256 -2.0396 0.9726
6.2054 2.2813 -2.0335 0.9727
4.9525 4.2436 -2.0060 0.9731
4.5253 4.6363 -1.9927 0.9733
2.8817 5.1985 -1.8282 0.9754
2.3999 5.4159 -1.8220 0.9755
0.8769 5.8025 -1.8050 0.9757
0.3564 5.8408 -1.7999 0.9758
-1.1892 5.6860 -1.7867 0.9760
-3.7732 4.9491 -1.9142 0.9743
-6.1307 1.2879 -1.9268 0.9741
-6.2848 0.1822 -1.9339 0.9740
-6.1544 -1.4940 -1.9479 0.9738
-4.9879 -4.0613 -1.9784 0.9734
-4.6228 -4.5041 -1.9852 0.9734
-4.2185 -4.9144 -1.9921 0.9733
-3.7780 -5.2884 -1.9990 0.9732
-3.2175 -5.4753 -1.9533 0.9738
-2.1065 -5.7142 -1.8732 0.9748
-1.5953 -5.8981 -1.8793 0.9748
1.1159 -6.0954 -1.9060 0.9744
1.6571 -5.9850 -1.9101 0.9743
2.1870 -5.8252 -1.9138 0.9743
3.9483 -5.4578 -2.0719 0.9722
5.2557 -4.2275 -2.0746 0.9722
5.6096 -3.7426 -2.0742 0.9722
6.5365 -1.5455 -2.0659 0.9723
6.6818 -0.3618 -2.0582 0.9724
6.6724 0.2332 -2.0536 0.9724
6.6088 0.8236 -2.0484 0.9725
-3.3268 4.7339 -1.9233 0.9759
-3.7379 4.4232 -1.9250 0.9759
-4.1147 4.0716 -1.9242 0.9759
-5.0456 2.8423 -1.9250 0.9759
-5.2820 2.3839 -1.9263 0.9759
-5.4783 1.9066 -1.9281 0.9758
-5.7448 0.9085 -1.9333 0.9758
-5.8127 0.3947 -1.9366 0.9757
-5.8361 -0.1240 -1.9404 0.9757
-5.6359 -1.6719 -1.9541 0.9755
-5.4797 -2.1723 -1.9594 0.9755
-5.2798 -2.6585 -1.9650 0.9754
-5.0374 -3.1267 -1.9708 0.9753
-4.0715 -4.3865 -1.9894 0.9751
-3.6771 -4.7464 -1.9958 0.9750
-2.7960 -5.3570 -2.0086 0.9749
-1.7337 -5.5464 -1.9316 0.9758
-0.7065 -5.6281 -1.8855 0.9764
0.3033 -5.6939 -1.8954 0.9763
0.8120 -5.6694 -1.9038 0.9761
1.3384 -5.6830 -1.9407 0.9757
1.8902 -5.6973 -1.9953 0.9750
2.4667 -5.6849 -2.0599 0.9742
3.4432 -5.1709 -2.0650 0.9742
3.8926 -4.8482 -2.0667 0.9741
4.3106 -4.4852 -2.0678 0.9741
5.0378 -3.6513 -2.0682 0.9741
5.3406 -3.1877 -2.0674 0.9741
6.0906 -1.1206 -2.0585 0.9742
6.1697 -0.0239 -2.0509 0.9743
6.1338 0.5237 -2.0463 0.9744
6.0483 1.0645 -2.0414 0.9744
5.9143 1.5940 -2.0361 0.9745
5.5072 2.6017 -2.0246 0.9747
4.9289 3.5146 -2.0123 0.9748
4.5823 3.9265 -2.0059 0.9749
3.7773 4.6308 -1.9864 0.9751
3.2033 4.7308 -1.8991 0.9762
2.6679 4.8128 -1.8292 0.9771
1.2911 5.2982 -1.8127 0.9773
0.3304 5.4137 -1.8029 0.9774
-2.0125 4.9770 -1.7845 0.9776
-2.5487 4.9766 -1.8586 0.9767
-3.9059 4.2739 -1.9246 0.9759
-4.2692 3.9085 -1.9240 0.9759
-4.5998 3.5133 -1.9240 0.9759
-5.1535 2.6450 -1.9255 0.9759
-5.7798 0.6854 -1.9347 0.9758
-5.7909 -0.8699 -1.9465 0.9756
-5.5733 -1.8915 -1.9564 0.9755
-4.9188 -3.3242 -1.9734 0.9753
-4.6180 -3.7601 -1.9795 0.9752
-4.2789 -4.1690 -1.9858 0.9751
-3.9037 -4.5475 -1.9922 0.9751
-2.5896 -5.4690 -2.0114 0.9748
-0.9891 -5.5908 -1.8873 0.9764
0.0170 -5.6939 -1.8927 0.9763
0.5245 -5.6837 -1.8973 0.9762
1.5753 -5.6895 -1.9624 0.9754
2.6871 -5.5885 -2.0612 0.9742
4.0789 -4.6947 -2.0673 0.9741
5.1750 -3.4526 -2.0679 0.9741
5.6976 -2.4781 -2.0653 0.9742
5.8891 -1.9596 -2.0631 0.9742
6.0319 -1.4262 -2.0603 0.9742
6.1250 -0.8828 -2.0570 0.9743
6.1026 0.7605 -2.0442 0.9744
-2.2700 4.8915 -1.9284 0.9774
-3.4829 4.1215 -1.9297 0.9773
-3.8341 3.7940 -1.9289 0.9773
-4.4456 3.0548 -1.9289 0.9773
-4.7014 2.6484 -1.9297 0.9773
-4.9215 2.2212 -1.9309 0.9773
-5.1040 1.7764 -1.9326 0.9773
-5.2477 1.3169 -1.9348 0.9773
-5.4141 -0.5996 -1.9479 0.9771
-5.2460 -1.5562 -1.9568 0.9770
-4.9127 -2.4736 -1.9669 0.9769
-4.6862 -2.9087 -1.9724 0.9768
-4.4215 -3.3233 -1.9780 0.9768
-4.1205 -3.7142 -1.9838 0.9767
-3.7851 -4.0780 -1.9897 0.9766
-2.1510 -5.2032 -2.0134 0.9764
-0.2008 -5.6014 -2.0044 0.9765
0.2994 -5.6221 -2.0134 0.9764
0.8078 -5.6404 -2.0376 0.9761
1.3131 -5.5755 -2.0484 0.9760
1.8068 -5.4462 -2.0520 0.9759
2.7507 -5.0541 -2.0577 0.9759
3.9963 -4.1582 -2.0624 0.9758
4.3512 -3.7871 -2.0628 0.9758
4.6704 -3.3850 -2.0627 0.9758
4.9513 -2.9553 -2.0620 0.9758
5.3885 -2.0285 -2.0590 0.9758
5.6484 -1.0392 -2.0538 0.9759
5.7092 -0.5320 -2.0505 0.9759
5.6909 0.4859 -2.0425 0.9760
5.6126 0.9878 -2.0379 0.9761
5.3223 1.9567 -2.0278 0.9762
4.5785 3.2647 -2.0109 0.9764
4.2575 3.6482 -2.0050 0.9765
3.9046 4.0004 -1.9990 0.9765
3.1071 4.5888 -1.9818 0.9767
2.6314 4.7471 -1.9410 0.9772
2.1185 4.7810 -1.8700 0.9780
1.6395 4.8169 -1.8196 0.9786
1.2014 4.9302 -1.8147 0.9787
0.7563 5.0045 -1.8100 0.9787
0.3075 5.0396 -1.8055 0.9788
-0.1417 5.0428 -1.8041 0.9788
-1.9996 4.9451 -1.9075 0.9776
-3.2727 4.2926 -1.9303 0.9773
-3.6395 3.9824 -1.9293 0.9773
-3.9781 3.6420 -1.9288 0.9773
-4.5614 2.8804 -1.9292 0.9773
-4.8018 2.4646 -1.9301 0.9773
-5.0057 2.0293 -1.9316 0.9773
-5.1715 1.5777 -1.9335 0.9773
-5.2978 1.1130 -1.9359 0.9773
-5.3837 0.6384 -1.9387 0.9772
-5.1873 -1.7605 -1.9589 0.9770
-3.9784 -3.8763 -1.9863 0.9767
-3.6287 -4.2273 -1.9923 0.9766
-2.8394 -4.8320 -2.0042 0.9765
-2.4056 -5.0803 -2.0101 0.9764
-1.4760 -5.4572 -2.0216 0.9763
-0.9842 -5.5630 -2.0203 0.9763
-0.4821 -5.5884 -2.0059 0.9765
0.0167 -5.6107 -2.0065 0.9764
1.5297 -5.5247 -2.0500 0.9759
2.0182 -5.3757 -2.0534 0.9759
2.4918 -5.1822 -2.0563 0.9759
3.7815 -4.3525 -2.0619 0.9758
5.0610 -2.7603 -2.0616 0.9758
5.4606 -1.8170 -2.0580 0.9758
5.7211 -0.3098 -2.0489 0.9760
5.7149 0.1998 -2.0449 0.9760
5.6624 0.7057 -2.0406 0.9761
-2.1279 4.5853 -1.9372 0.9786
-2.9032 4.1311 -1.9350 0.9786
-3.2571 3.8543 -1.9338 0.9786
-3.8865 3.2148 -1.9329 0.9786
-4.1575 2.8568 -1.9331 0.9786
-4.3966 2.4767 -1.9338 0.9786
-4.7726 1.6610 -1.9366 0.9786
-4.9066 1.2314 -1.9386 0.9786
-5.0031 0.7912 -1.9411 0.9785
-2.2943 -0.0488 -0.8794 0.9902
-5.0003 -1.0101 -1.9549 0.9784
-4.7639 -1.8885 -1.9638 0.9783
-4.5884 -2.3104 -1.9687 0.9782
-4.1282 -3.1029 -1.9790 0.9781
-3.8464 -3.4671 -1.9844 0.9781
-3.5326 -3.8059 -1.9899 0.9780
-2.8182 -4.3960 -2.0011 0.9779
-1.1205 -5.1577 -2.0226 0.9776
-0.1900 -5.3000 -2.0324 0.9775
0.7550 -5.2719 -2.0409 0.9774
1.2231 -5.1933 -2.0446 0.9774
1.6828 -5.0723 -2.0480 0.9774
2.1302 -4.9095 -2.0509 0.9773
2.5614 -4.7062 -2.0533 0.9773
2.9725 -4.4640 -2.0553 0.9773
3.3601 -4.1849 -2.0567 0.9773
3.7206 -3.8713 -2.0576 0.9773
4.0510 -3.5258 -2.0581 0.9773
4.6098 -2.7515 -2.0573 0.9773
4.8335 -2.3293 -2.0561 0.9773
5.0174 -1.8888 -2.0545 0.9773
5.3313 -0.0206 -2.0431 0.9774
5.1156 1.3787 -2.0304 0.9776
4.9609 1.8238 -2.0255 0.9776
4.7671 2.2521 -2.0204 0.9777
3.9715 3.4030 -2.0042 0.9778
2.0829 4.7006 -1.9703 0.9782
1.6301 4.7890 -1.9386 0.9786
0.7311 4.8376 -1.8749 0.9793
0.2964 4.8575 -1.8649 0.9794
-0.1370 4.8747 -1.8688 0.9793
-0.5754 4.8897 -1.8868 0.9791
-1.4704 4.8350 -1.9366 0.9786
-2.3048 4.5005 -1.9377 0.9786
-2.6933 4.2736 -1.9358 0.9786
-3.4036 3.7243 -1.9334 0.9786
-4.6809 1.8976 -1.9356 0.9786
-4.8356 1.4752 -1.9374 0.9786
-4.9533 1.0406 -1.9396 0.9786
-2.3012 0.2729 -0.8880 0.9901
-2.2966 0.0666 -0.8805 0.9902
-2.3027 -0.1385 -0.8840 0.9902
-4.9620 -1.2045 -1.9568 0.9784
-4.8462 -1.6447 -1.9612 0.9783
-4.6921 -2.0741 -1.9659 0.9783
-4.5003 -2.4894 -1.9709 0.9782
-3.3864 -3.9449 -1.9924 0.9780
-1.8182 -4.9322 -2.0145 0.9777
0.9598 -5.2429 -2.0426 0.9774
1.4247 -5.1458 -2.0461 0.9774
2.7433 -4.6053 -2.0542 0.9773
3.1446 -4.3468 -2.0560 0.9773
5.2905 -0.7625 -2.0484 0.9774
5.3238 0.1861 -2.0414 0.9774
-1.9974 4.3042 -1.9420 0.9797
-2.3699 4.1054 -1.9401 0.9797
-2.7235 3.8754 -1.9386 0.9797
-3.0556 3.6158 -1.9375 0.9797
-3.3639 3.3286 -1.9368 0.9798
-3.6461 3.0160 -1.9366 0.9798
-3.9003 2.6801 -1.9368 0.9798
-2.0339 0.3216 -0.8428 0.9911
-2.0102 0.1365 -0.8246 0.9913
-4.4649 -1.7700 -1.9657 0.9795
-4.1001 -2.5449 -1.9750 0.9794
-3.6025 -3.2473 -1.9850 0.9793
-2.2676 -4.3447 -2.0058 0.9790
-1.0482 -4.8249 -2.0208 0.9789
-0.1777 -4.9564 -2.0298 0.9788
0.2643 -4.9627 -2.0340 0.9787
1.1434 -4.8548 -2.0413 0.9787
1.5729 -4.7411 -2.0444 0.9786
2.7778 -4.1716 -2.0512 0.9786
3.1398 -3.9106 -2.0526 0.9786
3.4766 -3.6175 -2.0534 0.9785
3.7852 -3.2946 -2.0538 0.9785
4.0630 -2.9448 -2.0537 0.9785
4.5167 -2.1767 -2.0520 0.9786
4.6888 -1.7651 -2.0505 0.9786
4.9166 -0.9046 -2.0460 0.9786
4.9705 -0.4631 -2.0431 0.9787
4.9840 -0.0193 -2.0398 0.9787
4.8903 0.8607 -2.0322 0.9788
4.7843 1.2894 -2.0280 0.9788
3.7173 3.1853 -2.0036 0.9791
3.4105 3.4941 -1.9983 0.9791
3.0782 3.7737 -1.9931 0.9792
2.7233 4.0219 -1.9879 0.9792
1.5504 4.5551 -1.9693 0.9794
1.1357 4.6603 -1.9632 0.9795
0.7148 4.7300 -1.9579 0.9795
0.2907 4.7640 -1.9534 0.9796
-0.1338 4.7622 -1.9498 0.9796
-0.9731 4.6525 -1.9454 0.9797
-1.3823 4.5456 -1.9445 0.9797
-1.7800 4.4019 -1.9433 0.9797
-2.5265 4.0089 -1.9394 0.9797
-2.8710 3.7658 -1.9381 0.9797
-3.1930 3.4939 -1.9372 0.9798
-4.0018 2.5270 -1.9371 0.9798
-4.2125 2.1621 -1.9379 0.9797
-4.3910 1.7801 -1.9392 0.9797
-4.5359 1.3838 -1.9409 0.9797
-2.0817 0.4373 -0.8706 0.9908
-2.0250 -0.3042 -0.8381 0.9912
-4.5424 -1.5416 -1.9632 0.9795
-4.2169 -2.3326 -1.9723 0.9794
-4.0025 -2.7050 -1.9772 0.9793
-3.7556 -3.0579 -1.9821 0.9793
-3.4777 -3.3884 -1.9872 0.9792
-3.1709 -3.6939 -1.9924 0.9792
-2.0997 -4.4343 -2.0080 0.9790
0.0148 -4.9641 -2.0317 0.9788
0.8973 -4.9014 -2.0394 0.9787
1.3318 -4.8101 -2.0427 0.9787
2.1686 -4.5101 -2.0482 0.9786
3.2899 -3.7867 -2.0530 0.9786
3.6148 -3.4802 -2.0537 0.9785
3.9103 -3.1453 -2.0538 0.9785
4.1738 -2.7846 -2.0535 0.9785
4.4032 -2.4015 -2.0527 0.9786
4.7519 -1.5812 -2.0497 0.9786
4.9814 -0.2697 -2.0417 0.9787
4.9772 0.1740 -2.0383 0.9787
4.9328 0.6148 -2.0345 0.9787
-2.2292 3.8617 -1.9433 0.9807
-3.1645 3.1313 -1.9402 0.9808
-3.6691 2.5212 -1.9402 0.9808
-4.0612 1.8329 -1.9418 0.9807
-1.4732 0.2330 -0.6500 0.9935
-1.4599 0.0991 -0.6377 0.9936
-1.4368 -0.0305 -0.6263 0.9937
-1.4742 -0.2978 -0.6555 0.9935
-1.4936 -0.4431 -0.6790 0.9932
-4.1965 -1.6636 -1.9674 0.9805
-3.6331 -2.7308 -1.9808 0.9804
-3.1069 -3.3473 -1.9904 0.9803
-2.8038 -3.6192 -1.9953 0.9802
-2.1287 -4.0785 -2.0050 0.9801
-1.7618 -4.2619 -2.0098 0.9801
-0.9835 -4.5273 -2.0191 0.9800
-0.5783 -4.6067 -2.0234 0.9799
-0.1667 -4.6494 -2.0276 0.9799
2.6040 -3.9106 -2.0476 0.9797
3.2589 -3.3909 -2.0497 0.9797
3.8086 -2.7604 -2.0499 0.9797
4.3956 -1.6547 -2.0469 0.9797
4.5212 -1.2561 -2.0450 0.9797
4.6097 -0.8481 -2.0427 0.9798
4.6738 -0.0181 -2.0370 0.9798
4.6491 0.3970 -2.0335 0.9798
4.5870 0.8073 -2.0298 0.9799
4.1849 1.9771 -2.0171 0.9800
3.9834 2.3360 -2.0125 0.9801
3.7510 2.6746 -2.0078 0.9801
3.4899 2.9904 -2.0029 0.9801
2.5579 3.7777 -1.9883 0.9803
0.6735 4.4564 -1.9642 0.9805
-0.1261 4.4878 -1.9567 0.9806
-0.5240 4.4531 -1.9541 0.9806
-0.9167 4.3828 -1.9514 0.9807
-1.3009 4.2779 -1.9487 0.9807
-2.0335 3.9707 -1.9443 0.9807
-2.7007 3.5424 -1.9414 0.9808
-3.5376 2.7021 -1.9400 0.9808
-3.7646 2.3772 -1.9404 0.9808
-3.9627 2.0339 -1.9412 0.9808
-4.1304 1.6745 -1.9424 0.9807
-1.4939 0.4558 -0.6807 0.9932
-1.4722 0.1746 -0.6461 0.9936
-1.4568 -0.0876 -0.6360 0.9937
-1.4886 -0.3614 -0.6676 0.9933
-4.1327 -1.8269 -1.9692 0.9805
-3.9626 -2.1920 -1.9736 0.9804
-1.5968 -4.3314 -2.0119 0.9801
-0.3994 -4.6299 -2.0253 0.9799
1.2488 -4.5103 -2.0396 0.9798
1.6471 -4.3873 -2.0424 0.9798
2.0331 -4.2284 -2.0447 0.9797
2.4033 -4.0347 -2.0467 0.9797
2.7546 -3.8078 -2.0482 0.9797
3.0839 -3.5496 -2.0493 0.9797
3.6654 -2.9483 -2.0501 0.9797
3.9124 -2.6103 -2.0498 0.9797
4.1275 -2.2512 -2.0490 0.9797
4.6711 -0.2529 -2.0387 0.9798
4.6266 0.5766 -2.0320 0.9799
-2.4158 3.4375 -1.9448 0.9817
-2.7105 3.2075 -1.9438 0.9817
-2.9841 2.9528 -1.9432 0.9817
-3.4600 2.3775 -1.9432 0.9817
-3.6588 2.0610 -1.9438 0.9817
-1.2560 0.5669 -0.6379 0.9939
-1.2644 0.4401 -0.6197 0.9941
-1.2741 0.2015 -0.5971 0.9943
-1.2748 -0.1412 -0.5937 0.9944
-1.2700 -0.3767 -0.6132 0.9942
-1.2542 -0.4972 -0.6245 0.9941
-3.6291 -2.2526 -1.9771 0.9813
-3.4220 -2.5720 -1.9815 0.9813
-3.1869 -2.8726 -1.9860 0.9813
-2.6397 -3.4074 -1.9952 0.9812
-2.3316 -3.6370 -1.9998 0.9811
-1.6580 -4.0107 -2.0089 0.9811
-1.2976 -4.1514 -2.0133 0.9810
-0.1568 -4.3731 -2.0256 0.9809
0.2332 -4.3776 -2.0292 0.9809
1.0081 -4.2806 -2.0356 0.9808
2.4479 -3.6761 -2.0444 0.9807
2.7667 -3.4459 -2.0455 0.9807
3.0633 -3.1874 -2.0463 0.9807
3.3352 -2.9028 -2.0467 0.9807
3.7955 -2.2654 -2.0460 0.9807
3.9801 -1.9181 -2.0451 0.9807
4.1321 -1.5555 -2.0437 0.9807
4.2503 -1.1809 -2.0419 0.9807
4.3721 0.3733 -2.0312 0.9808
4.3142 0.7593 -2.0277 0.9809
4.0958 1.5058 -2.0199 0.9809
3.9375 1.8602 -2.0157 0.9810
3.5302 2.5172 -2.0069 0.9811
3.2849 2.8147 -2.0024 0.9811
2.0781 3.7488 -1.9840 0.9813
1.7326 3.9100 -1.9796 0.9813
1.0082 4.1373 -1.9712 0.9814
0.2584 4.2339 -1.9635 0.9815
-0.1189 4.2326 -1.9600 0.9815
-0.4941 4.1984 -1.9568 0.9815
-0.8641 4.1316 -1.9539 0.9816
-1.2265 4.0330 -1.9513 0.9816
-1.5784 3.9035 -1.9490 0.9816
-2.2409 3.5558 -1.9455 0.9816
-2.5467 3.3404 -1.9443 0.9817
-2.8325 3.0994 -1.9435 0.9817
-3.0962 2.8346 -1.9431 0.9817
-1.2518 0.5075 -0.6253 0.9941
-1.2697 -0.0764 -0.5888 0.9944
-1.2746 -0.1915 -0.5966 0.9943
-1.2698 -0.3083 -0.6049 0.9943
-1.2507 -0.5529 -0.6330 0.9940
-3.5423 -2.3940 -1.9790 0.9813
-3.3228 -2.7055 -1.9835 0.9813
-2.8038 -3.2663 -1.9926 0.9812
-2.5081 -3.5108 -1.9972 0.9812
-1.5026 -4.0760 -2.0108 0.9810
-1.1366 -4.2025 -2.0152 0.9810
-0.7600 -4.2959 -2.0194 0.9810
-0.3757 -4.3551 -2.0234 0.9809
0.0131 -4.3794 -2.0272 0.9809
0.4031 -4.3685 -2.0307 0.9808
0.7913 -4.3223 -2.0340 0.9808
1.5486 -4.1249 -2.0395 0.9808
1.9113 -3.9751 -2.0417 0.9807
2.2593 -3.7928 -2.0435 0.9807
3.1850 -3.0664 -2.0465 0.9807
3.4453 -2.7713 -2.0467 0.9807
3.6776 -2.4536 -2.0464 0.9807
4.0504 -1.7617 -2.0445 0.9807
4.1878 -1.3935 -2.0430 0.9807
4.2911 -1.0146 -2.0410 0.9808
4.3593 -0.6283 -2.0387 0.9808
4.3894 0.1534 -2.0330 0.9808
4.3512 0.5423 -2.0297 0.9809
-1.6738 3.6067 -1.9504 0.9824
-2.2828 3.2483 -1.9475 0.9825
-2.8200 2.7904 -1.9460 0.9825
-3.0567 2.5284 -1.9458 0.9825
-3.4575 1.9476 -1.9466 0.9825
-1.1429 0.1807 -0.5676 0.9949
-1.1442 -0.1267 -0.5647 0.9949
-1.1312 -0.3356 -0.5788 0.9948
-1.0891 -0.5484 -0.5981 0.9946
-3.4262 -2.1266 -1.9781 0.9822
-3.2302 -2.4279 -1.9822 0.9822
-3.0079 -2.7113 -1.9864 0.9821
-2.1999 -3.4315 -1.9994 0.9820
-1.5639 -3.7831 -2.0080 0.9819
-1.2238 -3.9153 -2.0122 0.9819
-0.8726 -4.0166 -2.0162 0.9819
-0.5129 -4.0861 -2.0201 0.9818
-0.1478 -4.1230 -2.0237 0.9818
0.9502 -4.0346 -2.0332 0.9817
1.3069 -3.9391 -2.0358 0.9817
1.6538 -3.8115 -2.0380 0.9817
2.3066 -3.4640 -2.0414 0.9816
3.3732 -2.4448 -2.0435 0.9816
3.5763 -2.1346 -2.0430 0.9816
3.7503 -1.8074 -2.0421 0.9816
3.8937 -1.4658 -2.0408 0.9816
4.1214 0.3519 -2.0290 0.9817
3.9805 1.0728 -2.0222 0.9818
3.8621 1.4199 -2.0184 0.9818
3.3300 2.3745 -2.0062 0.9819
1.9615 3.5386 -1.9846 0.9821
1.2982 3.8141 -1.9763 0.9822
0.2440 3.9988 -1.9651 0.9823
-0.1124 3.9979 -1.9618 0.9823
-1.1588 3.8104 -1.9536 0.9824
-1.8117 3.5376 -1.9496 0.9824
-2.4066 3.1565 -1.9470 0.9825
-3.1525 2.4079 -1.9459 0.9825
-1.0915 0.5602 -0.6018 0.9945
-1.1122 0.4509 -0.5887 0.9947
-1.1363 0.2387 -0.5696 0.9948
-1.1443 0.1357 -0.5652 0.9949
-1.1329 -0.2750 -0.5718 0.9948
-1.1260 -0.3822 -0.5833 0.9947
-1.1017 -0.4870 -0.5908 0.9946
-1.1143 -0.6164 -0.6246 0.9943
-3.3441 -2.2600 -1.9798 0.9822
-3.1365 -2.5538 -1.9840 0.9821
-2.9032 -2.8287 -1.9883 0.9821
-2.0670 -3.5176 -2.0013 0.9820
-1.4172 -3.8444 -2.0098 0.9819
-0.7167 -4.0509 -2.0179 0.9818
-0.3543 -4.1062 -2.0217 0.9818
0.0123 -4.1287 -2.0253 0.9818
0.3800 -4.1180 -2.0286 0.9817
0.7458 -4.0741 -2.0316 0.9817
1.8012 -3.7460 -2.0389 0.9817
2.1290 -3.5740 -2.0406 0.9816
3.0010 -2.8893 -2.0435 0.9816
3.2463 -2.6112 -2.0436 0.9816
3.4652 -2.3119 -2.0433 0.9816
4.0439 -0.9562 -2.0383 0.9817
4.1397 -0.2242 -2.0336 0.9817
4.1374 0.1446 -2.0307 0.9817
-1.5845 3.4142 -1.9527 0.9832
-2.1612 3.0752 -1.9499 0.9832
-2.4250 2.8696 -1.9491 0.9832
-2.8939 2.3938 -1.9484 0.9832
-0.9497 0.5350 -0.5655 0.9951
-1.0108 0.3518 -0.5552 0.9952
-1.0203 0.2560 -0.5457 0.9953
-1.0345 0.1636 -0.5434 0.9953
-1.0369 0.0704 -0.5392 0.9953
-1.0290 -0.2079 -0.5446 0.9953
-1.0176 -0.3019 -0.5507 0.9952
-0.9688 -0.4878 -0.5627 0.9951
-0.9684 -0.6011 -0.5913 0.9949
-3.0552 -2.2964 -1.9828 0.9829
-2.6107 -2.8127 -1.9909 0.9829
-1.4781 -3.5756 -2.0072 0.9827
-1.1566 -3.7001 -2.0111 0.9827
-0.8245 -3.7955 -2.0150 0.9826
-0.1396 -3.8952 -2.0221 0.9826
0.5543 -3.8703 -2.0283 0.9825
0.8975 -3.8107 -2.0310 0.9825
1.2343 -3.7203 -2.0335 0.9825
1.5618 -3.5995 -2.0356 0.9825
2.1782 -3.2710 -2.0388 0.9824
2.7255 -2.8359 -2.0405 0.9824
3.1851 -2.3085 -2.0407 0.9824
3.3770 -2.0156 -2.0402 0.9824
3.5414 -1.7066 -2.0394 0.9824
3.9008 -0.3635 -2.0324 0.9825
3.9128 -0.0151 -2.0299 0.9825
3.5090 1.6577 -2.0133 0.9827
3.3413 1.9594 -2.0095 0.9827
3.1476 2.2444 -2.0055 0.9827
2.6892 2.7552 -1.9973 0.9828
1.5471 3.4914 -1.9811 0.9829
0.9007 3.6960 -1.9735 0.9830
0.5674 3.7548 -1.9700 0.9830
-0.7727 3.6944 -1.9581 0.9831
-1.0968 3.6068 -1.9557 0.9832
-1.4118 3.4913 -1.9537 0.9832
-2.0047 3.1809 -1.9506 0.9832
-0.9715 0.6134 -0.5960 0.9948
-1.0168 0.3102 -0.5515 0.9952
-1.0277 0.2159 -0.5448 0.9953
-1.0373 0.1230 -0.5419 0.9953
-1.0364 -0.0623 -0.5387 0.9953
-1.0353 -0.1555 -0.5431 0.9953
-1.0215 -0.2480 -0.5453 0.9953
-0.9502 -0.5256 -0.5633 0.9951
-2.2374 -3.1319 -1.9968 0.9828
-1.9540 -3.3253 -2.0009 0.9828
-1.6539 -3.4929 -2.0049 0.9827
-1.3394 -3.6334 -2.0089 0.9827
-1.0130 -3.7453 -2.0128 0.9827
-0.3347 -3.8796 -2.0201 0.9826
0.0116 -3.9005 -2.0235 0.9826
0.3590 -3.8900 -2.0266 0.9826
0.7045 -3.8482 -2.0295 0.9825
2.0104 -3.3750 -2.0380 0.9825
2.5792 -2.9687 -2.0402 0.9824
2.8337 -2.7282 -2.0407 0.9824
3.0653 -2.4656 -2.0408 0.9824
3.2720 -2.1830 -2.0406 0.9824
3.4521 -1.8828 -2.0399 0.9824
3.7267 -1.2401 -2.0375 0.9825
3.8802 -0.5592 -2.0337 0.9825
3.9099 -0.2117 -2.0314 0.9825
3.9081 0.1366 -2.0287 0.9825
-2.5319 2.5053 -1.9509 0.9839
-0.8766 0.6023 -0.5825 0.9952
-0.8989 0.4057 -0.5401 0.9955
-0.9159 0.3187 -0.5311 0.9956
-0.9469 0.0643 -0.5198 0.9957
-0.9471 -0.1049 -0.5219 0.9957
-0.9384 -0.1896 -0.5243 0.9956
-0.9228 -0.2737 -0.5272 0.9956
-0.9083 -0.3601 -0.5352 0.9956
-0.8636 -0.5361 -0.5567 0.9954
-2.8947 -2.1758 -1.9834 0.9836
-2.4730 -2.6644 -1.9910 0.9836
-2.2306 -2.8793 -1.9949 0.9835
-1.9696 -3.0723 -1.9988 0.9835
-0.7805 -3.5930 -2.0138 0.9834
0.1965 -3.6895 -2.0236 0.9833
0.8492 -3.6059 -2.0290 0.9832
1.1678 -3.5201 -2.0313 0.9832
1.7761 -3.2634 -2.0350 0.9832
2.8071 -2.4432 -2.0382 0.9832
3.0131 -2.1838 -2.0382 0.9832
3.4786 -1.3095 -2.0358 0.9832
1.8888 -0.1760 -1.0390 0.9914
1.8884 0.1612 -1.0380 0.9914
1.8854 0.3318 -1.0485 0.9913
1.8842 0.5078 -1.0688 0.9911
3.3220 1.5694 -2.0123 0.9834
3.1635 1.8552 -2.0086 0.9834
2.9804 2.1252 -2.0048 0.9834
2.7743 2.3772 -2.0010 0.9835
2.5469 2.6094 -1.9971 0.9835
2.0365 3.0076 -1.9893 0.9836
1.7575 3.1706 -1.9855 0.9836
1.1637 3.4190 -1.9781 0.9837
0.8536 3.5027 -1.9746 0.9837
0.2189 3.5866 -1.9681 0.9837
-0.1008 3.5865 -1.9651 0.9838
-0.4187 3.5584 -1.9624 0.9838
-1.0400 3.4197 -1.9577 0.9838
-1.3386 3.3104 -1.9558 0.9838
-1.6263 3.1756 -1.9541 0.9839
-2.1606 2.8339 -1.9518 0.9839
-2.6270 2.4051 -1.9507 0.9839
-2.8304 2.1619 -1.9507 0.9839
-0.8659 0.5468 -0.5609 0.9953
-0.8859 0.4547 -0.5454 0.9955
-0.9069 0.3677 -0.5360 0.9955
-0.9469 0.1123 -0.5222 0.9957
-0.9466 -0.0569 -0.5194 0.9957
-0.9307 -0.2259 -0.5246 0.9956
-0.9173 -0.3113 -0.5305 0.9956
-0.8746 -0.5911 -0.5781 0.9952
-2.8104 -2.2883 -1.9850 0.9836
-2.3698 -2.7607 -1.9927 0.9835
-2.1190 -2.9662 -1.9966 0.9835
-1.5661 -3.3075 -2.0043 0.9834
-0.9590 -3.5457 -2.0118 0.9834
0.0110 -3.6916 -2.0219 0.9833
0.3397 -3.6814 -2.0249 0.9833
0.9890 -3.5721 -2.0300 0.9832
1.3041 -3.4737 -2.0322 0.9832
1.9020 -3.1930 -2.0356 0.9832
2.1797 -3.0130 -2.0368 0.9832
2.4400 -2.8084 -2.0376 0.9832
2.6807 -2.5809 -2.0381 0.9832
3.0954 -2.0651 -2.0380 0.9832
3.2658 -1.7812 -2.0374 0.9832
3.4096 -1.4830 -2.0365 0.9832
1.8703 -0.6224 -1.0796 0.9911
1.8864 -0.4460 -1.0617 0.9912
1.8848 -0.1021 -1.0338 0.9914
-1.4267 3.0743 -1.9567 0.9845
-1.9462 2.7694 -1.9543 0.9845
-2.1839 2.5843 -1.9535 0.9845
-0.8204 0.4622 -0.5437 0.9957
-0.8712 0.2186 -0.5186 0.9959
-0.8796 -0.0187 -0.5079 0.9959
-0.8821 -0.0977 -0.5124 0.9959
-0.8770 -0.1772 -0.5166 0.9959
-0.8655 -0.2567 -0.5212 0.9958
-0.8542 -0.3386 -0.5305 0.9958
-0.8342 -0.4201 -0.5393 0.9957
-0.8038 -0.6042 -0.5805 0.9954
-2.5570 -2.3048 -1.9875 0.9842
-2.3462 -2.5277 -1.9911 0.9842
-1.6046 -3.0743 -2.0022 0.9841
-1.3273 -3.2106 -2.0058 0.9841
-1.0383 -3.3218 -2.0093 0.9841
-0.4349 -3.4647 -2.0160 0.9840
0.1863 -3.4973 -2.0220 0.9840
0.8049 -3.4176 -2.0272 0.9839
1.4004 -3.2274 -2.0312 0.9839
1.6831 -3.0925 -2.0328 0.9839
1.9527 -2.9325 -2.0341 0.9839
2.4431 -2.5421 -2.0356 0.9838
1.6984 -0.6393 -1.0477 0.9917
1.7277 -0.4800 -1.0353 0.9918
1.7367 -0.3195 -1.0195 0.9919
1.7270 -0.0067 -0.9971 0.9921
1.7403 0.1486 -1.0084 0.9920
1.7292 0.4660 -1.0340 0.9918
2.9999 1.7592 -2.0078 0.9841
2.4159 2.4752 -1.9969 0.9842
2.1822 2.6753 -1.9932 0.9842
0.8101 3.3245 -1.9756 0.9843
0.5105 3.3779 -1.9724 0.9843
0.2078 3.4047 -1.9694 0.9844
-0.0957 3.4048 -1.9665 0.9844
-0.6956 3.3256 -1.9616 0.9844
-1.2711 3.1435 -1.9577 0.9845
-1.8053 2.8645 -1.9548 0.9845
-2.2823 2.4973 -1.9532 0.9845
-0.8053 0.6151 -0.5851 0.9953
-0.8029 0.5070 -0.5482 0.9956
-0.8321 0.4271 -0.5400 0.9957
-0.8816 -0.0530 -0.5099 0.9959
-0.8723 -0.2117 -0.5182 0.9959
-0.8465 -0.3742 -0.5344 0.9957
-2.6667 -2.1713 -1.9854 0.9842
-2.2481 -2.6190 -1.9927 0.9842
-2.0101 -2.8137 -1.9964 0.9842
-0.3004 -3.4813 -2.0174 0.9840
0.9373 -3.3855 -2.0281 0.9839
1.2359 -3.2920 -2.0302 0.9839
1.8024 -3.0258 -2.0334 0.9839
2.0655 -2.8551 -2.0345 0.9839
2.3121 -2.6612 -2.0353 0.9838
2.9330 -1.9568 -2.0357 0.9838
3.2310 -1.4053 -2.0342 0.9839
1.7140 -0.5703 -1.0429 0.9917
1.7323 -0.4096 -1.0277 0.9918
1.7411 -0.2509 -1.0156 0.9919
1.7418 0.2171 -1.0134 0.9919
