ply
format ascii 1.0
element vertex 1582
property float32 x
property float32 y
property float32 z
property float32 I
end_header
-10.1421 8.5571 0.5232 0.9483
-15.7446 7.2817 0.6840 0.9329
-13.6742 -10.1258 0.6709 0.9342
10.8468 13.2822 0.6762 0.9337
1.6942 11.2465 0.4485 0.9555
0.6967 11.5395 0.4558 0.9548
-0.3344 11.5608 0.4560 0.9548
-2.1806 10.3654 0.4177 0.9585
-5.0010 9.7245 0.4312 0.9572
-7.0832 9.2516 0.4594 0.9544
-8.2493 8.9868 0.4810 0.9523
-9.5412 8.6935 0.5090 0.9496
-12.5261 7.8621 0.5832 0.9425
-18.3224 2.1059 0.7272 0.9288
-15.7677 -10.7708 0.7529 0.9264
4.2756 -5.8106 0.2845 0.9715
-0.7692 11.4587 0.1940 0.9551
-1.7234 10.9406 0.1871 0.9567
-2.5735 10.2732 0.1789 0.9585
-3.4993 10.0628 0.1800 0.9583
-5.3972 9.5790 0.1857 0.9570
-6.4566 9.3908 0.1925 0.9554
-8.7807 8.8627 0.2107 0.9513
-11.6935 8.2010 0.2413 0.9445
-15.7377 7.2784 0.2929 0.9330
4.5765 -5.7472 0.1241 0.9710
6.7936 12.2492 0.2366 0.9455
5.3513 12.0751 0.2231 0.9485
4.0041 11.7687 0.2100 0.9515
1.6937 11.2433 0.1921 0.9555
0.6964 11.5352 0.1952 0.9548
-0.3343 11.5576 0.1953 0.9548
-3.1025 10.1530 0.1793 0.9584
-6.0073 9.4928 0.1898 0.9561
-8.2468 8.9840 0.2060 0.9524
-6.2984 4.7854 0.1336 0.9689
4.2701 -5.8032 0.1217 0.9716
0.2594 11.6894 -0.0658 0.9543
-0.7656 11.4051 -0.0644 0.9553
-2.5728 10.2705 -0.0596 0.9585
-5.3957 9.5763 -0.0619 0.9570
-6.4547 9.3880 -0.0641 0.9555
-7.4733 9.0266 -0.0660 0.9542
-8.7779 8.8599 -0.0702 0.9513
-11.6341 8.1593 -0.0800 0.9447
-13.5121 7.7797 -0.0878 0.9395
-13.5530 -10.0361 -0.0949 0.9348
9.3166 13.7477 -0.0935 0.9357
6.7911 12.2448 -0.0788 0.9455
5.3243 12.0140 -0.0740 0.9488
0.6962 11.5309 -0.0650 0.9548
-2.1794 10.3599 -0.0596 0.9585
-3.1016 10.1502 -0.0598 0.9584
-4.9740 9.6722 -0.0612 0.9574
-7.0790 9.2461 -0.0656 0.9545
-9.5350 8.6878 -0.0726 0.9497
-17.0091 6.8347 -0.1032 0.9293
-15.8061 -10.7970 -0.1078 0.9263
0.2594 11.6861 -0.3291 0.9543
-0.7654 11.4020 -0.3218 0.9553
-1.7230 10.9383 -0.3118 0.9567
-4.4414 9.8427 -0.3041 0.9577
-7.4767 9.0308 -0.3301 0.9542
-8.7751 8.8571 -0.3511 0.9513
-10.1319 8.5484 -0.3733 0.9483
-11.6298 8.1564 -0.4000 0.9447
-15.7239 7.2721 -0.4878 0.9330
6.7887 12.2404 -0.3941 0.9455
5.3225 12.0100 -0.3699 0.9488
4.0016 11.7612 -0.3498 0.9515
0.6959 11.5267 -0.3252 0.9548
-1.3378 11.2719 -0.3196 0.9556
-2.1788 10.3571 -0.2980 0.9585
-3.1008 10.1475 -0.2988 0.9584
-4.0349 9.9352 -0.3019 0.9580
-4.9727 9.6695 -0.3062 0.9574
-5.9755 9.4426 -0.3147 0.9563
-7.0769 9.2434 -0.3278 0.9545
-6.2980 4.7850 -0.2227 0.9688
-14.6518 7.4665 -0.4630 0.9363
-17.0011 6.8315 -0.5159 0.9293
-18.3227 2.1060 -0.5193 0.9289
4.2792 -5.8156 -0.2033 0.9715
0.2593 11.6829 -0.5926 0.9543
-0.7651 11.3989 -0.5794 0.9553
-4.4402 9.8400 -0.5475 0.9577
-6.4205 9.3383 -0.5747 0.9556
-7.4802 9.0349 -0.5949 0.9541
-8.7723 8.8543 -0.6321 0.9513
-11.6256 8.1534 -0.7201 0.9447
-13.4375 7.7367 -0.7864 0.9398
5.6243 -17.2243 -0.9189 0.9300
4.5013 -5.6528 -0.3665 0.9715
9.3093 13.7369 -0.8416 0.9357
5.3207 12.0059 -0.6660 0.9488
4.0003 11.7575 -0.6298 0.9515
2.7949 11.4839 -0.5994 0.9538
1.6922 11.2336 -0.5761 0.9555
0.6957 11.5224 -0.5854 0.9548
-0.3340 11.5481 -0.5859 0.9548
-1.3374 11.2689 -0.5755 0.9556
-2.1782 10.3543 -0.5366 0.9585
-4.9643 9.6532 -0.5505 0.9575
-5.9738 9.4399 -0.5665 0.9562
-8.2391 8.9757 -0.6179 0.9524
-9.5287 8.6821 -0.6538 0.9497
-6.2984 4.7854 -0.4012 0.9688
-14.7128 7.4976 -0.8374 0.9360
-18.3231 2.1060 -0.9354 0.9288
-15.6600 -10.6972 -0.9618 0.9269
-5.7164 -15.8074 -0.8525 0.9349
4.7608 -16.7130 -0.8813 0.9328
6.0553 -15.7651 -0.8565 0.9346
4.2818 -5.8190 -0.3664 0.9715
-0.7683 11.4463 -0.8412 0.9550
-1.7227 10.9361 -0.8117 0.9566
-2.5707 10.2622 -0.7757 0.9585
-3.4777 10.0007 -0.7763 0.9584
-6.4186 9.3356 -0.8307 0.9556
-7.0094 8.4663 -0.8059 0.9569
-10.1251 8.5427 -0.9713 0.9483
-11.6214 8.1504 -1.0408 0.9447
-16.8385 6.0318 -1.3115 0.9308
-4.9996 -15.6674 -1.2058 0.9362
5.1819 -15.8695 -1.2241 0.9352
6.6680 -15.5612 -1.2413 0.9344
8.1879 -15.2022 -1.2661 0.9331
4.4930 -5.6423 -0.5289 0.9715
12.6893 9.0273 -1.1418 0.9395
10.8325 13.2647 -1.2557 0.9336
6.7838 12.2316 -1.0255 0.9454
5.3442 12.0589 -0.9671 0.9485
3.9990 11.7538 -0.9103 0.9514
0.6954 11.5181 -0.8461 0.9548
-0.3339 11.5450 -0.8469 0.9547
-2.1776 10.3515 -0.7756 0.9585
-4.9629 9.6506 -0.7957 0.9574
-7.0727 9.2379 -0.8531 0.9544
-9.5256 8.6793 -0.9449 0.9496
-6.2988 4.7857 -0.5800 0.9688
-16.8160 6.7571 -1.3288 0.9299
-8.7733 -10.3347 -0.9940 0.9471
-5.6639 -15.6622 -1.2212 0.9354
4.5636 -16.0208 -1.2214 0.9354
7.5082 -15.3104 -1.2503 0.9339
4.2843 -5.8224 -0.5300 0.9714
-0.7681 11.4431 -1.1011 0.9550
-2.5700 10.2594 -1.0154 0.9584
-4.4378 9.8346 -1.0358 0.9576
-5.4158 9.6120 -1.0592 0.9566
-8.5597 8.6397 -1.1676 0.9523
-9.8826 8.3381 -1.2414 0.9494
-11.3966 7.9928 -1.3364 0.9456
-13.1719 7.5838 -1.4592 0.9408
-18.0597 4.7030 -1.7916 0.9278
-18.1658 3.0350 -1.7682 0.9287
-19.6082 1.4996 -1.8880 0.9240
-11.1291 -14.1706 -1.7299 0.9302
-9.8002 -15.0719 -1.7260 0.9303
-5.0011 -15.6723 -1.5794 0.9360
-2.3502 -17.9123 -1.7344 0.9300
9.0031 -16.7159 -1.8228 0.9265
10.5685 -16.0167 -1.8423 0.9258
12.6811 9.0215 -1.4941 0.9394
10.8297 13.2612 -1.6437 0.9335
9.2609 13.6656 -1.5848 0.9358
6.7163 12.1100 -1.3295 0.9459
5.2162 11.7701 -1.2360 0.9496
2.7932 11.4770 -1.1340 0.9536
0.6951 11.5138 -1.1074 0.9547
-0.3338 11.5418 -1.1085 0.9547
-1.3426 11.3127 -1.0937 0.9553
-2.1771 10.3487 -1.0153 0.9584
-3.0983 10.1393 -1.0179 0.9583
-7.0372 9.1916 -1.1114 0.9545
-7.5989 8.2782 -1.0788 0.9558
-9.2976 8.4715 -1.2076 0.9507
-12.4376 7.8066 -1.4098 0.9427
-16.8080 6.7539 -1.7391 0.9298
-18.1379 3.7457 -1.7781 0.9283
-18.1219 2.0829 -1.7512 0.9293
-19.5439 0.4930 -1.8769 0.9244
-19.2817 -1.2356 -1.8549 0.9253
-18.8845 -2.9162 -1.8345 0.9261
-18.3589 -4.5400 -1.8156 0.9268
-17.7118 -6.0993 -1.7984 0.9275
-16.9506 -7.5871 -1.7829 0.9281
-16.0820 -8.9972 -1.7692 0.9286
-12.5684 -8.5853 -1.4613 0.9407
-12.9034 -12.7067 -1.7386 0.9298
-6.1087 -16.8921 -1.7245 0.9304
-3.0265 -17.7837 -1.7319 0.9301
0.1794 -18.1922 -1.7466 0.9295
1.8100 -18.2087 -1.7567 0.9291
6.0411 -15.7280 -1.6175 0.9345
9.9045 -16.3318 -1.8337 0.9261
12.9377 -14.6448 -1.8760 0.9245
14.3676 -13.6010 -1.8994 0.9236
0.2579 11.6217 -1.3808 0.9543
-0.7645 11.3896 -1.3560 0.9551
-1.7116 10.8656 -1.3066 0.9567
-3.4111 9.8092 -1.2336 0.9590
-5.2864 9.3824 -1.2792 0.9575
-9.8792 8.3353 -1.5354 0.9493
-11.3925 7.9899 -1.6529 0.9455
-14.0716 6.5079 -1.8416 0.9395
-14.6730 3.8211 -1.8011 0.9408
-16.0261 1.2256 -1.9092 0.9373
-15.9130 -0.2051 -1.8904 0.9379
-15.6832 -1.6069 -1.8727 0.9385
-12.9600 -7.9135 -1.8038 0.9407
-10.9840 -8.1337 -1.6235 0.9464
-8.6250 -7.6662 -1.3707 0.9546
-5.1024 -7.8471 -1.1119 0.9630
-3.8653 -9.1907 -1.1843 0.9606
-3.2549 -14.5775 -1.7742 0.9416
-0.6196 -15.0142 -1.7850 0.9413
0.7237 -15.0744 -1.7927 0.9410
4.7684 -14.6032 -1.8248 0.9400
4.4792 -5.6250 -0.8541 0.9715
12.1871 -10.6865 -1.9254 0.9368
14.1942 -8.5365 -1.9675 0.9355
15.0661 -7.3195 -1.9897 0.9348
13.5996 -5.1660 -1.7281 0.9431
17.8501 1.4859 -2.1277 0.9304
17.8288 3.1020 -2.1496 0.9297
17.6528 4.7240 -2.1707 0.9290
16.8269 7.9200 -2.2091 0.9278
15.6719 9.1640 -2.1565 0.9295
13.3208 11.3932 -2.0821 0.9318
10.8268 13.2576 -2.0332 0.9334
6.7139 12.1055 -1.6443 0.9458
2.7264 11.2025 -1.3695 0.9546
0.6916 11.4551 -1.3632 0.9548
-1.3363 11.2597 -1.3469 0.9554
-2.1251 10.1016 -1.2262 0.9593
-3.0243 9.8971 -1.2293 0.9592
-4.8734 9.4764 -1.2658 0.9580
-5.8554 9.2528 -1.3007 0.9569
-6.9016 9.0144 -1.3486 0.9553
-7.5965 8.2756 -1.3344 0.9558
-6.2996 4.7863 -0.9398 0.9686
-12.4328 7.8036 -1.7437 0.9426
-13.8805 7.0735 -1.8506 0.9392
-14.7575 3.0476 -1.7900 0.9411
-15.9808 1.8368 -1.9108 0.9373
-15.9758 0.4030 -1.8983 0.9377
-15.0971 -3.7334 -1.8473 0.9393
-11.5934 -7.9193 -1.6678 0.9450
-8.6068 -12.1934 -1.7729 0.9417
-6.2945 -13.5028 -1.7697 0.9418
-5.0685 -14.0159 -1.7704 0.9417
0.1485 -15.0618 -1.7892 0.9411
2.8488 -14.9505 -1.8079 0.9405
4.1962 -14.7308 -1.8194 0.9402
6.8454 -13.9589 -1.8468 0.9393
8.1304 -13.4065 -1.8625 0.9388
4.2950 -5.8370 -0.8608 0.9712
10.5766 -11.9722 -1.8976 0.9377
13.7933 -9.0284 -1.9582 0.9358
15.5207 -6.5829 -2.0026 0.9343
14.6490 -3.3174 -1.7842 0.9413
16.0350 -2.1533 -1.9218 0.9369
17.6216 -0.7807 -2.0952 0.9314
17.8131 0.8011 -2.1181 0.9307
17.8567 2.4101 -2.1404 0.9300
17.0565 7.2476 -2.2014 0.9281
0.2579 11.6184 -1.6466 0.9541
-0.7643 11.3864 -1.6170 0.9549
-1.7114 10.8644 -1.5584 0.9565
-2.5080 10.0117 -1.4624 0.9592
-5.2849 9.3797 -1.5254 0.9574
-6.2913 9.1504 -1.5734 0.9561
-7.0505 8.5160 -1.5665 0.9563
-12.1217 4.3421 -1.8244 0.9493
-13.4705 2.2505 -1.9351 0.9463
-13.2788 -1.3606 -1.8913 0.9475
-12.1891 -4.7242 -1.8522 0.9486
-11.6519 -5.7579 -1.8415 0.9488
-8.8894 -7.9012 -1.6852 0.9531
-7.3062 -9.3029 -1.6760 0.9533
-4.9320 -11.7271 -1.8026 0.9499
-2.7783 -12.4429 -1.8064 0.9498
-1.6622 -12.6689 -1.8104 0.9497
1.7667 -12.7973 -1.8304 0.9491
4.0532 -12.4131 -1.8502 0.9486
5.1756 -12.0784 -1.8619 0.9483
7.3412 -11.1257 -1.8886 0.9476
9.3494 -9.8035 -1.9195 0.9467
10.2744 -9.0093 -1.9362 0.9463
11.9255 -7.1721 -1.9718 0.9453
12.7848 -3.5908 -1.8816 0.9478
13.1784 -2.4607 -1.8995 0.9473
14.5239 -1.3895 -2.0673 0.9428
14.7242 -0.0908 -2.0863 0.9422
14.7609 2.5682 -2.1229 0.9413
14.5905 3.9045 -2.1401 0.9408
14.2920 5.2283 -2.1563 0.9404
10.9370 9.3543 -2.0392 0.9435
10.0998 10.3323 -2.0472 0.9433
9.1672 11.2254 -2.0535 0.9431
8.1482 12.0235 -2.0579 0.9430
6.7114 12.1011 -1.9606 0.9456
3.9008 11.4653 -1.7160 0.9523
2.7255 11.1991 -1.6331 0.9545
-0.3322 11.4845 -1.6279 0.9546
-1.3360 11.2566 -1.6061 0.9552
-2.1245 10.0988 -1.4622 0.9592
-4.8720 9.4737 -1.5094 0.9579
-5.8537 9.2501 -1.5510 0.9567
-6.8995 9.0117 -1.6081 0.9552
-7.6112 8.2916 -1.5948 0.9555
-9.2914 8.4659 -1.7810 0.9505
-11.6280 5.9256 -1.8492 0.9486
-11.9955 4.8201 -1.8317 0.9491
-12.2621 3.6975 -1.8147 0.9496
-13.4983 0.3405 -1.9132 0.9469
-13.3656 -0.8565 -1.8977 0.9473
-12.8092 -3.1676 -1.8696 0.9481
-11.3081 -6.3264 -1.8359 0.9490
-10.6484 -7.2738 -1.8272 0.9492
-6.8146 -9.6543 -1.6744 0.9534
-5.5583 -9.5866 -1.5701 0.9562
-2.3330 -8.8487 -1.2966 0.9637
-2.1415 -12.5834 -1.8086 0.9497
0.1267 -12.8404 -1.8194 0.9494
4.6987 -12.2330 -1.8567 0.9484
6.8897 -11.3607 -1.8826 0.9477
4.3223 -5.8740 -1.0333 0.9710
8.9369 -10.1161 -1.9126 0.9469
9.8865 -9.3591 -1.9289 0.9465
10.7761 -8.5161 -1.9461 0.9460
11.5975 -7.5911 -1.9640 0.9455
12.5873 -4.0587 -1.8739 0.9480
14.2151 -1.9089 -2.0322 0.9437
14.6531 -0.6492 -2.0782 0.9425
14.7852 0.6649 -2.0970 0.9420
14.4352 4.6652 -2.1495 0.9406
14.0631 5.9757 -2.1650 0.9401
0.2578 11.6151 -1.9139 0.9540
-0.7641 11.3833 -1.8795 0.9548
-2.5073 10.0089 -1.6998 0.9590
-3.4093 9.8038 -1.7099 0.9588
-6.2894 9.1477 -1.8288 0.9560
-8.1280 8.2039 -1.9025 0.9543
-8.7564 7.3879 -1.8874 0.9546
-10.4396 3.7396 -1.8268 0.9560
-11.6946 0.8943 -1.9322 0.9536
-11.6431 -0.1501 -1.9182 0.9539
-11.5039 -1.1787 -1.9051 0.9542
-10.9735 -3.1619 -1.8813 0.9548
-10.5891 -4.1041 -1.8709 0.9550
-10.1301 -5.0059 -1.8615 0.9552
-7.8862 -7.0095 -1.7382 0.9581
-6.3675 -8.1077 -1.6983 0.9591
-4.8172 -9.0899 -1.6947 0.9592
-2.4214 -10.8448 -1.8306 0.9560
-1.4483 -11.0386 -1.8341 0.9559
0.3943 -8.2137 -1.3547 0.9672
2.5342 -11.0015 -1.8598 0.9553
3.5217 -10.7852 -1.8691 0.9550
4.4931 -10.4857 -1.8793 0.9548
8.0836 -8.4762 -1.9296 0.9536
8.8729 -7.7804 -1.9441 0.9533
9.5281 -5.7303 -1.8317 0.9559
10.9694 -3.0809 -1.8770 0.9549
12.6349 1.0517 -2.0887 0.9499
12.5819 2.1891 -2.1039 0.9495
12.4218 3.3242 -2.1184 0.9492
12.1540 4.4462 -2.1320 0.9489
11.2982 6.6066 -2.1561 0.9483
9.2679 7.9267 -2.0091 0.9518
8.5533 8.7501 -2.0158 0.9516
7.7598 9.5021 -2.0210 0.9515
2.7247 11.1957 -1.8982 0.9544
1.6498 10.9523 -1.8246 0.9561
0.6911 11.4465 -1.8891 0.9546
-1.3356 11.2535 -1.8669 0.9551
-2.1239 10.0960 -1.6996 0.9590
-3.9331 9.6845 -1.7220 0.9585
-5.8520 9.2474 -1.8028 0.9566
-8.4977 7.7426 -1.8938 0.9545
-6.1978 4.7090 -1.2823 0.9689
-9.5801 6.0131 -1.8633 0.9552
-10.3251 4.1489 -1.8331 0.9559
-11.6117 2.3980 -1.9533 0.9531
-11.6893 1.3435 -1.9384 0.9534
-11.6760 0.2945 -1.9241 0.9538
-11.5739 -0.7417 -1.9106 0.9541
-11.3856 -1.7582 -1.8979 0.9544
-10.7626 -3.7062 -1.8752 0.9549
-9.8351 -5.5023 -1.8565 0.9553
-7.3684 -7.2561 -1.7036 0.9589
-6.6771 -7.8655 -1.6997 0.9590
-5.9398 -8.4150 -1.6968 0.9591
-4.6862 -8.0825 -1.5391 0.9628
-3.7728 -10.4327 -1.8276 0.9560
-2.3341 -8.8528 -1.5082 0.9636
0.1103 -11.1809 -1.8420 0.9557
0.7994 -8.0420 -1.3314 0.9678
2.1091 -11.0686 -1.8562 0.9553
3.1015 -10.8878 -1.8650 0.9551
4.0806 -10.6238 -1.8748 0.9549
4.3663 -5.9339 -1.2137 0.9706
7.7307 -8.7508 -1.9236 0.9538
9.8539 -5.2604 -1.8402 0.9557
10.3675 -4.3972 -1.8552 0.9554
12.5289 -0.5551 -2.0660 0.9504
12.6253 0.5678 -2.0820 0.9501
0.2347 10.5737 -1.9879 0.9579
-1.6336 10.3706 -1.9733 0.9582
-2.5066 10.0061 -1.9389 0.9589
-3.4083 9.8010 -1.9504 0.9586
-6.4726 7.8179 -1.9077 0.9595
-8.1380 5.7074 -1.8683 0.9604
-8.5527 4.9243 -1.8550 0.9606
-8.8934 4.1131 -1.8417 0.9609
-9.4573 3.3877 -1.8882 0.9599
-9.9486 -1.9269 -1.9047 0.9596
-9.6855 -2.7907 -1.8946 0.9598
-7.9654 -5.8984 -1.8630 0.9605
-7.3866 -6.5654 -1.8575 0.9606
-6.2663 -6.6597 -1.7188 0.9635
-5.6378 -7.1786 -1.7157 0.9635
-4.2662 -8.0501 -1.7125 0.9636
-3.5318 -8.3977 -1.7124 0.9636
-1.3294 -5.9541 -1.1467 0.9755
3.9662 -9.2561 -1.8928 0.9598
3.9523 -7.3381 -1.5666 0.9666
7.8249 -5.7133 -1.8211 0.9613
8.3610 -5.0284 -1.8339 0.9611
8.8383 -4.2938 -1.8469 0.9608
10.6401 -1.9867 -2.0345 0.9569
10.8505 -1.0381 -2.0488 0.9566
11.0095 0.9164 -2.0765 0.9560
10.9530 1.9057 -2.0897 0.9558
10.8040 2.8912 -2.1022 0.9555
10.5622 3.8639 -2.1140 0.9553
10.2283 4.8142 -2.1248 0.9550
9.8040 5.7328 -2.1347 0.9548
8.6724 7.4175 -2.1450 0.9546
7.4102 7.5807 -1.9925 0.9578
6.7204 8.2293 -1.9970 0.9577
5.9699 8.8093 -2.0002 0.9576
5.1660 9.3145 -2.0020 0.9576
3.4298 10.0808 -2.0015 0.9576
-2.1233 10.0933 -1.9387 0.9589
-3.0218 9.8890 -1.9436 0.9588
-4.7137 9.1659 -1.9373 0.9589
-5.4780 8.6564 -1.9255 0.9592
-6.8370 7.4482 -1.9004 0.9597
-7.4220 6.7625 -1.8873 0.9600
-6.1755 4.6920 -1.4578 0.9689
-8.3845 5.2626 -1.8607 0.9605
-8.7570 4.4625 -1.8474 0.9608
-9.0548 3.6385 -1.8342 0.9611
-10.0237 3.0225 -1.9678 0.9583
-10.0388 -1.5502 -1.9093 0.9595
-9.8066 -2.4251 -1.8988 0.9597
-9.5030 -3.2725 -1.8891 0.9599
-8.6941 -4.8640 -1.8725 0.9603
-5.2596 -7.4514 -1.7143 0.9636
-3.8027 -6.5587 -1.4250 0.9696
-2.3251 -8.8189 -1.7143 0.9636
-0.7822 -9.8366 -1.8547 0.9606
0.7997 -8.0448 -1.5196 0.9676
1.8645 -9.7847 -1.8722 0.9603
4.4471 -9.0683 -1.8984 0.9597
4.3958 -5.9739 -1.3941 0.9703
6.3119 -7.1448 -1.7919 0.9619
8.1389 -5.3273 -1.8284 0.9612
9.4579 -3.0497 -1.8679 0.9604
10.7710 -1.4464 -2.0427 0.9567
10.9323 -0.4843 -2.0569 0.9564
11.0056 0.4949 -2.0707 0.9562
10.9884 1.4831 -2.0841 0.9559
10.6769 3.4506 -2.1090 0.9554
10.3821 4.4116 -2.1203 0.9551
0.2069 9.3204 -1.9706 0.9626
-0.6225 9.2739 -1.9647 0.9627
-2.2417 8.9487 -1.9500 0.9630
-3.0166 8.6746 -1.9414 0.9631
-3.7592 8.3308 -1.9319 0.9633
-4.4631 7.9212 -1.9219 0.9635
-5.7328 6.9244 -1.9002 0.9639
-6.2889 6.3477 -1.8888 0.9641
-6.7873 5.7266 -1.8771 0.9643
-7.2249 5.0670 -1.8654 0.9646
-7.5991 4.3753 -1.8535 0.9648
-8.0419 3.7192 -1.8729 0.9644
-9.1771 0.7018 -1.9455 0.9631
-9.1509 -0.1180 -1.9345 0.9633
-8.3667 -3.2428 -1.8967 0.9640
-8.0125 -3.9595 -1.8892 0.9641
-6.6184 -5.8827 -1.8718 0.9644
-3.8249 -7.2175 -1.7266 0.9672
-3.1665 -7.5292 -1.7265 0.9672
-2.4843 -7.7851 -1.7274 0.9671
-1.3300 -5.9566 -1.2901 0.9754
-0.3385 -8.2023 -1.7353 0.9670
1.1289 -8.1774 -1.7449 0.9668
1.7280 -5.2921 -1.1768 0.9775
3.2632 -4.9455 -1.2524 0.9761
6.9698 -5.0890 -1.8242 0.9653
7.4416 -4.4755 -1.8356 0.9651
9.1873 -2.5804 -2.0171 0.9617
9.7216 -0.0599 -2.0550 0.9610
9.7451 0.8112 -2.0670 0.9608
9.5497 2.5556 -2.0896 0.9604
9.0295 4.2499 -2.1095 0.9600
8.1947 5.8298 -2.1258 0.9597
6.9987 7.1597 -2.1164 0.9599
5.2584 7.7594 -1.9813 0.9624
4.5498 8.2036 -1.9829 0.9624
3.8015 8.5779 -1.9833 0.9624
3.0208 8.8787 -1.9824 0.9624
1.3933 9.2493 -1.9772 0.9625
0.5625 9.3161 -1.9728 0.9626
-0.2691 9.3034 -1.9674 0.9627
-1.0933 9.2120 -1.9609 0.9628
-1.9025 9.0435 -1.9535 0.9629
-4.1676 8.1039 -1.9263 0.9634
-4.8467 7.6588 -1.9159 0.9636
-6.5817 5.9970 -1.8821 0.9643
-7.4472 4.6743 -1.8586 0.9647
-7.7842 3.9668 -1.8468 0.9649
-8.6917 3.4925 -1.9800 0.9624
-8.9422 2.6964 -1.9743 0.9625
-9.0907 1.8773 -1.9621 0.9628
-9.1666 1.0536 -1.9504 0.9630
-9.1708 0.2313 -1.9391 0.9632
-9.1043 -0.5834 -1.9284 0.9634
-8.7666 -2.1679 -1.9089 0.9638
-8.1710 -3.6574 -1.8923 0.9641
-6.8450 -5.6322 -1.8737 0.9644
-6.3012 -6.2052 -1.8694 0.9645
-5.4754 -6.4499 -1.7884 0.9660
-4.7151 -6.6800 -1.7283 0.9671
-2.9467 -6.3211 -1.4742 0.9719
-1.3735 -8.0707 -1.7305 0.9671
-0.6502 -8.1759 -1.7337 0.9670
0.0811 -8.2204 -1.7377 0.9669
0.7970 -8.0177 -1.7031 0.9676
1.5482 -8.1248 -1.7483 0.9668
2.2744 -7.9842 -1.7548 0.9666
4.6368 -5.2486 -1.4804 0.9718
6.7532 -5.3369 -1.8194 0.9654
7.6883 -4.1043 -1.8422 0.9650
9.0577 -2.9206 -2.0117 0.9618
9.3409 -2.1154 -2.0245 0.9616
9.5519 -1.2827 -2.0372 0.9614
9.6874 -0.4292 -2.0497 0.9611
9.7224 1.3122 -2.0737 0.9607
0.1848 8.3243 -1.9569 0.9664
-0.5562 8.2854 -1.9516 0.9665
-1.2881 8.1772 -1.9455 0.9666
-2.6985 7.7598 -1.9309 0.9668
-3.3645 7.4561 -1.9225 0.9669
-3.9967 7.0934 -1.9135 0.9671
-6.9137 3.9806 -1.8749 0.9678
-7.6853 3.5544 -1.9900 0.9658
-7.9418 2.8449 -1.9826 0.9659
-8.2287 1.3748 -1.9607 0.9663
-8.2742 0.6328 -1.9503 0.9665
-8.2552 -0.1064 -1.9403 0.9666
-7.5622 -2.9309 -1.9061 0.9672
-7.2448 -3.5801 -1.8993 0.9673
-5.9896 -5.3238 -1.8834 0.9676
-5.4809 -5.8250 -1.8798 0.9677
-3.4633 -6.5351 -1.7383 0.9701
-2.8671 -6.8174 -1.7382 0.9701
-0.9648 -7.3529 -1.7429 0.9700
-0.3064 -7.4233 -1.7461 0.9699
1.6814 -7.2994 -1.7604 0.9697
1.7264 -5.2871 -1.3072 0.9774
4.0542 -6.1443 -1.7301 0.9702
4.2443 -5.3301 -1.6013 0.9724
6.2773 -4.5834 -1.8267 0.9686
6.6981 -4.0283 -1.8370 0.9684
8.4751 -1.5825 -2.0263 0.9652
8.6304 -0.8257 -2.0376 0.9650
8.7169 -0.0538 -2.0487 0.9648
8.5478 2.2875 -2.0796 0.9643
8.3468 3.0534 -2.0888 0.9641
7.3217 5.2087 -2.1118 0.9638
6.8474 5.8565 -2.1176 0.9637
6.3127 6.4580 -2.1225 0.9636
5.5860 6.8402 -2.0756 0.9644
3.3929 7.6559 -1.9681 0.9662
2.6962 7.9247 -1.9673 0.9662
1.9776 8.1260 -1.9655 0.9662
1.2440 8.2579 -1.9627 0.9663
-0.2404 8.3106 -1.9540 0.9664
-0.9770 8.2318 -1.9482 0.9665
-1.7007 8.0845 -1.9416 0.9666
-3.0838 7.5932 -1.9261 0.9669
-4.3416 6.8607 -1.9082 0.9672
-4.9105 6.4137 -1.8984 0.9674
-5.4334 5.9191 -1.8884 0.9675
-5.9066 5.3818 -1.8780 0.9677
-6.1313 4.6584 -1.8097 0.9689
-6.6919 4.2002 -1.8569 0.9681
-8.0507 2.4276 -1.9763 0.9660
-8.1894 1.6912 -1.9653 0.9662
-8.2711 0.2086 -1.9445 0.9666
-8.0976 -1.2504 -1.9257 0.9669
-7.9187 -1.9582 -1.9171 0.9670
-7.6811 -2.6451 -1.9093 0.9672
-6.6405 -4.5360 -1.8900 0.9675
-6.1940 -5.0966 -1.8852 0.9676
-2.5156 -6.9563 -1.7385 0.9701
-1.2434 -7.3061 -1.7418 0.9700
0.0734 -7.4386 -1.7483 0.9699
0.7377 -7.4214 -1.7528 0.9698
1.4001 -7.3479 -1.7580 0.9697
2.0562 -7.2182 -1.7639 0.9696
2.7012 -7.0326 -1.7706 0.9695
3.3307 -6.7918 -1.7778 0.9694
3.9543 -5.3740 -1.5681 0.9730
5.6009 -5.3021 -1.8126 0.9688
6.0838 -4.8079 -1.8224 0.9686
6.5241 -4.2703 -1.8326 0.9685
7.8281 -3.3202 -1.9984 0.9657
8.1393 -2.6245 -2.0099 0.9655
8.3884 -1.8996 -2.0214 0.9653
8.7346 0.3928 -2.0549 0.9647
8.6117 1.9563 -2.0755 0.9644
8.4415 2.7281 -2.0850 0.9642
0.1667 7.5128 -1.9457 0.9694
-1.1632 7.3842 -1.9355 0.9696
-2.4386 7.0125 -1.9223 0.9698
-3.0417 6.7408 -1.9148 0.9699
-3.6149 6.4158 -1.9067 0.9700
-4.6532 5.6204 -1.8892 0.9703
-5.5218 4.6588 -1.8706 0.9706
-6.6918 3.8528 -1.9993 0.9686
-6.9899 3.2327 -1.9940 0.9687
-7.2127 2.5837 -1.9837 0.9688
-7.3765 1.9209 -1.9736 0.9690
-7.4808 1.2498 -1.9638 0.9691
-7.5259 0.5755 -1.9543 0.9693
-7.5121 -0.0968 -1.9452 0.9694
-7.3120 -1.4163 -1.9284 0.9697
-7.1287 -2.0540 -1.9208 0.9698
-6.8924 -2.6713 -1.9139 0.9699
-6.6052 -3.2641 -1.9076 0.9700
-5.4648 -4.8573 -1.8931 0.9702
-4.5020 -5.7324 -1.8872 0.9703
-3.9580 -6.0871 -1.8799 0.9704
-2.6171 -6.2228 -1.7479 0.9725
-2.0531 -6.4338 -1.7486 0.9725
-0.2795 -6.7732 -1.7552 0.9724
0.7611 -5.5135 -1.4411 0.9773
2.7082 -6.3203 -1.7803 0.9720
2.7293 -5.0675 -1.4903 0.9765
4.8272 -5.0616 -1.8110 0.9715
5.1269 -4.4956 -1.7655 0.9722
5.7045 -4.1651 -1.8288 0.9712
6.2444 -3.7554 -1.8866 0.9703
7.6815 -1.4343 -2.0233 0.9682
7.8182 -0.7480 -2.0335 0.9681
7.9028 0.6578 -2.0533 0.9678
7.7284 2.0682 -2.0714 0.9675
7.5434 2.7595 -2.0797 0.9674
7.2942 3.4332 -2.0873 0.9672
6.6100 4.7024 -2.1003 0.9670
6.1801 5.2858 -2.1056 0.9670
4.4609 6.5826 -2.0588 0.9677
3.0604 6.9057 -1.9557 0.9693
2.4321 7.1485 -1.9551 0.9693
1.7841 7.3306 -1.9534 0.9693
1.1224 7.4507 -1.9509 0.9693
-2.7875 6.8635 -1.9181 0.9699
-3.3740 6.5609 -1.9102 0.9700
-4.4447 5.8054 -1.8931 0.9702
-4.9205 5.3604 -1.8840 0.9704
-5.3518 4.8763 -1.8746 0.9705
-5.7357 4.3579 -1.8651 0.9707
-7.1247 2.8629 -1.9881 0.9688
-7.4435 1.5372 -1.9679 0.9691
-7.3737 -1.1387 -1.9318 0.9696
-7.2136 -1.7839 -1.9240 0.9698
-6.9997 -2.4104 -1.9168 0.9699
-6.7339 -3.0141 -1.9102 0.9700
-6.4188 -3.5910 -1.9043 0.9701
-5.6509 -4.6497 -1.8947 0.9702
-4.7196 -5.5596 -1.8882 0.9703
-2.8522 -6.1184 -1.7478 0.9725
-1.1347 -6.6677 -1.7512 0.9724
-0.5370 -6.7524 -1.7538 0.9724
0.0669 -6.7864 -1.7572 0.9723
1.8744 -6.5802 -1.7715 0.9721
2.4616 -6.4089 -1.7776 0.9720
2.5096 -5.1174 -1.4757 0.9767
3.5878 -5.9160 -1.7914 0.9718
5.9270 -3.8795 -1.8341 0.9712
6.7723 -3.6153 -1.9877 0.9688
7.1042 -3.0131 -1.9980 0.9686
7.6047 -1.7222 -2.0188 0.9683
7.8685 -0.3486 -2.0393 0.9680
7.7876 1.7691 -2.0677 0.9675
7.6304 2.4660 -2.0762 0.9674
0.1518 6.8383 -1.9364 0.9720
-0.4571 6.8096 -1.9321 0.9720
-1.0593 6.7244 -1.9271 0.9721
-1.6493 6.5839 -1.9215 0.9722
-2.2221 6.3898 -1.9152 0.9723
-3.7889 5.5107 -1.8932 0.9726
-4.2465 5.1292 -1.8851 0.9727
-4.6657 4.7093 -1.8767 0.9728
-5.8062 4.0721 -2.0076 0.9709
-6.1332 3.5313 -2.0035 0.9710
-6.3930 2.9567 -1.9940 0.9711
-6.5997 2.3641 -1.9846 0.9713
-6.7525 1.7585 -1.9753 0.9714
-6.8218 -0.6990 -1.9413 0.9719
-6.7065 -1.2990 -1.9338 0.9720
-6.5405 -1.8845 -1.9269 0.9721
-6.0636 -2.9964 -1.9147 0.9723
-5.7570 -3.5153 -1.9096 0.9723
-5.0199 -4.4619 -1.9013 0.9725
-4.5950 -4.8835 -1.8982 0.9725
-2.4207 -5.7558 -1.7677 0.9744
-1.3244 -5.9317 -1.7206 0.9751
-0.8089 -6.1647 -1.7602 0.9745
1.4074 -6.1099 -1.7750 0.9743
1.7257 -5.2850 -1.5739 0.9772
2.4849 -5.7991 -1.7860 0.9741
3.5004 -5.3049 -1.7992 0.9739
4.8439 -4.2475 -1.8238 0.9736
5.4043 -3.9460 -1.8943 0.9726
6.8400 -1.9211 -2.0113 0.9709
7.0168 -1.3102 -2.0207 0.9708
7.2097 0.6001 -2.0481 0.9704
7.1571 1.2453 -2.0566 0.9703
7.0451 1.8853 -2.0646 0.9701
6.3588 3.7183 -2.0853 0.9698
5.1842 5.3035 -2.0995 0.9696
4.6978 5.7526 -2.1026 0.9696
3.5309 6.3663 -2.0609 0.9702
2.2128 6.5039 -1.9449 0.9718
1.6233 6.6702 -1.9434 0.9719
1.0214 6.7802 -1.9411 0.9719
0.4125 6.8331 -1.9379 0.9719
-0.1975 6.8288 -1.9340 0.9720
-0.8032 6.7677 -1.9293 0.9721
-1.3991 6.6506 -1.9240 0.9721
-2.5405 6.2553 -1.9113 0.9723
-3.0762 5.9817 -1.9042 0.9724
-3.5825 5.6611 -1.8966 0.9725
-4.4916 4.8931 -1.8803 0.9728
-6.0032 3.7680 -2.0065 0.9710
-6.6939 2.0184 -1.9793 0.9714
-6.8155 1.4075 -1.9701 0.9715
-6.8828 0.7911 -1.9613 0.9716
-6.8958 0.1739 -1.9528 0.9717
-6.8552 -0.4393 -1.9447 0.9718
-6.6175 -1.6364 -1.9298 0.9721
-6.4232 -2.2119 -1.9232 0.9722
-5.5622 -3.7995 -1.9069 0.9724
-5.1904 -4.2708 -1.9028 0.9724
-3.3554 -5.7872 -1.8938 0.9726
-2.7100 -5.8134 -1.8158 0.9737
-2.1143 -5.8464 -1.7600 0.9745
-0.4933 -6.2032 -1.7616 0.9745
0.0615 -6.2335 -1.7647 0.9744
0.6179 -6.2164 -1.7685 0.9744
1.1722 -6.1519 -1.7729 0.9743
2.2589 -5.8811 -1.7835 0.9741
2.7835 -5.6759 -1.7896 0.9741
3.2903 -5.4254 -1.7963 0.9740
3.7754 -5.1309 -1.8034 0.9739
4.2352 -4.7940 -1.8109 0.9738
6.4965 -2.7554 -1.9977 0.9711
6.7481 -2.1759 -2.0072 0.9710
6.9479 -1.5734 -2.0167 0.9708
7.1868 0.9700 -2.0530 0.9703
7.1002 1.6129 -2.0612 0.9702
0.1391 6.2683 -1.9285 0.9741
-0.9714 6.1664 -1.9200 0.9742
-1.5128 6.0390 -1.9149 0.9743
-2.0387 5.8626 -1.9091 0.9744
-2.5446 5.6390 -1.9029 0.9744
-3.0262 5.3709 -1.8961 0.9745
-3.9012 4.7120 -1.8816 0.9747
-5.3543 3.7551 -2.0115 0.9730
-5.6429 3.2489 -2.0028 0.9731
-6.0767 2.1767 -1.9853 0.9733
-6.2196 1.6197 -1.9768 0.9735
-6.3125 1.0546 -1.9685 0.9736
-6.3483 -0.0818 -1.9528 0.9738
-6.0360 -1.7392 -1.9321 0.9741
-5.8391 -2.2631 -1.9262 0.9741
-5.5987 -2.7667 -1.9208 0.9742
-5.3167 -3.2464 -1.9160 0.9743
-4.6375 -4.1219 -1.9084 0.9744
-3.3708 -5.1839 -1.9019 0.9745
-2.8943 -5.4614 -1.9011 0.9745
-0.2372 -5.7480 -1.7695 0.9762
0.2680 -5.5823 -1.7190 0.9769
0.7898 -5.7210 -1.7764 0.9761
2.7701 -5.1433 -1.7968 0.9758
3.2287 -4.8932 -1.8031 0.9758
4.0769 -4.2750 -1.8170 0.9756
5.1866 -3.7870 -1.9753 0.9735
5.5271 -3.3240 -1.9838 0.9734
5.8265 -2.8307 -1.9924 0.9733
6.0821 -2.3104 -2.0011 0.9731
6.2911 -1.7670 -2.0099 0.9730
6.4514 -1.2046 -2.0186 0.9729
6.5608 -0.6277 -2.0272 0.9728
6.6179 -0.0408 -2.0356 0.9727
6.6215 0.5512 -2.0437 0.9726
6.5710 1.1433 -2.0514 0.9725
5.8314 3.4099 -2.0777 0.9721
5.5178 3.9254 -2.0828 0.9721
3.8220 5.6397 -2.0955 0.9719
3.3030 5.9556 -2.0947 0.9719
2.7383 6.1788 -2.0787 0.9721
-0.1811 6.2603 -1.9263 0.9741
-0.7365 6.2055 -1.9221 0.9742
-1.2832 6.0995 -1.9172 0.9743
-3.7252 4.8656 -1.8848 0.9747
-4.2195 4.5967 -1.9192 0.9742
-4.8459 4.4153 -2.0164 0.9729
-5.2137 3.9612 -2.0140 0.9730
-5.7870 2.9490 -1.9977 0.9732
-6.0004 2.4111 -1.9890 0.9733
-6.1647 1.8589 -1.9804 0.9734
-6.2790 1.2967 -1.9720 0.9735
-6.3574 0.1604 -1.9560 0.9737
-6.2380 -0.9633 -1.9414 0.9739
-5.7066 -2.5543 -1.9230 0.9742
-4.7947 -3.9452 -1.9098 0.9743
-4.4169 -4.3496 -1.9067 0.9744
-3.1007 -5.3479 -1.9014 0.9745
-2.6114 -5.6018 -1.9010 0.9745
-2.0452 -5.6555 -1.8498 0.9751
-1.4625 -5.5470 -1.7644 0.9763
-0.9633 -5.6605 -1.7661 0.9763
0.0568 -5.7583 -1.7712 0.9762
1.0825 -5.6809 -1.7788 0.9761
1.5885 -5.5764 -1.7834 0.9760
2.0850 -5.4284 -1.7886 0.9760
2.5685 -5.2376 -1.7942 0.9759
3.4818 -4.7318 -1.8070 0.9757
3.9045 -4.4197 -1.8139 0.9756
5.0295 -3.9747 -1.9717 0.9735
5.7038 -3.0449 -1.9887 0.9733
6.5204 -0.8756 -2.0235 0.9728
6.5992 0.8907 -2.0482 0.9725
6.1921 2.6312 -2.0694 0.9722
0.1283 5.7799 -1.9217 0.9759
-0.3865 5.7576 -1.9182 0.9760
-2.3487 5.2050 -1.8982 0.9762
-2.7940 4.9588 -1.8920 0.9763
-3.3039 4.8053 -1.9384 0.9757
-3.8594 4.6616 -2.0117 0.9748
-4.2820 4.3221 -2.0224 0.9747
-4.9511 3.4724 -2.0102 0.9748
-5.2197 3.0053 -2.0021 0.9749
-5.6247 2.0148 -1.9860 0.9751
-5.8881 0.4503 -1.9629 0.9754
-5.7373 -1.1113 -1.9426 0.9757
-5.5982 -1.6130 -1.9366 0.9757
-5.1948 -2.5671 -1.9261 0.9759
-4.9340 -3.0127 -1.9217 0.9759
-4.3049 -3.8264 -1.9145 0.9760
-3.9414 -4.1889 -1.9119 0.9760
-3.5488 -4.5186 -1.9099 0.9761
-3.1298 -4.8134 -1.9085 0.9761
-2.6875 -5.0712 -1.9078 0.9761
-1.7453 -5.4692 -1.9083 0.9761
-0.7031 -5.3584 -1.7964 0.9775
-0.2202 -5.3360 -1.7752 0.9777
0.7330 -5.3094 -1.7816 0.9777
1.6717 -5.1195 -1.7902 0.9776
2.5699 -4.7715 -1.8015 0.9774
2.9932 -4.5362 -1.8065 0.9774
3.4939 -4.3877 -1.8644 0.9766
4.0490 -4.2457 -1.9502 0.9756
4.4538 -3.9054 -1.9690 0.9753
4.8026 -3.5066 -1.9767 0.9752
6.1141 -0.0377 -2.0324 0.9746
5.8205 2.1292 -2.0602 0.9742
5.0887 3.6202 -2.0759 0.9740
4.3807 4.4816 -2.0832 0.9739
2.5446 5.7417 -2.0876 0.9739
2.0172 5.9288 -2.0817 0.9739
1.4332 5.8890 -2.0147 0.9748
0.3486 5.7748 -1.9231 0.9759
-0.6793 5.7234 -1.9158 0.9760
-1.1837 5.6268 -1.9113 0.9761
-2.6067 5.0689 -1.8947 0.9763
-3.0774 4.8630 -1.9130 0.9760
-4.4939 4.0946 -2.0209 0.9747
-4.8235 3.6648 -2.0136 0.9748
-5.1103 3.2075 -2.0056 0.9749
-5.5533 2.2315 -1.9894 0.9751
-5.7072 1.7209 -1.9815 0.9752
-5.8148 1.2008 -1.9737 0.9753
-5.8761 0.6754 -1.9661 0.9754
-5.8598 -0.3755 -1.9518 0.9756
-5.4994 -1.8938 -1.9334 0.9758
-5.2945 -2.3698 -1.9282 0.9758
-5.0500 -2.8253 -1.9235 0.9759
-4.1004 -4.0379 -1.9129 0.9760
-3.7199 -4.3819 -1.9107 0.9761
-3.3118 -4.6919 -1.9090 0.9761
-2.8791 -4.9657 -1.9080 0.9761
-1.9520 -5.3978 -1.9080 0.9761
-0.9196 -5.4033 -1.8219 0.9772
0.0528 -5.3499 -1.7784 0.9777
0.5297 -5.3288 -1.7801 0.9777
1.4738 -5.1737 -1.7882 0.9776
2.3820 -4.8572 -1.7983 0.9775
3.8059 -4.3081 -1.9108 0.9761
4.6578 -3.6809 -1.9734 0.9753
5.5313 -2.3460 -1.9972 0.9750
5.9073 -1.3378 -2.0133 0.9748
6.0984 -0.2702 -2.0291 0.9746
6.1211 0.2753 -2.0367 0.9745
6.0940 0.8225 -2.0440 0.9744
5.7136 2.4278 -2.0636 0.9742
0.1240 5.5884 -1.9990 0.9765
-0.3679 5.4812 -1.9645 0.9769
-0.8465 5.3741 -1.9455 0.9772
-2.2729 5.0369 -1.9761 0.9768
-3.2195 4.6826 -2.0321 0.9761
-3.9831 4.0203 -2.0238 0.9762
-4.5996 3.2258 -2.0091 0.9764
-4.8505 2.7927 -2.0015 0.9765
-5.0610 2.3406 -1.9940 0.9766
-5.4392 0.9087 -1.9721 0.9768
-5.4792 0.4190 -1.9651 0.9769
-5.4761 -0.0706 -1.9584 0.9770
-5.4303 -0.5564 -1.9521 0.9771
-5.0463 -1.9558 -1.9354 0.9773
-3.6743 -3.9050 -1.9175 0.9775
-2.0745 -4.9326 -1.9136 0.9775
-1.6272 -5.0993 -1.9141 0.9775
-1.1671 -5.2271 -1.9153 0.9775
-0.6974 -5.3153 -1.9171 0.9775
-0.2160 -5.2335 -1.8731 0.9780
0.2465 -5.1341 -1.8381 0.9784
0.6951 -5.0352 -1.8177 0.9786
1.5783 -4.8334 -1.8183 0.9786
2.0257 -4.7275 -1.8393 0.9784
2.9672 -4.4969 -1.9267 0.9774
3.4094 -4.2816 -1.9572 0.9770
4.1436 -3.6334 -1.9708 0.9769
4.4669 -3.2615 -1.9779 0.9768
5.2286 -1.9862 -2.0002 0.9765
5.5393 -1.0343 -2.0151 0.9763
5.6754 0.4724 -2.0366 0.9761
5.6291 0.9794 -2.0432 0.9760
5.5364 1.4816 -2.0495 0.9759
5.3977 1.9746 -2.0554 0.9759
5.2140 2.4541 -2.0608 0.9758
4.4066 3.7689 -2.0736 0.9757
3.6773 4.5029 -2.0790 0.9756
3.2641 4.8165 -2.0807 0.9756
2.8232 5.0905 -2.0816 0.9756
2.3587 5.3224 -2.0818 0.9756
1.8747 5.5100 -2.0813 0.9756
-0.6433 5.4199 -1.9518 0.9771
-1.5895 5.2017 -1.9451 0.9772
-2.5545 4.9672 -1.9974 0.9766
-3.0409 4.8053 -2.0336 0.9761
-3.8329 4.1755 -2.0269 0.9762
-4.1747 3.8037 -2.0196 0.9763
-4.4805 3.4041 -2.0122 0.9764
-4.9761 2.5358 -1.9972 0.9766
-5.4674 0.6284 -1.9680 0.9769
-5.4550 -0.3496 -1.9548 0.9770
-5.3852 -0.8316 -1.9486 0.9771
-4.9329 -2.2080 -1.9327 0.9773
-4.1485 -3.4135 -1.9212 0.9774
-3.0877 -4.3744 -1.9148 0.9775
-2.6844 -4.6299 -1.9138 0.9775
-2.2608 -4.8498 -1.9135 0.9775
-0.8990 -5.2825 -1.9162 0.9775
1.8334 -4.7733 -1.8286 0.9785
2.2874 -4.6644 -1.8578 0.9782
2.7587 -4.5488 -1.9025 0.9777
3.2393 -4.4022 -1.9545 0.9770
3.6306 -4.1097 -1.9610 0.9770
3.9961 -3.7829 -1.9678 0.9769
4.3327 -3.4240 -1.9748 0.9768
4.6375 -3.0355 -1.9821 0.9767
4.9077 -2.6199 -1.9895 0.9766
5.3347 -1.7202 -2.0045 0.9765
5.5967 -0.7516 -2.0194 0.9763
5.6616 -0.2508 -2.0266 0.9762
5.6811 0.2555 -2.0337 0.9761
5.6545 0.7632 -2.0404 0.9761
5.5816 1.2679 -2.0469 0.9760
5.4625 1.7654 -2.0529 0.9759
5.2979 2.2512 -2.0585 0.9758
-1.3000 5.1895 -2.0502 0.9773
-2.1917 4.8571 -2.0421 0.9774
-2.6111 4.6343 -2.0384 0.9775
-3.3756 4.0772 -2.0285 0.9776
-3.7132 3.7479 -2.0218 0.9777
-4.0188 3.3907 -2.0150 0.9777
-4.2901 3.0088 -2.0081 0.9778
-5.0006 1.3022 -1.9802 0.9781
-2.3040 0.1762 -0.8855 0.9902
-4.9937 -0.9672 -1.9492 0.9784
-4.8746 -1.4045 -1.9440 0.9785
-4.5265 -2.2368 -1.9349 0.9786
-4.3005 -2.6259 -1.9310 0.9786
-3.7540 -3.3367 -1.9247 0.9787
-3.4376 -3.6535 -1.9224 0.9787
-1.9411 -4.6154 -1.9187 0.9788
-1.5225 -4.7713 -1.9193 0.9788
-1.0920 -4.8907 -1.9204 0.9788
-0.6525 -4.9729 -1.9220 0.9787
-0.2071 -5.0170 -1.9243 0.9787
0.2411 -5.0227 -1.9270 0.9787
1.5701 -4.8083 -1.9384 0.9786
2.4108 -4.4760 -1.9483 0.9785
2.8079 -4.2555 -1.9538 0.9784
3.1855 -4.0004 -1.9597 0.9783
4.1707 -3.0452 -1.9790 0.9781
4.4407 -2.6707 -1.9858 0.9780
5.0415 -1.4160 -2.0068 0.9778
5.1655 -0.9645 -2.0137 0.9777
5.2487 -0.5021 -2.0206 0.9777
5.2442 0.9124 -2.0399 0.9775
5.1568 1.3800 -2.0457 0.9774
5.0267 1.8388 -2.0512 0.9773
4.1012 3.5077 -2.0681 0.9771
3.4218 4.1901 -2.0731 0.9771
3.0371 4.4816 -2.0747 0.9771
2.1946 4.9521 -2.0757 0.9771
1.7443 5.1268 -2.0753 0.9771
1.2799 5.2589 -2.0741 0.9771
0.8050 5.3441 -2.0711 0.9771
0.3249 5.3816 -2.0661 0.9772
-0.6325 5.3291 -2.0565 0.9773
-1.1023 5.2400 -2.0520 0.9773
-1.5616 5.1103 -2.0477 0.9774
-2.4345 4.7339 -2.0400 0.9775
-3.2222 4.2086 -2.0312 0.9776
-3.5728 3.8922 -2.0247 0.9776
-3.8923 3.5465 -2.0179 0.9777
-4.1785 3.1747 -2.0110 0.9778
-4.6431 2.3661 -1.9970 0.9779
-5.0507 1.0430 -1.9764 0.9782
-2.3018 0.2646 -0.8879 0.9901
-5.0330 -0.7772 -1.9516 0.9784
-4.9301 -1.2192 -1.9462 0.9785
-4.7895 -1.6493 -1.9412 0.9785
-4.4011 -2.4622 -1.9326 0.9786
-4.1564 -2.8392 -1.9290 0.9787
-3.8807 -3.1931 -1.9259 0.9787
-3.5760 -3.5215 -1.9233 0.9787
-1.7030 -4.7091 -1.9190 0.9788
-1.2772 -4.8442 -1.9198 0.9788
-0.3978 -5.0029 -1.9232 0.9787
0.0496 -5.0250 -1.9258 0.9787
1.3836 -4.8571 -1.9354 0.9786
1.8161 -4.7283 -1.9410 0.9785
4.0458 -3.1973 -1.9761 0.9782
4.9765 -1.6047 -2.0038 0.9779
5.2775 -0.2338 -2.0244 0.9776
5.2944 0.2381 -2.0310 0.9776
5.0874 1.6442 -2.0489 0.9774
-1.6436 4.7263 -2.0480 0.9786
-2.0534 4.5507 -2.0433 0.9787
-2.4443 4.3382 -2.0379 0.9787
-2.8132 4.0916 -2.0322 0.9788
-3.7604 3.1727 -2.0137 0.9790
-4.2362 2.4390 -2.0006 0.9791
-4.6843 1.2199 -1.9811 0.9793
-2.0436 0.3414 -0.8480 0.9911
-2.0125 0.1539 -0.8261 0.9913
-1.9936 -0.0257 -0.8160 0.9914
-2.0177 -0.2067 -0.8301 0.9913
-2.0707 -0.4011 -0.8632 0.9909
-4.5715 -1.3172 -1.9471 0.9796
-4.4257 -1.7153 -1.9426 0.9797
-4.2463 -2.0984 -1.9385 0.9797
-4.0348 -2.4637 -1.9349 0.9798
-3.7930 -2.8088 -1.9317 0.9798
-3.5228 -3.1312 -1.9290 0.9798
-3.2261 -3.4287 -1.9268 0.9799
-2.9053 -3.6993 -1.9251 0.9799
-2.5627 -3.9411 -1.9240 0.9799
-2.2006 -4.1525 -1.9234 0.9799
-1.8219 -4.3320 -1.9234 0.9799
-1.4290 -4.4782 -1.9239 0.9799
-1.0249 -4.5902 -1.9249 0.9799
-0.6123 -4.6670 -1.9265 0.9799
-0.1943 -4.7081 -1.9286 0.9798
1.0628 -4.6139 -1.9378 0.9797
3.9070 -2.8527 -1.9799 0.9793
4.1591 -2.5013 -1.9863 0.9792
4.3797 -2.1278 -1.9928 0.9792
4.7187 -1.3253 -2.0060 0.9790
4.9479 -0.0305 -2.0251 0.9788
4.8205 1.2900 -2.0424 0.9787
4.5366 2.1353 -2.0521 0.9786
4.3372 2.5362 -2.0563 0.9785
3.8310 3.2767 -2.0632 0.9784
3.5284 3.6096 -2.0659 0.9784
2.4532 4.4234 -2.0702 0.9784
1.1953 4.9116 -2.0689 0.9784
-0.1457 5.0362 -2.0621 0.9785
-0.5926 4.9931 -2.0579 0.9785
-1.0330 4.9103 -2.0537 0.9785
-1.8806 4.6306 -2.0455 0.9786
-2.2798 4.4332 -2.0403 0.9787
-2.6585 4.2009 -2.0347 0.9787
-3.3421 3.6408 -2.0227 0.9789
-4.1460 2.6023 -2.0034 0.9791
-4.5123 1.8132 -1.9903 0.9792
-4.6408 1.3994 -1.9838 0.9793
-1.9966 0.0504 -0.8174 0.9914
-2.0091 -0.1288 -0.8240 0.9913
-2.0298 -0.3134 -0.8406 0.9912
-4.1290 -2.3100 -1.9364 0.9798
-3.8999 -2.6640 -1.9330 0.9798
-3.6416 -2.9964 -1.9301 0.9798
-3.3559 -3.3048 -1.9277 0.9798
-3.0452 -3.5871 -1.9258 0.9799
-2.3575 -4.0660 -1.9236 0.9799
-1.5984 -4.4199 -1.9236 0.9799
-1.1987 -4.5466 -1.9244 0.9799
-0.7894 -4.6385 -1.9257 0.9799
0.4671 -4.6995 -1.9329 0.9798
0.8855 -4.6473 -1.9362 0.9798
1.2986 -4.5589 -1.9401 0.9797
1.7034 -4.4348 -1.9443 0.9797
2.0968 -4.2756 -1.9490 0.9796
2.4757 -4.0824 -1.9540 0.9796
3.4975 -3.3109 -1.9711 0.9794
4.0551 -2.6543 -1.9836 0.9793
4.2894 -2.2899 -1.9901 0.9792
4.6582 -1.5020 -2.0032 0.9791
4.7891 -1.0845 -2.0097 0.9790
4.8823 -0.6556 -2.0161 0.9789
4.9515 0.2227 -2.0286 0.9788
4.6103 1.9590 -2.0502 0.9786
0.1049 4.7242 -2.0594 0.9796
-0.3160 4.7081 -2.0565 0.9796
-1.9255 4.2671 -2.0403 0.9798
-2.2924 4.0685 -2.0352 0.9798
-2.6388 3.8380 -2.0299 0.9799
-2.9620 3.5777 -2.0243 0.9799
-3.2596 3.2901 -2.0184 0.9800
-3.5293 2.9777 -2.0125 0.9801
-3.7691 2.6434 -2.0064 0.9801
-4.1528 1.9206 -1.9940 0.9802
-1.4879 0.5330 -0.6888 0.9931
-1.4723 0.2460 -0.6506 0.9935
-1.4698 -0.1506 -0.6439 0.9936
-1.4936 -0.4304 -0.6774 0.9932
-3.9945 -1.9739 -1.9418 0.9807
-3.5688 -2.6428 -1.9354 0.9808
-3.3148 -2.9463 -1.9328 0.9808
-2.7341 -3.4814 -1.9292 0.9809
-2.0711 -3.9081 -1.9276 0.9809
-1.7146 -4.0769 -1.9275 0.9809
-0.9645 -4.3198 -1.9290 0.9809
-0.5762 -4.3919 -1.9305 0.9809
-0.1828 -4.4303 -1.9324 0.9808
0.6081 -4.4046 -1.9378 0.9808
1.7615 -4.1108 -1.9491 0.9807
2.1257 -3.9468 -1.9537 0.9806
3.4072 -2.9876 -1.9749 0.9804
4.2880 -1.6289 -1.9991 0.9802
4.4297 -1.2442 -2.0052 0.9801
4.5367 -0.8471 -2.0113 0.9801
4.6078 -0.4408 -2.0173 0.9800
4.6422 -0.0286 -2.0232 0.9799
4.6392 0.3862 -2.0288 0.9799
4.5986 0.8001 -2.0342 0.9798
4.5203 1.2097 -2.0393 0.9798
4.2528 2.0017 -2.0485 0.9797
3.8439 2.7346 -2.0559 0.9796
3.3062 3.3823 -2.0613 0.9796
2.6576 3.9216 -2.0646 0.9795
2.2985 4.1443 -2.0654 0.9795
1.5263 4.4860 -2.0651 0.9795
0.7050 4.6799 -2.0626 0.9796
0.2849 4.7192 -2.0605 0.9796
-0.5556 4.6815 -2.0546 0.9796
-0.9688 4.6052 -2.0509 0.9797
-1.3725 4.4915 -2.0468 0.9797
-1.7633 4.3417 -2.0423 0.9798
-3.4176 3.1140 -2.0150 0.9800
-3.6705 2.7887 -2.0090 0.9801
-3.8924 2.4431 -2.0028 0.9801
-4.0820 2.0802 -1.9967 0.9802
-1.4939 0.4504 -0.6800 0.9932
-1.4718 0.1692 -0.6457 0.9936
-1.4392 0.0363 -0.6274 0.9937
-1.4584 -0.0935 -0.6369 0.9936
-1.4735 -0.2275 -0.6498 0.9935
-1.4908 -0.5134 -0.6871 0.9931
-4.0701 -1.8218 -1.9434 0.9807
-3.8844 -2.1731 -1.9398 0.9808
-3.6693 -2.5065 -1.9366 0.9808
-3.1580 -3.1098 -1.9316 0.9808
-1.1281 -4.2788 -1.9285 0.9809
-0.7429 -4.3652 -1.9298 0.9809
0.4395 -4.4216 -1.9365 0.9808
0.8331 -4.3720 -1.9397 0.9808
1.6021 -4.1710 -1.9473 0.9807
2.9880 -3.3823 -1.9669 0.9805
3.2868 -3.1114 -1.9725 0.9804
3.5614 -2.8145 -1.9783 0.9804
4.0287 -2.1507 -1.9903 0.9803
4.2173 -1.7887 -1.9964 0.9802
4.3733 -1.4102 -2.0026 0.9801
4.4953 -1.0180 -2.0087 0.9801
4.5819 -0.6153 -2.0148 0.9800
4.6321 -0.2052 -2.0207 0.9800
4.6206 0.6236 -2.0320 0.9799
4.5583 1.0355 -2.0372 0.9798
4.3221 1.8366 -2.0467 0.9797
0.0985 4.4394 -2.0554 0.9806
-1.8105 4.0122 -2.0375 0.9808
-2.1557 3.8260 -2.0328 0.9808
-2.4819 3.6098 -2.0277 0.9809
-3.3211 2.8021 -2.0114 0.9810
-3.5474 2.4879 -2.0056 0.9811
-1.2627 0.4523 -0.6208 0.9941
-1.2705 0.3309 -0.6077 0.9942
-1.2734 0.2127 -0.5976 0.9943
-1.2744 -0.1306 -0.5930 0.9944
-1.2704 -0.3660 -0.6120 0.9942
-1.2564 -0.4870 -0.6237 0.9941
-3.5799 -2.1859 -1.9416 0.9817
-3.3660 -2.4925 -1.9387 0.9817
-2.8637 -3.0435 -1.9344 0.9817
-1.9538 -3.6867 -1.9314 0.9818
-1.6175 -3.8460 -1.9313 0.9818
-1.2687 -3.9758 -1.9318 0.9818
-0.5436 -4.1428 -1.9341 0.9818
-0.1725 -4.1788 -1.9359 0.9817
0.2008 -4.1825 -1.9382 0.9817
0.5734 -4.1539 -1.9410 0.9817
1.3061 -4.0000 -1.9478 0.9816
1.6607 -3.8756 -1.9517 0.9816
2.9382 -3.0809 -1.9707 0.9814
3.4574 -2.5244 -1.9816 0.9813
3.6791 -2.2126 -1.9872 0.9813
4.1693 -1.1710 -2.0046 0.9811
4.3354 -0.4148 -2.0160 0.9810
4.3670 -0.0269 -2.0215 0.9809
4.3246 0.7524 -2.0319 0.9808
4.1412 1.5149 -2.0411 0.9808
3.9977 1.8816 -2.0452 0.9807
3.8211 2.2344 -2.0489 0.9807
3.6126 2.5700 -2.0522 0.9806
3.3738 2.8856 -2.0550 0.9806
2.8137 3.4454 -2.0591 0.9806
2.4971 3.6847 -2.0603 0.9806
1.8042 4.0711 -2.0612 0.9806
-0.5222 4.4000 -2.0510 0.9807
-1.6578 4.0821 -2.0394 0.9808
-2.0104 3.9093 -2.0348 0.9808
-2.3451 3.7057 -2.0299 0.9809
-3.2158 2.9301 -2.0138 0.9810
-3.4543 2.6245 -2.0081 0.9811
-3.6639 2.2997 -2.0023 0.9811
-1.2528 0.5034 -0.6250 0.9941
-1.2697 0.3829 -0.6139 0.9942
-1.2680 0.2619 -0.5993 0.9943
-1.2750 0.1465 -0.5941 0.9944
-1.2744 -0.1968 -0.5969 0.9943
-1.2701 -0.3141 -0.6056 0.9942
-1.2650 -0.4356 -0.6193 0.9941
-3.4605 -2.3639 -1.9399 0.9817
-3.2318 -2.6592 -1.9373 0.9817
-2.9788 -2.9334 -1.9352 0.9817
-2.4072 -3.4104 -1.9323 0.9818
-2.0930 -3.6099 -1.9315 0.9818
-1.7628 -3.7816 -1.9313 0.9818
-1.4191 -3.9241 -1.9315 0.9818
-1.0642 -4.0364 -1.9322 0.9818
0.0413 -4.1849 -1.9372 0.9817
0.4145 -4.1701 -1.9398 0.9817
1.1518 -4.0436 -1.9462 0.9816
1.8588 -3.7904 -1.9541 0.9816
2.1941 -3.6180 -1.9586 0.9815
3.0965 -2.9313 -1.9737 0.9814
3.7936 -2.0251 -1.9905 0.9812
3.9704 -1.6840 -1.9963 0.9812
4.1166 -1.3274 -2.0021 0.9811
4.3578 -0.1931 -2.0191 0.9810
4.3455 0.5865 -2.0297 0.9809
4.2864 0.9737 -2.0346 0.9808
4.1920 1.3548 -2.0392 0.9808
-0.2798 4.1685 -2.0493 0.9816
-1.0120 4.0400 -2.0429 0.9816
-1.7064 3.7815 -2.0350 0.9817
-2.0320 3.6065 -2.0305 0.9817
-2.6273 3.1733 -2.0208 0.9818
-3.3465 2.3470 -2.0050 0.9820
-1.1228 0.4022 -0.5850 0.9947
-1.1329 0.2950 -0.5743 0.9948
-1.1421 0.1908 -0.5680 0.9949
-1.1436 0.0875 -0.5626 0.9949
-1.1361 -0.0146 -0.5573 0.9950
-1.1443 -0.1172 -0.5642 0.9949
-1.1389 -0.2206 -0.5691 0.9948
-1.1165 -0.4327 -0.5874 0.9947
-3.3832 -2.0658 -1.9444 0.9825
-3.1813 -2.3558 -1.9418 0.9825
-2.9553 -2.6268 -1.9395 0.9825
-2.7069 -2.8769 -1.9376 0.9826
-2.4381 -3.1044 -1.9362 0.9826
-2.1507 -3.3076 -1.9353 0.9826
-1.8470 -3.4852 -1.9348 0.9826
-1.5291 -3.6358 -1.9347 0.9826
-0.5138 -3.9160 -1.9374 0.9826
2.4981 -3.1371 -1.9671 0.9823
3.0304 -2.6573 -1.9770 0.9822
3.4724 -2.0884 -1.9876 0.9821
3.6546 -1.7755 -1.9931 0.9821
3.8087 -1.4468 -1.9985 0.9820
4.0886 -0.3912 -2.0147 0.9819
4.1178 -0.0254 -2.0199 0.9818
4.1138 0.3424 -2.0249 0.9818
4.0060 1.0721 -2.0342 0.9817
3.6002 2.1052 -2.0458 0.9816
3.4034 2.4212 -2.0488 0.9816
3.1783 2.7183 -2.0515 0.9815
2.9265 2.9939 -2.0536 0.9815
2.6503 3.2453 -2.0553 0.9815
2.0341 3.6675 -2.0572 0.9815
0.6240 4.1421 -2.0547 0.9815
0.2522 4.1774 -2.0528 0.9815
-0.4920 4.1454 -2.0477 0.9816
-1.8950 3.6848 -2.0325 0.9817
-2.5071 3.2746 -2.0230 0.9818
-2.7819 3.0306 -2.0179 0.9818
-3.0329 2.7635 -2.0127 0.9819
-1.0906 0.5558 -0.6004 0.9946
-1.1442 0.1315 -0.5650 0.9949
-1.1382 0.0287 -0.5585 0.9949
-1.1427 -0.0732 -0.5617 0.9949
-1.1252 -0.3875 -0.5838 0.9947
-3.2706 -2.2341 -1.9429 0.9825
-2.8156 -2.7727 -1.9384 0.9825
-2.5553 -3.0101 -1.9368 0.9826
-1.9786 -3.4126 -1.9349 0.9826
-1.6665 -3.5748 -1.9347 0.9826
-1.0060 -3.8156 -1.9356 0.9826
-0.6624 -3.8923 -1.9367 0.9826
-0.3132 -3.9391 -1.9383 0.9825
0.0390 -3.9554 -1.9403 0.9825
0.3918 -3.9412 -1.9428 0.9825
1.4272 -3.7156 -1.9524 0.9824
2.3743 -3.2267 -1.9651 0.9823
2.6588 -3.0096 -1.9699 0.9823
3.1670 -2.5028 -1.9800 0.9822
3.3864 -2.2166 -1.9853 0.9821
3.5802 -1.9112 -1.9907 0.9821
3.7465 -1.5890 -1.9962 0.9820
3.8838 -1.2523 -2.0017 0.9820
4.0662 -0.5460 -2.0125 0.9819
4.0402 0.9178 -2.0323 0.9817
0.0876 3.9480 -2.0487 0.9824
-0.9556 3.8149 -2.0402 0.9824
-1.2895 3.7080 -2.0366 0.9825
-1.6116 3.5715 -2.0327 0.9825
-2.2105 3.2150 -2.0241 0.9826
-2.9605 2.4979 -2.0095 0.9827
-3.1633 2.2185 -2.0044 0.9827
-0.9825 0.4544 -0.5616 0.9951
-1.0200 0.2656 -0.5468 0.9953
-1.0336 0.1727 -0.5436 0.9953
-1.0377 -0.1063 -0.5411 0.9953
-1.0184 -0.2934 -0.5498 0.9952
-2.7985 -2.4874 -1.9424 0.9833
-2.3089 -2.9399 -1.9393 0.9833
-1.1358 -3.5594 -1.9383 0.9833
-0.8145 -3.6480 -1.9391 0.9833
0.5131 -3.7170 -1.9466 0.9832
2.3638 -2.9684 -1.9686 0.9830
2.6250 -2.7525 -1.9732 0.9830
2.8667 -2.5137 -1.9780 0.9830
3.7180 -1.0443 -2.0035 0.9827
3.8059 -0.7107 -2.0086 0.9827
3.8638 -0.3697 -2.0136 0.9827
3.8865 0.3235 -2.0232 0.9826
3.0004 2.5663 -2.0482 0.9824
1.6040 3.6194 -2.0538 0.9823
1.2749 3.7473 -2.0534 0.9823
0.9356 3.8444 -2.0526 0.9823
0.5890 3.9100 -2.0513 0.9823
0.2381 3.9435 -2.0496 0.9824
-0.1141 3.9448 -2.0473 0.9824
-1.1481 3.7574 -2.0382 0.9825
-1.4756 3.6334 -2.0344 0.9825
-2.0884 3.3000 -2.0260 0.9826
-3.0798 2.3400 -2.0066 0.9827
-0.9666 0.4926 -0.5628 0.9951
-0.9995 0.4016 -0.5588 0.9952
-1.0283 0.2124 -0.5447 0.9953
-1.0374 0.1192 -0.5417 0.9953
-1.0331 0.0261 -0.5361 0.9954
-1.0367 -0.0664 -0.5389 0.9953
-1.0206 -0.2524 -0.5454 0.9953
-1.0114 -0.3483 -0.5549 0.9952
-0.9871 -0.4418 -0.5610 0.9951
-0.9495 -0.5312 -0.5644 0.9951
-2.6663 -2.6257 -1.9413 0.9833
-2.4199 -2.8506 -1.9398 0.9833
-1.8739 -3.2319 -1.9381 0.9833
-1.5783 -3.3856 -1.9379 0.9833
-1.2705 -3.5132 -1.9381 0.9833
-0.6273 -3.6861 -1.9398 0.9833
-0.2966 -3.7302 -1.9413 0.9833
0.0369 -3.7455 -1.9432 0.9833
1.6621 -3.3893 -1.9584 0.9831
1.9615 -3.2344 -1.9624 0.9831
2.2468 -3.0534 -1.9667 0.9831
2.7660 -2.6184 -1.9759 0.9830
2.9956 -2.3674 -1.9808 0.9829
3.3855 -1.8073 -1.9909 0.9829
3.5422 -1.5024 -1.9961 0.9828
3.6715 -1.1839 -2.0012 0.9828
3.8428 -0.5160 -2.0115 0.9827
3.8922 0.1750 -2.0212 0.9826
3.7313 1.2059 -2.0343 0.9825
3.6157 1.5364 -2.0381 0.9825
-0.5798 3.6807 -2.0408 0.9832
-0.9041 3.6090 -2.0377 0.9832
-1.5250 3.3795 -2.0307 0.9832
-1.8164 3.2238 -2.0267 0.9833
-2.0921 3.0428 -2.0225 0.9833
-2.8031 2.3650 -2.0087 0.9834
-0.8706 0.5013 -0.5502 0.9954
-0.9141 0.3274 -0.5318 0.9956
-0.9425 -0.0121 -0.5163 0.9957
-0.9397 -0.1820 -0.5242 0.9956
-0.9236 -0.2661 -0.5264 0.9956
-0.8901 -0.4399 -0.5438 0.9955
-0.8614 -0.5260 -0.5528 0.9954
-2.8570 -2.1156 -1.9471 0.9839
-1.9321 -2.9715 -1.9413 0.9840
-1.0774 -3.3764 -1.9412 0.9840
-0.4615 -3.5176 -1.9431 0.9839
0.1704 -3.5502 -1.9467 0.9839
0.4867 -3.5251 -1.9490 0.9839
1.1078 -3.3928 -1.9548 0.9839
1.4081 -3.2862 -1.9582 0.9838
1.9767 -2.9957 -1.9657 0.9838
3.1110 -1.8710 -1.9883 0.9836
3.4103 -1.2955 -1.9981 0.9835
1.8828 -0.5288 -1.0711 0.9911
1.8737 -0.0116 -1.0263 0.9915
1.8882 0.1572 -1.0378 0.9914
1.8844 0.5043 -1.0684 0.9911
3.0394 2.1623 -2.0430 0.9831
2.8379 2.4273 -2.0453 0.9831
2.6128 2.6730 -2.0472 0.9831
2.3660 2.8973 -2.0487 0.9831
1.8157 3.2738 -2.0504 0.9831
1.2057 3.5438 -2.0502 0.9831
0.5571 3.6979 -2.0482 0.9831
-0.1079 3.7312 -2.0445 0.9831
-0.4394 3.7022 -2.0420 0.9831
-1.0862 3.5548 -2.0358 0.9832
-1.6937 3.2935 -2.0284 0.9833
-1.9764 3.1231 -2.0243 0.9833
-2.4884 2.7108 -2.0154 0.9834
-2.9162 2.2157 -2.0059 0.9834
-0.8651 0.5430 -0.5594 0.9954
-0.8867 0.4519 -0.5451 0.9955
-0.9223 0.2781 -0.5276 0.9956
-0.9377 0.1936 -0.5244 0.9956
-0.9468 -0.0607 -0.5196 0.9957
-0.9445 -0.1458 -0.5234 0.9957
-0.9297 -0.2299 -0.5245 0.9956
-0.8996 -0.4027 -0.5398 0.9955
-2.7435 -2.2574 -1.9459 0.9839
-2.2954 -2.7039 -1.9426 0.9840
-2.0443 -2.8962 -1.9416 0.9840
-1.7775 -3.0658 -1.9410 0.9840
-1.4971 -3.2116 -1.9407 0.9840
-1.2052 -3.3326 -1.9409 0.9840
-0.9037 -3.4278 -1.9416 0.9840
-0.5951 -3.4965 -1.9426 0.9840
0.0350 -3.5525 -1.9458 0.9839
0.3518 -3.5392 -1.9480 0.9839
0.6666 -3.4984 -1.9506 0.9839
0.9771 -3.4302 -1.9535 0.9839
1.2810 -3.3350 -1.9567 0.9838
1.5758 -3.2134 -1.9602 0.9838
2.1297 -2.8943 -1.9681 0.9837
3.0343 -1.9861 -1.9862 0.9836
3.2070 -1.7120 -1.9911 0.9836
3.3550 -1.4230 -1.9960 0.9835
1.8735 -0.6041 -1.0782 0.9911
1.8865 -0.4272 -1.0594 0.9912
1.8887 -0.2536 -1.0437 0.9913
1.8832 0.0847 -1.0325 0.9914
1.8865 0.4285 -1.0596 0.9912
1.8733 0.6054 -1.0783 0.9911
3.4208 1.4536 -2.0357 0.9832
-0.2367 3.5269 -2.0408 0.9838
-1.7217 3.0557 -2.0250 0.9839
-1.9832 2.8845 -2.0210 0.9840
-2.2277 2.6907 -2.0168 0.9840
-2.6581 2.2427 -2.0079 0.9841
-0.7994 0.5606 -0.5637 0.9955
-0.8427 0.3897 -0.5360 0.9957
-0.8595 0.3079 -0.5271 0.9958
-0.8698 0.2265 -0.5189 0.9959
-0.8799 0.1470 -0.5150 0.9959
-0.8821 0.0675 -0.5107 0.9959
-0.8790 -0.0113 -0.5075 0.9959
-0.8822 -0.0904 -0.5120 0.9959
-0.8555 -0.3316 -0.5297 0.9958
-0.8363 -0.4132 -0.5385 0.9957
-0.8084 -0.4936 -0.5469 0.9956
-2.3097 -2.4547 -1.9459 0.9846
-1.5763 -2.9744 -1.9435 0.9846
-1.3050 -3.1029 -1.9435 0.9846
0.1619 -3.3720 -1.9491 0.9845
0.4622 -3.3480 -1.9513 0.9845
0.7597 -3.2979 -1.9539 0.9845
1.0520 -3.2218 -1.9568 0.9845
1.3371 -3.1204 -1.9600 0.9844
1.6126 -2.9941 -1.9634 0.9844
1.8765 -2.8439 -1.9672 0.9844
2.1267 -2.6708 -1.9711 0.9844
2.5780 -2.2606 -1.9796 0.9843
2.7754 -2.0265 -1.9840 0.9843
2.9517 -1.7752 -1.9886 0.9842
3.1053 -1.5086 -1.9932 0.9842
1.7086 -0.6490 -1.0552 0.9916
1.7272 -0.4851 -1.0358 0.9917
1.7363 -0.3242 -1.0198 0.9919
1.7411 -0.1666 -1.0098 0.9920
1.7401 0.1448 -1.0081 0.9920
1.7025 0.6228 -1.0467 0.9917
3.1889 1.5009 -2.0349 0.9839
2.8797 2.0487 -2.0404 0.9838
2.4753 2.5323 -2.0445 0.9838
2.2414 2.7446 -2.0459 0.9838
1.7200 3.1012 -2.0474 0.9838
1.4369 3.2424 -2.0476 0.9838
1.1422 3.3570 -2.0473 0.9838
-0.1022 3.5350 -2.0418 0.9838
-0.7262 3.4521 -2.0367 0.9838
-1.3232 3.2581 -2.0303 0.9839
-1.6053 3.1216 -2.0266 0.9839
-1.8735 2.9605 -2.0227 0.9839
-2.1254 2.7761 -2.0186 0.9840
-2.5732 2.3446 -2.0099 0.9840
-0.8048 0.6115 -0.5836 0.9953
-0.8039 0.5046 -0.5480 0.9956
-0.8329 0.4245 -0.5397 0.9957
-0.8652 0.2609 -0.5217 0.9958
-0.8765 0.1810 -0.5167 0.9959
-0.8818 -0.0565 -0.5101 0.9959
-0.8806 -0.1360 -0.5145 0.9959
-0.8455 -0.3785 -0.5348 0.9957
-0.8214 -0.4595 -0.5434 0.9957
-2.6058 -2.1441 -1.9483 0.9845
-2.4023 -2.3657 -1.9466 0.9845
-2.1804 -2.5685 -1.9452 0.9846
-1.1449 -3.1658 -1.9436 0.9846
-0.8585 -3.2562 -1.9442 0.9846
-0.2673 -3.3608 -1.9465 0.9845
0.0333 -3.3743 -1.9482 0.9845
0.9279 -3.2574 -1.9555 0.9845
1.2164 -3.1668 -1.9586 0.9845
1.4962 -3.0510 -1.9619 0.9844
2.0217 -2.7475 -1.9694 0.9844
2.6936 -2.1287 -1.9821 0.9843
2.8791 -1.8845 -1.9866 0.9842
3.0425 -1.6242 -1.9912 0.9842
1.8471 -0.7834 -1.1584 0.9908
