ply
format ascii 1.0
element vertex 1531
property float32 x
property float32 y
property float32 z
property float32 I
end_header
14.7363 -8.6449 3.0125 0.9330
13.3727 9.8356 2.9271 0.9348
9.5254 10.0731 2.4445 0.9452
5.7301 8.7790 1.8485 0.9583
3.8317 9.0860 1.7387 0.9607
2.0709 9.2652 1.6740 0.9622
1.2204 9.3124 1.6561 0.9626
0.3813 9.3586 1.6515 0.9627
-0.4600 9.4045 1.6603 0.9625
-2.2045 9.4984 1.7193 0.9612
-3.1392 9.5480 1.7722 0.9600
-6.2625 9.4259 1.9954 0.9551
-7.6461 9.5327 2.1548 0.9516
-9.1829 9.5538 2.3366 0.9476
-12.9182 9.3400 2.8108 0.9373
-8.2757 -8.6493 2.1108 0.9525
16.6897 9.8420 3.4164 0.9243
13.6696 9.8086 2.9666 0.9339
11.2086 9.6731 2.6106 0.9416
9.7108 10.0305 2.4617 0.9449
5.8732 8.7715 1.8613 0.9580
4.8446 8.8590 1.7804 0.9598
3.9314 9.0247 1.7357 0.9608
3.0484 9.1605 1.7023 0.9615
1.3310 9.3063 1.6576 0.9625
0.4912 9.3526 1.6514 0.9627
-1.2032 9.4447 1.6788 0.9621
-2.0858 9.4921 1.7136 0.9613
-3.0133 9.5413 1.7643 0.9602
14.7089 -8.6288 2.6124 0.9333
13.1824 9.6956 2.5069 0.9359
9.6810 10.2377 2.1585 0.9446
5.9102 9.0550 1.6565 0.9572
4.8468 9.1157 1.5816 0.9591
3.8677 9.1713 1.5248 0.9605
2.9493 9.2230 1.4834 0.9616
1.2213 9.3193 1.4399 0.9627
-0.4603 9.4115 1.4435 0.9626
-1.3180 9.4579 1.4629 0.9621
-2.2062 9.5056 1.4949 0.9613
-4.1447 9.6086 1.6031 0.9585
-6.4645 9.7300 1.7896 0.9538
-7.6536 9.5421 1.8739 0.9517
-13.4426 9.7192 2.5412 0.9351
-15.9862 9.5048 2.8492 0.9275
16.3856 9.6627 2.9141 0.9259
9.8736 10.1986 2.1746 0.9442
6.0253 8.9985 1.6590 0.9571
3.9922 9.1643 1.5313 0.9604
3.0670 9.2164 1.4880 0.9615
2.1857 9.2657 1.4584 0.9622
1.3315 9.3098 1.4407 0.9627
-3.0156 9.5488 1.5340 0.9603
14.6889 -8.6171 2.2176 0.9336
13.5326 9.9532 2.1875 0.9345
11.5290 10.1884 2.0035 0.9398
5.9152 9.0626 1.4093 0.9573
4.8507 9.1231 1.3455 0.9592
3.8707 9.1784 1.2972 0.9606
2.9358 9.1810 1.2552 0.9619
1.2157 9.2765 1.2183 0.9630
-0.4582 9.3683 1.2214 0.9629
-3.1274 9.5122 1.3039 0.9604
-4.1481 9.6164 1.3638 0.9586
-7.8701 9.8120 1.6380 0.9505
-16.6432 9.8955 2.5214 0.9249
16.2153 9.5623 2.4514 0.9269
13.8458 9.9350 2.2191 0.9336
11.7883 10.1734 2.0277 0.9391
9.9066 10.2328 1.8547 0.9442
8.3791 10.3699 1.7361 0.9476
6.0304 9.0061 1.4114 0.9572
2.1757 9.2233 1.2340 0.9625
1.3259 9.2705 1.2195 0.9629
0.4893 9.3165 1.2149 0.9631
-2.0779 9.4560 1.2607 0.9617
-3.0019 9.5055 1.2981 0.9606
4.4638 -8.1186 0.9949 0.9634
13.6439 10.0351 1.8187 0.9341
11.7533 10.3867 1.6843 0.9388
9.8155 10.3800 1.5340 0.9441
8.3811 10.6254 1.4532 0.9470
5.8887 9.0220 1.1569 0.9576
5.1500 9.6861 1.1780 0.9568
4.1847 9.9231 1.1564 0.9576
3.1683 9.9079 1.1170 0.9590
-0.4610 9.4252 1.0133 0.9627
-1.3200 9.4719 1.0269 0.9623
-2.2095 9.5200 1.0494 0.9614
-3.1466 9.5704 1.0818 0.9603
-4.1514 9.6242 1.1255 0.9587
-5.6715 10.4602 1.2777 0.9533
-6.8999 10.3854 1.3389 0.9511
-7.8359 9.7693 1.3448 0.9509
-9.5233 9.9079 1.4757 0.9462
-11.4536 9.9567 1.6297 0.9408
-14.0287 10.1430 1.8589 0.9327
-16.8865 10.0401 2.1096 0.9240
6.0304 9.0062 1.1639 0.9573
5.2473 9.5953 1.1744 0.9570
4.3195 9.9155 1.1614 0.9574
2.1889 9.2794 1.0238 0.9624
1.3269 9.2772 1.0063 0.9630
0.4923 9.3731 1.0079 0.9629
14.6751 -8.6090 1.4403 0.9340
13.9888 10.2888 1.4700 0.9327
9.8170 10.3815 1.2095 0.9443
8.3885 10.6348 1.1466 0.9471
5.9250 9.0777 0.9177 0.9574
5.1763 9.7356 0.9334 0.9567
4.1879 9.9307 0.9124 0.9577
2.0771 9.2925 0.8060 0.9625
1.2240 9.3396 0.7974 0.9629
-1.3209 9.4789 0.8102 0.9623
-2.2112 9.5272 0.8279 0.9615
-3.1490 9.5779 0.8535 0.9603
-4.1548 9.6320 0.8880 0.9588
-7.8854 9.8310 1.0669 0.9507
16.8051 9.9101 1.6515 0.9247
14.3545 10.3000 1.4956 0.9315
12.0847 10.4292 1.3513 0.9379
10.0385 10.3690 1.2217 0.9437
8.5456 10.5759 1.1510 0.9469
6.0405 9.0213 0.9191 0.9574
3.3207 9.9790 0.8903 0.9587
0.4926 9.3798 0.7951 0.9630
-0.3501 9.4260 0.7985 0.9628
-2.0921 9.5207 0.8252 0.9616
-3.0226 9.5710 0.8497 0.9605
14.6912 -8.6185 1.0562 0.9340
16.7208 10.1270 1.2122 0.9246
11.8307 10.4550 0.9790 0.9387
9.8499 10.4164 0.8890 0.9442
5.1784 9.7394 0.6840 0.9568
3.1762 9.9327 0.6467 0.9591
2.0786 9.2993 0.5909 0.9625
0.3827 9.3926 0.5829 0.9630
-0.4617 9.4389 0.5860 0.9628
-1.3219 9.4858 0.5939 0.9623
-2.2129 9.5343 0.6069 0.9615
-3.1514 9.5853 0.6257 0.9604
-4.1581 9.6397 0.6510 0.9588
-6.9376 10.4422 0.7774 0.9510
-7.8930 9.8405 0.7823 0.9507
-9.5434 9.9288 0.8540 0.9463
-11.5444 10.0356 0.9486 0.9405
-6.0875 -7.6251 0.6050 0.9617
17.1334 10.1036 1.2334 0.9234
14.3063 10.2655 1.0919 0.9319
12.0972 10.4400 0.9909 0.9380
10.0723 10.4039 0.8980 0.9436
8.5918 10.6332 0.8477 0.9467
6.0456 9.0288 0.6738 0.9574
3.3232 9.9864 0.6526 0.9587
2.1921 9.2930 0.5921 0.9625
0.4930 9.3866 0.5829 0.9630
-1.2077 9.4796 0.5926 0.9624
-3.0250 9.5784 0.6229 0.9605
4.4542 -8.1012 0.3645 0.9637
14.7125 -8.6309 0.6726 0.9340
16.8209 10.1876 0.7754 0.9243
11.8428 10.4657 0.6232 0.9387
8.4033 10.6535 0.5350 0.9471
5.1804 9.7432 0.4351 0.9568
2.0801 9.3061 0.3760 0.9625
0.3830 9.3994 0.3709 0.9630
-0.4595 9.3955 0.3709 0.9630
-3.1539 9.5926 0.3982 0.9604
-4.1615 9.6474 0.4143 0.9588
-5.6859 10.4867 0.4704 0.9534
-7.9006 9.8500 0.4979 0.9507
-9.5535 9.9393 0.5436 0.9463
-11.5579 10.0474 0.6039 0.9405
-14.0848 10.1835 0.6853 0.9328
16.9192 4.5741 0.6911 0.9322
14.3874 10.3237 0.6982 0.9316
12.1097 10.4508 0.6307 0.9380
10.0819 10.4138 0.5715 0.9436
8.5994 10.6426 0.5395 0.9467
6.0454 9.0285 0.4285 0.9574
3.3257 9.9939 0.4153 0.9587
2.1937 9.2998 0.3768 0.9625
1.3298 9.2973 0.3703 0.9631
0.4933 9.3933 0.3709 0.9630
-1.2086 9.4865 0.3771 0.9624
-2.0952 9.5350 0.3849 0.9617
-3.0273 9.5858 0.3964 0.9606
4.4510 -8.0954 0.1561 0.9637
14.6800 -8.6119 0.2875 0.9342
16.8423 10.2006 0.3326 0.9242
11.8549 10.4764 0.2672 0.9387
8.3741 10.6165 0.2284 0.9473
2.0816 9.3128 0.1612 0.9625
1.2266 9.3598 0.1595 0.9629
0.3832 9.4061 0.1590 0.9630
-0.4599 9.4023 0.1590 0.9630
-5.6907 10.4956 0.2017 0.9534
-6.9477 10.4573 0.2121 0.9510
-9.5635 9.9497 0.2331 0.9463
-11.5100 10.0057 0.2576 0.9408
-14.1034 10.1970 0.2940 0.9327
-5.9716 -7.4798 0.1617 0.9624
14.4039 10.3355 0.2995 0.9315
12.1223 10.4616 0.2705 0.9380
8.5696 10.6057 0.2303 0.9469
6.0422 9.0238 0.1834 0.9575
5.2802 9.6556 0.1859 0.9569
2.1953 9.3066 0.1615 0.9625
0.4937 9.4001 0.1590 0.9630
-1.2094 9.4935 0.1617 0.9624
-2.0968 9.5421 0.1650 0.9617
-3.0296 9.5931 0.1699 0.9606
4.4479 -8.0896 -0.0520 0.9637
14.6814 -8.6127 -0.0958 0.9342
16.7879 10.1676 -0.1105 0.9245
8.3815 10.6258 -0.0762 0.9473
2.0831 9.3196 -0.0538 0.9625
-0.4602 9.4091 -0.0530 0.9630
-1.3248 9.5067 -0.0540 0.9623
-3.1587 9.6074 -0.0569 0.9604
-5.6955 10.5044 -0.0673 0.9533
-9.5736 9.9602 -0.0778 0.9462
-12.9192 9.3407 -0.0898 0.9382
12.1348 10.4725 -0.0902 0.9379
10.1010 10.4336 -0.0818 0.9436
6.0390 9.0190 -0.0611 0.9575
5.2823 9.6593 -0.0620 0.9569
3.3306 10.0087 -0.0594 0.9587
2.1969 9.3134 -0.0539 0.9624
-0.3492 9.4030 -0.0530 0.9631
-1.2103 9.5004 -0.0539 0.9624
-2.0984 9.5492 -0.0550 0.9616
-3.0319 9.6005 -0.0567 0.9605
14.0452 10.3303 -0.4909 0.9326
9.8870 10.4556 -0.4052 0.9440
8.4254 10.6816 -0.3831 0.9470
5.9497 9.1154 -0.3065 0.9574
5.1864 9.7546 -0.3111 0.9568
4.2039 9.9686 -0.3046 0.9576
1.2284 9.3733 -0.2662 0.9629
0.3838 9.4196 -0.2655 0.9630
-0.4605 9.4159 -0.2654 0.9630
-1.3258 9.5136 -0.2705 0.9623
-3.1612 9.6148 -0.2850 0.9603
-4.1715 9.6707 -0.2966 0.9587
-6.9578 10.4725 -0.3540 0.9509
-7.9235 9.8785 -0.3566 0.9506
-12.9417 9.3571 -0.4497 0.9381
14.4369 10.3592 -0.5003 0.9314
8.6223 10.6709 -0.3863 0.9466
5.2843 9.6631 -0.3101 0.9569
4.3394 9.9612 -0.3059 0.9575
3.3331 10.0162 -0.2972 0.9586
2.1985 9.3202 -0.2696 0.9624
0.4944 9.4136 -0.2654 0.9630
-0.3495 9.4098 -0.2651 0.9630
-3.0343 9.6078 -0.2837 0.9605
4.4416 -8.0781 -0.4675 0.9638
14.6950 -8.6206 -0.8640 0.9340
16.5265 10.0093 -0.9799 0.9255
9.8964 10.4655 -0.7305 0.9439
8.4328 10.6910 -0.6906 0.9469
5.9546 9.1230 -0.5525 0.9573
5.1885 9.7584 -0.5605 0.9567
4.2072 9.9762 -0.5491 0.9576
3.1917 9.9813 -0.5314 0.9589
2.0861 9.3332 -0.4850 0.9624
1.2293 9.3801 -0.4798 0.9628
0.3841 9.4264 -0.4785 0.9629
-1.3268 9.5206 -0.4875 0.9622
-3.1636 9.6223 -0.5137 0.9602
-4.1748 9.6784 -0.5346 0.9587
-5.7051 10.5222 -0.6070 0.9532
-6.9351 10.4383 -0.6356 0.9510
-7.8480 9.7844 -0.6361 0.9510
-11.3038 9.8264 -0.7596 0.9418
-12.9472 9.3610 -0.8102 0.9380
-17.0730 10.1510 -1.0073 0.9235
-5.8980 -7.3876 -0.4794 0.9628
16.9362 9.9874 -0.9971 0.9243
4.3427 9.9689 -0.5515 0.9574
0.4947 9.4203 -0.4784 0.9629
-0.3516 9.4669 -0.4804 0.9628
-1.2121 9.5143 -0.4864 0.9623
4.4384 -8.0724 -0.6755 0.9637
14.7047 -8.6263 -1.2500 0.9339
16.5477 10.0221 -1.4185 0.9253
13.8227 10.1666 -1.2581 0.9335
11.6358 10.2828 -1.1386 0.9396
8.2504 10.4596 -0.9768 0.9480
5.1662 9.7165 -0.8069 0.9568
4.1897 9.9348 -0.7906 0.9577
3.1941 9.9888 -0.7689 0.9588
0.3823 9.3831 -0.6886 0.9630
-1.3207 9.4770 -0.7016 0.9623
-2.1797 9.3916 -0.7069 0.9621
-3.0820 9.3740 -0.7235 0.9612
-4.0672 9.4290 -0.7529 0.9597
-6.9401 10.4459 -0.9196 0.9509
-12.9203 9.3416 -1.1690 0.9381
-16.0306 9.5312 -1.3675 0.9279
-17.1900 8.2364 -1.3976 0.9264
-18.2969 6.8292 -1.4320 0.9247
-5.8886 -7.3759 -0.6920 0.9629
-6.0137 -18.4323 -1.4216 0.9252
14.7091 -8.8629 -1.2592 0.9334
14.1447 10.1495 -1.2765 0.9326
11.8988 10.2688 -1.1524 0.9389
8.4433 10.4493 -0.9850 0.9475
5.9786 8.9288 -0.7879 0.9578
2.2017 9.3338 -0.7032 0.9623
1.3346 9.3309 -0.6911 0.9629
-1.2065 9.4707 -0.7000 0.9624
-2.0699 9.4195 -0.7071 0.9621
-2.9582 9.3671 -0.7203 0.9614
14.7214 -8.6361 -1.6386 0.9337
17.5397 6.7100 -1.8029 0.9273
16.3629 8.0048 -1.7488 0.9294
15.1331 9.1654 -1.6985 0.9314
6.1808 4.5460 -0.7366 0.9696
9.8699 10.4375 -1.3791 0.9439
0.3744 9.1894 -0.8830 0.9637
-0.4517 9.2349 -0.8877 0.9635
-1.2934 9.2814 -0.8997 0.9630
-3.0844 9.3813 -0.9481 0.9611
-5.6867 10.4882 -1.1454 0.9532
-6.9452 10.4536 -1.2049 0.9508
-7.7356 9.6442 -1.1869 0.9515
-9.3588 9.7368 -1.2966 0.9472
-13.9209 6.6700 -1.4820 0.9399
-14.7483 5.5047 -1.5113 0.9387
-16.7943 4.6053 -1.6718 0.9324
-18.7682 -0.0214 -1.8018 0.9274
-18.6784 -5.1677 -1.8606 0.9251
-18.3765 -6.9066 -1.8847 0.9241
-5.8602 -7.3403 -0.9017 0.9630
-7.4417 -17.3607 -1.8134 0.9269
14.6742 -8.8418 -1.6448 0.9335
17.6894 6.5300 -1.8103 0.9270
16.5206 7.8427 -1.7557 0.9291
15.2970 9.0207 -1.7049 0.9311
11.9113 10.2796 -1.5105 0.9387
10.0934 10.4257 -1.3931 0.9434
5.9512 8.8878 -1.0269 0.9579
4.3280 9.9352 -1.0404 0.9574
2.1448 9.0926 -0.8969 0.9632
0.4823 9.1834 -0.8829 0.9637
4.4320 -8.0609 -1.0927 0.9636
11.3866 -9.7816 -1.7831 0.9413
14.3000 -8.3890 -1.9694 0.9354
19.1609 -5.1334 -2.3563 0.9232
19.0427 -3.3114 -2.2960 0.9251
18.7592 -1.5526 -2.2359 0.9270
17.7592 1.7210 -2.1194 0.9307
15.0422 4.2570 -1.8570 0.9390
14.2325 5.4448 -1.8101 0.9405
12.4152 7.5193 -1.7241 0.9432
6.1622 4.5323 -0.9086 0.9697
10.4034 9.1937 -1.6492 0.9456
3.1989 10.0038 -1.2476 0.9586
2.0352 9.1054 -1.1083 0.9631
-0.4520 9.2416 -1.0991 0.9634
-1.2944 9.2883 -1.1140 0.9629
-2.1671 9.3370 -1.1386 0.9621
-5.6915 10.4972 -1.4184 0.9530
-6.7252 10.1224 -1.4436 0.9522
-8.5460 8.8911 -1.4649 0.9515
-10.2114 7.3830 -1.4968 0.9505
-13.3212 4.9720 -1.6890 0.9443
-14.5738 2.6226 -1.7590 0.9421
-15.0587 1.3355 -1.7958 0.9409
-15.7498 -1.4329 -1.8786 0.9383
-16.0100 -4.4294 -1.9732 0.9353
-14.6193 -7.0457 -1.9277 0.9367
-14.3064 -8.5503 -1.9798 0.9351
-8.3136 -8.6888 -1.4285 0.9527
-5.8306 -7.3033 -1.1101 0.9631
-7.4495 -17.3788 -2.2460 0.9267
14.3038 -8.6187 -1.9837 0.9349
17.4314 -8.4783 -2.3025 0.9249
19.0679 -3.5471 -2.3039 0.9248
18.8052 -1.7791 -2.2438 0.9267
18.3908 -0.0871 -2.1846 0.9286
17.8406 1.5175 -2.1269 0.9304
17.1680 3.0257 -2.0708 0.9322
13.4720 6.3955 -1.7715 0.9417
6.3060 4.5248 -0.9219 0.9692
9.4869 9.7992 -1.6201 0.9465
-0.3430 9.2356 -1.0978 0.9635
-1.1825 9.2821 -1.1115 0.9630
-2.0503 9.3305 -1.1348 0.9622
-3.7756 -17.3704 -2.5187 0.9307
-2.2340 -17.8605 -2.5504 0.9299
1.0034 -18.3090 -2.5981 0.9286
4.2891 -17.9990 -2.6217 0.9280
4.4289 -8.0551 -1.3025 0.9635
11.4186 -14.0659 -2.5670 0.9294
12.4898 -12.8424 -2.5383 0.9302
8.1935 -7.0386 -1.5305 0.9573
13.1413 -9.3843 -2.2880 0.9368
13.6961 -8.0347 -2.2499 0.9379
14.5823 -6.8819 -2.2847 0.9369
15.4809 -5.6747 -2.3362 0.9356
15.6044 -4.1806 -2.2890 0.9368
15.1384 0.1062 -2.1450 0.9407
14.7379 1.4282 -2.0980 0.9419
14.2330 2.6812 -2.0521 0.9432
11.2692 5.5129 -1.7775 0.9506
8.8712 7.8397 -1.6774 0.9533
7.0893 8.9876 -1.6219 0.9548
5.8160 8.9106 -1.5077 0.9579
2.0367 9.1122 -1.3230 0.9630
1.2001 9.1576 -1.3086 0.9634
0.3749 9.2028 -1.3050 0.9635
-0.4523 9.2484 -1.3120 0.9633
-2.1687 9.3441 -1.3592 0.9620
-4.0772 9.4521 -1.4585 0.9593
-5.8420 8.7930 -1.4958 0.9582
-9.4713 5.6313 -1.5613 0.9565
-10.2149 4.8944 -1.6049 0.9553
-11.4828 4.2859 -1.7366 0.9517
-12.0036 3.2916 -1.7636 0.9510
-12.8302 1.1378 -1.8250 0.9493
-13.3280 -1.2126 -1.8962 0.9474
-13.4372 -2.4496 -1.9353 0.9463
-13.4441 -3.7195 -1.9764 0.9452
-11.8580 -7.0870 -1.9573 0.9457
-11.4267 -8.3013 -2.0012 0.9445
-6.7771 -15.8102 -2.4373 0.9329
-3.9723 -17.2938 -2.5142 0.9308
0.7874 -18.3025 -2.5957 0.9287
2.4366 -18.2692 -2.6115 0.9282
4.0761 -18.0430 -2.6209 0.9280
5.6803 -17.6252 -2.6238 0.9279
8.6837 -16.2427 -2.6097 0.9283
11.2674 -14.2178 -2.5704 0.9293
13.2976 -11.6975 -2.5094 0.9310
9.8073 -7.1789 -1.7221 0.9521
15.5967 -4.3755 -2.2952 0.9367
14.7966 1.2586 -2.1041 0.9418
13.5109 3.6527 -1.9831 0.9450
11.3638 5.3947 -1.7824 0.9504
6.3134 4.5301 -1.1010 0.9691
5.2699 9.6367 -1.5562 0.9566
0.4830 9.1969 -1.3049 0.9635
-0.3433 9.2424 -1.3105 0.9633
-1.1834 9.2890 -1.3268 0.9629
-2.0519 9.3376 -1.3546 0.9621
-3.1318 -14.4087 -2.4291 0.9420
-1.8492 -14.7836 -2.4544 0.9414
3.5331 -14.8268 -2.5109 0.9401
3.1338 -9.3463 -1.6239 0.9608
6.1140 -13.9481 -2.5089 0.9401
6.4216 -9.5433 -1.8949 0.9544
9.4408 -11.6296 -2.4677 0.9411
9.5957 -9.8665 -2.2673 0.9457
9.9485 -7.1043 -2.0139 0.9516
12.7293 -6.0074 -2.3188 0.9445
13.0020 -4.7660 -2.2813 0.9454
13.0823 -1.0828 -2.1625 0.9482
10.3108 3.9445 -1.8187 0.9562
9.7395 4.7646 -1.7862 0.9570
9.1135 5.5196 -1.7553 0.9577
6.1765 4.5428 -1.2631 0.9694
7.7261 6.8277 -1.6986 0.9591
2.0383 9.1190 -1.5393 0.9628
1.2010 9.1644 -1.5226 0.9632
0.3752 9.2096 -1.5184 0.9633
-0.4527 9.2553 -1.5265 0.9631
-1.2814 9.1952 -1.5294 0.9631
-2.0950 9.0267 -1.5266 0.9631
-3.6717 8.5119 -1.5271 0.9631
-4.4284 8.1676 -1.5306 0.9630
-5.1600 7.7666 -1.5361 0.9629
-5.8632 7.3098 -1.5437 0.9627
-7.1708 6.2336 -1.5653 0.9622
-8.3374 4.9571 -1.5979 0.9614
-10.0574 3.7539 -1.7685 0.9574
-10.8649 1.9552 -1.8186 0.9562
-11.1670 0.9903 -1.8469 0.9556
-11.5419 -1.0501 -1.9093 0.9541
-11.5768 -3.2029 -1.9788 0.9525
-9.7158 -7.0584 -1.9784 0.9525
-9.2156 -8.0482 -2.0156 0.9516
-5.8209 -7.2911 -1.5370 0.9629
-6.7090 -12.4414 -2.3286 0.9443
-5.6528 -13.1872 -2.3636 0.9435
-4.5114 -13.8275 -2.3961 0.9427
-2.0202 -14.7422 -2.4513 0.9415
0.6498 -15.1031 -2.4904 0.9406
3.3579 -14.8637 -2.5104 0.9401
4.6785 -14.5168 -2.5126 0.9400
4.3407 -8.1192 -1.5167 0.9634
9.3137 -11.7525 -2.4703 0.9410
6.5826 -6.9294 -1.5745 0.9620
10.2363 -9.0046 -2.2459 0.9462
9.8041 -7.1766 -2.0016 0.9519
12.6840 -6.1693 -2.3236 0.9444
12.9735 -4.9293 -2.2863 0.9453
12.9152 -0.0612 -2.1277 0.9490
12.6282 1.0742 -2.0879 0.9499
12.2476 2.1585 -2.0488 0.9508
11.7821 3.1853 -2.0107 0.9517
10.3936 3.8368 -1.8252 0.9561
5.5067 8.2241 -1.6305 0.9607
4.6910 8.5781 -1.6107 0.9611
2.1496 9.1130 -1.5425 0.9628
1.3099 9.1585 -1.5241 0.9632
0.4834 9.2036 -1.5183 0.9633
-0.3435 9.2492 -1.5248 0.9632
-1.1737 9.2128 -1.5300 0.9631
-2.7892 8.8319 -1.5258 0.9631
-0.4455 -12.7809 -2.4038 0.9493
0.7038 -12.8427 -2.4175 0.9490
3.0004 -12.5911 -2.4329 0.9487
3.1314 -9.3391 -1.8514 0.9607
5.1927 -11.8464 -2.4312 0.9487
4.3362 -7.8866 -1.6917 0.9640
7.4548 -9.1831 -2.2232 0.9530
8.1813 -8.4122 -2.2056 0.9534
8.1818 -7.0285 -2.0274 0.9570
11.3487 -3.0404 -2.2083 0.9533
11.3471 -0.9392 -2.1401 0.9547
10.9681 1.0629 -2.0712 0.9561
10.6519 2.0066 -2.0374 0.9568
8.0339 4.8658 -1.7654 0.9625
6.1838 4.5482 -1.4428 0.9692
6.1853 6.5410 -1.6921 0.9640
5.5054 6.9796 -1.6709 0.9645
4.8022 7.3575 -1.6514 0.9649
2.5989 8.1275 -1.6039 0.9659
1.0933 8.3424 -1.5815 0.9663
-1.8758 8.0821 -1.5595 0.9668
-2.5902 7.8783 -1.5588 0.9668
-3.2873 7.6209 -1.5600 0.9668
-3.9639 7.3109 -1.5631 0.9667
-4.6170 6.9493 -1.5682 0.9666
-5.8400 6.0758 -1.5840 0.9663
-6.4034 5.5665 -1.5948 0.9661
-6.9303 5.0107 -1.6074 0.9658
-8.5107 4.0778 -1.7738 0.9623
-8.9395 3.3366 -1.7935 0.9619
-9.3129 2.5538 -1.8151 0.9615
-10.0591 -0.0115 -1.8907 0.9599
-10.2025 -1.8599 -1.9493 0.9587
-10.0252 -3.7678 -2.0130 0.9573
-9.8077 -4.7268 -2.0464 0.9567
-8.4423 -6.1332 -1.9614 0.9584
-6.0519 -6.3251 -1.6454 0.9650
-5.5527 -6.9552 -1.6728 0.9644
-5.0408 -7.6247 -1.7180 0.9635
-5.7605 -10.6824 -2.2812 0.9518
-3.8577 -11.8241 -2.3378 0.9506
-1.7217 -12.5643 -2.3837 0.9497
-0.4281 -9.1800 -1.7274 0.9633
0.5525 -12.8417 -2.4160 0.9490
2.8517 -12.6230 -2.4324 0.9487
5.0545 -11.9097 -2.4318 0.9487
4.3270 -8.0937 -1.7251 0.9633
8.7396 -7.6880 -2.1878 0.9537
9.2934 -6.8028 -2.1648 0.9542
10.8940 -5.2987 -2.2770 0.9519
11.1679 -4.2433 -2.2455 0.9525
11.3347 -3.1799 -2.2127 0.9532
11.3971 -2.1201 -2.1790 0.9539
11.3593 -1.0747 -2.1446 0.9546
8.6342 4.0988 -1.7965 0.9618
8.1066 4.7805 -1.7689 0.9624
6.9200 5.9721 -1.7181 0.9635
6.2725 6.4790 -1.6950 0.9640
5.5960 6.9256 -1.6736 0.9644
4.8956 7.3114 -1.6539 0.9648
2.6972 8.1051 -1.6056 0.9658
1.1922 8.3355 -1.5827 0.9663
-0.3095 8.3332 -1.5674 0.9666
-1.0506 8.2468 -1.5626 0.9667
-1.7810 8.1048 -1.5597 0.9668
-2.4975 7.9081 -1.5588 0.9668
-2.3285 -10.7128 -2.3173 0.9562
-0.3873 -11.1115 -2.3502 0.9556
0.6114 -11.1568 -2.3619 0.9553
1.6128 -11.0962 -2.3702 0.9552
1.5952 -6.6944 -1.4547 0.9723
5.7747 -8.5819 -2.1865 0.9586
6.4834 -7.9865 -2.1744 0.9588
7.1226 -7.3236 -2.1595 0.9591
7.6860 -6.6026 -2.1418 0.9594
8.8080 -6.2898 -2.2878 0.9567
9.5757 -4.5191 -2.2382 0.9576
9.8201 -3.5997 -2.2108 0.9581
10.0340 -1.7448 -2.1528 0.9592
10.0083 -0.8284 -2.1228 0.9598
9.8991 0.0694 -2.0925 0.9603
9.4487 1.7799 -2.0324 0.9615
9.1178 2.5803 -2.0030 0.9620
8.7239 3.3374 -1.9744 0.9625
8.0512 3.9387 -1.8946 0.9640
6.1260 5.4137 -1.7281 0.9671
4.9461 6.2706 -1.6882 0.9679
2.3445 7.3317 -1.6271 0.9690
1.6676 7.4607 -1.6160 0.9692
0.3079 7.5578 -1.5989 0.9695
-0.3682 7.5270 -1.5930 0.9697
-1.0374 7.4443 -1.5888 0.9697
-1.6967 7.3106 -1.5864 0.9698
-2.3431 7.1265 -1.5857 0.9698
-7.6613 3.6708 -1.7957 0.9659
-8.3640 2.2936 -1.8333 0.9652
-8.6346 1.5538 -1.8545 0.9648
-8.8465 0.7846 -1.8773 0.9643
-9.0798 -0.8261 -1.9272 0.9634
-7.8636 -5.7128 -2.0545 0.9610
-7.0420 -6.1498 -1.9763 0.9625
-5.5478 -6.9490 -1.8796 0.9643
-3.3659 -10.3166 -2.2939 0.9566
2.4753 -10.9571 -2.3745 0.9551
3.4480 -10.6988 -2.3761 0.9551
4.3082 -8.0585 -1.9315 0.9633
4.5173 -6.8866 -1.7409 0.9669
6.3942 -8.0686 -2.1762 0.9588
8.7448 -6.4012 -2.2908 0.9567
9.5367 -4.6385 -2.2417 0.9576
9.7934 -3.7210 -2.2145 0.9581
10.0310 -1.8660 -2.1567 0.9591
9.9181 -0.0470 -2.0965 0.9603
9.4871 1.6720 -2.0363 0.9614
9.1649 2.4777 -2.0068 0.9619
6.4457 4.6251 -1.6769 0.9681
5.0267 6.2210 -1.6906 0.9678
3.1018 7.1203 -1.6417 0.9687
2.4328 7.3108 -1.6287 0.9690
1.7566 7.4469 -1.6173 0.9692
-0.2798 7.5340 -1.5936 0.9696
-0.9501 7.4581 -1.5892 0.9697
-2.2591 7.1535 -1.5857 0.9698
-0.3174 -9.1045 -2.1411 0.9633
0.5007 -9.1363 -2.1505 0.9631
1.3202 -9.0830 -2.1571 0.9630
1.5939 -6.6888 -1.6160 0.9721
2.9242 -8.7211 -2.1618 0.9629
5.1000 -7.5793 -2.1470 0.9632
5.7296 -7.0580 -2.1366 0.9633
7.3367 -6.3025 -2.2732 0.9610
7.8059 -5.5742 -2.2543 0.9614
8.1968 -4.8086 -2.2335 0.9617
8.5073 -4.0149 -2.2109 0.9621
8.7364 -3.2024 -2.1868 0.9625
8.9526 -1.5568 -2.1356 0.9634
8.9431 -0.7402 -2.1090 0.9638
8.1966 2.3196 -2.0020 0.9656
6.6375 4.0200 -1.8238 0.9686
6.0288 4.4342 -1.7589 0.9697
3.9215 6.0081 -1.6862 0.9709
3.3387 6.2794 -1.6714 0.9712
2.7415 6.5008 -1.6581 0.9714
2.1336 6.6722 -1.6463 0.9716
1.5185 6.7938 -1.6361 0.9718
0.8998 6.8658 -1.6274 0.9719
-0.9461 6.7890 -1.6110 0.9722
-1.5476 6.6679 -1.6088 0.9723
-2.1372 6.5003 -1.6082 0.9723
-3.2690 6.0292 -1.6119 0.9722
-4.3184 5.3839 -1.6221 0.9720
-5.3402 4.6422 -1.6630 0.9713
-6.1456 4.4434 -1.7823 0.9693
-6.5794 3.9119 -1.7990 0.9690
-6.9600 3.3348 -1.8138 0.9688
-7.2959 2.7231 -1.8302 0.9685
-8.0034 0.7098 -1.8884 0.9675
-8.1287 -0.0093 -1.9104 0.9672
-8.1937 -0.7455 -1.9337 0.9668
-8.1325 -2.2500 -1.9831 0.9659
-8.0019 -3.0074 -2.0091 0.9655
-7.5325 -4.5018 -2.0624 0.9646
-7.1924 -5.2252 -2.0894 0.9641
-5.3390 -6.6875 -2.0112 0.9654
-4.7734 -7.2203 -2.0342 0.9651
-4.1526 -7.7006 -2.0562 0.9647
-2.7879 -6.5038 -1.6631 0.9713
-0.4240 -9.0940 -2.1396 0.9633
1.2130 -9.0948 -2.1564 0.9630
2.8216 -8.7551 -2.1619 0.9629
7.2695 -6.3948 -2.2755 0.9610
7.7488 -5.6721 -2.2569 0.9613
8.1501 -4.9108 -2.2363 0.9617
8.4712 -4.1202 -2.2139 0.9620
8.8695 -2.4883 -2.1650 0.9629
8.9487 -0.8466 -2.1125 0.9637
8.8741 -0.0420 -2.0857 0.9642
8.7280 0.7424 -2.0587 0.9646
8.2373 2.2270 -2.0055 0.9655
7.5093 3.5649 -1.9536 0.9664
6.0899 4.3698 -1.7616 0.9697
5.6094 4.8410 -1.7414 0.9700
5.0975 5.2653 -1.7224 0.9703
4.5585 5.6415 -1.7046 0.9706
3.9967 5.9689 -1.6883 0.9709
3.4160 6.2466 -1.6733 0.9712
1.5995 6.7806 -1.6373 0.9718
0.9810 6.8591 -1.6285 0.9719
-0.8665 6.8014 -1.6114 0.9722
-1.4693 6.6865 -1.6090 0.9723
-2.0606 6.5249 -1.6082 0.9723
-1.7119 -7.8762 -2.0869 0.9672
-1.0065 -8.0467 -2.0997 0.9670
-0.2839 -8.1454 -2.1103 0.9669
1.5926 -6.6832 -1.7789 0.9720
5.1993 -6.4047 -2.1359 0.9665
6.5744 -5.6477 -2.2441 0.9648
7.3586 -4.3168 -2.2089 0.9654
7.6452 -3.6080 -2.1888 0.9657
8.0021 -2.1438 -2.1450 0.9663
8.0732 -1.4039 -2.1217 0.9667
7.6863 1.4479 -2.0251 0.9682
7.4372 2.1047 -2.0012 0.9686
7.1347 2.7294 -1.9779 0.9689
6.7830 3.3183 -1.9551 0.9693
6.3708 3.8585 -1.9285 0.9697
5.0582 4.4701 -1.7478 0.9725
4.1005 5.1986 -1.7143 0.9730
3.5875 5.4963 -1.6994 0.9732
2.5115 5.9554 -1.6735 0.9736
1.9558 6.1161 -1.6626 0.9738
0.8256 6.2996 -1.6450 0.9741
0.2576 6.3229 -1.6385 0.9742
-0.3082 6.3009 -1.6334 0.9743
-1.9629 5.9701 -1.6272 0.9744
-5.2086 4.5279 -1.7869 0.9719
-6.0265 3.5831 -1.8153 0.9714
-6.3706 3.0524 -1.8290 0.9712
-6.9306 1.9005 -1.8607 0.9707
-7.1406 1.2850 -1.8785 0.9705
-7.4070 -0.0084 -1.9178 0.9699
-7.4582 -0.6785 -1.9390 0.9695
-7.4517 -1.3585 -1.9612 0.9692
-7.3855 -2.0433 -1.9841 0.9688
-7.2581 -2.7279 -2.0076 0.9685
-7.0684 -3.4066 -2.0316 0.9681
-4.8073 -6.0215 -1.9950 0.9687
-3.1245 -7.2891 -2.0534 0.9678
-2.4799 -7.6009 -2.0701 0.9675
-1.8028 -7.8486 -2.0851 0.9673
0.3516 -8.1711 -2.1176 0.9668
0.8948 -6.7092 -1.7525 0.9724
3.2096 -7.5626 -2.1271 0.9666
5.0743 -6.4031 -2.1154 0.9668
6.0129 -6.3298 -2.2605 0.9646
6.5135 -5.7298 -2.2461 0.9648
7.3157 -4.4080 -2.2114 0.9653
7.6117 -3.7022 -2.1916 0.9656
7.8357 -2.9772 -2.1703 0.9660
7.9875 -2.2408 -2.1480 0.9663
8.0679 -1.5008 -2.1248 0.9667
7.7147 1.3596 -2.0283 0.9682
6.8318 3.2432 -1.9581 0.9692
5.1173 4.4163 -1.7501 0.9725
4.6547 4.8080 -1.7327 0.9727
3.1271 5.7183 -1.6875 0.9734
2.5837 5.9310 -1.6750 0.9736
-0.7957 6.2457 -1.6302 0.9743
-1.8926 5.9927 -1.6272 0.9744
-1.5487 -7.1252 -2.0642 0.9701
-0.9100 -7.2752 -2.0756 0.9700
0.4045 -7.3804 -2.0925 0.9697
2.3598 -7.0379 -2.1014 0.9696
2.9778 -6.7933 -2.0998 0.9696
3.5670 -6.4876 -2.0959 0.9697
4.9968 -6.1553 -2.2444 0.9676
5.5002 -5.6555 -2.2333 0.9677
6.6686 -3.9121 -2.1887 0.9684
6.9342 -3.2725 -2.1707 0.9686
7.2715 -1.9481 -2.1311 0.9692
7.3521 -0.6085 -2.0885 0.9698
7.1880 0.6966 -2.0444 0.9704
7.0203 1.3225 -2.0224 0.9707
5.8563 3.5469 -1.9382 0.9719
5.4426 4.0030 -1.9126 0.9723
4.6703 4.1272 -1.7644 0.9744
4.2216 4.4644 -1.7394 0.9748
3.7725 4.7827 -1.7245 0.9750
1.2850 5.7489 -1.6676 0.9758
0.2378 5.8378 -1.6540 0.9760
-0.2846 5.8189 -1.6493 0.9761
-0.8025 5.7584 -1.6459 0.9761
-1.3129 5.6569 -1.6440 0.9761
-1.8132 5.5150 -1.6435 0.9762
-2.7725 5.1135 -1.6467 0.9761
-3.2262 4.8559 -1.6504 0.9761
-4.3884 4.5656 -1.7927 0.9740
-5.5542 3.3023 -1.8293 0.9735
-5.8679 2.8116 -1.8420 0.9733
-6.1424 2.2926 -1.8560 0.9731
-6.8247 -1.2442 -1.9639 0.9716
-6.7575 -1.8696 -1.9849 0.9713
-6.4542 -3.1106 -2.0283 0.9707
-6.2169 -3.7156 -2.0503 0.9703
-3.9241 -5.9356 -2.0143 0.9709
-3.3830 -6.2735 -2.0177 0.9708
-2.8309 -6.6042 -2.0341 0.9706
-2.2451 -6.8814 -2.0491 0.9704
-0.9947 -7.2591 -2.0742 0.9700
0.3176 -7.3817 -2.0916 0.9698
0.9793 -7.3430 -2.0972 0.9697
2.2770 -7.0652 -2.1014 0.9696
2.8982 -6.8289 -2.1001 0.9696
3.4916 -6.5310 -2.0965 0.9697
4.1624 -6.3456 -2.1484 0.9689
5.8935 -5.1844 -2.2221 0.9679
6.2918 -4.6056 -2.2074 0.9681
6.6290 -3.9943 -2.1910 0.9683
7.1126 -2.7025 -2.1540 0.9689
7.2574 -2.0360 -2.1338 0.9692
7.3376 -1.3650 -2.1129 0.9694
7.2059 0.6129 -2.0473 0.9704
6.8316 1.8469 -2.0034 0.9710
6.5678 2.4245 -1.9820 0.9713
6.2578 2.9708 -1.9610 0.9716
5.9054 3.4825 -1.9408 0.9719
5.4989 3.9457 -1.9160 0.9723
4.2788 4.4196 -1.7414 0.9748
3.8327 4.7433 -1.7264 0.9750
2.8806 5.2675 -1.6996 0.9754
1.3533 5.7371 -1.6687 0.9758
0.8307 5.8084 -1.6610 0.9759
0.3066 5.8371 -1.6547 0.9760
-0.7349 5.7687 -1.6463 0.9761
-1.2465 5.6725 -1.6442 0.9761
-1.7483 5.5359 -1.6435 0.9762
-0.8295 -6.6312 -2.0555 0.9724
-0.2338 -6.7066 -2.0641 0.9723
0.3684 -6.7223 -2.0707 0.9722
0.9706 -6.6776 -2.0755 0.9722
1.5662 -6.5725 -2.0781 0.9721
2.1495 -6.4105 -2.0796 0.9721
4.5534 -5.6091 -2.2221 0.9702
5.7859 -4.1317 -2.1868 0.9707
6.0902 -3.5728 -2.1718 0.9709
6.5261 -2.3922 -2.1379 0.9713
6.7413 -0.5579 -2.0806 0.9721
6.6989 0.0470 -2.0605 0.9724
6.4540 1.2158 -2.0200 0.9729
6.0133 2.3005 -1.9803 0.9734
5.7273 2.8018 -1.9611 0.9737
5.4020 3.2717 -1.9425 0.9739
3.9376 4.1640 -1.7627 0.9763
3.4898 4.4243 -1.7332 0.9767
2.6078 4.9047 -1.7086 0.9770
0.7069 5.3939 -1.6732 0.9775
0.2207 5.4169 -1.6675 0.9776
-0.2641 5.4005 -1.6631 0.9776
-0.7449 5.3451 -1.6599 0.9777
-1.2188 5.2513 -1.6581 0.9777
-4.0811 4.2460 -1.8114 0.9757
-5.4336 2.6035 -1.8532 0.9751
-6.2728 -0.0071 -1.9294 0.9741
-6.2888 -1.1465 -1.9662 0.9736
-6.1030 -2.2937 -2.0053 0.9731
-5.9321 -2.8590 -2.0254 0.9728
-5.7090 -3.4120 -2.0457 0.9726
-5.4340 -3.9478 -2.0659 0.9723
-5.1080 -4.4609 -2.0859 0.9720
-4.7324 -4.9460 -2.1055 0.9718
-4.3095 -5.3979 -2.1245 0.9715
-3.8419 -5.8112 -2.1427 0.9713
-3.2136 -5.9593 -2.0825 0.9721
-1.4875 -6.4760 -2.0437 0.9726
0.2893 -6.7237 -2.0700 0.9722
0.8918 -6.6869 -2.0750 0.9722
1.4887 -6.5897 -2.0779 0.9721
2.0732 -6.4328 -2.0788 0.9721
2.6633 -6.2755 -2.0968 0.9719
5.3752 -4.7285 -2.2020 0.9705
5.7418 -4.2030 -2.1887 0.9707
6.5047 -2.4715 -2.1403 0.9713
6.7076 -0.0318 -2.0631 0.9723
6.6180 0.5629 -2.0429 0.9726
6.2852 1.6992 -2.0026 0.9731
5.7671 2.7378 -1.9636 0.9736
5.4467 3.2120 -1.9449 0.9739
5.0894 3.6519 -1.9267 0.9741
4.6853 4.0434 -1.9035 0.9744
4.0246 4.1571 -1.7797 0.9761
3.5452 4.3875 -1.7350 0.9767
1.2549 5.3200 -1.6812 0.9774
0.2844 5.4161 -1.6682 0.9776
-1.1571 5.2658 -1.6583 0.9777
-1.6230 5.1391 -1.6576 0.9777
0.8988 -6.1839 -2.0772 0.9740
1.4788 -6.2059 -2.1206 0.9735
2.0874 -6.2254 -2.1826 0.9727
3.2119 -5.8416 -2.2159 0.9723
3.7126 -5.5174 -2.2105 0.9724
4.1775 -5.1460 -2.2033 0.9724
4.6021 -4.7320 -2.1942 0.9726
5.3152 -3.7956 -2.1711 0.9728
5.8286 -2.7507 -2.1424 0.9732
6.0062 -2.2016 -2.1264 0.9734
6.1300 -1.6423 -2.1095 0.9736
6.2174 -0.5146 -2.0738 0.9740
6.0985 0.5910 -2.0367 0.9745
5.9660 1.1239 -2.0180 0.9747
4.6764 3.4395 -1.9296 0.9758
3.9102 4.1351 -1.8917 0.9763
2.4261 4.5629 -1.7178 0.9785
1.5568 4.8684 -1.6990 0.9787
0.2057 5.0479 -1.6793 0.9789
-0.2462 5.0335 -1.6752 0.9790
-1.1362 4.8954 -1.6705 0.9790
-1.5692 4.7729 -1.6701 0.9790
-1.9909 4.6155 -1.6709 0.9790
-3.4197 4.2635 -1.8168 0.9772
-4.1623 3.6183 -1.8333 0.9770
-5.4790 1.5024 -1.8885 0.9763
-5.8182 -0.0066 -1.9340 0.9758
-5.8446 -0.5317 -1.9508 0.9756
-5.8251 -1.0619 -1.9682 0.9754
-5.7587 -1.5932 -1.9861 0.9751
-5.0145 -3.6430 -2.0603 0.9742
-4.3607 -4.5575 -2.0967 0.9738
-3.9681 -4.9703 -2.1141 0.9735
-2.5615 -5.9757 -2.1612 0.9730
-1.9648 -6.0221 -2.1056 0.9737
-1.3923 -6.0616 -2.0674 0.9741
0.2653 -6.1664 -2.0516 0.9743
0.8243 -6.1808 -2.0727 0.9741
1.4014 -6.2032 -2.1139 0.9735
4.5489 -4.7886 -2.1954 0.9725
4.9352 -4.3414 -2.1849 0.9727
5.2744 -3.8609 -2.1728 0.9728
5.8014 -2.8217 -2.1444 0.9732
5.9859 -2.2744 -2.1285 0.9734
6.1168 -1.7160 -2.1118 0.9736
6.1904 -0.0293 -2.0578 0.9742
6.1124 0.5199 -2.0391 0.9745
5.9860 1.0550 -2.0205 0.9747
5.3424 2.5361 -1.9658 0.9754
5.0491 2.9775 -1.9484 0.9756
4.7217 3.3880 -1.9318 0.9758
3.3837 4.1876 -1.7896 0.9776
2.8962 4.3254 -1.7303 0.9783
2.4815 4.5378 -1.7192 0.9784
2.0534 4.7138 -1.7091 0.9786
1.6149 4.8529 -1.7001 0.9787
1.1688 4.9548 -1.6922 0.9788
0.7179 5.0195 -1.6855 0.9789
0.2651 5.0470 -1.6800 0.9789
-1.5130 4.7909 -1.6701 0.9790
-1.2906 -5.9377 -2.1729 0.9745
-0.7574 -6.0551 -2.1822 0.9744
1.9585 -5.8410 -2.2031 0.9742
2.4718 -5.6390 -2.2018 0.9742
2.9622 -5.3876 -2.1986 0.9742
3.4246 -5.0895 -2.1937 0.9743
3.8545 -4.7481 -2.1870 0.9744
5.1735 -3.0350 -2.1449 0.9748
5.3895 -2.5435 -2.1312 0.9750
5.7432 -0.9987 -2.0846 0.9755
5.7629 -0.4770 -2.0679 0.9757
5.5407 1.0438 -2.0163 0.9763
5.1768 1.9804 -1.9821 0.9767
4.3566 3.2043 -1.9340 0.9773
4.0215 3.5539 -1.9192 0.9775
3.6556 3.8658 -1.9027 0.9777
2.7527 4.2173 -1.8010 0.9788
1.8681 4.4297 -1.7192 0.9798
1.4550 4.5500 -1.7083 0.9799
0.6159 4.6992 -1.6948 0.9801
0.1924 4.7213 -1.6898 0.9801
-0.6496 4.6615 -1.6831 0.9802
-1.0637 4.5830 -1.6825 0.9802
-1.4682 4.4657 -1.6811 0.9802
-2.4207 4.4646 -1.8162 0.9787
-2.8213 4.2465 -1.8232 0.9786
-3.2035 3.9939 -1.8309 0.9785
-3.5592 3.7029 -1.8367 0.9784
-3.8910 3.3825 -1.8437 0.9783
-4.4736 2.6599 -1.8612 0.9781
-5.3567 0.4751 -1.9231 0.9774
-5.4196 -0.0062 -1.9381 0.9772
-5.4409 -0.4950 -1.9537 0.9771
-5.4194 -0.9880 -1.9700 0.9769
-5.2448 -1.9712 -2.0037 0.9765
-5.0908 -2.4535 -2.0209 0.9763
-4.6502 -3.3783 -2.0554 0.9759
-4.3651 -3.8121 -2.0724 0.9757
-3.2701 -4.9464 -2.1205 0.9751
-2.3670 -5.5218 -2.1484 0.9748
-1.8741 -5.7441 -2.1607 0.9747
-1.3594 -5.9185 -2.1716 0.9745
-0.2843 -6.0966 -2.1825 0.9744
0.2635 -6.1243 -2.1921 0.9743
0.8132 -6.0971 -2.1997 0.9742
3.3658 -5.1311 -2.1945 0.9743
3.8001 -4.7952 -2.1880 0.9743
4.5566 -4.0083 -2.1702 0.9745
4.8718 -3.5662 -2.1591 0.9747
5.3639 -2.6089 -2.1330 0.9750
5.7370 -1.0672 -2.0868 0.9755
5.2055 1.9216 -1.9843 0.9767
4.9707 2.3597 -1.9677 0.9769
4.7007 2.7721 -1.9515 0.9771
2.8204 4.2122 -1.8128 0.9787
1.9184 4.4038 -1.7178 0.9798
1.5092 4.5353 -1.7093 0.9799
0.6713 4.6937 -1.6956 0.9801
0.2479 4.7204 -1.6904 0.9801
-0.1750 4.7123 -1.6863 0.9802
-1.0093 4.5929 -1.6816 0.9802
-0.1978 -5.6736 -2.1756 0.9760
0.3115 -5.6830 -2.1811 0.9759
0.8201 -5.6424 -2.1850 0.9759
1.3230 -5.5520 -2.1872 0.9758
1.8149 -5.4126 -2.1877 0.9758
2.7453 -4.9931 -2.1836 0.9759
3.9393 -4.0505 -2.1652 0.9761
4.5566 -3.2539 -2.1457 0.9763
4.8033 -2.8178 -2.1341 0.9764
5.2764 -1.4136 -2.0933 0.9769
5.3431 -0.9291 -2.0783 0.9770
5.3644 -0.4440 -2.0628 0.9772
5.3412 0.0375 -2.0469 0.9774
5.1665 0.9733 -2.0147 0.9777
4.8327 1.8488 -1.9829 0.9781
4.6116 2.2560 -1.9674 0.9782
4.0736 2.9961 -1.9378 0.9786
2.6835 4.1113 -1.8814 0.9792
2.2525 4.2365 -1.8387 0.9797
0.1805 4.4301 -1.6991 0.9812
-0.6132 4.4003 -1.7026 0.9811
-1.0248 4.4156 -1.7371 0.9808
-2.2769 4.1994 -1.8306 0.9797
-2.6522 3.9919 -1.8366 0.9797
-3.0057 3.7474 -1.8409 0.9796
-3.3389 3.4737 -1.8464 0.9796
-3.9348 2.8449 -1.8607 0.9794
-4.1932 2.4931 -1.8695 0.9793
-4.6207 1.7247 -1.8901 0.9791
-4.7859 1.3124 -1.9018 0.9790
-4.9164 0.8847 -1.9143 0.9788
-2.2869 -0.0026 -0.8764 0.9903
-5.0612 -0.9227 -1.9715 0.9782
-4.9975 -1.3826 -1.9871 0.9780
-4.8926 -1.8388 -2.0030 0.9779
-4.7462 -2.2874 -2.0190 0.9777
-4.5586 -2.7244 -2.0351 0.9775
-4.0626 -3.5479 -2.0670 0.9772
-3.7566 -3.9262 -2.0824 0.9770
-3.4145 -4.2770 -2.0973 0.9768
-1.7391 -5.3303 -2.1486 0.9763
0.2446 -5.6846 -2.1805 0.9759
1.2576 -5.5666 -2.1870 0.9758
1.7512 -5.4336 -2.1877 0.9758
2.6871 -5.0261 -2.1841 0.9759
3.1198 -4.7561 -2.1798 0.9759
3.5232 -4.4457 -2.1738 0.9760
4.2270 -3.7184 -2.1574 0.9762
4.9821 -2.4232 -2.1231 0.9765
5.1460 -1.9552 -2.1096 0.9767
5.2643 -1.4769 -2.0953 0.9769
5.3641 -0.5075 -2.0648 0.9772
5.3467 -0.0253 -2.0490 0.9774
5.2858 0.4496 -2.0329 0.9775
5.1830 0.9134 -2.0168 0.9777
4.8591 1.7937 -1.9849 0.9781
4.3927 2.5904 -1.9543 0.9784
3.8044 3.2832 -1.9258 0.9787
3.1132 3.8528 -1.8982 0.9790
2.7343 4.0835 -1.8833 0.9792
2.3143 4.2320 -1.8484 0.9796
1.0248 4.3444 -1.7106 0.9811
0.6298 4.4033 -1.7046 0.9811
-0.5604 4.3988 -1.6993 0.9812
-0.9699 4.4137 -1.7318 0.9808
-1.3983 4.4278 -1.7794 0.9803
-1.1150 -5.1298 -2.1485 0.9776
-0.6540 -5.2282 -2.1564 0.9775
-0.1841 -5.2817 -2.1630 0.9774
0.7632 -5.2510 -2.1717 0.9773
1.6888 -5.0367 -2.1742 0.9773
2.1316 -4.8630 -2.1731 0.9773
2.5550 -4.6470 -2.1704 0.9773
2.9548 -4.3912 -2.1662 0.9774
3.3271 -4.0985 -2.1605 0.9774
3.6683 -3.7719 -2.1534 0.9775
3.9755 -3.4151 -2.1450 0.9776
4.6684 -2.2032 -2.1127 0.9779
4.9894 -0.8676 -2.0727 0.9783
4.9926 0.0350 -2.0434 0.9787
4.8343 0.9107 -2.0133 0.9790
4.6981 1.3296 -1.9983 0.9791
4.5265 1.7317 -1.9835 0.9793
4.0856 2.4745 -1.9549 0.9796
3.8210 2.8104 -1.9413 0.9797
3.2164 3.4013 -1.9159 0.9800
2.5265 3.8709 -1.8918 0.9802
1.7738 4.2060 -1.8682 0.9805
1.3688 4.2805 -1.8393 0.9808
0.9625 4.3059 -1.8058 0.9811
0.5673 4.3286 -1.7867 0.9813
0.1772 4.3489 -1.7814 0.9814
-1.0132 4.3656 -1.8342 0.9808
-1.4009 4.2610 -1.8358 0.9808
-2.4958 3.7566 -1.8459 0.9807
-2.8282 3.5260 -1.8499 0.9807
-3.7000 2.6751 -1.8686 0.9805
-3.9419 2.3437 -1.8769 0.9804
-4.1561 1.9914 -1.8862 0.9803
-4.3409 1.6202 -1.8963 0.9802
-4.4944 1.2324 -1.9073 0.9801
-2.0573 0.3702 -0.8555 0.9910
-2.0152 0.1787 -0.8280 0.9913
-2.0157 -0.1834 -0.8284 0.9913
-2.0597 -0.3755 -0.8569 0.9910
-4.4404 -2.1400 -2.0174 0.9789
-4.2627 -2.5476 -2.0324 0.9788
-4.0472 -2.9402 -2.0474 0.9786
-3.7950 -3.3142 -2.0621 0.9785
-2.8345 -4.2875 -2.1036 0.9780
-2.4539 -4.5506 -2.1160 0.9779
-1.6203 -4.9663 -2.1380 0.9777
-1.1746 -5.1136 -2.1474 0.9776
-0.7150 -5.2178 -2.1555 0.9775
-0.2461 -5.2773 -2.1622 0.9774
0.7014 -5.2587 -2.1713 0.9773
1.1703 -5.1802 -2.1736 0.9773
1.6296 -5.0563 -2.1742 0.9773
2.5008 -4.6777 -2.1709 0.9773
3.6255 -3.8165 -2.1544 0.9775
3.9372 -3.4635 -2.1462 0.9776
4.2126 -3.0836 -2.1367 0.9777
4.4493 -2.6809 -2.1260 0.9778
4.6457 -2.2596 -2.1143 0.9779
4.8005 -1.8240 -2.1018 0.9780
4.9833 -0.9270 -2.0745 0.9783
4.9430 0.4205 -2.0304 0.9788
4.8494 0.8547 -2.0153 0.9789
4.7181 1.2755 -2.0003 0.9791
4.5510 1.6800 -1.9855 0.9793
4.3503 2.0652 -1.9709 0.9794
4.1182 2.4285 -1.9567 0.9795
3.8573 2.7678 -1.9430 0.9797
3.5699 3.0809 -1.9299 0.9798
3.2588 3.3661 -1.9175 0.9800
2.2050 4.0321 -1.8809 0.9803
1.4233 4.2770 -1.8448 0.9807
1.0150 4.3028 -1.8093 0.9811
0.6187 4.3257 -1.7884 0.9813
-0.1621 4.3648 -1.7876 0.9813
-1.0422 -4.7946 -2.1384 0.9788
-0.6111 -4.8854 -2.1457 0.9787
-0.1720 -4.9345 -2.1518 0.9787
0.2708 -4.9409 -2.1566 0.9786
0.7129 -4.9045 -2.1599 0.9786
1.5773 -4.7040 -2.1623 0.9786
2.3865 -4.3405 -2.1588 0.9786
3.4282 -3.5249 -2.1429 0.9788
3.9701 -2.8350 -2.1261 0.9789
4.5096 -1.6531 -2.0933 0.9793
4.6117 -1.2355 -2.0807 0.9794
4.6742 -0.8128 -2.0677 0.9795
4.6972 -0.3888 -2.0541 0.9796
4.5371 0.8547 -2.0121 0.9801
4.0614 1.9869 -1.9705 0.9805
3.3220 2.9357 -1.9321 0.9808
2.3820 3.6495 -1.8993 0.9812
2.0352 3.8278 -1.8894 0.9813
0.9320 4.1699 -1.8621 0.9815
0.5534 4.2225 -1.8560 0.9816
-0.9579 4.1273 -1.8465 0.9817
-1.6810 3.8970 -1.8497 0.9817
-2.0248 3.7345 -1.8514 0.9816
-2.6676 3.3258 -1.8581 0.9816
-2.9623 3.0819 -1.8630 0.9815
-3.2364 2.8134 -1.8689 0.9815
-3.4879 2.5218 -1.8758 0.9814
-3.9158 1.8762 -1.8924 0.9812
-1.5075 0.5627 -0.7013 0.9930
-1.4933 0.4095 -0.6748 0.9933
-1.4703 0.2646 -0.6511 0.9935
-1.4666 0.1301 -0.6417 0.9936
-1.4236 -0.0016 -0.6204 0.9938
-1.5145 -0.5692 -0.7051 0.9930
-3.7945 -2.7566 -2.0440 0.9797
-3.5564 -3.1059 -2.0578 0.9796
-3.2856 -3.4339 -2.0712 0.9795
-2.9837 -3.7373 -2.0842 0.9793
-1.5149 -4.6433 -2.1286 0.9789
-1.0979 -4.7797 -2.1373 0.9788
-0.6682 -4.8759 -2.1448 0.9788
0.2126 -4.9425 -2.1560 0.9786
0.6551 -4.9117 -2.1596 0.9786
1.5219 -4.7223 -2.1623 0.9786
2.7127 -4.1354 -2.1554 0.9787
3.0645 -3.8669 -2.1503 0.9787
3.3880 -3.5665 -2.1439 0.9788
3.9388 -2.8832 -2.1273 0.9789
4.3467 -2.1142 -2.1066 0.9791
4.4933 -1.7072 -2.0948 0.9792
4.6006 -1.2907 -2.0824 0.9794
4.6856 -0.0222 -2.0421 0.9798
4.2749 1.5781 -1.9859 0.9803
4.0882 1.9407 -1.9723 0.9804
3.3590 2.8989 -1.9337 0.9808
1.7230 3.9551 -1.8802 0.9814
1.3555 4.0732 -1.8709 0.9814
0.9815 4.1607 -1.8631 0.9815
0.2229 4.2433 -1.8519 0.9816
-0.5355 4.2034 -1.8467 0.9817
-1.2768 4.0429 -1.8477 0.9817
0.2537 -4.6298 -2.1463 0.9798
1.0773 -4.5208 -2.1512 0.9797
1.4777 -4.4071 -2.1516 0.9797
1.8653 -4.2553 -2.1506 0.9797
2.2361 -4.0670 -2.1483 0.9798
3.4844 -2.9932 -2.1263 0.9800
3.7234 -2.6589 -2.1179 0.9800
3.9289 -2.3048 -2.1085 0.9801
4.0993 -1.9346 -2.0982 0.9802
4.3309 -1.1603 -2.0754 0.9804
4.3913 -0.7636 -2.0632 0.9805
4.4147 -0.3654 -2.0505 0.9807
4.0046 1.5320 -1.9847 0.9813
3.6205 2.1928 -1.9593 0.9815
2.8567 3.0210 -1.9246 0.9818
2.5611 3.2469 -1.9142 0.9819
2.2489 3.4456 -1.9046 0.9820
1.5846 3.7575 -1.8876 0.9822
1.2370 3.8683 -1.8799 0.9823
0.8825 3.9481 -1.8726 0.9823
0.5240 3.9987 -1.8668 0.9824
-0.5540 3.9752 -1.8578 0.9825
-1.2529 3.8108 -1.8568 0.9825
-1.5894 3.6847 -1.8575 0.9825
-2.2258 3.3502 -1.8618 0.9824
-2.7998 2.9128 -1.8701 0.9823
-3.0583 2.6586 -1.8757 0.9823
-3.2953 2.3826 -1.8823 0.9822
-1.2707 0.3484 -0.6099 0.9942
-1.2585 -0.0014 -0.5825 0.9945
-1.2736 -0.1159 -0.5920 0.9944
-1.2707 -0.3515 -0.6103 0.9942
-1.2591 -0.4732 -0.6226 0.9941
-1.2744 -0.6142 -0.6548 0.9938
-3.7605 -2.2474 -2.0278 0.9809
-3.5673 -2.5916 -2.0410 0.9808
-3.3421 -2.9187 -2.0539 0.9806
-2.8017 -3.5094 -2.0786 0.9804
-2.4903 -3.7668 -2.0902 0.9803
-1.4207 -4.3545 -2.1202 0.9800
-0.6263 -4.5704 -2.1354 0.9799
0.1993 -4.6314 -2.1458 0.9798
0.6138 -4.6021 -2.1491 0.9797
1.4259 -4.4242 -2.1516 0.9797
2.5419 -3.8752 -2.1452 0.9798
2.8721 -3.6241 -2.1405 0.9798
3.1759 -3.3432 -2.1345 0.9799
3.4506 -3.0354 -2.1273 0.9799
3.6939 -2.7040 -2.1190 0.9800
3.9039 -2.3523 -2.1097 0.9801
4.0790 -1.9839 -2.0996 0.9802
4.2180 -1.6026 -2.0886 0.9803
4.3203 -1.2120 -2.0770 0.9804
4.3855 -0.8158 -2.0648 0.9805
4.4053 -0.0209 -2.0392 0.9808
4.2823 0.7547 -2.0128 0.9810
4.0258 1.4861 -1.9864 0.9813
3.6490 2.1519 -1.9609 0.9815
2.8941 2.9894 -1.9260 0.9818
2.2907 3.4211 -1.9058 0.9820
1.9661 3.5953 -1.8968 0.9821
1.2831 3.8557 -1.8810 0.9822
0.9292 3.9393 -1.8735 0.9823
0.2111 4.0189 -1.8628 0.9824
-0.1491 4.0148 -1.8597 0.9824
-0.5073 3.9817 -1.8580 0.9825
-1.2080 3.8252 -1.8568 0.9825
-0.9185 -4.2256 -2.1212 0.9809
0.2384 -4.3502 -2.1371 0.9808
0.6275 -4.3173 -2.1400 0.9808
2.4305 -3.6120 -2.1356 0.9808
2.7380 -3.3728 -2.1309 0.9808
3.5013 -2.5003 -2.1104 0.9810
3.6955 -2.1679 -2.1016 0.9811
3.8569 -1.8202 -2.0920 0.9812
3.9844 -1.4605 -2.0816 0.9813
4.1357 -0.7192 -2.0591 0.9815
4.1484 0.0291 -2.0349 0.9817
4.1040 0.3977 -2.0225 0.9818
4.0269 0.7586 -2.0100 0.9819
3.7799 1.4460 -1.9852 0.9821
3.6131 1.7675 -1.9730 0.9822
3.4198 2.0712 -1.9612 0.9823
3.2020 2.3551 -1.9497 0.9824
2.9617 2.6173 -1.9388 0.9825
2.7010 2.8563 -1.9283 0.9826
2.4222 3.0708 -1.9185 0.9827
1.8193 3.4217 -1.9009 0.9829
1.4998 3.5564 -1.8933 0.9830
0.8363 3.7413 -1.8805 0.9831
-0.5250 3.7671 -1.8657 0.9832
-2.1083 3.1732 -1.8688 0.9832
-3.1194 2.2554 -1.8882 0.9830
-3.3211 1.9746 -1.8953 0.9829
-1.0892 0.5219 -0.5924 0.9946
-1.1441 0.1015 -0.5634 0.9949
-1.1441 -0.1041 -0.5635 0.9949
-1.1405 -0.2079 -0.5686 0.9948
-1.1325 -0.3133 -0.5764 0.9948
-1.0882 -0.5244 -0.5925 0.9946
-3.5451 -2.1187 -2.0259 0.9818
-3.3618 -2.4423 -2.0382 0.9817
-3.1484 -2.7496 -2.0504 0.9815
-2.6375 -3.3037 -2.0736 0.9813
-2.3435 -3.5448 -2.0845 0.9812
-2.0268 -3.7586 -2.0947 0.9812
-1.3359 -4.0945 -2.1126 0.9810
-0.5887 -4.2957 -2.1268 0.9809
0.9620 -4.2584 -2.1415 0.9807
1.7054 -4.0185 -2.1413 0.9807
2.0562 -3.8462 -2.1393 0.9808
2.3885 -3.6412 -2.1361 0.9808
2.6990 -3.4058 -2.1316 0.9808
2.9850 -3.1423 -2.1260 0.9809
3.4735 -2.5426 -2.1115 0.9810
4.1581 -0.3934 -2.0488 0.9816
4.0388 0.7118 -2.0116 0.9819
3.7997 1.4027 -1.9868 0.9821
3.2319 2.3190 -1.9512 0.9824
2.1670 3.2363 -1.9105 0.9828
1.5423 3.5403 -1.8942 0.9829
1.2149 3.6507 -1.8873 0.9830
0.5415 3.7860 -1.8760 0.9831
-0.1414 3.8063 -1.8684 0.9832
-1.1444 3.6237 -1.8640 0.9832
-0.8654 -3.9816 -2.1138 0.9818
-0.1427 -4.0933 -2.1248 0.9817
0.2245 -4.0972 -2.1287 0.9817
0.5910 -4.0658 -2.1314 0.9817
1.3073 -3.8989 -2.1334 0.9816
1.6503 -3.7648 -2.1325 0.9816
1.9786 -3.5987 -2.1305 0.9817
2.2892 -3.4021 -2.1273 0.9817
2.5792 -3.1771 -2.1230 0.9817
2.8458 -2.9261 -2.1175 0.9818
3.0868 -2.6517 -2.1111 0.9818
3.7583 -1.3777 -2.0766 0.9821
3.8472 -1.0307 -2.0663 0.9822
3.9034 -0.6788 -2.0554 0.9823
3.9269 -0.3250 -2.0442 0.9824
3.9180 0.0275 -2.0326 0.9825
3.8058 0.7169 -2.0091 0.9827
3.5748 1.3676 -1.9856 0.9829
3.4182 1.6722 -1.9741 0.9830
2.8045 2.4784 -1.9417 0.9833
2.5584 2.7056 -1.9318 0.9834
2.2950 2.9095 -1.9224 0.9834
2.0163 3.0892 -1.9137 0.9835
1.7246 3.2436 -1.9057 0.9836
0.7932 3.5485 -1.8863 0.9837
0.4713 3.5960 -1.8815 0.9838
-0.1765 3.6088 -1.8744 0.9839
-0.8154 3.5131 -1.8710 0.9839
-1.4286 3.3120 -1.8712 0.9839
-2.2656 2.8246 -1.8785 0.9838
-2.5149 2.6164 -1.8827 0.9838
-2.7462 2.3873 -1.8878 0.9837
-0.9604 0.5710 -0.5796 0.9950
-1.0060 0.3755 -0.5571 0.9952
-1.0193 0.2795 -0.5483 0.9952
-1.0376 0.0920 -0.5404 0.9953
-1.0296 -0.0012 -0.5341 0.9954
-1.0376 -0.0944 -0.5405 0.9953
-1.0192 -0.2820 -0.5486 0.9952
-1.0055 -0.3779 -0.5572 0.9952
-0.9762 -0.4705 -0.5622 0.9951
-0.9614 -0.5746 -0.5810 0.9950
-3.1748 -2.3064 -2.0358 0.9825
-0.9118 -3.9695 -2.1129 0.9818
-0.5546 -4.0470 -2.1191 0.9818
-0.1907 -4.0902 -2.1242 0.9817
0.1763 -4.0986 -2.1283 0.9817
0.9060 -4.0103 -2.1329 0.9816
1.2614 -3.9141 -2.1334 0.9816
1.6061 -3.7843 -2.1327 0.9816
1.9365 -3.6222 -2.1308 0.9817
2.5424 -3.2082 -2.1236 0.9817
2.8123 -2.9604 -2.1183 0.9818
3.4615 -2.0857 -2.0966 0.9820
3.6187 -1.7601 -2.0876 0.9820
3.7443 -1.4226 -2.0779 0.9821
3.8375 -1.0766 -2.0676 0.9822
3.9257 -0.3714 -2.0457 0.9824
3.9210 -0.0186 -2.0342 0.9825
3.8845 0.3304 -2.0225 0.9826
3.2616 1.9234 -1.9644 0.9831
2.8354 2.4470 -1.9430 0.9833
2.5917 2.6771 -1.9330 0.9833
2.0536 3.0670 -1.9149 0.9835
1.7635 3.2248 -1.9068 0.9836
1.4622 3.3566 -1.8994 0.9836
0.1899 3.6150 -1.8780 0.9838
-0.7741 3.5227 -1.8711 0.9839
-1.0859 3.4384 -1.8706 0.9839
-0.8171 -3.7593 -2.1071 0.9826
-0.1347 -3.8637 -2.1174 0.9825
0.2119 -3.8669 -2.1211 0.9825
0.5577 -3.8371 -2.1237 0.9825
1.2337 -3.6794 -2.1255 0.9825
1.8674 -3.3963 -2.1228 0.9825
2.6867 -2.7625 -2.1106 0.9826
2.9147 -2.5038 -2.1045 0.9826
3.1167 -2.2256 -2.0976 0.9827
3.2910 -1.9306 -2.0898 0.9827
1.8857 -0.3279 -1.0483 0.9913
1.8890 0.1831 -1.0394 0.9914
1.8842 0.3549 -1.0501 0.9913
1.8825 0.5327 -1.0715 0.9911
3.3867 1.2956 -1.9860 0.9836
3.2393 1.5847 -1.9751 0.9837
2.1779 2.7611 -1.9261 0.9841
1.9139 2.9322 -1.9178 0.9842
0.7534 3.3707 -1.8917 0.9844
-0.1677 3.4290 -1.8803 0.9845
-1.9006 2.8606 -1.8810 0.9845
-2.6085 2.2676 -1.8931 0.9844
-0.8657 0.5147 -0.5516 0.9954
-0.8933 0.4280 -0.5425 0.9955
-0.9117 0.3403 -0.5330 0.9956
-0.9474 0.0840 -0.5209 0.9957
-0.9410 -0.0011 -0.5154 0.9957
-0.9474 -0.0862 -0.5210 0.9957
-0.9413 -0.1716 -0.5241 0.9956
-3.0037 -2.1822 -2.0335 0.9832
-2.8113 -2.4552 -2.0443 0.9831
-2.5937 -2.7108 -2.0548 0.9830
-2.3523 -2.9464 -2.0650 0.9830
-2.0889 -3.1597 -2.0746 0.9829
-1.8056 -3.3484 -2.0836 0.9828
-1.5048 -3.5106 -2.0919 0.9827
-1.1890 -3.6443 -2.0995 0.9827
-0.1800 -3.8608 -2.1169 0.9825
0.1664 -3.8684 -2.1207 0.9825
0.5125 -3.8429 -2.1234 0.9825
0.8550 -3.7845 -2.1250 0.9825
1.1904 -3.6937 -2.1255 0.9825
1.5157 -3.5713 -2.1249 0.9825
2.6550 -2.7949 -2.1113 0.9826
3.4191 -1.6630 -2.0824 0.9828
1.8828 -0.5282 -1.0710 0.9911
1.8839 -0.3504 -1.0495 0.9913
1.8889 -0.1787 -1.0392 0.9914
1.8883 0.1606 -1.0380 0.9914
1.8853 0.3323 -1.0485 0.9913
3.4042 1.2567 -1.9875 0.9836
3.2601 1.5476 -1.9765 0.9837
2.9009 2.0815 -1.9555 0.9838
2.6893 2.3209 -1.9456 0.9839
2.2115 2.7369 -1.9272 0.9841
1.9492 2.9111 -1.9188 0.9841
1.6742 3.0615 -1.9111 0.9842
-0.1274 3.4314 -1.8807 0.9845
-0.7356 3.3475 -1.8772 0.9845
-0.7729 -3.5559 -2.1009 0.9833
-0.4528 -3.6200 -2.1063 0.9833
-0.1274 -3.6536 -2.1107 0.9833
0.2004 -3.6563 -2.1141 0.9832
0.5273 -3.6279 -2.1166 0.9832
1.1664 -3.4786 -2.1183 0.9832
1.4724 -3.3591 -2.1175 0.9832
1.7656 -3.2112 -2.1157 0.9832
2.0431 -3.0363 -2.1129 0.9832
2.3023 -2.8361 -2.1090 0.9833
2.9487 -2.1057 -2.0920 0.9834
3.1143 -1.8270 -2.0846 0.9835
1.7022 -0.6240 -1.0467 0.9917
1.7382 -0.3023 -1.0186 0.9919
1.7401 -0.1440 -1.0081 0.9920
1.7278 0.0121 -0.9976 0.9921
1.7360 0.3270 -1.0199 0.9919
1.7267 0.4887 -1.0361 0.9917
3.0744 1.5040 -1.9761 0.9843
2.9126 1.7640 -1.9660 0.9844
2.7294 2.0075 -1.9562 0.9845
2.3061 2.4387 -1.9378 0.9846
2.0696 2.6238 -1.9294 0.9847
1.8191 2.7871 -1.9215 0.9847
1.0033 3.1375 -1.9018 0.9849
0.7166 3.2060 -1.8966 0.9849
0.1332 3.2685 -1.8886 0.9850
-0.1596 3.2625 -1.8858 0.9850
-0.4504 3.2317 -1.8839 0.9850
-0.7373 3.1765 -1.8827 0.9851
-1.0183 3.0973 -1.8824 0.9851
-1.2917 2.9946 -1.8829 0.9850
-0.8575 0.3201 -0.5285 0.9958
-0.8677 0.2379 -0.5195 0.9959
-0.8778 -0.0010 -0.5068 0.9960
-0.8822 -0.0803 -0.5115 0.9959
-0.8787 -0.1602 -0.5157 0.9959
-0.8673 -0.2400 -0.5196 0.9959
-0.8388 -0.4043 -0.5376 0.9957
-0.8118 -0.4852 -0.5460 0.9956
-0.8017 -0.5825 -0.5721 0.9954
-2.6635 -2.3261 -2.0416 0.9838
-2.4566 -2.5675 -2.0516 0.9837
-2.2274 -2.7900 -2.0612 0.9836
-1.9775 -2.9912 -2.0702 0.9836
-1.7090 -3.1691 -2.0788 0.9835
-1.4239 -3.3219 -2.0867 0.9834
-1.1248 -3.4477 -2.0938 0.9834
-0.8143 -3.5452 -2.1001 0.9833
0.1574 -3.6577 -2.1138 0.9832
0.4846 -3.6334 -2.1163 0.9832
1.1255 -3.4921 -2.1183 0.9832
1.4330 -3.3764 -2.1177 0.9832
2.2695 -2.8637 -2.1096 0.9833
2.5110 -2.6433 -2.1049 0.9833
2.7301 -2.4016 -2.0993 0.9833
3.0941 -1.8643 -2.0856 0.9835
3.2361 -1.5740 -2.0776 0.9835
1.7403 0.1480 -1.0084 0.9920
1.7379 0.3063 -1.0188 0.9919
2.9351 1.7308 -1.9673 0.9844
2.7546 1.9766 -1.9574 0.9845
2.5543 2.2044 -1.9480 0.9845
2.1015 2.6008 -1.9305 0.9847
1.8527 2.7669 -1.9225 0.9847
1.3202 3.0306 -1.9085 0.9848
1.0405 3.1267 -1.9025 0.9849
0.7545 3.1984 -1.8973 0.9849
-0.9819 3.1090 -1.8824 0.9851
