ply
format ascii 1.0
element vertex 1522
property float32 x
property float32 y
property float32 z
property float32 I
end_header
7.6914 17.2176 3.3251 0.9263
3.6058 14.6200 2.6552 0.9407
0.8334 13.1092 2.3162 0.9480
-0.3121 12.1547 2.1439 0.9518
-5.2677 17.4517 3.2143 0.9286
-16.2305 3.4210 2.9248 0.9348
-13.6163 0.4007 2.4020 0.9462
-13.9870 -0.8366 2.4707 0.9447
-4.8657 -18.0844 3.3022 0.9268
14.8147 -11.8473 3.3448 0.9258
2.8342 14.3728 2.5831 0.9422
1.4284 13.4849 2.3911 0.9464
0.2032 12.4064 2.1879 0.9509
-1.9356 11.8476 2.1167 0.9524
-16.7406 4.2707 3.0464 0.9322
-13.6442 0.9768 2.4120 0.9460
-11.7416 -7.2417 2.4325 0.9455
7.6107 17.0368 2.8585 0.9273
5.5202 16.0656 2.6024 0.9336
3.6748 14.9001 2.3510 0.9398
2.1435 13.9331 2.1596 0.9446
-1.3525 11.7264 1.8083 0.9534
-15.1415 0.4456 2.3206 0.9405
-16.6770 -0.9975 2.5594 0.9346
6.4100 16.3798 2.6946 0.9313
4.4986 15.4203 2.4608 0.9371
2.8334 14.3687 2.2436 0.9425
0.2058 12.5688 1.9257 0.9504
-0.8749 11.9998 1.8432 0.9525
-3.6185 14.1063 2.2310 0.9428
-16.6320 4.2430 2.6295 0.9329
-16.2529 2.6333 2.5223 0.9355
-14.4324 -0.2554 2.2113 0.9433
-7.5440 -18.1441 3.0103 0.9236
7.4903 16.7674 2.3914 0.9286
0.8330 13.1025 1.7097 0.9484
-0.3166 12.3303 1.6062 0.9515
-2.6584 12.8510 1.7089 0.9484
-16.5043 0.4857 2.1501 0.9356
6.5288 16.6835 2.3330 0.9303
-0.8739 11.9863 1.5650 0.9527
-6.7318 -16.1907 2.2833 0.9317
7.6863 17.2061 2.0236 0.9270
5.5166 16.0551 1.8230 0.9340
3.6727 14.8913 1.6470 0.9402
2.1688 14.0972 1.5316 0.9442
-0.3252 12.6645 1.3604 0.9503
-1.3617 11.8065 1.2762 0.9533
-2.4175 11.6862 1.2814 0.9531
-5.1469 17.0513 1.9126 0.9309
16.3484 -10.8375 2.1062 0.9241
6.5299 16.6864 1.9241 0.9305
2.8667 14.5377 1.5911 0.9421
-1.9494 11.9323 1.2983 0.9525
-3.4677 13.5185 1.4986 0.9454
-11.7351 -7.2377 1.4805 0.9460
7.7375 17.3206 1.6059 0.9267
2.1682 14.0935 1.2071 0.9444
0.8428 13.2574 1.1245 0.9481
-0.3251 12.6615 1.0722 0.9504
-2.4080 11.6403 1.0062 0.9534
4.5499 15.5960 1.3753 0.9369
2.8659 14.5336 1.2540 0.9423
1.4647 13.8271 1.1771 0.9457
0.2129 12.9996 1.1006 0.9491
-3.2828 12.7977 1.1184 0.9483
-11.7330 -7.2364 1.1669 0.9462
-6.6745 -16.0529 1.4717 0.9326
2.1676 14.0897 0.8840 0.9445
-0.3250 12.6586 0.7852 0.9505
6.5322 16.6921 1.1115 0.9307
4.5485 15.5913 1.0071 0.9370
2.8651 14.5296 0.9183 0.9424
0.2129 12.9978 0.8061 0.9492
-0.8967 12.2981 0.7646 0.9518
-1.9486 11.9271 0.7494 0.9527
-3.2738 12.7625 0.8170 0.9486
-11.7309 -7.2350 0.8547 0.9463
13.6434 13.8811 0.7675 0.9250
7.8615 17.5982 0.7600 0.9257
-0.3250 12.6556 0.4992 0.9506
-1.3642 11.8277 0.4695 0.9535
-3.1481 15.2181 0.6128 0.9397
-4.3536 14.4235 0.5941 0.9415
-16.4362 0.4837 0.6484 0.9363
16.5951 -11.0011 0.7851 0.9234
14.0876 13.1764 0.7606 0.9257
6.5333 16.6949 0.7069 0.9307
-0.8965 12.2954 0.4861 0.9518
-2.4281 14.8625 0.5938 0.9415
-3.2515 12.6755 0.5160 0.9490
-11.7288 -7.2337 0.5434 0.9463
13.6453 13.8831 0.3288 0.9251
7.8586 17.5918 0.3255 0.9258
5.6812 16.5340 0.2953 0.9324
3.7827 15.3374 0.2668 0.9388
0.8422 13.2476 0.2242 0.9483
-3.1480 15.2177 0.2625 0.9397
-5.5584 18.4147 0.3249 0.9259
6.5344 16.6978 0.3029 0.9308
1.4703 13.8799 0.2358 0.9457
0.2128 12.9916 0.2195 0.9493
-2.4290 14.8678 0.2545 0.9415
-4.0293 15.7077 0.2739 0.9372
10.0962 12.2928 -0.0896 0.9384
5.5757 16.2270 -0.0966 0.9337
3.7126 15.0531 -0.0873 0.9399
2.1659 14.0785 -0.0802 0.9446
0.8420 13.2443 -0.0747 0.9483
-0.3248 12.6498 -0.0712 0.9506
-1.3636 11.8225 -0.0670 0.9535
-3.1479 15.2172 -0.0875 0.9397
-5.5612 18.4241 -0.1084 0.9259
-16.4601 0.4844 -0.0927 0.9363
14.0915 13.1800 -0.1086 0.9257
6.5355 16.7006 -0.1010 0.9308
4.5444 15.5772 -0.0914 0.9372
0.2127 12.9885 -0.0731 0.9494
-0.8961 12.2898 -0.0694 0.9519
-2.4298 14.8730 -0.0849 0.9415
-4.0310 15.7146 -0.0913 0.9372
-6.5877 -15.8442 -0.0966 0.9337
3.6353 14.7397 -0.4275 0.9411
0.8418 13.2410 -0.3736 0.9483
-0.3247 12.6468 -0.3562 0.9506
-3.1479 15.2168 -0.4375 0.9397
-16.4863 0.4852 -0.4644 0.9361
16.6060 -11.0083 -0.5610 0.9234
6.4658 16.5226 -0.4996 0.9315
0.2127 12.9854 -0.3657 0.9494
-0.8959 12.2870 -0.3469 0.9519
7.8502 17.5728 -0.9761 0.9258
5.4577 15.8836 -0.8518 0.9349
-0.3247 12.6439 -0.6414 0.9506
-3.1478 15.2164 -0.7880 0.9397
-16.5334 0.4866 -0.8388 0.9359
16.6097 -11.0108 -1.0106 0.9233
4.4483 15.2481 -0.8055 0.9384
1.4127 13.3365 -0.6801 0.9477
-4.0347 15.7287 -0.8235 0.9370
-6.5499 -15.7533 -0.8652 0.9340
7.6638 17.1557 -1.3777 0.9274
3.6332 14.7312 -1.1125 0.9410
2.1197 13.7784 -1.0221 0.9456
0.8241 12.9627 -0.9524 0.9492
-0.3246 12.6409 -0.9272 0.9505
-1.3627 11.8146 -0.8720 0.9534
-6.5292 8.5926 -0.7913 0.9576
-16.5551 0.4872 -1.2144 0.9357
-5.4834 -14.9295 -1.1662 0.9382
8.4243 -14.0665 -1.2022 0.9364
6.4615 16.5114 -1.3001 0.9314
2.8017 14.2077 -1.0618 0.9436
1.4123 13.3331 -0.9831 0.9476
-0.8955 12.2814 -0.9029 0.9518
-17.8515 4.5542 -1.3508 0.9288
-11.7187 -7.2275 -1.0095 0.9463
16.0513 11.3557 -1.8876 0.9240
15.1012 12.8459 -1.9034 0.9234
12.9511 13.1768 -1.7738 0.9284
9.7452 11.8654 -1.4741 0.9402
10.6038 15.5514 -1.8070 0.9272
9.2665 16.5941 -1.8247 0.9265
5.4542 15.8734 -1.6114 0.9348
3.6321 14.7269 -1.4562 0.9409
2.1192 13.7747 -1.3380 0.9455
-1.3560 11.7569 -1.1362 0.9536
-3.1360 15.1593 -1.4862 0.9397
-6.5134 8.5717 -1.0336 0.9577
-15.2065 0.4475 -1.4605 0.9407
-16.3047 -2.4459 -1.5828 0.9359
-6.4138 -13.5833 -1.4421 0.9414
-5.4851 -14.9341 -1.5274 0.9381
-4.9338 -18.3378 -1.8231 0.9265
-3.2501 -18.5258 -1.8057 0.9272
-1.6789 -19.8186 -1.9095 0.9232
5.2240 -18.7209 -1.8660 0.9249
6.8226 -18.0555 -1.8530 0.9254
8.4260 -14.0693 -1.5744 0.9362
12.5636 -12.0303 -1.6700 0.9325
14.4299 -9.5658 -1.6621 0.9328
16.8626 -3.9262 -1.6622 0.9328
17.1796 -2.4140 -1.6655 0.9327
17.3746 -0.8772 -1.6702 0.9325
18.6844 0.7237 -1.7951 0.9276
18.8249 2.4204 -1.8222 0.9266
17.8171 7.4355 -1.8535 0.9254
17.2037 9.0553 -1.8665 0.9249
16.4527 10.6311 -1.8806 0.9243
13.7272 12.8393 -1.8045 0.9273
10.3702 11.5961 -1.4935 0.9394
9.3333 12.5228 -1.4994 0.9392
8.5190 17.1010 -1.8342 0.9261
4.4456 15.2388 -1.5240 0.9382
1.4120 13.3296 -1.2869 0.9476
-2.0166 12.3432 -1.2007 0.9510
-3.9570 15.4259 -1.5289 0.9380
-11.6488 -7.1844 -1.3139 0.9465
-9.9021 -12.7189 -1.5475 0.9373
-6.2500 -15.0320 -1.5629 0.9367
-4.0441 -18.4554 -1.8139 0.9269
4.4479 -18.9898 -1.8725 0.9246
6.0770 -18.3851 -1.8590 0.9251
8.4305 -15.5220 -1.6958 0.9315
13.1110 9.2756 -1.9077 0.9374
12.3162 10.4769 -1.9207 0.9369
10.9310 11.1215 -1.8524 0.9391
6.3292 14.1682 -1.8433 0.9394
5.0835 14.7946 -1.8582 0.9389
3.6311 14.7226 -1.8012 0.9407
2.1186 13.7710 -1.6551 0.9454
0.8237 12.9562 -1.5421 0.9490
-0.3170 12.3446 -1.4668 0.9515
-1.3557 11.7543 -1.4055 0.9535
-4.7670 15.7930 -1.9596 0.9357
-6.1932 15.4026 -1.9720 0.9353
-7.5839 14.8759 -1.9834 0.9350
-12.3427 13.5462 -2.1769 0.9288
-13.5438 12.4338 -2.1840 0.9286
-14.6339 11.2066 -2.1895 0.9284
-15.6011 9.8764 -2.1933 0.9283
-16.4346 8.4563 -2.1955 0.9283
-17.6669 5.4050 -2.1946 0.9283
-16.7462 3.5298 -2.0329 0.9334
-16.9575 2.0203 -2.0286 0.9335
-16.0486 0.4723 -1.9072 0.9374
-16.9364 -1.0130 -2.0154 0.9339
-16.3834 -7.2453 -2.1279 0.9304
-11.0796 -10.8085 -1.8386 0.9396
-8.5921 -10.0242 -1.5683 0.9482
-7.1362 -12.1710 -1.6759 0.9448
-5.3501 -14.5666 -1.8433 0.9394
-2.8457 -16.2203 -1.9562 0.9358
0.0754 -16.2253 -1.9274 0.9367
1.5093 -16.0422 -1.9140 0.9372
5.5916 -14.7978 -1.8791 0.9383
6.8495 -14.1635 -1.8688 0.9386
7.4348 -12.4143 -1.7189 0.9434
8.4759 -11.6552 -1.7119 0.9436
10.3425 -9.9034 -1.7009 0.9440
11.1579 -8.9229 -1.6971 0.9441
12.5310 -6.7847 -1.6927 0.9442
13.0812 -5.6402 -1.6921 0.9442
13.8929 -3.2348 -1.6944 0.9442
15.4745 -0.7813 -1.8405 0.9395
15.5358 0.6018 -1.8468 0.9393
15.4750 1.9897 -1.8533 0.9391
15.2991 3.3736 -1.8610 0.9388
14.6018 6.0937 -1.8795 0.9383
13.4482 8.6896 -1.9019 0.9375
10.0676 11.2578 -1.7940 0.9410
6.8930 13.8371 -1.8363 0.9396
4.3998 15.0819 -1.8662 0.9387
-0.8745 11.9937 -1.4285 0.9527
-2.0173 12.3476 -1.4862 0.9509
-5.5242 15.6038 -1.9662 0.9355
-6.9334 15.1411 -1.9782 0.9351
-8.2996 14.5434 -1.9891 0.9348
-9.6086 13.8143 -1.9989 0.9345
-14.1345 11.7989 -2.1871 0.9285
-16.8180 7.6745 -2.1959 0.9282
-16.8763 2.7343 -2.0308 0.9335
-16.3490 1.1704 -1.9470 0.9361
-16.9944 -0.3007 -2.0190 0.9338
-17.8185 -3.5380 -2.1579 0.9294
-17.3413 -5.0838 -2.1466 0.9298
-16.7223 -6.5694 -2.1342 0.9302
-14.1030 -10.5399 -2.0914 0.9315
-13.0109 -11.6663 -2.0758 0.9320
-11.8286 -12.6800 -2.0598 0.9325
-8.5742 -13.3078 -1.8805 0.9382
-7.2959 -13.9055 -1.8653 0.9387
-4.7315 -15.0354 -1.8723 0.9385
-3.5378 -16.1451 -1.9633 0.9356
-2.0703 -16.2707 -1.9483 0.9361
0.8363 -16.1436 -1.9202 0.9370
2.2552 -15.8972 -1.9073 0.9374
4.9777 -15.0592 -1.8840 0.9381
6.2647 -14.4774 -1.8738 0.9384
6.9211 -12.7430 -1.7225 0.9433
10.3898 8.8382 -1.9327 0.9464
9.6183 9.7859 -1.9442 0.9461
7.2330 10.6079 -1.8192 0.9495
6.3013 11.2842 -1.8312 0.9491
5.3070 11.8799 -1.8436 0.9488
3.1581 12.8051 -1.8687 0.9481
0.8235 12.9530 -1.8390 0.9489
-0.3169 12.3417 -1.7493 0.9513
-7.3860 11.7646 -1.9682 0.9454
-6.5139 8.5724 -1.5255 0.9574
-10.1994 11.1939 -2.1457 0.9407
-12.0806 9.2513 -2.1560 0.9404
-12.8751 8.1507 -2.1591 0.9403
-13.5607 6.9776 -2.1608 0.9402
-14.1303 5.7433 -2.1612 0.9402
-14.5784 4.4601 -2.1601 0.9403
-14.9007 3.1408 -2.1577 0.9403
-15.0944 1.7983 -2.1538 0.9404
-14.0001 -0.8374 -1.9872 0.9449
-13.5259 -3.2822 -1.9721 0.9453
-13.1198 -4.4531 -1.9631 0.9456
-12.6077 -5.5755 -1.9533 0.9458
-11.9958 -6.6398 -1.9427 0.9461
-9.7880 -7.9778 -1.7892 0.9503
-8.7049 -10.1558 -1.8952 0.9474
-7.7145 -10.8182 -1.8826 0.9477
-6.8521 -11.6865 -1.9195 0.9467
-4.8393 -13.1759 -1.9888 0.9449
-3.6226 -13.4643 -1.9756 0.9452
0.0636 -13.6801 -1.9383 0.9462
3.6163 -12.9597 -1.9064 0.9471
5.8040 -12.0017 -1.8889 0.9476
6.7342 -11.2444 -1.8571 0.9484
8.0177 -9.1799 -1.7269 0.9520
8.7816 -8.4089 -1.7227 0.9521
9.4772 -7.5789 -1.7194 0.9522
10.6477 -5.7650 -1.7156 0.9523
11.5017 -3.7850 -1.7156 0.9523
12.6774 -2.9518 -1.8443 0.9488
13.0090 -1.8280 -1.8613 0.9483
13.1456 -0.6637 -1.8650 0.9482
13.1852 0.5107 -1.8696 0.9481
13.1265 1.6878 -1.8752 0.9479
11.9084 6.2681 -1.9068 0.9471
8.7575 9.7927 -1.8614 0.9483
6.7488 10.9748 -1.8255 0.9493
5.7833 11.6094 -1.8377 0.9490
3.6819 12.6207 -1.8628 0.9483
2.5607 12.9857 -1.8754 0.9479
0.2075 12.6716 -1.7957 0.9501
-0.8743 11.9909 -1.7035 0.9526
-3.3935 13.2290 -1.9351 0.9463
-4.5826 12.9442 -1.9456 0.9460
-5.7457 12.5475 -1.9554 0.9458
-9.7023 11.5918 -2.1418 0.9408
-11.6705 9.7421 -2.1540 0.9404
-12.5135 8.6795 -2.1578 0.9403
-13.2514 7.5391 -2.1602 0.9403
-15.0192 2.4334 -2.1558 0.9404
-14.9242 1.0684 -2.1200 0.9413
-13.6791 -2.7161 -1.9760 0.9452
-12.8620 -5.0529 -1.9580 0.9457
-10.6715 -6.5816 -1.7765 0.9506
-10.8846 -8.1346 -1.9253 0.9466
-8.8864 -9.5260 -1.8458 0.9487
-8.1882 -10.5175 -1.8886 0.9476
-7.1939 -11.1654 -1.8820 0.9478
-2.9742 -13.5727 -1.9687 0.9454
-1.7425 -13.6950 -1.9561 0.9458
0.7055 -13.6191 -1.9323 0.9464
1.9045 -13.4254 -1.9213 0.9467
3.0758 -13.1318 -1.9110 0.9470
4.2117 -12.7419 -1.9015 0.9472
8.9768 7.6362 -1.9415 0.9533
6.2333 9.1417 -1.8228 0.9561
5.4253 9.7156 -1.8332 0.9559
3.6582 10.6466 -1.8546 0.9554
2.7114 10.9938 -1.8654 0.9551
1.7317 11.2562 -1.8762 0.9549
0.7267 11.4302 -1.8868 0.9546
-0.2956 11.5128 -1.8972 0.9544
-3.3789 11.1940 -1.9263 0.9537
-4.3817 10.8972 -1.9349 0.9535
-5.3565 10.5067 -1.9428 0.9533
-8.6821 9.5287 -2.1236 0.9491
-9.5178 8.7377 -2.1285 0.9490
-10.9496 6.9318 -2.1349 0.9488
-11.5313 5.9333 -2.1364 0.9488
-12.0154 4.8837 -2.1367 0.9488
-12.3973 3.7928 -2.1358 0.9488
-12.6735 2.6713 -2.1337 0.9488
-12.8417 1.5299 -2.1305 0.9489
-12.9006 0.3796 -2.1262 0.9490
-12.3441 -2.9954 -2.0926 0.9498
-11.1359 -4.9246 -2.0059 0.9518
-9.9792 -6.7497 -1.9847 0.9523
-9.3974 -7.6594 -1.9972 0.9520
-8.8013 -8.5859 -2.0256 0.9514
-8.0455 -9.3864 -2.0366 0.9511
-7.1368 -10.0081 -2.0250 0.9514
-6.1814 -10.5425 -2.0133 0.9517
-5.1878 -10.9869 -2.0016 0.9519
-3.1205 -11.5981 -1.9786 0.9525
-2.0638 -11.7634 -1.9675 0.9527
-1.0026 -11.8353 -1.9567 0.9530
1.1011 -11.7036 -1.9366 0.9535
5.9161 -9.8784 -1.8969 0.9544
6.7374 -9.2646 -1.8871 0.9546
7.2457 -8.2960 -1.8146 0.9563
7.6808 -7.3548 -1.7519 0.9578
10.2839 -4.4341 -1.8449 0.9556
11.0967 -2.5837 -1.8770 0.9549
11.2964 -1.5873 -1.8793 0.9548
11.4427 0.4432 -1.8865 0.9546
11.3874 1.4641 -1.8914 0.9545
11.2457 2.4798 -1.8971 0.9544
11.0180 3.4832 -1.9036 0.9542
10.3077 5.4255 -1.9189 0.9539
9.2679 7.2350 -1.9369 0.9535
8.6306 8.0723 -1.9468 0.9532
7.9126 8.8480 -1.9554 0.9530
6.5946 8.8481 -1.8179 0.9562
5.8132 9.4534 -1.8282 0.9560
4.9769 9.9907 -1.8388 0.9558
4.0913 10.4547 -1.8495 0.9555
3.1625 10.8404 -1.8603 0.9553
1.2033 11.3594 -1.8818 0.9547
0.1881 11.4854 -1.8924 0.9545
-0.8399 11.5188 -1.9026 0.9543
-2.8989 11.3010 -1.9220 0.9538
-3.9117 11.0490 -1.9309 0.9536
-4.9008 10.7024 -1.9392 0.9534
-5.8570 10.2633 -1.9467 0.9532
-9.1329 9.1208 -2.1263 0.9490
-10.6431 7.3821 -2.1338 0.9488
-12.2302 4.3118 -2.1363 0.9488
-12.5566 3.2034 -2.1348 0.9488
-12.7759 2.0700 -2.1321 0.9489
-12.8864 0.9225 -2.1283 0.9490
-12.8877 -0.2280 -2.1234 0.9491
-12.5664 -2.4952 -2.1106 0.9494
-9.0848 -8.1459 -2.0102 0.9517
-4.6504 -11.1846 -1.9955 0.9521
-3.6150 -11.4877 -1.9840 0.9524
-0.4429 -11.8359 -1.9512 0.9531
0.6096 -11.7672 -1.9411 0.9534
1.6468 -11.6089 -1.9316 0.9536
2.6615 -11.3632 -1.9226 0.9538
4.5965 -10.6223 -1.9067 0.9542
5.5042 -10.1342 -1.8999 0.9543
8.4250 5.9603 -1.9398 0.9589
6.6338 8.0771 -1.9646 0.9584
5.4714 8.0243 -1.8255 0.9612
4.7589 8.5221 -1.8346 0.9611
0.6351 9.9902 -1.8816 0.9601
-1.1579 10.0390 -1.8994 0.9597
-2.0562 9.9399 -1.9079 0.9595
-5.4779 8.7252 -1.9364 0.9589
-6.2507 8.2260 -1.9419 0.9588
-8.2748 7.5966 -2.1114 0.9553
-10.7735 3.2960 -2.1176 0.9552
-11.0149 2.3217 -2.1159 0.9552
-11.1632 1.3300 -2.1131 0.9553
-11.1776 -0.6685 -2.1047 0.9554
-11.0445 -1.6568 -2.0992 0.9556
-10.5078 -3.5665 -2.0857 0.9558
-9.0811 -6.1422 -2.0607 0.9564
-8.4596 -6.8950 -2.0513 0.9566
-6.2444 -8.7567 -2.0215 0.9572
-2.7382 -10.1771 -1.9809 0.9580
-1.8121 -10.3292 -1.9711 0.9582
0.0483 -10.3880 -1.9525 0.9586
1.8737 -10.1264 -1.9357 0.9590
5.2176 -8.7121 -1.9088 0.9595
7.2849 -6.9756 -1.8958 0.9598
7.8607 -6.2862 -1.8918 0.9599
8.8414 -4.7870 -1.8898 0.9599
9.2306 -3.9799 -1.8894 0.9599
9.5505 -3.1429 -1.8898 0.9599
9.7988 -2.2815 -1.8911 0.9599
9.9737 -1.4015 -1.8931 0.9598
10.0739 -0.5086 -1.8959 0.9598
10.0983 0.3912 -1.8995 0.9597
10.0464 1.2917 -1.9039 0.9596
9.4329 3.9366 -1.9212 0.9593
9.0783 4.7784 -1.9283 0.9591
8.6510 5.5899 -1.9360 0.9589
8.1534 6.3649 -1.9442 0.9588
7.5881 7.0972 -1.9529 0.9586
3.5848 9.1604 -1.8489 0.9608
2.7690 9.4915 -1.8584 0.9606
1.9226 9.7497 -1.8678 0.9604
1.0520 9.9316 -1.8772 0.9602
0.1643 10.0348 -1.8864 0.9600
-1.6332 9.9970 -1.9039 0.9596
-2.5277 9.8541 -1.9122 0.9594
-5.0988 8.9346 -1.9336 0.9590
-5.8918 8.4706 -1.9394 0.9589
-9.2501 6.4159 -2.1159 0.9552
-10.2534 4.6789 -2.1184 0.9552
-10.6279 3.7469 -2.1181 0.9552
-10.9126 2.7839 -2.1168 0.9552
-11.2036 0.8021 -2.1112 0.9553
-11.1188 -1.1926 -2.1019 0.9555
-9.8681 -4.9321 -2.0736 0.9561
-9.3505 -5.7670 -2.0649 0.9563
-8.1054 -7.2677 -2.0462 0.9567
-7.3903 -7.9223 -2.0364 0.9569
-6.6227 -8.5066 -2.0263 0.9571
-5.8096 -9.0169 -2.0161 0.9573
-4.0763 -9.8040 -1.9957 0.9577
-3.1710 -10.0768 -1.9856 0.9579
-1.3203 -10.3764 -1.9661 0.9583
0.5362 -10.3495 -1.9479 0.9587
1.4493 -10.2162 -1.9395 0.9589
2.3436 -10.0056 -1.9316 0.9590
4.0514 -9.3625 -1.9175 0.9593
4.8535 -8.9361 -1.9114 0.9595
7.0395 5.9882 -1.9536 0.9629
5.9146 7.2014 -1.9698 0.9626
4.2343 7.5827 -1.8358 0.9651
3.5583 7.9655 -1.8441 0.9650
2.8478 8.2882 -1.8525 0.9648
2.1081 8.5474 -1.8609 0.9646
0.5635 8.8640 -1.8775 0.9643
-0.2290 8.9170 -1.8855 0.9642
-1.0263 8.8977 -1.8933 0.9640
-1.8216 8.8055 -1.9007 0.9639
-4.8444 7.7162 -1.9259 0.9634
-5.5261 7.2724 -1.9307 0.9633
-7.8912 6.0430 -2.1010 0.9602
-9.5164 2.9114 -2.1036 0.9601
-9.7306 2.0510 -2.1020 0.9602
-9.8631 1.1751 -2.0996 0.9602
-9.9131 0.2917 -2.0963 0.9603
-9.8804 -0.5909 -2.0922 0.9603
-9.7658 -1.4650 -2.0874 0.9604
-9.5709 -2.3225 -2.0818 0.9605
-8.0467 -5.4426 -2.0535 0.9611
-6.8968 -6.7280 -2.0366 0.9614
-6.2432 -7.2837 -2.0278 0.9615
-5.5452 -7.7761 -2.0188 0.9617
-4.0413 -8.5587 -2.0007 0.9620
-2.4370 -9.0578 -1.9827 0.9624
-1.6137 -9.1982 -1.9740 0.9625
1.6719 -9.0354 -1.9423 0.9631
3.2259 -8.5372 -1.9291 0.9634
3.9614 -8.1915 -1.9234 0.9635
5.9432 -6.8047 -1.9097 0.9637
7.0348 -5.6257 -1.9040 0.9638
7.5006 -4.9723 -1.9022 0.9639
7.9091 -4.2822 -1.9011 0.9639
8.2574 -3.5603 -1.9008 0.9639
8.7648 -2.0408 -1.9023 0.9639
8.9203 -1.2535 -1.9041 0.9638
9.0285 0.3497 -1.9099 0.9637
8.9799 1.1546 -1.9138 0.9637
6.7641 6.3265 -1.9577 0.9628
6.1996 6.9324 -1.9659 0.9627
5.5743 7.4792 -1.9717 0.9626
3.1869 8.1437 -1.8485 0.9649
1.7072 8.6577 -1.8653 0.9646
0.1458 8.9009 -1.8817 0.9643
-0.6501 8.9159 -1.8896 0.9641
-3.0176 8.5237 -1.9113 0.9637
-4.5099 7.9028 -1.9234 0.9635
-7.0177 7.0085 -2.0965 0.9603
-7.6257 6.3656 -2.0997 0.9602
-9.3875 3.3096 -2.1040 0.9601
-9.8998 0.7087 -2.0980 0.9602
-8.2835 -5.1089 -2.0572 0.9610
-7.1879 -6.4450 -2.0407 0.9613
-6.5573 -7.0293 -2.0320 0.9615
-5.1605 -8.0096 -2.0140 0.9618
-3.6250 -8.7186 -1.9959 0.9621
-2.8216 -8.9662 -1.9869 0.9623
-2.0031 -9.1411 -1.9781 0.9625
-1.1760 -9.2429 -1.9695 0.9626
-0.3469 -9.2716 -1.9612 0.9628
0.4781 -9.2282 -1.9533 0.9629
1.2928 -9.1136 -1.9457 0.9631
2.0915 -8.9296 -1.9386 0.9632
2.8686 -8.6784 -1.9320 0.9633
4.3364 -7.9841 -1.9205 0.9635
6.7770 4.7945 -1.9510 0.9665
6.3453 5.3977 -1.9579 0.9663
5.3270 6.4859 -1.9726 0.9661
2.5603 7.4514 -1.8517 0.9681
1.2078 7.8506 -1.8668 0.9679
0.5059 7.9583 -1.8742 0.9678
-0.2055 8.0024 -1.8814 0.9676
-1.6334 7.8958 -1.8950 0.9674
-2.3377 7.7446 -1.9013 0.9673
-5.9728 6.5552 -2.0842 0.9642
-6.5431 6.0068 -2.0875 0.9642
-7.5203 4.7608 -2.0918 0.9641
-8.8716 0.2611 -2.0859 0.9642
-8.7437 -1.3116 -2.0780 0.9643
-8.3299 -2.8273 -2.0674 0.9645
-8.0213 -3.5473 -2.0613 0.9646
-7.2169 -4.8813 -2.0477 0.9648
-6.7292 -5.4847 -2.0403 0.9650
-5.6065 -6.5410 -2.0247 0.9652
-4.3226 -7.3722 -2.0085 0.9655
-3.6341 -7.6964 -2.0003 0.9656
-2.9225 -7.9569 -1.9922 0.9658
-1.4531 -8.2826 -1.9763 0.9660
-0.7071 -8.3468 -1.9687 0.9662
2.9114 -7.7048 -1.9358 0.9667
4.8091 -6.6130 -1.9217 0.9670
5.3690 -6.1473 -1.9182 0.9670
6.3569 -5.0836 -1.9130 0.9671
6.7786 -4.4936 -1.9114 0.9671
7.4630 -3.2178 -1.9101 0.9672
8.1394 -0.4109 -1.9154 0.9671
8.1562 0.3159 -1.9183 0.9670
8.1107 1.0428 -1.9219 0.9670
8.0028 1.7647 -1.9260 0.9669
7.8330 2.4763 -1.9307 0.9668
6.5557 5.1177 -1.9546 0.9664
5.5848 6.2449 -1.9690 0.9662
5.0259 6.7435 -1.9766 0.9660
1.5338 7.7782 -1.8633 0.9679
0.1308 7.9896 -1.8780 0.9677
-4.6643 6.7058 -1.9198 0.9670
-7.3109 5.0709 -2.0911 0.9641
-8.1019 3.6971 -2.0930 0.9641
-8.3980 2.9607 -2.0928 0.9641
-8.6241 2.2001 -2.0918 0.9641
-6.9658 -5.2059 -2.0438 0.9649
-6.4507 -5.7840 -2.0363 0.9650
-4.6375 -7.1978 -2.0124 0.9654
-3.9620 -7.5513 -2.0042 0.9656
-3.2606 -7.8421 -1.9960 0.9657
-2.5391 -8.0685 -1.9880 0.9658
-0.3126 -8.3541 -1.9648 0.9662
1.1658 -8.2182 -1.9508 0.9665
1.8867 -8.0552 -1.9444 0.9666
3.9153 -7.2088 -1.9280 0.9669
6.1648 4.3614 -1.9552 0.9693
5.7703 4.9085 -1.9615 0.9692
4.3122 6.3242 -1.9819 0.9689
2.3233 6.7615 -1.8511 0.9709
-0.1862 7.2507 -1.8780 0.9705
-0.8338 7.2295 -1.8843 0.9704
-2.1160 7.0102 -1.8960 0.9702
-2.7394 6.8130 -1.9013 0.9701
-3.3437 6.5587 -1.9061 0.9700
-3.9235 6.2493 -1.9105 0.9700
-4.8284 6.3543 -2.0663 0.9676
-5.3999 5.9265 -2.0759 0.9674
-6.3816 4.8870 -2.0811 0.9673
-7.1558 3.6820 -2.0836 0.9673
-7.4558 3.0304 -2.0838 0.9673
-7.6940 2.3539 -2.0833 0.9673
-7.8683 1.6585 -2.0820 0.9673
-7.9773 0.9504 -2.0801 0.9674
-8.0201 0.2360 -2.0774 0.9674
-7.9966 -0.4783 -2.0742 0.9674
-7.9073 -1.1862 -2.0703 0.9675
-7.7535 -1.8814 -2.0658 0.9676
-6.9247 -3.8329 -2.0493 0.9678
-6.0961 -4.9686 -2.0363 0.9680
-5.6103 -5.4730 -2.0293 0.9681
-5.0827 -5.9298 -2.0222 0.9682
-4.5181 -6.3359 -2.0149 0.9684
-3.9216 -6.6884 -2.0075 0.9685
-2.6534 -7.2243 -1.9927 0.9687
-1.9923 -7.4047 -1.9854 0.9688
-1.3203 -7.5256 -1.9783 0.9689
0.0353 -7.5878 -1.9646 0.9691
2.0207 -7.2413 -1.9465 0.9694
3.2562 -6.7333 -1.9365 0.9696
4.8914 -5.6004 -1.9253 0.9697
5.3632 -5.1355 -1.9226 0.9698
6.1775 -4.0952 -1.9190 0.9698
6.5146 -3.5272 -1.9181 0.9699
7.0370 -2.3158 -1.9181 0.9699
7.3455 -1.0322 -1.9206 0.9698
7.4164 -0.3744 -1.9227 0.9698
7.4306 0.2878 -1.9254 0.9697
7.3879 0.9499 -1.9286 0.9697
7.1321 2.2547 -1.9367 0.9696
6.9201 2.8879 -1.9415 0.9695
6.3335 4.0925 -1.9524 0.9693
5.9624 4.6546 -1.9585 0.9692
5.5424 5.1839 -1.9649 0.9691
5.0760 5.6761 -1.9716 0.9690
2.6009 6.6463 -1.8479 0.9709
2.0062 6.8768 -1.8548 0.9708
1.3910 7.0540 -1.8616 0.9707
0.7601 7.1757 -1.8683 0.9706
0.1186 7.2404 -1.8749 0.9705
-3.0615 6.6856 -1.9039 0.9701
-3.6535 6.4020 -1.9085 0.9700
-4.3426 6.2433 -1.9691 0.9691
-5.1419 6.1432 -2.0742 0.9674
-6.1676 5.1485 -2.0802 0.9673
-6.6076 4.5831 -2.0821 0.9673
-6.9936 3.9789 -2.0833 0.9673
-7.7942 1.9884 -2.0827 0.9673
-8.0082 0.5733 -2.0788 0.9674
-8.0159 -0.1418 -2.0758 0.9674
-7.9575 -0.8535 -2.0722 0.9675
-7.8340 -1.5555 -2.0680 0.9675
-7.0896 -3.5434 -2.0521 0.9678
-6.3094 -4.7154 -2.0394 0.9680
-5.8449 -5.2408 -2.0326 0.9681
-5.3364 -5.7205 -2.0256 0.9682
-4.2066 -6.5290 -2.0110 0.9684
-3.5953 -6.8523 -2.0036 0.9685
-2.9599 -7.1188 -1.9962 0.9686
-2.3057 -7.3270 -1.9888 0.9688
-1.6382 -7.4760 -1.9816 0.9689
-0.9626 -7.5652 -1.9746 0.9690
-0.2842 -7.5946 -1.9678 0.9691
0.3919 -7.5645 -1.9612 0.9692
2.3560 -7.1278 -1.9437 0.9695
3.5654 -6.5646 -1.9342 0.9696
5.6485 3.9961 -1.9588 0.9716
4.8792 4.9642 -1.9705 0.9715
3.4237 6.1310 -1.9879 0.9712
1.0007 6.5046 -1.8631 0.9730
0.4189 6.5894 -1.8692 0.9729
-0.7613 6.6002 -1.8809 0.9728
-1.3498 6.5252 -1.8863 0.9727
-1.9308 6.3965 -1.8915 0.9726
-2.4990 6.2150 -1.8963 0.9725
-3.0496 5.9818 -1.9008 0.9725
-3.7542 5.9796 -1.9988 0.9711
-4.4131 5.8078 -2.0649 0.9701
-4.9223 5.4022 -2.0690 0.9701
-5.3907 4.9489 -2.0716 0.9700
-6.1936 3.9209 -2.0752 0.9700
-6.5206 3.3552 -2.0760 0.9700
-6.7940 2.7614 -2.0761 0.9700
-7.2704 0.8662 -2.0727 0.9700
-7.2898 -0.4360 -2.0674 0.9701
-7.0707 -1.7158 -2.0597 0.9702
-5.5663 -4.5368 -2.0329 0.9706
-5.1242 -4.9988 -2.0265 0.9707
-4.6437 -5.4177 -2.0200 0.9708
-4.1292 -5.7905 -2.0134 0.9709
-3.0163 -6.3879 -1.9998 0.9711
-2.4273 -6.6087 -1.9931 0.9712
-1.8231 -6.7759 -1.9864 0.9713
1.2571 -6.7940 -1.9560 0.9717
1.8521 -6.6374 -1.9508 0.9718
2.4298 -6.4302 -1.9460 0.9718
2.9859 -6.1744 -1.9416 0.9719
4.9209 -4.7120 -1.9288 0.9721
5.6690 -3.7580 -1.9255 0.9721
6.4579 -2.1252 -1.9246 0.9721
6.7404 -0.9471 -1.9269 0.9721
6.8048 -0.3436 -1.9288 0.9721
6.8171 0.2641 -1.9313 0.9720
6.7769 0.8714 -1.9343 0.9720
6.3443 2.6476 -1.9461 0.9718
6.0984 3.2099 -1.9510 0.9718
5.4623 4.2642 -1.9617 0.9716
5.0761 4.7478 -1.9676 0.9715
4.6477 5.1971 -1.9738 0.9714
4.1799 5.6083 -1.9801 0.9713
3.1296 6.2823 -1.9869 0.9712
2.3785 6.0779 -1.8477 0.9732
-2.7925 6.0981 -1.8987 0.9725
-3.3402 5.8531 -1.9078 0.9724
-4.1526 5.9702 -2.0587 0.9702
-5.6210 4.6922 -2.0728 0.9700
-6.0215 4.1766 -2.0746 0.9700
-7.1027 1.8120 -2.0751 0.9700
-7.2307 1.1715 -2.0737 0.9700
-7.2548 -0.7782 -2.0656 0.9701
-6.9740 -2.0445 -2.0574 0.9702
-6.7485 -2.6511 -2.0526 0.9703
-6.4690 -3.2332 -2.0473 0.9704
-5.7603 -4.3049 -2.0358 0.9705
-4.8748 -5.2257 -2.0231 0.9707
-1.4993 -6.8422 -1.9829 0.9713
-0.8813 -6.9259 -1.9765 0.9714
-0.2602 -6.9548 -1.9702 0.9715
0.3590 -6.9293 -1.9643 0.9716
0.9717 -6.8498 -1.9586 0.9716
1.5734 -6.7176 -1.9532 0.9717
2.1598 -6.5341 -1.9482 0.9718
3.2698 -6.0202 -1.9394 0.9719
5.2069 3.6837 -1.9618 0.9737
4.8712 4.1438 -1.9671 0.9736
4.4956 4.5739 -1.9726 0.9735
3.6344 5.3302 -1.9843 0.9734
2.6420 5.9142 -1.9923 0.9733
2.0292 5.9058 -1.9207 0.9742
1.4449 5.8585 -1.8559 0.9751
0.9203 5.9822 -1.8616 0.9750
0.3852 6.0585 -1.8672 0.9749
-1.2402 5.9950 -1.8830 0.9747
-1.7735 5.8756 -1.8877 0.9746
-2.9122 5.7122 -1.9721 0.9735
-3.5487 5.6523 -2.0528 0.9725
-4.5175 4.9580 -2.0631 0.9723
-4.9469 4.5415 -2.0655 0.9723
-5.6829 3.5976 -2.0688 0.9722
-6.6715 0.7948 -2.0665 0.9723
-6.7087 0.1974 -2.0643 0.9723
-6.6908 -0.4002 -2.0616 0.9723
-6.6181 -0.9928 -2.0584 0.9724
-6.4917 -1.5753 -2.0546 0.9724
-6.3127 -2.1426 -2.0505 0.9725
-5.4819 -3.7078 -2.0356 0.9727
-4.7108 -4.5955 -2.0242 0.9728
-4.2702 -4.9819 -2.0182 0.9729
-2.7759 -5.8788 -1.9996 0.9732
-1.1131 -6.3446 -1.9813 0.9734
-0.5421 -6.3995 -1.9754 0.9735
0.0298 -6.4040 -1.9697 0.9736
0.5982 -6.3584 -1.9643 0.9736
1.1590 -6.2635 -1.9592 0.9737
1.7079 -6.1204 -1.9544 0.9738
2.2409 -5.9305 -1.9500 0.9738
3.2445 -5.4175 -1.9423 0.9739
4.1412 -4.7415 -1.9363 0.9740
4.5416 -4.3488 -1.9340 0.9740
4.9063 -3.9235 -1.9323 0.9741
5.2327 -3.4688 -1.9310 0.9741
5.5186 -2.9879 -1.9302 0.9741
5.9611 -1.9617 -1.9302 0.9741
6.1146 -1.4237 -1.9310 0.9741
6.2213 -0.8742 -1.9323 0.9741
6.2532 0.8040 -1.9392 0.9740
5.6233 2.9599 -1.9546 0.9738
5.3506 3.4573 -1.9594 0.9737
5.0346 3.9303 -1.9645 0.9736
4.2817 4.7879 -1.9756 0.9735
3.8498 5.1654 -1.9815 0.9734
3.3848 5.5044 -1.9875 0.9733
2.3532 6.0133 -1.9861 0.9733
1.1693 5.9297 -1.8590 0.9750
0.6386 6.0285 -1.8646 0.9749
0.0996 6.0794 -1.8701 0.9749
-1.5232 5.9380 -1.8855 0.9747
-2.5849 5.6450 -1.9097 0.9744
-4.3023 5.1402 -2.0617 0.9723
-5.1580 4.3057 -2.0666 0.9723
-5.5252 3.8323 -2.0682 0.9723
-6.1216 2.7934 -2.0696 0.9722
-6.3455 2.2371 -2.0695 0.9722
-6.5171 1.6626 -2.0687 0.9722
-6.6349 1.0750 -2.0674 0.9723
-6.6980 0.4795 -2.0654 0.9723
-6.5579 -1.3021 -2.0565 0.9724
-5.9422 -2.9699 -2.0433 0.9726
-5.2936 -3.9562 -2.0327 0.9727
-3.0250 -5.7654 -2.0026 0.9731
-1.9423 -6.1721 -1.9902 0.9733
-0.2398 -6.4081 -1.9724 0.9735
0.8957 -6.3143 -1.9616 0.9737
2.5149 -5.8118 -1.9478 0.9738
4.5125 3.8386 -1.9693 0.9753
4.1636 4.2362 -1.9744 0.9753
3.7801 4.6025 -1.9798 0.9752
2.9202 5.2293 -1.9909 0.9751
1.4092 5.7138 -1.9562 0.9755
-0.1445 5.6256 -1.8706 0.9766
-2.7927 5.4778 -2.0438 0.9744
-3.2825 5.2283 -2.0521 0.9743
-4.1699 4.5765 -2.0580 0.9742
-4.9251 3.7716 -2.0620 0.9742
-5.2445 3.3201 -2.0632 0.9742
-6.0719 1.2798 -2.0627 0.9742
-6.1573 0.7336 -2.0612 0.9742
-6.1921 0.1822 -2.0592 0.9742
-6.1762 -0.3694 -2.0567 0.9743
-6.1099 -0.9165 -2.0537 0.9743
-5.8297 -1.9787 -2.0464 0.9744
-5.6187 -2.4847 -2.0422 0.9744
-5.3630 -2.9685 -2.0376 0.9745
-5.0652 -3.4260 -2.0327 0.9746
-4.3546 -4.2480 -2.0222 0.9747
-3.5125 -4.9256 -2.0110 0.9748
-2.5683 -5.4393 -1.9995 0.9750
-2.0679 -5.6301 -1.9937 0.9750
0.5542 -5.8907 -1.9668 0.9754
3.0083 -5.0232 -1.9463 0.9756
3.4384 -4.7281 -1.9433 0.9757
4.2124 -4.0336 -1.9386 0.9757
4.8539 -3.2177 -1.9358 0.9758
5.1193 -2.7717 -1.9351 0.9758
5.3451 -2.3046 -1.9349 0.9758
5.6720 -1.3207 -1.9358 0.9758
5.7987 0.7456 -1.9434 0.9757
5.4237 2.2635 -1.9536 0.9755
5.2117 2.7432 -1.9577 0.9755
4.9580 3.2037 -1.9622 0.9754
3.1332 5.0951 -1.9882 0.9751
2.6747 5.3692 -1.9939 0.9750
1.1139 5.6490 -1.9139 0.9760
-0.4098 5.6204 -1.8732 0.9765
-2.5543 5.5780 -2.0393 0.9745
-3.9714 4.7449 -2.0568 0.9743
-4.3835 4.3777 -2.0593 0.9742
-5.0990 3.5367 -2.0627 0.9742
-5.3961 3.0700 -2.0637 0.9742
-5.8558 2.0645 -2.0639 0.9742
-6.1900 -0.1095 -2.0579 0.9742
-5.9131 -1.7335 -2.0483 0.9744
-5.7239 -2.2486 -2.0442 0.9744
-5.4890 -2.7434 -2.0398 0.9745
-5.2108 -3.2137 -2.0350 0.9745
-4.8918 -3.6559 -2.0300 0.9746
-4.5350 -4.0663 -2.0247 0.9747
-4.1437 -4.4420 -2.0193 0.9747
-2.7985 -5.3337 -2.0022 0.9749
-1.2783 -5.8334 -1.9851 0.9751
-0.7517 -5.9076 -1.9796 0.9752
1.3444 -5.7399 -1.9596 0.9755
4.4896 3.1762 -1.9667 0.9769
4.1987 3.5717 -1.9712 0.9769
3.1288 4.5887 -1.9861 0.9767
2.7150 4.8619 -1.9914 0.9766
2.2774 5.0979 -1.9967 0.9766
1.8192 5.2946 -2.0021 0.9765
0.8528 5.5432 -2.0056 0.9765
-0.1401 5.4564 -1.9519 0.9771
-0.6270 5.4361 -1.9569 0.9770
-1.1252 5.4392 -1.9863 0.9767
-2.1255 5.2861 -2.0374 0.9761
-2.5970 5.0940 -2.0447 0.9760
-3.0453 4.8505 -2.0481 0.9760
-3.8677 4.2449 -2.0536 0.9759
-4.2347 3.8876 -2.0557 0.9759
-4.5676 3.4978 -2.0573 0.9759
-4.8636 3.0789 -2.0585 0.9758
-5.3345 2.1682 -2.0592 0.9758
-5.5054 1.6843 -2.0588 0.9758
-5.6311 1.1869 -2.0579 0.9758
-5.6681 -0.8503 -2.0496 0.9759
-5.2145 -2.3060 -2.0389 0.9761
-4.7024 -3.1806 -2.0301 0.9762
-4.3902 -3.5782 -2.0254 0.9762
-4.0442 -3.9452 -2.0204 0.9763
-2.3872 -5.0556 -1.9993 0.9765
-0.9585 -5.4631 -1.9835 0.9767
0.5157 -5.4815 -1.9689 0.9769
0.9995 -5.4017 -1.9645 0.9769
1.4734 -5.2800 -1.9603 0.9770
1.9338 -5.1178 -1.9565 0.9770
2.3776 -4.9164 -1.9530 0.9771
3.9237 -3.7571 -1.9427 0.9772
5.2837 -1.2303 -1.9400 0.9772
5.3754 -0.7553 -1.9412 0.9772
5.4340 0.2105 -1.9447 0.9772
5.4004 0.6944 -1.9471 0.9771
5.0493 2.1072 -1.9566 0.9770
4.8512 2.5535 -1.9605 0.9770
4.6143 2.9816 -1.9646 0.9769
4.3403 3.3882 -1.9691 0.9769
4.0309 3.7702 -1.9737 0.9768
3.6883 4.1243 -1.9786 0.9768
2.4865 4.9914 -1.9942 0.9766
1.5689 5.3778 -2.0033 0.9765
0.0897 5.4772 -1.9590 0.9770
-0.3970 5.4446 -1.9522 0.9771
-0.8879 5.4349 -1.9693 0.9769
-1.3979 5.4494 -2.0118 0.9764
-1.8979 5.3609 -2.0337 0.9761
-4.4150 3.6855 -2.0566 0.9759
-4.7287 3.2799 -2.0580 0.9758
-5.0041 2.8470 -2.0589 0.9758
-5.5775 1.4229 -2.0584 0.9758
-5.7026 -0.6117 -2.0510 0.9759
-5.0946 -2.5462 -2.0367 0.9761
-4.8371 -2.9833 -2.0323 0.9761
-4.2114 -3.7761 -2.0228 0.9763
-3.4571 -4.4406 -2.0125 0.9764
-2.1434 -5.1551 -1.9965 0.9766
-0.2066 -5.5213 -1.9758 0.9768
0.2851 -5.5044 -1.9711 0.9769
0.7724 -5.4446 -1.9665 0.9769
1.2513 -5.3425 -1.9622 0.9770
2.1706 -5.0162 -1.9546 0.9770
2.6042 -4.7948 -1.9512 0.9771
4.1939 2.9670 -1.9687 0.9782
2.9208 4.2837 -1.9869 0.9780
2.5340 4.5379 -1.9918 0.9780
2.1252 4.7574 -1.9967 0.9779
1.6974 4.9400 -2.0017 0.9779
1.2539 5.0842 -2.0067 0.9778
0.7977 5.1850 -2.0104 0.9778
0.3333 5.2425 -2.0131 0.9777
-0.1351 5.2607 -2.0167 0.9777
-1.5330 5.0787 -2.0330 0.9775
-1.9840 4.9342 -2.0380 0.9775
-2.8369 4.5187 -2.0446 0.9774
-3.2324 4.2539 -2.0474 0.9774
-3.9440 3.6207 -2.0517 0.9773
-4.2538 3.2575 -2.0532 0.9773
-4.7679 2.4533 -2.0548 0.9773
-5.1269 1.5685 -2.0546 0.9773
-2.3011 0.2741 -0.8881 0.9901
-2.2967 0.0676 -0.8805 0.9902
-5.2800 -0.7921 -2.0460 0.9774
-5.1810 -1.2572 -2.0431 0.9774
-4.8592 -2.1489 -2.0361 0.9775
-4.6395 -2.5680 -2.0321 0.9775
-4.3833 -2.9648 -2.0279 0.9776
-4.0929 -3.3360 -2.0235 0.9776
-2.6453 -4.5116 -2.0042 0.9778
-2.2275 -4.7174 -1.9992 0.9779
-1.3487 -5.0127 -1.9893 0.9780
-0.4361 -5.1475 -1.9797 0.9781
0.4817 -5.1201 -1.9708 0.9782
0.9337 -5.0462 -1.9666 0.9783
2.6183 -4.3720 -1.9529 0.9784
3.3440 -3.8287 -1.9481 0.9785
4.2276 -2.8025 -1.9437 0.9785
4.6557 -2.0074 -1.9429 0.9785
4.8165 -1.5850 -1.9431 0.9785
5.0256 -0.7062 -1.9448 0.9785
5.0479 0.6491 -1.9504 0.9784
4.8667 1.5385 -1.9560 0.9784
4.5326 2.3858 -1.9629 0.9783
4.3107 2.7854 -1.9668 0.9783
4.0541 3.1648 -1.9709 0.9782
3.7645 3.5210 -1.9753 0.9782
3.0948 4.1524 -1.9846 0.9781
2.7194 4.4222 -1.9895 0.9780
1.0144 5.1443 -2.0093 0.9778
0.0861 5.2571 -2.0149 0.9777
-0.3831 5.2546 -2.0190 0.9777
-0.8516 5.2125 -2.0240 0.9776
-1.3162 5.1309 -2.0299 0.9776
-2.2162 4.8398 -2.0399 0.9775
-2.6426 4.6307 -2.0432 0.9774
-4.6601 2.6513 -2.0546 0.9773
-4.8785 2.2262 -2.0550 0.9773
-2.3028 -0.2470 -0.8875 0.9901
-5.1118 -1.4986 -2.0414 0.9774
-4.9495 -1.9444 -2.0379 0.9775
-4.7478 -2.3730 -2.0340 0.9775
-4.5086 -2.7807 -2.0299 0.9776
-3.5891 -3.8474 -2.0163 0.9777
-3.2245 -4.1417 -2.0115 0.9778
-2.4267 -4.6250 -2.0015 0.9779
-1.5600 -4.9573 -1.9916 0.9780
-1.1097 -5.0641 -1.9867 0.9780
0.7215 -5.0860 -1.9686 0.9782
1.1691 -4.9913 -1.9645 0.9783
2.0285 -4.6876 -1.9574 0.9784
3.9305 2.7807 -1.9705 0.9794
3.6747 3.1259 -1.9745 0.9794
3.3889 3.4480 -1.9787 0.9793
3.0752 3.7443 -1.9831 0.9793
2.3731 4.2498 -1.9921 0.9792
1.9899 4.4546 -1.9968 0.9791
1.5891 4.6249 -2.0015 0.9791
1.1737 4.7591 -2.0061 0.9790
0.7470 4.8558 -2.0107 0.9790
0.3124 4.9141 -2.0153 0.9789
-0.1267 4.9332 -2.0197 0.9789
-1.0038 4.8523 -2.0280 0.9788
-1.8553 4.6141 -2.0354 0.9787
-2.6523 4.2246 -2.0416 0.9787
-3.3675 3.6959 -2.0463 0.9786
-3.6865 3.3843 -2.0482 0.9786
-3.9759 3.0447 -2.0496 0.9786
-4.2332 2.6799 -2.0505 0.9786
-2.0822 0.4389 -0.8709 0.9908
-1.9975 0.0588 -0.8179 0.9914
-2.1006 -0.5097 -0.8847 0.9907
-4.7130 -1.5997 -2.0370 0.9787
-4.5442 -2.0096 -2.0336 0.9788
-4.3393 -2.4019 -2.0299 0.9788
-4.1003 -2.7733 -2.0260 0.9788
-3.8292 -3.1210 -2.0218 0.9789
-3.5285 -3.4421 -2.0175 0.9789
-3.2009 -3.7343 -2.0130 0.9790
-2.8491 -3.9954 -2.0084 0.9790
-2.4763 -4.2234 -2.0038 0.9791
0.4514 -4.7982 -1.9724 0.9794
1.2904 -4.6243 -1.9649 0.9795
2.4551 -4.0994 -1.9557 0.9796
3.4402 -3.2942 -1.9494 0.9796
3.7173 -2.9727 -1.9480 0.9796
3.9652 -2.6286 -1.9471 0.9796
4.3669 -1.8828 -1.9463 0.9797
4.5176 -1.4867 -1.9465 0.9797
4.7135 -0.6623 -1.9481 0.9796
4.7571 -0.2402 -1.9495 0.9796
4.7639 0.1845 -1.9512 0.9796
4.6665 1.0290 -1.9558 0.9796
4.5629 1.4425 -1.9586 0.9795
4.4233 1.8460 -1.9617 0.9795
4.2487 2.2363 -1.9650 0.9795
4.0402 2.6106 -1.9687 0.9794
3.7992 2.9658 -1.9726 0.9794
3.2265 3.6079 -1.9810 0.9793
2.8989 3.8896 -1.9854 0.9793
2.1730 4.3622 -1.9946 0.9792
1.7802 4.5490 -1.9993 0.9791
1.3712 4.7004 -2.0039 0.9791
0.9495 4.8149 -2.0086 0.9790
0.5181 4.8915 -2.0132 0.9790
-0.3593 4.9273 -2.0220 0.9789
-1.2324 4.8045 -2.0300 0.9788
-1.6583 4.6842 -2.0337 0.9788
-2.4708 4.3296 -2.0402 0.9787
-3.5396 3.5349 -2.0474 0.9786
-4.5595 2.0806 -2.0512 0.9786
-4.7264 1.6663 -2.0511 0.9786
-2.1290 0.5431 -0.8992 0.9905
-2.0112 0.1440 -0.8253 0.9913
-2.0184 -0.2165 -0.8308 0.9913
-2.0741 -0.4118 -0.8654 0.9909
-4.7796 -1.4012 -2.0385 0.9787
-4.6284 -1.8183 -2.0352 0.9787
-4.2171 -2.6009 -2.0278 0.9788
-3.9609 -2.9602 -2.0238 0.9789
-2.6546 -4.1201 -2.0060 0.9790
-2.2719 -4.3300 -2.0013 0.9791
-1.8729 -4.5045 -1.9966 0.9791
-1.4610 -4.6426 -1.9920 0.9792
-1.0394 -4.7433 -1.9874 0.9792
-0.1808 -4.8309 -1.9785 0.9793
0.2496 -4.8175 -1.9743 0.9794
1.0958 -4.6785 -1.9666 0.9794
1.5053 -4.5542 -1.9631 0.9795
1.9017 -4.3948 -1.9599 0.9795
3.6941 2.6135 -1.9721 0.9804
3.4533 2.9376 -1.9759 0.9804
3.1844 3.2399 -1.9798 0.9804
2.5700 3.7691 -1.9881 0.9803
1.4922 4.3427 -2.0012 0.9802
0.7013 4.5582 -2.0099 0.9801
-0.9418 4.5526 -2.0261 0.9799
-1.7403 4.3281 -2.0330 0.9799
-2.4874 3.9620 -2.0388 0.9798
-2.8337 3.7292 -2.0412 0.9798
-3.9690 2.5126 -2.0472 0.9797
-4.3530 1.7693 -2.0478 0.9797
-1.4940 0.4571 -0.6809 0.9932
-1.4781 0.3116 -0.6583 0.9934
-1.4723 0.1754 -0.6462 0.9936
-1.4567 -0.0871 -0.6360 0.9937
-1.4886 -0.3612 -0.6676 0.9933
-1.4916 -0.5063 -0.6865 0.9932
-4.0710 -2.2534 -2.0279 0.9799
-3.5933 -2.9287 -2.0203 0.9800
-3.3116 -3.2305 -2.0162 0.9800
-1.9584 -4.1476 -1.9990 0.9802
0.0211 -4.5381 -1.9778 0.9804
0.4243 -4.5094 -1.9739 0.9804
0.8226 -4.4454 -1.9703 0.9805
1.2130 -4.3470 -1.9669 0.9805
1.5927 -4.2149 -1.9637 0.9805
2.3085 -3.8547 -1.9582 0.9806
2.6395 -3.6295 -1.9559 0.9806
3.2354 -3.0981 -1.9523 0.9806
3.4961 -2.7959 -1.9510 0.9807
3.9337 -2.1298 -1.9495 0.9807
4.1073 -1.7709 -1.9493 0.9807
4.2491 -1.3983 -1.9495 0.9807
4.4331 -0.6229 -1.9510 0.9807
4.4513 0.5723 -1.9559 0.9806
4.3879 0.9676 -1.9583 0.9806
4.1584 1.7354 -1.9638 0.9805
3.0315 3.3899 -1.9820 0.9804
2.7234 3.6540 -1.9861 0.9803
2.3923 3.8904 -1.9904 0.9803
2.0409 4.0969 -1.9948 0.9802
1.2875 4.4132 -2.0035 0.9801
0.8913 4.5201 -2.0079 0.9801
0.0758 4.6261 -2.0164 0.9800
-1.5556 4.3941 -2.0315 0.9799
-1.9437 4.2447 -2.0347 0.9798
-2.3173 4.0606 -2.0376 0.9798
-2.6730 3.8430 -2.0401 0.9798
-3.3189 3.3146 -2.0442 0.9797
-3.6035 3.0081 -2.0457 0.9797
-3.8591 2.6767 -2.0468 0.9797
-4.0835 2.3233 -2.0475 0.9797
-1.4892 0.5250 -0.6882 0.9931
-1.4911 0.3804 -0.6707 0.9933
-1.4729 0.2386 -0.6503 0.9935
-1.4707 -0.1577 -0.6446 0.9936
-1.4726 -0.2924 -0.6543 0.9935
-1.4934 -0.4378 -0.6783 0.9932
-4.3415 -1.7056 -2.0329 0.9799
-4.1656 -2.0819 -2.0295 0.9799
-3.4477 -3.0914 -2.0182 0.9800
-3.1523 -3.3792 -2.0140 0.9800
-2.4923 -3.8682 -2.0054 0.9801
-2.1333 -4.0658 -2.0010 0.9802
0.6355 -4.4799 -1.9720 0.9805
1.4151 -4.2813 -1.9651 0.9805
2.1458 -3.9507 -1.9594 0.9806
2.7213 3.3134 -1.9847 0.9813
1.7595 3.9388 -1.9969 0.9812
1.4047 4.0883 -2.0010 0.9811
0.6600 4.2901 -2.0092 0.9810
0.2759 4.3405 -2.0132 0.9810
-0.1119 4.3562 -2.0171 0.9810
-0.5002 4.3370 -2.0208 0.9809
-0.8860 4.2828 -2.0244 0.9809
-1.2659 4.1938 -2.0278 0.9809
-2.3391 3.7258 -2.0363 0.9808
-2.6646 3.5066 -2.0386 0.9808
-2.9691 3.2586 -2.0406 0.9808
-3.5048 2.6840 -2.0434 0.9807
-1.2515 0.5087 -0.6253 0.9941
-1.2694 0.3884 -0.6145 0.9942
-1.2672 0.2671 -0.5995 0.9943
-1.2751 0.1519 -0.5944 0.9944
-1.2697 -0.0759 -0.5888 0.9944
-1.2746 -0.1912 -0.5966 0.9943
-1.2658 -0.4296 -0.6187 0.9941
-1.2508 -0.5532 -0.6331 0.9940
-3.8296 -2.1197 -2.0261 0.9809
-3.6194 -2.4481 -2.0226 0.9809
-3.3809 -2.7556 -2.0189 0.9810
-3.1162 -3.0399 -2.0151 0.9810
-1.8438 -3.9049 -1.9989 0.9811
-1.1173 -4.1529 -1.9907 0.9812
0.3997 -4.2486 -1.9753 0.9814
0.7751 -4.1888 -1.9719 0.9814
2.1760 -3.6334 -1.9604 0.9815
2.7803 -3.1833 -1.9564 0.9815
3.2962 -2.6360 -1.9536 0.9816
3.5162 -2.3310 -1.9528 0.9816
4.0062 -1.3184 -1.9523 0.9816
4.1088 -0.9567 -1.9528 0.9816
4.1961 0.5395 -1.9583 0.9815
3.9191 1.6355 -1.9657 0.9815
3.7637 1.9810 -1.9687 0.9814
3.1225 2.9206 -1.9791 0.9813
2.8555 3.1931 -1.9829 0.9813
2.2529 3.6636 -1.9908 0.9812
1.9217 3.8576 -1.9949 0.9812
1.5738 4.0217 -1.9990 0.9811
0.8390 4.2545 -2.0073 0.9811
0.4577 4.3210 -2.0113 0.9810
0.0713 4.3531 -2.0153 0.9810
-0.7046 4.3127 -2.0227 0.9809
-1.0876 4.2401 -2.0262 0.9809
-2.1792 3.8186 -2.0352 0.9808
-2.8283 3.3790 -2.0397 0.9808
-3.1206 3.1165 -2.0414 0.9807
-3.3880 2.8282 -2.0428 0.9807
-1.2588 0.5744 -0.6405 0.9939
-1.2637 0.4455 -0.6202 0.9941
-1.2704 0.3241 -0.6069 0.9942
-1.2738 0.2064 -0.5973 0.9943
-1.2624 -0.0223 -0.5844 0.9945
-1.2747 -0.1367 -0.5934 0.9944
-1.2702 -0.3724 -0.6127 0.9942
-1.2551 -0.4931 -0.6242 0.9941
-3.9183 -1.9584 -2.0276 0.9809
-3.7222 -2.2956 -2.0243 0.9809
-3.4968 -2.6133 -2.0207 0.9809
-2.3460 -3.6411 -2.0050 0.9811
-1.6561 -3.9830 -1.9967 0.9812
-1.2922 -4.1062 -1.9926 0.9812
0.2210 -4.2653 -1.9770 0.9814
0.9706 -4.1440 -1.9701 0.9814
1.3336 -4.0347 -1.9670 0.9814
1.6851 -3.8943 -1.9641 0.9815
2.0225 -3.7238 -1.9615 0.9815
3.2868 2.3253 -1.9749 0.9822
3.0719 2.6131 -1.9783 0.9822
2.5689 3.1278 -1.9854 0.9821
1.9809 3.5474 -1.9930 0.9821
1.6604 3.7169 -1.9969 0.9820
1.3254 3.8575 -2.0008 0.9820
0.9786 3.9679 -2.0047 0.9820
0.2603 4.0941 -2.0123 0.9819
-0.8354 4.0384 -2.0229 0.9818
-1.1935 3.9541 -2.0260 0.9818
-1.5431 3.8377 -2.0290 0.9817
-1.8812 3.6900 -2.0317 0.9817
-3.3030 2.5295 -2.0407 0.9816
-1.1119 0.4519 -0.5887 0.9947
-1.1304 0.3458 -0.5798 0.9947
-1.1362 0.2395 -0.5696 0.9948
-1.1443 0.1363 -0.5653 0.9949
-1.1388 0.0335 -0.5588 0.9949
-1.1424 -0.0683 -0.5614 0.9949
-1.1329 -0.2749 -0.5718 0.9948
-3.4130 -2.3085 -2.0212 0.9818
-2.9392 -2.8672 -2.0141 0.9819
-1.7399 -3.6847 -1.9988 0.9820
-1.0546 -3.9196 -1.9910 0.9821
-0.7001 -3.9903 -1.9872 0.9821
0.0188 -4.0364 -1.9800 0.9822
0.3774 -4.0117 -1.9765 0.9822
0.7319 -3.9556 -1.9733 0.9822
3.1143 -2.4905 -1.9560 0.9824
3.3223 -2.2024 -1.9552 0.9824
3.5043 -1.8973 -1.9547 0.9824
3.7853 -1.2457 -1.9547 0.9824
3.9490 -0.5549 -1.9561 0.9824
3.9850 -0.2012 -1.9572 0.9824
3.9901 0.1546 -1.9587 0.9824
3.9641 0.5097 -1.9605 0.9824
3.3790 2.1834 -1.9734 0.9822
3.1764 2.4797 -1.9767 0.9822
2.6958 3.0144 -1.9837 0.9821
2.4212 3.2486 -1.9874 0.9821
2.1263 3.4578 -1.9912 0.9821
1.8135 3.6405 -1.9950 0.9820
1.1435 3.9197 -2.0028 0.9820
0.7915 4.0137 -2.0067 0.9819
-1.0255 3.9979 -2.0246 0.9818
-1.7234 3.7635 -2.0304 0.9817
-2.6657 3.1848 -2.0373 0.9817
-2.9411 2.9372 -2.0389 0.9817
-3.4193 2.3716 -2.0412 0.9816
-1.1426 0.1851 -0.5678 0.9949
-1.1369 -0.0201 -0.5578 0.9949
-1.1315 -0.3317 -0.5784 0.9948
-1.1153 -0.4381 -0.5878 0.9947
-3.5098 -2.1647 -2.0227 0.9818
-3.2976 -2.4645 -2.0194 0.9818
-3.0597 -2.7435 -2.0158 0.9819
-0.8679 -3.9609 -1.9890 0.9821
-0.5109 -4.0149 -1.9853 0.9821
0.2086 -4.0273 -1.9781 0.9822
0.5654 -3.9860 -1.9748 0.9822
0.9166 -3.9135 -1.9716 0.9823
1.2596 -3.8107 -1.9687 0.9823
3.1097 2.2000 -1.9761 0.9830
2.9061 2.4721 -1.9793 0.9830
2.6789 2.7256 -1.9826 0.9829
2.4298 2.9584 -1.9861 0.9829
1.2531 3.6471 -2.0006 0.9828
0.9251 3.7510 -2.0043 0.9827
0.5885 3.8254 -2.0079 0.9827
0.2460 3.8695 -2.0115 0.9827
-0.0997 3.8827 -2.0149 0.9827
-0.4458 3.8648 -2.0183 0.9826
-0.7894 3.8158 -2.0214 0.9826
-1.7771 3.4857 -2.0298 0.9825
-2.0827 3.3174 -2.0321 0.9825
-2.3722 3.1219 -2.0341 0.9825
-2.6430 2.9007 -2.0358 0.9825
-0.9719 0.6153 -0.5967 0.9948
-0.9648 0.4964 -0.5629 0.9951
-1.0276 0.2166 -0.5448 0.9953
-1.0364 -0.0620 -0.5386 0.9953
-1.0122 -0.3436 -0.5545 0.9952
-0.9887 -0.4372 -0.5608 0.9951
-0.9501 -0.5259 -0.5633 0.9951
-3.2250 -2.1813 -2.0199 0.9826
-2.7778 -2.7098 -2.0132 0.9827
-1.9523 -3.3297 -2.0024 0.9828
-1.6450 -3.4839 -1.9987 0.9828
0.6925 -3.7427 -1.9746 0.9830
1.3416 -3.5504 -1.9690 0.9830
1.6503 -3.4126 -1.9665 0.9831
2.4862 -2.8466 -1.9607 0.9831
2.7279 -2.6121 -1.9593 0.9831
2.9480 -2.3575 -1.9583 0.9831
3.1450 -2.0848 -1.9575 0.9831
3.6750 -0.8557 -1.9575 0.9831
3.7381 -0.5253 -1.9583 0.9831
3.7721 -0.1904 -1.9594 0.9831
3.7768 0.1463 -1.9608 0.9831
3.6978 0.8154 -1.9644 0.9831
3.5028 1.4618 -1.9691 0.9830
3.3633 1.7703 -1.9718 0.9830
3.1971 2.0658 -1.9747 0.9830
3.0051 2.3459 -1.9778 0.9830
2.7889 2.6085 -1.9810 0.9829
2.5499 2.8513 -1.9844 0.9829
2.2899 3.0725 -1.9879 0.9829
1.7149 3.4424 -1.9952 0.9828
1.4041 3.5880 -1.9989 0.9828
1.0811 3.7056 -2.0025 0.9828
0.7482 3.7941 -2.0062 0.9827
0.4081 3.8525 -2.0098 0.9827
0.0635 3.8804 -2.0133 0.9827
-0.6278 3.8428 -2.0200 0.9826
-0.9690 3.7773 -2.0231 0.9826
-1.9405 3.4003 -2.0310 0.9825
-2.2379 3.2174 -2.0332 0.9825
-2.5178 3.0081 -2.0350 0.9825
-2.7778 2.7741 -2.0366 0.9825
-3.0156 2.5173 -2.0378 0.9825
-0.9844 0.4492 -0.5614 0.9951
-1.0321 -0.0183 -0.5355 0.9954
-1.0376 -0.1113 -0.5414 0.9953
-1.0295 -0.2044 -0.5445 0.9953
-1.0179 -0.2984 -0.5503 0.9952
-1.0017 -0.3935 -0.5583 0.9952
-0.9701 -0.4848 -0.5626 0.9951
-3.1161 -2.3288 -2.0181 0.9826
-2.3775 -3.0538 -2.0078 0.9827
-2.0924 -3.2475 -2.0041 0.9827
-1.4777 -3.5540 -1.9968 0.9828
-0.8209 -3.7460 -1.9895 0.9829
0.1974 -3.8099 -1.9792 0.9830
0.8673 -3.7030 -1.9730 0.9830
1.5063 -3.4810 -1.9677 0.9831
2.9471 2.0850 -1.9772 0.9837
2.7539 2.3426 -1.9802 0.9836
2.5384 2.5827 -1.9834 0.9836
2.0469 3.0020 -1.9900 0.9836
1.7745 3.1778 -1.9935 0.9835
1.4871 3.3289 -1.9969 0.9835
1.1869 3.4542 -2.0004 0.9835
0.8761 3.5523 -2.0039 0.9835
0.2329 3.6638 -2.0107 0.9834
-0.0944 3.6760 -2.0140 0.9834
-0.4220 3.6587 -2.0172 0.9833
-0.7472 3.6120 -2.0202 0.9833
-1.0673 3.5360 -2.0230 0.9833
-1.3797 3.4314 -2.0256 0.9833
-1.6818 3.2988 -2.0280 0.9833
-2.7372 2.5128 -2.0351 0.9832
-2.9515 2.2603 -2.0361 0.9832
-0.8856 0.4557 -0.5455 0.9955
-0.9068 0.3686 -0.5361 0.9955
-0.9218 0.2820 -0.5280 0.9956
-0.9369 0.1975 -0.5244 0.9956
-0.9468 0.1128 -0.5223 0.9957
-0.9443 0.0278 -0.5174 0.9957
-0.9006 -0.3983 -0.5393 0.9955
-2.6300 -2.5656 -2.0123 0.9834
-2.1261 -2.9814 -2.0056 0.9834
-1.5581 -3.2998 -1.9986 0.9835
-0.6273 -3.5756 -1.9883 0.9836
-0.3059 -3.6112 -1.9850 0.9836
0.0168 -3.6183 -1.9818 0.9836
0.9682 -3.4698 -1.9730 0.9837
1.8443 -3.0796 -1.9660 0.9838
2.5864 -2.4766 -1.9613 0.9838
2.9820 -1.9768 -1.9595 0.9838
3.1455 -1.7031 -1.9591 0.9838
1.8819 0.0729 -1.0315 0.9914
1.8888 0.2429 -1.0430 0.9914
1.8864 0.4160 -1.0580 0.9912
3.3203 1.3857 -1.9706 0.9837
3.0300 1.9579 -1.9759 0.9837
2.8479 2.2232 -1.9788 0.9837
2.6427 2.4718 -1.9819 0.9836
2.4161 2.7017 -1.9851 0.9836
1.6244 3.2608 -1.9953 0.9835
1.0238 3.5095 -2.0023 0.9835
0.7085 3.5929 -2.0057 0.9834
0.0602 3.6739 -2.0125 0.9834
-0.9172 3.5754 -2.0217 0.9833
-1.2335 3.4843 -2.0244 0.9833
-2.1177 3.0446 -2.0312 0.9832
-2.3825 2.8464 -2.0330 0.9832
-0.8724 0.4963 -0.5497 0.9954
-0.8979 0.4097 -0.5406 0.9955
-0.9437 0.1529 -0.5236 0.9956
-0.9390 -0.1864 -0.5243 0.9956
-0.9231 -0.2706 -0.5269 0.9956
-0.9089 -0.3571 -0.5348 0.9956
-2.9499 -2.2046 -2.0170 0.9833
-2.7376 -2.4547 -2.0139 0.9834
-2.5041 -2.6843 -2.0106 0.9834
-2.2513 -2.8918 -2.0072 0.9834
-1.9815 -3.0754 -2.0038 0.9835
-1.6968 -3.2340 -2.0003 0.9835
-1.3997 -3.3664 -1.9968 0.9835
-1.0925 -3.4716 -1.9933 0.9835
0.1870 -3.6105 -1.9801 0.9836
0.5070 -3.5740 -1.9771 0.9837
0.8221 -3.5097 -1.9743 0.9837
1.1298 -3.4180 -1.9716 0.9837
1.7141 -3.1559 -1.9670 0.9838
2.7972 1.9789 -1.9783 0.9843
2.6137 2.2233 -1.9811 0.9843
1.9421 2.8483 -1.9904 0.9842
1.6836 3.0149 -1.9937 0.9842
-0.4001 3.4690 -2.0161 0.9840
-0.7084 3.4245 -2.0190 0.9840
-1.0119 3.3522 -2.0217 0.9840
-1.8682 2.9756 -2.0285 0.9839
-2.1276 2.8000 -2.0303 0.9839
-2.3703 2.6014 -2.0318 0.9839
-0.8526 0.3466 -0.5314 0.9958
-0.8761 0.1847 -0.5169 0.9959
-0.8816 -0.0527 -0.5099 0.9959
-0.8617 -0.2925 -0.5254 0.9958
-0.8465 -0.3744 -0.5344 0.9957
-0.7967 -0.5389 -0.5553 0.9956
-2.0165 -2.8277 -2.0052 0.9841
-1.7538 -2.9911 -2.0019 0.9841
-1.4780 -3.1302 -1.9986 0.9841
-0.5952 -3.3928 -1.9888 0.9842
0.0160 -3.4339 -1.9826 0.9843
0.6230 -3.3669 -1.9769 0.9843
1.2072 -3.1948 -1.9718 0.9843
1.4852 -3.0712 -1.9696 0.9844
2.2382 -2.5626 -1.9644 0.9844
2.4559 -2.3516 -1.9631 0.9844
2.8316 -1.8771 -1.9615 0.9844
2.9869 -1.6172 -1.9610 0.9844
3.1188 -1.3447 -1.9609 0.9844
1.7151 -0.5644 -1.0425 0.9917
1.7325 -0.4034 -1.0270 0.9918
1.7413 -0.2447 -1.0152 0.9919
1.7363 -0.0877 -1.0037 0.9920
1.7418 0.2240 -1.0139 0.9919
1.7188 0.5434 -1.0408 0.9917
1.8249 0.7616 -1.1417 0.9909
2.8760 1.8584 -1.9770 0.9843
2.5080 2.3458 -1.9827 0.9843
2.2927 2.5637 -1.9857 0.9842
2.0586 2.7621 -1.9889 0.9842
1.8074 2.9392 -1.9921 0.9842
1.5411 3.0935 -1.9954 0.9842
1.2616 3.2238 -1.9987 0.9841
0.9711 3.3288 -2.0020 0.9841
0.6720 3.4077 -2.0053 0.9841
0.3665 3.4595 -2.0085 0.9841
0.0571 3.4839 -2.0117 0.9840
-0.5635 3.4490 -2.0177 0.9840
-1.4606 3.1896 -2.0254 0.9839
-1.7406 3.0501 -2.0276 0.9839
-2.2580 2.6978 -2.0312 0.9839
-2.4910 2.4877 -2.0326 0.9839
-2.7041 2.2573 -2.0337 0.9839
-0.7986 0.5539 -0.5611 0.9955
-0.8190 0.4660 -0.5440 0.9957
-0.8439 0.3851 -0.5355 0.9957
-0.8602 0.3033 -0.5266 0.9958
-0.8820 0.0631 -0.5105 0.9959
-0.8793 -0.0156 -0.5078 0.9959
-0.8773 -0.1742 -0.5164 0.9959
-0.8657 -0.2538 -0.5208 0.9958
-0.8547 -0.3358 -0.5302 0.9958
-2.3747 -2.5456 -2.0099 0.9840
-1.6096 -3.0677 -2.0001 0.9841
-1.0365 -3.2937 -1.9935 0.9842
-0.7379 -3.3673 -1.9903 0.9842
-0.4344 -3.4142 -1.9871 0.9842
0.1775 -3.4266 -1.9810 0.9843
0.4812 -3.3923 -1.9782 0.9843
0.7803 -3.3314 -1.9755 0.9843
1.3555 -3.1325 -1.9706 0.9844
