ply
format ascii 1.0
element vertex 1584
property float32 x
property float32 y
property float32 z
property float32 I
end_header
5.5304 10.9981 0.2079 0.9519
4.3757 11.0624 0.2010 0.9535
2.2202 11.0588 0.1905 0.9559
-0.7715 11.0540 0.1872 0.9566
-5.0106 11.0199 0.2045 0.9527
-0.6567 -17.8313 0.3014 0.9311
0.9374 -17.8546 0.3020 0.9310
2.5517 -17.8839 0.3052 0.9303
4.2055 -17.8812 0.3103 0.9291
8.9767 4.2871 0.1680 0.9610
8.8782 11.0035 0.2388 0.9450
7.3167 10.9362 0.2223 0.9487
2.6178 4.7876 0.0922 0.9784
3.7548 11.2614 0.2005 0.9536
0.5685 -17.7205 -0.0998 0.9315
2.1808 -17.8848 -0.1014 0.9305
3.8228 -17.8821 -0.1030 0.9295
7.3171 -17.8444 -0.1086 0.9258
8.9803 4.0661 -0.0555 0.9613
15.1015 12.5394 -0.1105 0.9245
5.1147 5.0825 -0.0406 0.9716
3.9405 11.0615 -0.0661 0.9541
2.8589 11.0597 -0.0643 0.9553
0.8243 11.0564 -0.0624 0.9566
-0.1642 11.0548 -0.0622 0.9567
-1.1707 11.2032 -0.0634 0.9559
-3.2437 11.1688 -0.0655 0.9545
-5.9681 -10.0021 -0.0656 0.9545
-1.6417 -17.8650 -0.1010 0.9308
-0.0423 -17.8624 -0.1006 0.9310
1.5581 -17.8858 -0.1011 0.9307
3.1834 -17.8831 -0.1023 0.9299
6.6212 -17.8775 -0.1073 0.9266
8.2391 10.9634 -0.0772 0.9466
6.7829 10.9352 -0.0724 0.9498
4.3756 11.0622 -0.0670 0.9535
0.2166 11.0555 -0.0623 0.9567
-2.7928 11.0196 -0.0640 0.9555
-3.9188 11.1677 -0.0666 0.9538
-5.0106 11.0198 -0.0682 0.9527
-2.2467 -17.7251 -0.1006 0.9310
4.2055 -17.8815 -0.1034 0.9292
5.9299 -17.8786 -0.1060 0.9274
4.5472 -10.4758 -0.0643 0.9553
8.9799 4.2886 -0.0560 0.9610
-4.2654 -17.7579 -0.5143 0.9295
0.5685 -17.7207 -0.4992 0.9315
2.1808 -17.8850 -0.5073 0.9304
3.8228 -17.8823 -0.5149 0.9294
5.4767 -17.7127 -0.5221 0.9285
7.3172 -17.8447 -0.5431 0.9257
15.3767 10.6035 -0.5259 0.9280
5.1096 5.0773 -0.2028 0.9716
9.2551 11.0038 -0.4049 0.9441
3.8617 10.8403 -0.3240 0.9550
2.8017 10.8386 -0.3152 0.9562
0.8243 11.0563 -0.3122 0.9566
-1.1550 11.0531 -0.3129 0.9565
-2.1642 11.0514 -0.3171 0.9559
-4.3559 11.1669 -0.3375 0.9532
-5.9693 -10.0042 -0.3280 0.9545
6.6213 -17.8777 -0.5368 0.9265
4.8815 -10.2630 -0.3200 0.9555
5.2612 4.8797 -0.2021 0.9717
4.2881 10.8410 -0.3283 0.9544
3.2038 10.8392 -0.3183 0.9558
2.2201 11.0586 -0.3176 0.9559
0.2166 11.0553 -0.3114 0.9567
-0.7714 11.0537 -0.3120 0.9566
-1.7716 11.0521 -0.3152 0.9562
-3.9187 11.1676 -0.3333 0.9537
-2.2467 -17.7253 -0.5031 0.9310
4.2056 -17.8817 -0.5172 0.9291
5.9300 -17.8789 -0.5304 0.9274
5.0883 5.2667 -0.2062 0.9711
8.8780 11.0032 -0.3981 0.9450
7.3165 10.9359 -0.3705 0.9487
2.6200 4.7916 -0.1538 0.9784
-4.2643 -17.7533 -0.9260 0.9295
-1.0229 -17.8645 -0.9075 0.9308
0.5685 -17.7209 -0.8992 0.9315
2.1770 -17.8533 -0.9121 0.9305
3.7872 -17.7156 -0.9187 0.9300
5.4768 -17.7129 -0.9403 0.9284
15.3729 10.6009 -0.9470 0.9279
15.0828 12.5238 -0.9942 0.9245
5.0952 5.0631 -0.3643 0.9716
9.2549 11.0036 -0.7292 0.9440
7.6893 11.0011 -0.6807 0.9477
4.9182 10.6819 -0.5964 0.9540
3.8617 10.8402 -0.5836 0.9550
0.8078 10.8352 -0.5510 0.9574
-0.1609 10.8336 -0.5495 0.9575
-1.6418 -17.8655 -0.9099 0.9307
-0.0424 -17.8629 -0.9059 0.9310
1.5554 -17.8543 -0.9089 0.9307
4.8155 -17.7140 -0.9310 0.9291
6.5596 -17.7111 -0.9578 0.9271
4.8979 -10.2976 -0.5783 0.9554
9.6383 10.6895 -0.7299 0.9440
8.2480 10.9752 -0.6963 0.9465
6.7827 10.9349 -0.6526 0.9498
5.5302 10.9976 -0.6243 0.9519
4.2881 10.8409 -0.5912 0.9544
2.1757 10.8374 -0.5606 0.9567
-1.7362 10.8311 -0.5563 0.9570
-2.7927 11.0193 -0.5765 0.9555
-3.9187 11.1674 -0.6002 0.9537
-2.2467 -17.7255 -0.9061 0.9309
-0.6579 -17.8639 -0.9066 0.9309
2.5454 -17.8396 -0.9139 0.9304
4.1664 -17.7150 -0.9229 0.9297
5.8748 -17.7123 -0.9464 0.9280
4.5663 -10.5197 -0.5816 0.9551
15.1576 10.9149 -0.9473 0.9279
8.8778 11.0030 -0.7170 0.9449
3.6143 10.8398 -0.5795 0.9553
-1.0229 -17.8647 -1.3120 0.9307
5.4769 -17.7131 -1.3594 0.9283
15.3727 10.6007 -1.3692 0.9278
5.0540 5.0221 -0.5224 0.9718
2.8016 10.8383 -0.8208 0.9561
1.7898 10.8367 -0.8053 0.9569
0.8078 10.8351 -0.7967 0.9574
-1.1319 10.8319 -0.7985 0.9573
-5.9651 -9.9971 -0.8536 0.9544
-1.6418 -17.8657 -1.3155 0.9306
-0.0423 -17.8631 -1.3098 0.9309
6.5597 -17.7114 -1.3848 0.9270
15.4795 11.9772 -1.4351 0.9245
5.2788 4.8960 -0.5279 0.9715
9.6382 10.6893 -1.0553 0.9439
8.0799 10.7516 -0.9861 0.9475
6.7917 10.9495 -0.9447 0.9496
5.5301 10.9974 -0.9026 0.9518
3.2038 10.8390 -0.8287 0.9557
2.1757 10.8373 -0.8105 0.9566
1.1842 10.8357 -0.7992 0.9572
-0.7560 10.8325 -0.7962 0.9574
-3.9186 11.1673 -0.8678 0.9536
2.5280 -17.7179 -1.3123 0.9307
4.5731 -10.5354 -0.8421 0.9550
9.0327 4.3139 -0.7340 0.9606
15.1647 10.9201 -1.3702 0.9278
14.6288 12.6595 -1.4185 0.9253
5.0514 5.2285 -0.5331 0.9713
8.6757 10.7525 -1.0130 0.9461
7.1922 10.7501 -0.9484 0.9494
2.6236 4.7982 -0.4010 0.9783
3.6142 10.8396 -0.8378 0.9552
-4.2626 -17.7461 -1.7522 0.9293
-1.0211 -17.8330 -1.7149 0.9307
0.5685 -17.7213 -1.7022 0.9312
3.7873 -17.7161 -1.7393 0.9298
5.4125 -17.5050 -1.7591 0.9290
6.8702 -16.7544 -1.7385 0.9298
8.2438 -15.8966 -1.7192 0.9306
9.5275 -14.9405 -1.7012 0.9313
10.7161 -13.8950 -1.6846 0.9319
11.8055 -12.7689 -1.6695 0.9325
12.7920 -11.5708 -1.6560 0.9330
14.7844 -11.1472 -1.7776 0.9283
15.6361 -9.7331 -1.7682 0.9287
17.4214 -5.1794 -1.7449 0.9296
17.7708 -3.5970 -1.7407 0.9297
18.0704 1.2324 -1.7389 0.9298
17.9196 2.8434 -1.7419 0.9297
16.7161 7.5687 -1.7617 0.9289
14.1298 9.7437 -1.6478 0.9334
13.3054 11.0480 -1.6603 0.9329
4.9181 10.6816 -1.1290 0.9538
2.8016 10.8382 -1.0747 0.9560
1.7898 10.8365 -1.0545 0.9568
0.8078 10.8349 -1.0431 0.9573
-0.1609 10.8334 -1.0402 0.9574
-1.1319 10.8318 -1.0456 0.9572
-2.1209 10.8302 -1.0595 0.9566
-3.1710 10.9184 -1.0915 0.9553
-4.2583 10.9166 -1.1250 0.9540
-3.3705 -18.4277 -1.7985 0.9275
-1.6389 -17.8340 -1.7194 0.9306
1.5437 -17.7197 -1.7076 0.9310
4.8156 -17.7144 -1.7624 0.9289
11.3972 -13.2124 -1.6752 0.9323
12.4238 -12.0411 -1.6610 0.9328
15.3276 -10.2898 -1.7724 0.9285
18.0721 -1.0061 -1.7377 0.9298
17.7647 3.8271 -1.7446 0.9296
16.9337 6.9750 -1.7582 0.9291
14.4182 9.2265 -1.6434 0.9335
5.2994 4.9151 -0.6939 0.9714
9.6380 10.6891 -1.3818 0.9438
8.0798 10.7514 -1.2912 0.9474
6.6675 10.7491 -1.2144 0.9504
3.2037 10.8388 -1.0851 0.9556
-1.7361 10.8308 -1.0531 0.9569
-4.9876 10.9692 -1.1569 0.9527
4.1665 -17.7155 -1.7472 0.9295
5.7524 -17.3435 -1.7543 0.9292
4.5860 -10.5651 -1.1057 0.9548
8.5451 -15.6866 -1.7149 0.9307
12.0400 -12.5014 -1.6663 0.9326
15.0014 -10.8384 -1.7768 0.9283
15.8103 -9.3999 -1.7659 0.9288
16.4995 -7.9118 -1.7567 0.9291
17.0672 -6.3825 -1.7494 0.9294
18.1011 -0.0143 -1.7378 0.9298
18.0470 1.6010 -1.7394 0.9298
17.8675 3.2098 -1.7428 0.9296
14.6898 8.7024 -1.6392 0.9337
13.9513 10.0463 -1.6505 0.9332
5.0528 5.2299 -0.6982 0.9712
7.1921 10.7500 -1.2417 0.9494
4.6564 10.6811 -1.1186 0.9543
3.6142 10.8395 -1.0970 0.9551
-14.0015 -12.0393 -2.1935 0.9283
-7.9322 -14.3985 -1.9527 0.9359
-6.5486 -14.8929 -1.9325 0.9366
-2.2988 -15.5826 -1.8710 0.9385
1.8460 -15.1390 -1.8116 0.9404
3.1555 -14.7606 -1.7930 0.9410
4.4144 -14.2769 -1.7751 0.9416
8.8087 -11.4218 -1.7134 0.9436
10.5470 -9.5401 -1.6893 0.9443
12.9227 -8.0440 -1.8081 0.9405
13.5277 -6.8293 -1.8001 0.9408
14.0311 -5.5756 -1.7935 0.9410
14.7267 -2.9808 -1.7848 0.9413
15.0005 -0.3177 -1.7823 0.9414
14.8483 2.3560 -1.7858 0.9412
12.2627 6.9308 -1.6732 0.9448
5.0834 5.0514 -0.8513 0.9715
7.5140 10.7503 -1.5580 0.9485
3.8615 10.8397 -1.3669 0.9547
-7.3404 14.7715 -1.9594 0.9357
-8.7138 14.1980 -1.9788 0.9351
-13.5152 12.6549 -2.1993 0.9281
-14.6984 11.4847 -2.2157 0.9276
-15.7678 10.1959 -2.2305 0.9272
-16.7095 8.7999 -2.2433 0.9268
-17.5111 7.3101 -2.2540 0.9264
-18.9761 2.4358 -2.2726 0.9258
-18.9148 -2.6682 -2.2691 0.9259
-18.0242 -5.9466 -2.2545 0.9264
-16.5087 -8.9591 -2.2312 0.9271
-14.4519 -11.5854 -2.2002 0.9281
-11.9604 -13.7330 -2.1632 0.9293
-5.6855 -15.1305 -1.9200 0.9370
-4.2679 -15.4105 -1.8995 0.9376
-2.8459 -15.5595 -1.8789 0.9383
-1.4318 -15.5806 -1.8586 0.9389
-0.0367 -15.4777 -1.8385 0.9396
3.9352 -14.4756 -1.7819 0.9414
4.7500 -9.9865 -1.3136 0.9564
7.4153 -12.5625 -1.7328 0.9429
9.3779 -10.8715 -1.7055 0.9438
10.2379 -9.9225 -1.6936 0.9442
12.6625 -8.5007 -1.8116 0.9404
13.3062 -7.3030 -1.8030 0.9407
13.8490 -6.0635 -1.7958 0.9409
14.2891 -4.7896 -1.7902 0.9411
14.9991 0.5050 -1.7827 0.9413
14.9108 1.8422 -1.7847 0.9413
14.7160 3.1703 -1.7882 0.9412
14.4150 4.4821 -1.7932 0.9410
12.9417 5.3307 -1.6626 0.9452
9.6378 10.6889 -1.7096 0.9437
6.6674 10.7490 -1.5025 0.9503
5.4042 10.7470 -1.4289 0.9527
4.2879 10.8404 -1.3848 0.9541
3.2037 10.8387 -1.3425 0.9555
2.1757 10.8370 -1.3130 0.9565
-0.7560 10.8323 -1.2899 0.9572
-2.7799 10.9689 -1.3441 0.9554
-3.8309 10.9172 -1.3743 0.9545
-10.8223 12.9918 -2.0085 0.9342
-15.3696 10.7065 -2.2250 0.9273
-17.2191 7.8951 -2.2501 0.9265
-18.4824 4.7463 -2.2667 0.9260
-19.0903 1.3929 -2.2737 0.9258
-19.1366 -0.3145 -2.2735 0.9258
-19.0097 -2.0168 -2.2708 0.9259
-17.6220 -6.9060 -2.2482 0.9266
-14.8861 -11.1136 -2.2067 0.9279
-13.7276 -12.2993 -2.1894 0.9284
-12.4693 -13.3593 -2.1707 0.9290
-10.2787 -13.1980 -1.9871 0.9348
-7.6191 -14.5231 -1.9481 0.9361
-6.2287 -14.9871 -1.9279 0.9367
2.1491 -15.0622 -1.8073 0.9406
3.4477 -14.6592 -1.7888 0.9411
4.6940 -14.1523 -1.7711 0.9417
4.5989 -10.5949 -1.3720 0.9545
5.4510 -10.0067 -1.3536 0.9551
8.0510 -12.0749 -1.7239 0.9432
9.9161 -10.2961 -1.6980 0.9440
10.7308 -9.3158 -1.6880 0.9444
12.3877 -8.9500 -1.8154 0.9403
13.0697 -7.7704 -1.8062 0.9406
13.6516 -6.5462 -1.7984 0.9408
14.1316 -5.2847 -1.7922 0.9410
14.9452 -1.3496 -1.7825 0.9413
15.0047 -0.0118 -1.7823 0.9413
14.9575 1.3269 -1.7837 0.9413
14.5437 3.9784 -1.7911 0.9411
9.0396 4.3171 -1.1900 0.9605
12.1333 7.1879 -1.6752 0.9448
11.5095 8.2879 -1.6847 0.9445
5.0536 5.2307 -0.8640 0.9711
8.6754 10.7522 -1.6411 0.9459
2.6272 4.8048 -0.6505 0.9782
4.6563 10.6810 -1.3841 0.9541
-11.5558 -9.9363 -2.1594 0.9403
-9.4392 -11.6233 -2.1216 0.9413
-6.5884 -11.9594 -1.9346 0.9463
-3.1056 -12.9291 -1.8840 0.9477
-1.9230 -13.0353 -1.8669 0.9482
-0.7464 -13.0355 -1.8500 0.9486
0.4149 -12.9326 -1.8334 0.9491
1.5523 -12.7302 -1.8171 0.9495
2.6578 -12.4324 -1.8013 0.9499
3.7239 -12.0439 -1.7862 0.9503
4.1711 -10.1721 -1.5577 0.9566
7.4716 -9.6881 -1.7335 0.9518
9.6945 -8.7690 -1.8522 0.9486
10.3950 -7.8377 -1.8446 0.9488
11.5258 -5.8187 -1.8294 0.9492
12.7789 0.8715 -1.8148 0.9496
12.4604 3.1370 -1.8206 0.9494
12.1507 4.2422 -1.8235 0.9493
10.8789 4.9258 -1.6921 0.9529
9.3176 7.7368 -1.7160 0.9522
5.0874 5.0554 -1.0162 0.9714
7.0738 10.1205 -1.7495 0.9513
2.7129 4.7300 -0.7726 0.9782
-0.1609 10.8331 -1.5351 0.9572
-3.1709 10.9181 -1.6109 0.9551
-6.0934 12.2621 -1.9401 0.9462
-9.3359 10.4533 -1.9858 0.9450
-12.9753 8.3902 -2.1893 0.9395
-15.3023 3.3726 -2.2202 0.9387
-15.5633 1.9977 -2.2233 0.9386
-15.6869 0.6026 -2.2243 0.9385
-15.6715 -0.7979 -2.2234 0.9386
-15.1920 -3.5476 -2.2105 0.9389
-13.5842 -7.3720 -2.1899 0.9395
-10.9478 -10.5104 -2.1503 0.9405
-8.1059 -11.1821 -1.9569 0.9457
-5.8921 -12.2378 -1.9245 0.9466
-4.7358 -12.6032 -1.9076 0.9471
1.1168 -12.8198 -1.8233 0.9493
2.2355 -12.5583 -1.8074 0.9498
6.2789 -10.6373 -1.7502 0.9513
7.9600 -9.2278 -1.7267 0.9520
11.8037 -5.1680 -1.8257 0.9493
12.1845 -4.0841 -1.8208 0.9494
12.7204 1.5715 -1.8160 0.9495
12.5505 2.7038 -1.8191 0.9495
11.0269 4.5420 -1.6897 0.9530
10.6181 5.5278 -1.6961 0.9528
7.3977 9.8438 -1.7447 0.9515
6.5381 10.5405 -1.7574 0.9511
5.4041 10.7468 -1.7044 0.9526
3.2036 10.8385 -1.6014 0.9554
-1.7361 10.8305 -1.5542 0.9567
-4.9875 10.9690 -1.7073 0.9525
-7.8933 11.4078 -1.9656 0.9455
-8.9457 10.7389 -1.9804 0.9451
-13.4557 7.6895 -2.1959 0.9393
-14.1475 6.4868 -2.2052 0.9391
-14.7199 5.2175 -2.2128 0.9389
-15.4788 2.5314 -2.2223 0.9386
-15.5932 -1.6544 -2.2218 0.9386
-15.3549 -3.0322 -2.2176 0.9387
-14.9824 -4.3771 -2.2116 0.9389
-14.4806 -5.6749 -2.2037 0.9391
-13.8563 -6.9130 -2.1941 0.9394
-13.1172 -8.0791 -2.1828 0.9397
-12.2729 -9.1626 -2.1701 0.9400
-11.3334 -10.1542 -2.1561 0.9404
-10.3099 -11.0457 -2.1409 0.9408
-8.5121 -10.9296 -1.9629 0.9456
-2.8355 -12.9628 -1.8801 0.9478
-0.4795 -13.0210 -1.8462 0.9487
0.6770 -12.8950 -1.8296 0.9492
1.8078 -12.6704 -1.8134 0.9496
2.9049 -12.3515 -1.7978 0.9500
4.3409 -10.0004 -1.5447 0.9569
6.8226 -10.2325 -1.7426 0.9515
7.6562 -9.5196 -1.7309 0.9518
9.8692 -8.5679 -1.8518 0.9486
10.5413 -7.6160 -1.8426 0.9488
11.6330 -5.5782 -1.8280 0.9492
12.3738 -3.4058 -1.8184 0.9495
12.6088 -2.2856 -1.8156 0.9495
12.8029 -0.0101 -1.8140 0.9496
12.7612 1.1321 -1.8152 0.9496
12.6270 2.2684 -1.8177 0.9495
12.4006 3.3922 -1.8216 0.9494
12.0433 4.4821 -1.8207 0.9494
9.0431 4.3188 -1.4199 0.9603
10.3266 6.1175 -1.7006 0.9527
9.7873 7.0478 -1.7089 0.9524
9.1699 7.9354 -1.7182 0.9522
5.0491 5.2261 -1.0296 0.9711
7.7116 9.5576 -1.7401 0.9516
2.6290 4.8082 -0.7765 0.9781
4.6562 10.6809 -1.6509 0.9540
3.6141 10.8392 -1.6189 0.9549
-8.0698 -9.9371 -2.1088 0.9494
-5.6288 -10.2174 -1.9217 0.9538
-3.6695 -10.8904 -1.8932 0.9545
0.3572 -11.1338 -1.8351 0.9558
2.2937 -10.7293 -1.8075 0.9565
4.9461 -9.5376 -1.7699 0.9574
6.9654 -9.0317 -1.8790 0.9548
7.7566 -8.3896 -1.8823 0.9547
8.4317 -7.6268 -1.8730 0.9550
10.7198 -3.1870 -1.8424 0.9557
11.1525 -0.2362 -1.8377 0.9558
11.0336 1.7507 -1.8404 0.9557
10.8520 2.7320 -1.8435 0.9556
8.6207 5.9447 -1.7251 0.9584
8.0937 6.7205 -1.7331 0.9582
5.0970 5.0648 -1.1837 0.9713
6.8447 8.1380 -1.7518 0.9578
2.7124 4.7289 -0.8981 0.9781
4.5339 9.8473 -1.7859 0.9570
3.6640 10.2852 -1.7987 0.9567
1.7897 10.8361 -1.8093 0.9565
0.8078 10.8345 -1.7898 0.9569
-0.1609 10.8330 -1.7848 0.9570
-1.1318 10.8314 -1.7941 0.9568
-2.1208 10.8298 -1.8180 0.9562
-4.2186 10.8149 -1.9124 0.9540
-7.0766 9.5100 -1.9528 0.9531
-7.9454 8.8965 -1.9650 0.9528
-9.5026 7.4249 -1.9866 0.9523
-11.6500 6.1354 -2.1691 0.9480
-12.6295 3.9927 -2.1821 0.9477
-13.1782 1.6916 -2.1888 0.9476
-13.2818 0.5102 -2.1896 0.9475
-12.5475 -4.1397 -2.1767 0.9478
-12.0886 -5.2246 -2.1695 0.9480
-11.5289 -6.2566 -2.1609 0.9482
-10.8751 -7.2262 -2.1510 0.9484
-7.1798 -9.9045 -2.0153 0.9516
-5.9939 -10.0454 -1.9271 0.9537
-5.0377 -10.4633 -1.9131 0.9540
-4.0543 -10.7894 -1.8988 0.9543
-2.0419 -11.1638 -1.8696 0.9550
-1.0305 -11.2133 -1.8550 0.9554
-0.0265 -11.1729 -1.8406 0.9557
0.9622 -11.0452 -1.8265 0.9560
2.8652 -10.5398 -1.7993 0.9567
3.7665 -10.1697 -1.7866 0.9570
4.6265 -9.7269 -1.7744 0.9573
5.4399 -9.2159 -1.7630 0.9575
6.4851 -9.0361 -1.8323 0.9559
8.1792 -7.9273 -1.8764 0.9549
8.8123 -7.1333 -1.8678 0.9551
9.3746 -6.2934 -1.8601 0.9553
10.6115 -3.5568 -1.8437 0.9556
10.8676 -2.5922 -1.8405 0.9557
11.1378 -0.6201 -1.8377 0.9558
11.0820 1.3691 -1.8395 0.9557
10.9317 2.3550 -1.8422 0.9557
10.7004 3.3271 -1.8460 0.9556
9.5977 3.9533 -1.7100 0.9588
5.6613 9.1270 -1.7693 0.9574
4.8574 9.6596 -1.7812 0.9571
3.1088 10.5177 -1.8068 0.9565
1.1842 10.8351 -1.7956 0.9568
0.2123 10.8336 -1.7851 0.9570
-2.7799 10.9686 -1.8641 0.9552
-3.8308 10.9169 -1.9059 0.9542
-7.6165 9.1433 -1.9604 0.9529
-8.4513 8.4780 -1.9721 0.9526
-9.2233 7.7326 -1.9828 0.9524
-11.4151 6.5233 -2.1659 0.9481
-11.9942 5.4994 -2.1737 0.9479
-12.8455 3.2988 -2.1848 0.9477
-13.2555 0.9672 -2.1895 0.9475
-13.2881 -0.2184 -2.1894 0.9475
-13.2047 -1.4010 -2.1875 0.9476
-11.1380 -6.8600 -2.1550 0.9484
-10.4302 -7.7869 -2.1443 0.9486
-5.4104 -10.3129 -1.9185 0.9539
-3.4407 -10.9438 -1.8899 0.9546
-1.4202 -11.2049 -1.8607 0.9552
0.5830 -11.1046 -1.8319 0.9559
1.5587 -10.9246 -1.8179 0.9562
2.5077 -10.6623 -1.8044 0.9566
4.2999 -9.9061 -1.7790 0.9572
5.1319 -9.4208 -1.7673 0.9574
7.1704 -8.9156 -1.8848 0.9547
9.1662 -6.6225 -1.8629 0.9552
9.6836 -5.7573 -1.8559 0.9554
10.4915 -3.9234 -1.8453 0.9556
10.9851 -1.9913 -1.8392 0.9558
11.1110 -1.0033 -1.8379 0.9558
10.9993 1.9760 -1.8410 0.9557
10.7992 2.9541 -1.8444 0.9556
8.9807 5.3202 -1.7196 0.9586
8.5063 6.1253 -1.7268 0.9584
7.9640 6.8919 -1.7350 0.9582
5.0429 5.2197 -1.1957 0.9710
4.3392 9.9536 -1.7888 0.9569
-8.5415 -7.3444 -2.1174 0.9552
-7.0260 -8.6517 -2.0949 0.9557
-4.0684 -9.2524 -1.8998 0.9597
-2.3292 -9.6971 -1.8745 0.9602
-1.4456 -9.7990 -1.8618 0.9605
1.1747 -9.6335 -1.8241 0.9613
2.0155 -9.4281 -1.8121 0.9615
2.8298 -9.1520 -1.8006 0.9618
3.6953 -9.0118 -1.8307 0.9611
4.6706 -9.0063 -1.9069 0.9595
6.1896 -8.0257 -1.9050 0.9596
7.9872 -6.0223 -1.8802 0.9601
9.4868 -2.8204 -1.8603 0.9605
9.6877 -1.9609 -1.8578 0.9606
9.8727 -0.2091 -1.8561 0.9606
9.8557 0.6722 -1.8568 0.9606
9.7658 1.5496 -1.8585 0.9606
9.6031 2.4176 -1.8613 0.9605
9.3686 3.2708 -1.8652 0.9604
8.5504 3.8714 -1.7642 0.9625
7.6173 5.2528 -1.7392 0.9630
5.5408 4.6007 -1.3537 0.9711
4.6108 5.4820 -1.3464 0.9713
5.4019 7.7286 -1.7723 0.9623
2.7118 4.7279 -1.0245 0.9781
3.9899 8.6656 -1.7931 0.9619
2.4181 9.3547 -1.8161 0.9614
1.5850 9.5966 -1.8282 0.9612
0.7281 9.7656 -1.8406 0.9609
-0.1464 9.8588 -1.8533 0.9607
-1.0318 9.8740 -1.8660 0.9604
-3.6811 9.4368 -1.9039 0.9596
-6.1583 8.2760 -1.9390 0.9589
-6.9088 7.7357 -1.9495 0.9587
-7.6088 7.1245 -1.9592 0.9585
-9.5561 6.1793 -2.1390 0.9547
-10.1040 5.3212 -2.1464 0.9546
-10.9448 3.4601 -2.1576 0.9544
-11.4948 -0.5853 -2.1634 0.9542
-11.1791 -2.6105 -2.1578 0.9544
-8.8057 -7.0591 -2.1213 0.9551
-7.3357 -8.4230 -2.0994 0.9556
-2.6688 -9.6364 -1.8794 0.9601
-1.7868 -9.7692 -1.8667 0.9604
0.8444 -9.6933 -1.8289 0.9612
2.5191 -9.2667 -1.8050 0.9617
4.2849 -9.0088 -1.8751 0.9602
5.1803 -8.7761 -1.9155 0.9594
5.9212 -8.2503 -1.9088 0.9595
6.6002 -7.6514 -1.8993 0.9597
7.2231 -7.0006 -1.8907 0.9599
7.7865 -6.3029 -1.8829 0.9600
8.7228 -4.7875 -1.8703 0.9603
9.0911 -3.9803 -1.8654 0.9604
9.3902 -3.1475 -1.8615 0.9605
9.6187 -2.2943 -1.8587 0.9606
9.8597 -0.5489 -1.8561 0.9606
9.6745 2.0842 -1.8601 0.9605
4.9875 8.0407 -1.7785 0.9622
-1.5779 9.8438 -1.8739 0.9602
-2.4658 9.7296 -1.8866 0.9600
-3.3455 9.5340 -1.8991 0.9597
-5.0490 8.9002 -1.9233 0.9592
-5.8568 8.4646 -1.9347 0.9590
-9.9022 5.6588 -2.1437 0.9546
-10.3996 4.7683 -2.1504 0.9545
-10.8105 3.8318 -2.1558 0.9544
-11.1301 2.8583 -2.1599 0.9543
-11.4821 0.8378 -2.1639 0.9542
-11.5104 -0.1892 -2.1638 0.9542
-11.2703 -2.2256 -2.1593 0.9543
-11.0049 -3.2150 -2.1549 0.9544
-9.6683 -5.9548 -2.1343 0.9548
0.5115 -9.7419 -1.8336 0.9611
1.3687 -9.5930 -1.8214 0.9613
2.2040 -9.3711 -1.8095 0.9616
3.9113 -9.0108 -1.8463 0.9608
5.6450 -8.4664 -1.9126 0.9594
6.9897 -7.2576 -1.8939 0.9598
7.5764 -6.5773 -1.8858 0.9600
8.5626 -5.0908 -1.8724 0.9603
8.9571 -4.2951 -1.8671 0.9604
9.5390 -2.6255 -1.8596 0.9605
9.8416 0.8731 -1.8571 0.9606
9.7350 1.7488 -1.8591 0.9605
9.5559 2.6140 -1.8621 0.9605
8.2992 3.9635 -1.7287 0.9633
4.6115 5.7153 -1.3803 0.9706
2.6327 4.8150 -1.0315 0.9779
3.0409 9.1203 -1.8070 0.9616
-7.5453 -6.4879 -2.1035 0.9601
-6.9055 -7.1024 -2.0939 0.9603
-3.0067 -8.9232 -1.9904 0.9622
-0.5132 -8.9623 -1.8976 0.9640
0.2878 -8.9695 -1.8969 0.9640
1.0943 -8.9740 -1.9110 0.9637
2.7247 -8.8122 -1.9497 0.9630
4.2109 -8.1199 -1.9335 0.9633
4.8936 -7.6739 -1.9239 0.9635
5.5324 -7.1736 -1.9149 0.9636
6.1235 -6.6233 -1.9067 0.9638
6.6634 -6.0273 -1.8992 0.9639
7.5778 -4.7170 -1.8868 0.9642
8.2555 -3.2805 -1.8778 0.9643
8.6820 -1.7573 -1.8724 0.9644
8.8486 -0.1874 -1.8708 0.9645
8.8331 0.6024 -1.8715 0.9645
8.6045 2.1662 -1.8756 0.9644
8.3925 2.9301 -1.8790 0.9643
8.0988 3.6670 -1.8792 0.9643
6.8171 4.7010 -1.7504 0.9667
4.6117 4.5826 -1.3743 0.9738
3.5591 7.7301 -1.7989 0.9658
2.8718 8.0614 -1.8089 0.9656
2.1541 8.3333 -1.8194 0.9654
1.4109 8.5426 -1.8302 0.9652
0.6476 8.6865 -1.8412 0.9650
-0.1301 8.7628 -1.8525 0.9648
-0.9164 8.7695 -1.8638 0.9646
-3.2619 8.3623 -1.8973 0.9640
-4.0170 8.0836 -1.9081 0.9638
-4.7472 7.7349 -1.9184 0.9636
-5.4456 7.3183 -1.9282 0.9634
-6.1055 6.8363 -1.9375 0.9632
-6.7202 6.2924 -1.9460 0.9631
-7.2834 5.6910 -1.9538 0.9629
-8.4195 5.4443 -2.1194 0.9598
-8.9114 4.6931 -2.1289 0.9597
-9.6470 3.0498 -2.1387 0.9595
-9.8949 2.1808 -2.1418 0.9594
-10.1285 -0.5157 -2.1437 0.9594
-9.5900 -3.1639 -2.1346 0.9596
-8.3349 -5.5383 -2.1153 0.9599
-7.1588 -6.8727 -2.0977 0.9602
-4.2080 -8.7399 -2.0504 0.9611
-3.3515 -8.9190 -2.0140 0.9618
0.7817 -8.9726 -1.9038 0.9638
1.5977 -8.9755 -1.9271 0.9634
2.4228 -8.9124 -1.9523 0.9629
3.9366 -8.2766 -1.9373 0.9632
6.9683 -5.6407 -1.8951 0.9640
7.4193 -4.9808 -1.8889 0.9641
7.8119 -4.2875 -1.8836 0.9642
8.4137 -2.8202 -1.8757 0.9644
8.6198 -2.0560 -1.8732 0.9644
8.8370 -0.4920 -1.8709 0.9645
8.7908 1.0861 -1.8723 0.9644
8.6690 1.8676 -1.8745 0.9644
8.4820 2.6373 -1.8776 0.9643
8.2306 3.3902 -1.8816 0.9643
6.9659 4.4577 -1.7481 0.9668
4.6121 5.1151 -1.4558 0.9722
4.6153 6.1414 -1.6239 0.9691
4.4530 7.1790 -1.7857 0.9661
3.8152 7.5870 -1.7951 0.9659
3.1408 7.9404 -1.8050 0.9657
2.4343 8.2356 -1.8153 0.9655
0.9442 8.6389 -1.8370 0.9651
0.1713 8.7415 -1.8481 0.9649
-0.6124 8.7753 -1.8594 0.9647
-1.4008 8.7386 -1.8707 0.9645
-2.1873 8.6306 -1.8820 0.9643
-2.9654 8.4508 -1.8931 0.9640
-5.1804 7.4869 -1.9245 0.9635
-5.8559 7.0298 -1.9340 0.9633
-7.0726 5.9296 -1.9509 0.9630
-7.6013 5.2951 -1.9582 0.9628
-8.7347 4.9916 -2.1265 0.9597
-9.1701 4.2045 -2.1324 0.9596
-9.8091 2.5190 -2.1407 0.9594
-10.1171 0.7382 -2.1442 0.9594
-10.1421 -0.1667 -2.1441 0.9594
-10.0804 -1.0695 -2.1428 0.9594
-9.7013 -2.8342 -2.1364 0.9595
-5.3053 -8.2331 -2.0703 0.9607
-4.5223 -8.6200 -2.0576 0.9610
-3.7029 -8.9098 -2.0395 0.9613
-2.8067 -8.9272 -1.9781 0.9625
-1.9561 -8.9427 -1.9350 0.9633
-1.1350 -8.9549 -1.9080 0.9638
-0.3301 -8.9642 -1.8961 0.9640
2.1111 -8.9759 -1.9491 0.9630
3.6568 -8.4244 -1.9413 0.9631
6.2515 -6.4910 -1.9049 0.9638
8.0231 -3.8472 -1.8808 0.9643
8.5479 -2.3527 -1.8740 0.9644
8.8509 -0.0070 -1.8709 0.9645
8.7238 1.5672 -1.8735 0.9644
8.5618 2.3421 -1.8763 0.9644
8.3351 3.1020 -1.8799 0.9643
8.0162 3.8284 -1.8778 0.9643
7.1065 4.2100 -1.7460 0.9668
4.6110 4.7727 -1.4028 0.9732
4.6139 5.7184 -1.5532 0.9704
4.6884 7.0077 -1.7822 0.9661
4.0658 7.4359 -1.7914 0.9659
-6.7505 -5.8045 -2.0924 0.9641
-6.1810 -6.3573 -2.0839 0.9642
-4.9091 -7.2876 -2.0651 0.9645
-3.5016 -7.9633 -2.0445 0.9649
-2.0102 -8.3689 -2.0228 0.9653
-0.4867 -8.4992 -2.0008 0.9656
0.2715 -8.4627 -1.9900 0.9658
1.7513 -8.1920 -1.9688 0.9662
2.4619 -7.9622 -1.9587 0.9663
3.7997 -7.3269 -1.9398 0.9667
4.4179 -6.9278 -1.9311 0.9668
5.5330 -5.9846 -1.9155 0.9671
6.0231 -5.4481 -1.9088 0.9672
7.1899 -3.6298 -1.8929 0.9674
7.6935 -2.2873 -1.8864 0.9676
7.8584 -1.5906 -1.8844 0.9676
7.9955 0.5453 -1.8835 0.9676
7.9211 1.2569 -1.8849 0.9676
7.7870 1.9604 -1.8872 0.9675
7.5938 2.6512 -1.8904 0.9675
7.3426 3.3246 -1.8943 0.9674
6.8623 3.8785 -1.8526 0.9681
6.1634 4.2502 -1.7596 0.9697
4.5577 5.4189 -1.6642 0.9713
2.6909 4.6914 -1.2711 0.9780
3.2093 6.9703 -1.8035 0.9690
1.9402 7.5059 -1.8220 0.9686
0.5826 7.8147 -1.8417 0.9683
-0.8234 7.8797 -1.8620 0.9680
-2.2336 7.6907 -1.8822 0.9676
-2.9256 7.5001 -1.8920 0.9675
-3.6007 7.2459 -1.9016 0.9673
-4.2529 6.9295 -1.9108 0.9671
-5.4641 6.1181 -1.9279 0.9669
-8.3236 3.4747 -2.1198 0.9636
-8.6157 2.7238 -2.1237 0.9636
-8.8356 1.9474 -2.1264 0.9635
-8.9812 1.1528 -2.1281 0.9635
-9.0434 -0.4605 -2.1282 0.9635
-8.7999 -2.0549 -2.1238 0.9635
-8.5665 -2.8263 -2.1201 0.9636
-7.8891 -4.2813 -2.1096 0.9638
-6.9566 -5.5768 -2.0955 0.9640
-5.8079 -6.6687 -2.0784 0.9643
-5.1666 -7.1273 -2.0689 0.9645
-4.4890 -7.5232 -2.0589 0.9646
-3.7813 -7.8537 -2.0486 0.9648
-3.0501 -8.1171 -2.0379 0.9650
-0.0201 -8.4849 -1.9941 0.9657
0.7324 -8.4071 -1.9834 0.9659
2.1906 -8.0580 -1.9626 0.9663
2.8856 -7.7913 -1.9527 0.9664
3.5515 -7.4669 -1.9433 0.9666
4.1838 -7.0879 -1.9344 0.9667
6.3001 -5.0997 -1.9050 0.9672
6.7099 -4.5045 -1.8994 0.9673
7.0668 -3.8785 -1.8946 0.9674
7.3688 -3.2263 -1.8906 0.9675
7.8018 -1.8609 -1.8850 0.9676
7.9304 -1.1571 -1.8836 0.9676
7.9993 -0.4453 -1.8829 0.9676
8.0082 0.2696 -1.8832 0.9676
7.9569 0.9830 -1.8843 0.9676
7.6753 2.3865 -1.8891 0.9675
7.1419 3.7181 -1.8923 0.9675
6.2988 4.0307 -1.7575 0.9697
4.6144 5.1177 -1.6195 0.9721
4.5547 6.0607 -1.7818 0.9693
4.0182 6.4781 -1.7916 0.9692
3.4409 6.8428 -1.8001 0.9690
1.5310 7.6257 -1.8280 0.9685
0.8496 7.7736 -1.8379 0.9684
-0.5504 7.8867 -1.8581 0.9680
-1.2582 7.8490 -1.8682 0.9679
-1.9634 7.7472 -1.8783 0.9677
-3.3426 7.3514 -1.8980 0.9674
-4.0044 7.0589 -1.9073 0.9672
-6.3250 5.3027 -1.9398 0.9667
-7.1649 4.9911 -2.0522 0.9648
-7.8055 4.4606 -2.1129 0.9637
-8.1922 3.7562 -2.1181 0.9636
-8.7595 2.2495 -2.1255 0.9635
-8.9340 1.4610 -2.1276 0.9635
-9.0329 0.6591 -2.1286 0.9635
-9.0553 -0.1488 -2.1285 0.9635
-9.0009 -0.9549 -2.1273 0.9635
-8.3876 -3.2871 -2.1172 0.9637
-8.0407 -4.0115 -2.1119 0.9638
-7.6283 -4.6983 -2.1056 0.9639
-7.1547 -5.3415 -2.0984 0.9640
-6.0442 -6.4757 -2.0819 0.9643
-5.4187 -6.9577 -2.0726 0.9644
-4.0574 -7.7340 -2.0526 0.9647
-3.3346 -8.0235 -2.0421 0.9649
-1.8369 -8.3978 -2.0203 0.9653
-0.3129 -8.4970 -1.9984 0.9657
1.1881 -8.3269 -1.9768 0.9660
2.6206 -7.9012 -1.9564 0.9664
3.2983 -7.5987 -1.9469 0.9665
3.9441 -7.2404 -1.9377 0.9667
4.5537 -6.8296 -1.9292 0.9668
5.1232 -6.3701 -1.9212 0.9670
5.6491 -5.8656 -1.9139 0.9671
6.5579 -4.7380 -1.9014 0.9673
6.9355 -4.1234 -1.8963 0.9674
7.5263 -2.8146 -1.8885 0.9675
7.7363 -2.1294 -1.8858 0.9676
7.9798 -0.7206 -1.8831 0.9676
7.9838 0.7083 -1.8838 0.9676
7.8957 1.4184 -1.8854 0.9676
7.7481 2.1195 -1.8879 0.9675
7.5416 2.8067 -1.8912 0.9675
6.5719 3.8933 -1.7952 0.9691
6.0799 4.3781 -1.7608 0.9697
5.2952 4.5824 -1.6458 0.9716
4.6133 4.7750 -1.5604 0.9731
4.2315 6.3247 -1.7884 0.9692
2.4424 7.3250 -1.8147 0.9688
-5.5885 -5.7479 -2.0757 0.9674
-3.8197 -6.9336 -2.0496 0.9678
-1.1333 -7.6822 -2.0106 0.9684
-0.4417 -7.7142 -2.0006 0.9686
2.2388 -7.2406 -1.9623 0.9692
2.8624 -6.9806 -1.9534 0.9693
3.4583 -6.6688 -1.9450 0.9694
4.0226 -6.3081 -1.9371 0.9696
6.2505 -3.8908 -1.9063 0.9700
7.1709 -1.4514 -1.8943 0.9702
7.2677 -0.8059 -1.8933 0.9702
7.3096 -0.1548 -1.8930 0.9702
6.6971 3.0323 -1.9035 0.9701
6.4043 3.6197 -1.9047 0.9701
5.6678 3.9084 -1.7826 0.9720
4.5594 4.5306 -1.6642 0.9738
2.3532 6.6057 -1.8156 0.9714
1.7633 6.8214 -1.8242 0.9713
1.1537 6.9851 -1.8331 0.9712
0.5290 7.0950 -1.8421 0.9710
-0.7468 7.1468 -1.8605 0.9707
-1.3878 7.0866 -1.8697 0.9706
-3.8479 6.2697 -1.9047 0.9701
-5.4323 5.0866 -1.9269 0.9697
-5.8831 4.5968 -1.9331 0.9696
-6.8012 4.3979 -2.0970 0.9671
-7.1889 3.7860 -2.1037 0.9670
-7.5132 3.1365 -2.1080 0.9669
-8.1037 1.0402 -2.1154 0.9668
-8.1662 0.3137 -2.1159 0.9668
-8.0847 -1.1405 -2.1140 0.9668
-7.7324 -2.5511 -2.1082 0.9669
-7.4590 -3.2237 -2.1039 0.9670
-6.7322 -4.4733 -2.0928 0.9672
-6.2864 -5.0395 -2.0861 0.9673
-5.7915 -5.5601 -2.0787 0.9674
-5.2525 -6.0310 -2.0707 0.9675
-4.6746 -6.4485 -2.0622 0.9676
-4.0633 -6.8098 -2.0532 0.9678
-2.7636 -7.3545 -2.0342 0.9681
-2.0868 -7.5350 -2.0244 0.9682
-0.7084 -7.7092 -2.0045 0.9685
0.6653 -7.6365 -1.9847 0.9688
2.6249 -7.0872 -1.9568 0.9693
5.3221 -5.1582 -1.9190 0.9698
7.2999 -0.4064 -1.8930 0.9702
7.3080 0.2460 -1.8932 0.9702
7.2608 0.8970 -1.8943 0.9702
7.1588 1.5422 -1.8961 0.9702
6.7923 2.7977 -1.9020 0.9701
6.5298 3.3994 -1.9061 0.9700
6.0741 3.8870 -1.8671 0.9706
3.6573 5.8963 -1.7965 0.9717
3.1306 6.2256 -1.8042 0.9716
1.3909 6.9282 -1.8296 0.9712
0.7715 7.0591 -1.8386 0.9711
-1.1408 7.1167 -1.8662 0.9707
-2.4097 6.8671 -1.8843 0.9704
-4.7393 5.6893 -1.9172 0.9699
-7.9047 2.0300 -2.1131 0.9668
-8.1502 0.5947 -2.1159 0.9668
-8.1705 -0.1343 -2.1158 0.9668
-7.2606 -3.6223 -2.1009 0.9670
-4.9018 -6.2939 -2.0655 0.9676
-3.6738 -7.0027 -2.0475 0.9679
-3.0207 -7.2683 -2.0380 0.9680
-2.3494 -7.4727 -2.0282 0.9682
-0.2841 -7.7128 -1.9983 0.9686
0.4027 -7.6694 -1.9885 0.9688
1.0795 -7.5659 -1.9788 0.9689
1.7414 -7.4041 -1.9694 0.9691
3.0011 -6.9138 -1.9515 0.9693
3.5902 -6.5906 -1.9432 0.9695
4.1467 -6.2192 -1.9354 0.9696
5.9794 -4.3201 -1.9100 0.9700
6.6215 -3.1751 -1.9013 0.9701
6.8666 -2.5678 -1.8981 0.9702
7.2821 -0.6576 -1.8931 0.9702
7.3114 -0.0058 -1.8931 0.9702
7.2856 0.6463 -1.8938 0.9702
6.3260 3.7476 -1.9038 0.9701
5.5424 3.9911 -1.7684 0.9722
5.1805 4.4831 -1.7738 0.9721
4.5524 4.7120 -1.6964 0.9733
2.2204 6.6594 -1.8176 0.9714
-5.0944 -5.2397 -2.0688 0.9701
-4.5904 -5.6525 -2.0614 0.9702
-2.8956 -6.5853 -2.0365 0.9705
-2.2870 -6.7875 -2.0276 0.9707
-1.6654 -6.9334 -2.0186 0.9708
-1.0360 -7.0225 -2.0095 0.9709
1.4575 -6.8180 -1.9737 0.9714
2.6230 -6.3967 -1.9572 0.9717
5.0387 -4.5577 -1.9234 0.9722
6.5878 -1.3334 -1.9028 0.9724
6.6770 -0.7404 -1.9018 0.9725
6.7156 -0.1422 -1.9016 0.9725
6.5263 1.6430 -1.9052 0.9724
6.3627 2.2214 -1.9079 0.9724
5.5642 3.8370 -1.9134 0.9723
4.8336 4.0135 -1.7786 0.9742
4.4702 4.4420 -1.7840 0.9741
3.6354 5.2012 -1.7964 0.9740
2.6748 5.8095 -1.8106 0.9738
1.6143 6.2452 -1.8261 0.9735
-0.0971 6.5372 -1.8508 0.9732
-1.2679 6.4744 -1.8677 0.9729
-1.8482 6.3637 -1.8760 0.9728
-2.9741 5.9849 -1.8920 0.9726
-3.5098 5.7188 -1.8995 0.9725
-4.0208 5.4035 -1.9067 0.9724
-4.5024 5.0413 -1.9135 0.9723
-4.9499 4.6349 -1.9197 0.9722
-5.5623 4.3462 -1.9983 0.9711
-6.5455 3.4471 -2.0942 0.9697
-6.8395 2.8552 -2.0982 0.9697
-7.0773 2.2374 -2.1013 0.9696
-7.3748 0.9466 -2.1049 0.9696
-7.4258 -0.3781 -2.1049 0.9696
-7.2285 -1.6880 -2.1014 0.9696
-6.4882 -3.5210 -2.0898 0.9698
-5.7281 -4.5919 -2.0783 0.9699
-4.7891 -5.4989 -2.0643 0.9701
-3.1258 -6.4923 -2.0399 0.9705
-2.5237 -6.7161 -2.0311 0.9706
-1.2794 -6.9948 -2.0130 0.9709
-0.6478 -7.0490 -2.0039 0.9710
0.6088 -6.9884 -1.9859 0.9713
1.2240 -6.8758 -1.9771 0.9714
1.8241 -6.7101 -1.9685 0.9715
2.4049 -6.4935 -1.9603 0.9716
4.8842 -4.7337 -1.9255 0.9721
6.1741 -2.7032 -1.9080 0.9724
6.3815 -2.1390 -1.9053 0.9724
6.6486 -0.9701 -1.9021 0.9725
6.7140 0.2260 -1.9018 0.9725
6.6704 0.8241 -1.9027 0.9724
6.5762 1.4167 -1.9044 0.9724
5.0559 3.9120 -1.8097 0.9738
4.6149 4.2803 -1.7819 0.9742
4.2286 4.6898 -1.7876 0.9741
3.3527 5.4051 -1.8006 0.9739
2.3585 5.9626 -1.8152 0.9737
1.8253 6.1755 -1.8230 0.9736
1.2731 6.3414 -1.8310 0.9735
0.7059 6.4585 -1.8393 0.9734
0.1279 6.5252 -1.8476 0.9732
-1.0424 6.5029 -1.8644 0.9730
-1.6252 6.4127 -1.8728 0.9729
-2.2000 6.2696 -1.8810 0.9728
-3.3058 5.8274 -1.8966 0.9725
-6.0410 4.2082 -2.0842 0.9699
-6.9924 2.4785 -2.1002 0.9696
-7.1943 1.8475 -2.1027 0.9696
-7.4170 0.5412 -2.1053 0.9696
-7.3915 -0.7842 -2.1042 0.9696
-7.2857 -1.4387 -2.1024 0.9696
-6.8937 -2.7016 -2.0961 0.9697
-6.6115 -3.2985 -2.0917 0.9698
-6.2757 -3.8653 -2.0866 0.9698
-4.4703 -5.7400 -2.0596 0.9702
-3.9255 -6.0918 -2.0516 0.9703
-2.1460 -6.8258 -2.0256 0.9707
-0.2598 -7.0542 -1.9983 0.9711
2.7503 -6.3361 -1.9554 0.9717
3.2913 -6.0420 -1.9478 0.9718
3.8028 -5.7034 -1.9406 0.9719
4.7237 -4.9048 -1.9277 0.9721
5.8081 -3.4532 -1.9129 0.9723
6.3072 -2.3586 -1.9063 0.9724
6.6126 -1.1987 -1.9025 0.9724
6.6903 -0.6041 -1.9017 0.9725
6.7172 -0.0053 -1.9016 0.9725
6.6933 0.5938 -1.9023 0.9725
6.3185 2.3515 -1.9086 0.9724
5.8230 3.4496 -1.9160 0.9723
4.3820 4.5356 -1.7854 0.9741
3.5317 5.2787 -1.7980 0.9739
2.5583 5.8683 -1.8123 0.9737
-5.1014 -4.3865 -2.0694 0.9722
-4.6757 -4.8090 -2.0630 0.9723
-3.7217 -5.5249 -2.0489 0.9725
-3.2024 -5.8130 -2.0413 0.9726
-2.6611 -6.0518 -2.0334 0.9727
-1.5316 -6.3763 -2.0170 0.9729
-0.9531 -6.4605 -2.0086 0.9730
1.8900 -6.1125 -1.9679 0.9736
3.4027 -5.3359 -1.9465 0.9739
3.8524 -4.9951 -1.9402 0.9739
4.2695 -4.6179 -1.9344 0.9740
4.6515 -4.2074 -1.9291 0.9741
5.5631 -2.8085 -1.9168 0.9743
5.7825 -2.2979 -1.9139 0.9743
5.9574 -1.7711 -1.9116 0.9743
6.1933 0.4224 -1.9094 0.9744
6.1347 0.9734 -1.9105 0.9743
6.0292 1.5179 -1.9123 0.9743
5.8774 2.0519 -1.9148 0.9743
5.6802 2.5719 -1.9179 0.9742
5.4389 3.0740 -1.9216 0.9742
4.7017 3.9040 -1.8797 0.9747
3.3532 4.7974 -1.8003 0.9758
1.9861 5.5752 -1.8204 0.9755
0.4454 5.9746 -1.8427 0.9752
-0.0893 6.0156 -1.8505 0.9751
-0.6279 6.0087 -1.8582 0.9750
-1.6989 5.8495 -1.8735 0.9748
-2.2224 5.6974 -1.8810 0.9747
-3.6911 4.9603 -1.9017 0.9745
-4.5415 4.2524 -1.9136 0.9743
-5.3059 4.1458 -2.0711 0.9722
-6.2701 2.6175 -2.0898 0.9720
-6.6508 1.4658 -2.0947 0.9719
-6.8108 0.2616 -2.0964 0.9719
-6.8058 -0.3465 -2.0960 0.9719
-6.7439 -0.9513 -2.0948 0.9719
-6.4529 -2.1290 -2.0900 0.9720
-5.9500 -3.2290 -2.0822 0.9721
-4.8444 -4.6508 -2.0656 0.9723
-3.9152 -5.4010 -2.0518 0.9725
-3.4056 -5.7076 -2.0443 0.9726
-2.8722 -5.9656 -2.0365 0.9727
-2.3198 -6.1734 -2.0284 0.9728
-1.7530 -6.3298 -2.0202 0.9729
-1.1768 -6.4342 -2.0119 0.9730
-0.5961 -6.4864 -2.0035 0.9731
-0.0154 -6.4865 -1.9951 0.9732
0.5606 -6.4353 -1.9869 0.9733
1.6809 -6.1833 -1.9709 0.9735
2.7315 -5.7428 -1.9560 0.9737
5.1876 -3.4826 -1.9218 0.9742
5.4667 -3.0004 -1.9180 0.9742
5.7031 -2.4970 -1.9149 0.9743
6.0422 -1.4412 -1.9106 0.9743
6.1428 -0.8963 -1.9094 0.9744
6.2034 0.2088 -1.9091 0.9744
6.1629 0.7614 -1.9100 0.9743
6.0754 1.3088 -1.9115 0.9743
5.5372 2.8826 -1.9201 0.9742
4.9438 3.8252 -1.9226 0.9742
3.5118 4.6730 -1.7979 0.9758
-0.4199 6.0171 -1.8552 0.9751
-0.9586 5.9805 -1.8630 0.9750
-1.4941 5.8954 -1.8706 0.9749
-2.5373 5.5803 -1.8855 0.9747
-3.9653 4.7602 -1.9056 0.9744
-4.3874 4.4013 -1.9115 0.9743
-6.1724 2.8301 -2.0886 0.9720
-6.4097 2.2720 -2.0917 0.9719
-6.5942 1.6934 -2.0940 0.9719
-6.7975 0.4960 -2.0963 0.9719
-6.7745 -0.7187 -2.0954 0.9719
-6.3202 -2.4769 -2.0879 0.9720
-5.0076 -4.4865 -2.0680 0.9723
-4.1044 -5.2701 -2.0546 0.9724
-3.6053 -5.5950 -2.0472 0.9725
-3.0805 -5.8719 -2.0395 0.9726
-2.5349 -6.0993 -2.0316 0.9727
-1.9731 -6.2756 -2.0234 0.9728
-1.4000 -6.4001 -2.0151 0.9730
-0.8204 -6.4724 -2.0067 0.9731
-0.2391 -6.4926 -1.9983 0.9732
2.0124 -6.0673 -1.9662 0.9736
2.5357 -5.8417 -1.9587 0.9737
3.0354 -5.5722 -1.9517 0.9738
3.5081 -5.2615 -1.9451 0.9739
4.3599 -4.5270 -1.9332 0.9740
5.3640 -3.1891 -1.9194 0.9742
5.6170 -2.6935 -1.9160 0.9743
5.8264 -2.1789 -1.9133 0.9743
5.9909 -1.6490 -1.9112 0.9743
6.1095 -1.1075 -1.9098 0.9744
6.2064 -0.0049 -1.9090 0.9744
6.1841 0.5486 -1.9096 0.9744
6.1147 1.0985 -1.9108 0.9743
5.0749 3.6544 -1.9235 0.9742
4.0437 4.1855 -1.7900 0.9759
3.6660 4.5435 -1.7957 0.9759
3.2573 4.8686 -1.8017 0.9758
2.5402 4.6457 -1.6286 0.9781
2.3581 5.4091 -1.8149 0.9756
1.8737 5.6196 -1.8220 0.9755
-3.8912 -4.7915 -2.0518 0.9743
-3.4373 -5.1026 -2.0451 0.9744
-1.9435 -5.7680 -2.0232 0.9747
-1.4162 -5.8959 -2.0156 0.9748
-0.3440 -6.0072 -2.0001 0.9750
0.7227 -5.9271 -1.9848 0.9751
1.2436 -5.8172 -1.9773 0.9752
1.7508 -5.6624 -1.9701 0.9753
2.2407 -5.4644 -1.9632 0.9754
3.1547 -4.9470 -1.9503 0.9756
3.9601 -4.2833 -1.9391 0.9757
4.6354 -3.4951 -1.9297 0.9758
4.9187 -3.0618 -1.9259 0.9759
5.3676 -2.1330 -1.9199 0.9759
5.6952 0.9037 -1.9168 0.9760
5.5968 1.4090 -1.9185 0.9760
5.2718 2.3870 -1.9236 0.9759
4.4703 3.7118 -1.9314 0.9758
3.4819 4.1398 -1.7981 0.9775
3.1085 4.4473 -1.8036 0.9774
2.6523 4.6242 -1.7720 0.9778
2.2845 4.9618 -1.8158 0.9772
1.8397 5.1642 -1.8223 0.9772
1.3771 5.3272 -1.8290 0.9771
-0.0826 5.5653 -1.8501 0.9768
-1.0779 5.5043 -1.8644 0.9766
-1.5702 5.4066 -1.8715 0.9765
-2.5236 5.0783 -1.8850 0.9764
-2.9763 4.8495 -1.8914 0.9763
-4.9042 3.8319 -2.0688 0.9741
-5.5350 2.9150 -2.0794 0.9740
-5.9816 1.8910 -2.0853 0.9739
-6.1319 1.3515 -2.0872 0.9739
-6.2791 0.2412 -2.0887 0.9739
-6.2745 -0.3195 -2.0884 0.9739
-6.2178 -0.8771 -2.0873 0.9739
-6.1094 -1.4267 -2.0854 0.9739
-5.9506 -1.9632 -2.0829 0.9739
-5.7428 -2.4820 -2.0796 0.9740
-4.8495 -3.8876 -2.0660 0.9741
-4.0587 -4.6603 -2.0542 0.9743
-3.6155 -4.9876 -2.0477 0.9744
-2.6539 -5.5122 -2.0336 0.9745
-2.1441 -5.7059 -2.0262 0.9746
-1.6208 -5.8522 -2.0185 0.9747
-1.0884 -5.9506 -2.0108 0.9748
-0.5515 -6.0007 -2.0031 0.9749
0.5190 -5.9572 -1.9877 0.9751
2.0540 -5.5458 -1.9658 0.9754
3.8142 -4.4217 -1.9411 0.9757
4.1822 -4.0534 -1.9360 0.9757
4.8139 -3.2317 -1.9273 0.9759
5.2936 -2.3177 -1.9209 0.9759
5.4725 -1.8343 -1.9186 0.9760
5.6093 -1.3380 -1.9169 0.9760
5.7593 0.1939 -1.9155 0.9760
5.5150 1.7148 -1.9198 0.9759
4.8894 3.1288 -1.9295 0.9758
3.6183 4.0129 -1.7961 0.9775
3.2559 4.3324 -1.8015 0.9774
2.8564 4.6050 -1.8013 0.9774
2.0136 5.0906 -1.8197 0.9772
1.5574 5.2691 -1.8264 0.9771
1.0856 5.4072 -1.8332 0.9770
0.1089 5.5565 -1.8474 0.9768
-0.3884 5.5656 -1.8545 0.9768
-1.3811 5.4496 -1.8688 0.9766
-1.8684 5.3245 -1.8757 0.9765
-2.3440 5.1553 -1.8825 0.9764
-2.8040 4.9428 -1.8890 0.9763
-3.6603 4.3941 -1.9010 0.9762
-4.0535 4.0663 -1.9085 0.9761
-4.7575 3.9886 -2.0637 0.9742
-5.1191 3.5660 -2.0738 0.9740
-5.4276 3.1017 -2.0780 0.9740
-5.6922 2.6099 -2.0815 0.9739
-6.1573 -1.2159 -2.0862 0.9739
-5.8287 -2.2842 -2.0809 0.9740
-4.9854 -3.7220 -2.0681 0.9741
-4.6215 -4.1406 -2.0626 0.9742
-2.8461 -5.4250 -2.0364 0.9745
-2.3426 -5.6367 -2.0290 0.9746
-1.8240 -5.8014 -2.0215 0.9747
-1.2946 -5.9184 -2.0138 0.9748
-0.2213 -6.0076 -1.9983 0.9750
1.3607 -5.7857 -1.9757 0.9753
1.8643 -5.6209 -1.9685 0.9753
2.8136 -5.1650 -1.9551 0.9755
3.6637 -4.5553 -1.9432 0.9757
4.3915 -3.8124 -1.9331 0.9758
4.7035 -3.3982 -1.9288 0.9758
4.9780 -2.9596 -1.9251 0.9759
5.5616 -1.5308 -1.9174 0.9760
5.6720 -1.0281 -1.9161 0.9760
5.7389 -0.5182 -1.9154 0.9760
5.7621 -0.0045 -1.9153 0.9760
5.7412 0.5093 -1.9159 0.9760
5.5683 1.5232 -1.9189 0.9760
4.9902 2.9562 -1.9280 0.9758
4.7170 3.3967 -1.9322 0.9758
3.7956 3.9287 -1.8158 0.9772
3.3991 4.2128 -1.7993 0.9774
2.1847 5.0114 -1.8172 0.9772
1.7355 5.2049 -1.8238 0.9771
-3.1897 -4.7352 -2.0417 0.9760
-2.7461 -4.9848 -2.0352 0.9761
-1.8050 -5.3568 -2.0215 0.9763
-1.3156 -5.4771 -2.0143 0.9764
-0.8191 -5.5527 -2.0072 0.9764
1.6290 -5.2686 -1.9721 0.9768
2.5225 -4.8641 -1.9594 0.9770
2.9373 -4.6061 -1.9536 0.9771
3.3269 -4.3139 -1.9482 0.9771
3.6887 -3.9897 -1.9431 0.9772
4.0202 -3.6364 -1.9385 0.9772
4.5838 -2.8533 -1.9308 0.9773
5.1552 -1.5326 -1.9233 0.9774
5.2676 -1.0662 -1.9219 0.9774
5.3704 -0.1137 -1.9209 0.9774
5.3091 0.8424 -1.9223 0.9774
4.9133 2.2246 -1.9287 0.9773
4.7033 2.6583 -1.9320 0.9773
4.4562 3.0729 -1.9357 0.9773
2.8941 4.1406 -1.8066 0.9788
2.5211 4.3955 -1.8121 0.9787
1.7116 4.8046 -1.8239 0.9786
1.2808 4.9550 -1.8302 0.9785
0.8369 5.0673 -1.8366 0.9784
0.3832 5.1400 -1.8432 0.9783
-1.0013 5.1128 -1.8631 0.9781
-1.9064 4.8874 -1.8760 0.9780
-2.3423 4.7134 -1.8822 0.9779
-2.7618 4.5000 -1.8881 0.9778
-4.8604 3.1429 -2.0698 0.9757
-5.6820 1.2523 -2.0807 0.9756
-5.7739 0.7411 -2.0817 0.9756
-5.6614 -1.3221 -2.0790 0.9756
-5.5148 -1.8194 -2.0767 0.9756
-5.3229 -2.3005 -2.0737 0.9757
-5.0877 -2.7610 -2.0700 0.9757
-4.8115 -3.1971 -2.0658 0.9758
-3.7653 -4.3233 -2.0502 0.9759
-3.3549 -4.6281 -2.0441 0.9760
-2.4638 -5.1173 -2.0311 0.9762
-1.5055 -5.4359 -2.0171 0.9763
-0.5125 -5.5769 -2.0027 0.9765
0.4826 -5.5394 -1.9884 0.9767
0.9711 -5.4551 -1.9815 0.9767
1.4485 -5.3285 -1.9747 0.9768
1.9114 -5.1609 -1.9681 0.9769
2.3563 -4.9540 -1.9618 0.9770
3.1798 -4.4305 -1.9502 0.9771
4.7285 -2.5952 -1.9289 0.9773
4.9340 -2.1602 -1.9261 0.9774
5.1012 -1.7099 -1.9240 0.9774
5.3337 0.6589 -1.9219 0.9774
4.9841 2.0529 -1.9276 0.9774
4.7887 2.4930 -1.9307 0.9773
4.2868 3.3169 -1.9383 0.9772
3.5338 3.9192 -1.8871 0.9778
3.0316 4.0340 -1.8045 0.9788
2.2809 4.5359 -1.8156 0.9787
1.0096 5.0286 -1.8341 0.9784
0.5592 5.1167 -1.8407 0.9784
-0.8235 5.1373 -1.8606 0.9781
-1.2827 5.0612 -1.8671 0.9781
-2.1758 4.7853 -1.8798 0.9779
-3.3953 4.0759 -1.8970 0.9777
-4.0222 4.0350 -2.0374 0.9761
-4.7457 3.3059 -2.0683 0.9757
-5.0309 2.8750 -2.0722 0.9757
-5.4772 1.9414 -2.0781 0.9756
-5.7441 0.9394 -2.0814 0.9756
-5.8067 0.4237 -2.0820 0.9756
-5.7056 -1.1267 -2.0798 0.9756
-5.5768 -1.6292 -2.0777 0.9756
-5.4021 -2.1171 -2.0749 0.9757
-5.1834 -2.5860 -2.0715 0.9757
-4.9227 -3.0320 -2.0675 0.9757
-4.2861 -3.8401 -2.0579 0.9758
-3.9162 -4.1957 -2.0524 0.9759
-3.5164 -4.5150 -2.0465 0.9760
-2.6420 -5.0359 -2.0337 0.9761
-1.6940 -5.3882 -2.0198 0.9763
-1.2027 -5.4983 -2.0127 0.9764
-0.2057 -5.5842 -1.9983 0.9765
0.7837 -5.4927 -1.9841 0.9767
1.2659 -5.3823 -1.9773 0.9768
1.7348 -5.2303 -1.9706 0.9769
2.1870 -5.0384 -1.9642 0.9769
2.6193 -4.8083 -1.9581 0.9770
3.4121 -4.2425 -1.9470 0.9771
3.7672 -3.9115 -1.9420 0.9772
4.0914 -3.5519 -1.9375 0.9772
4.8592 -2.3301 -1.9271 0.9774
5.0413 -1.8853 -1.9247 0.9774
5.3501 -0.4831 -1.9210 0.9774
5.2916 0.9506 -1.9226 0.9774
5.1904 1.4198 -1.9243 0.9774
5.0491 1.8791 -1.9266 0.9774
4.6500 2.7547 -1.9328 0.9773
4.1011 3.5490 -1.9395 0.9772
3.7667 3.8987 -1.9386 0.9772
3.1780 3.9387 -1.8098 0.9787
2.8110 4.2016 -1.8078 0.9788
2.4327 4.4492 -1.8134 0.9787
2.0330 4.6633 -1.8192 0.9786
-3.7289 -3.8353 -2.0499 0.9773
-2.9723 -4.4123 -2.0387 0.9775
-2.5594 -4.6459 -2.0327 0.9775
-1.6830 -4.9949 -2.0199 0.9777
-1.2270 -5.1083 -2.0133 0.9777
-0.2983 -5.2100 -1.9998 0.9779
1.5215 -4.9208 -1.9738 0.9782
1.9481 -4.7509 -1.9678 0.9782
2.3570 -4.5450 -1.9620 0.9783
3.1098 -4.0323 -1.9514 0.9784
3.4485 -3.7300 -1.9467 0.9785
4.0392 -3.0455 -1.9386 0.9786
4.2871 -2.6686 -1.9352 0.9786
4.5012 -2.2724 -1.9323 0.9786
4.9281 -0.9975 -1.9268 0.9787
4.9955 -0.5540 -1.9261 0.9787
5.0245 -0.1064 -1.9259 0.9787
4.9669 0.7881 -1.9272 0.9787
4.8805 1.2287 -1.9287 0.9787
4.7565 1.6606 -1.9307 0.9786
4.3987 2.4861 -1.9363 0.9786
4.1671 2.8736 -1.9398 0.9786
3.2687 3.8864 -1.9461 0.9785
2.7530 3.9387 -1.8415 0.9796
1.9859 4.3133 -1.8197 0.9799
1.1959 4.6265 -1.8312 0.9797
-0.0717 4.8259 -1.8496 0.9795
-0.9338 4.7682 -1.8620 0.9794
-1.3596 4.6812 -1.8680 0.9793
-2.1829 4.3927 -1.8797 0.9792
-2.9812 4.0064 -1.9137 0.9788
-3.5532 3.9785 -2.0442 0.9774
-3.9142 3.6651 -2.0549 0.9773
-4.2378 3.3113 -2.0610 0.9772
-4.5247 2.9258 -2.0649 0.9772
-4.9874 2.0820 -2.0711 0.9771
-2.2989 0.0883 -0.8816 0.9902
-2.3014 -0.1172 -0.8831 0.9902
-5.2688 -1.2304 -2.0734 0.9771
-4.9546 -2.1413 -2.0684 0.9771
-4.7363 -2.5703 -2.0651 0.9772
-4.1876 -3.3570 -2.0568 0.9773
-3.5075 -4.0274 -2.0466 0.9774
-3.1259 -4.3121 -2.0410 0.9774
-2.7211 -4.5603 -2.0350 0.9775
-0.0123 -5.2078 -1.9957 0.9779
0.4505 -5.1709 -1.9891 0.9780
3.3211 -3.8500 -1.9485 0.9785
4.1954 -2.8165 -1.9364 0.9786
4.4227 -2.4274 -1.9334 0.9786
4.6154 -2.0207 -1.9308 0.9786
4.9740 -0.7257 -1.9263 0.9787
4.9900 0.6165 -1.9268 0.9787
4.9184 1.0596 -1.9280 0.9787
4.6620 1.9203 -1.9322 0.9786
4.2605 2.7264 -1.9384 0.9786
4.0084 3.1015 -1.9422 0.9785
3.7241 3.4540 -1.9465 0.9785
2.9521 3.9282 -1.8830 0.9792
2.4928 4.0188 -1.8123 0.9799
2.1308 4.2374 -1.8176 0.9799
-0.7680 4.7914 -1.8596 0.9794
-1.6172 4.6087 -1.8717 0.9793
-2.4247 4.2742 -1.8832 0.9792
-2.8040 4.0525 -1.8885 0.9791
-3.3306 3.9983 -1.9942 0.9780
-3.7779 3.7899 -2.0507 0.9773
-4.1180 3.4524 -2.0593 0.9772
-4.4182 3.0777 -2.0634 0.9772
-5.2430 1.3464 -2.0744 0.9771
-2.3029 -0.2443 -0.8875 0.9901
-5.1903 -1.5163 -2.0722 0.9771
-5.0282 -1.9705 -2.0696 0.9771
-4.8252 -2.4073 -2.0664 0.9772
-4.3044 -3.2136 -2.0585 0.9773
-2.4625 -4.6938 -2.0313 0.9776
-0.1919 -5.2110 -1.9983 0.9779
0.2725 -5.1900 -1.9916 0.9780
1.1821 -5.0261 -1.9786 0.9781
3.8257 -3.3213 -1.9415 0.9785
4.0987 -2.9613 -1.9377 0.9786
5.0055 -0.4520 -1.9260 0.9787
5.0074 0.4442 -1.9264 0.9787
4.9505 0.8893 -1.9275 0.9787
4.8555 1.3282 -1.9291 0.9787
4.7230 1.7577 -1.9312 0.9786
4.5537 2.1748 -1.9339 0.9786
3.8375 3.3209 -1.9448 0.9785
3.5286 3.6523 -1.9461 0.9785
3.1603 3.9168 -1.9286 0.9787
2.6390 3.9445 -1.8187 0.9799
2.2728 4.1567 -1.8155 0.9799
-3.8002 -3.2676 -2.0513 0.9786
-3.1445 -3.8721 -2.0415 0.9787
-2.7794 -4.1261 -2.0361 0.9787
-1.9911 -4.5283 -2.0246 0.9788
-0.7153 -4.8490 -2.0060 0.9790
-0.2793 -4.8781 -1.9997 0.9791
1.4257 -4.6111 -1.9754 0.9794
2.5738 -4.0360 -1.9591 0.9795
2.9162 -3.7812 -1.9543 0.9796
3.5260 -3.1894 -1.9459 0.9797
3.7892 -2.8570 -1.9423 0.9797
4.6882 -0.5199 -1.9305 0.9798
4.7155 -0.0999 -1.9304 0.9798
4.7065 0.3210 -1.9307 0.9798
4.5800 1.1530 -1.9330 0.9798
2.7343 3.9121 -1.9534 0.9796
2.2611 3.9422 -1.8600 0.9805
1.4978 4.2044 -1.8267 0.9809
0.3349 4.4920 -1.8436 0.9807
-0.0671 4.5181 -1.8494 0.9807
-0.8738 4.4622 -1.8609 0.9805
-2.0415 4.1082 -1.8776 0.9804
-2.4536 3.9978 -1.9198 0.9799
-2.9646 3.9841 -2.0325 0.9788
-4.2277 2.7338 -2.0605 0.9785
-4.4614 2.3496 -2.0637 0.9784
-4.8187 1.5234 -2.0684 0.9784
-2.0004 0.0768 -0.8193 0.9914
-2.0207 -0.2850 -0.8352 0.9912
-2.0957 -0.4894 -0.8808 0.9907
-4.7948 -1.5819 -2.0664 0.9784
-4.6288 -2.0005 -2.0638 0.9784
-4.4253 -2.4016 -2.0607 0.9785
-4.1862 -2.7816 -2.0571 0.9785
-3.6104 -3.4662 -2.0484 0.9786
-3.2792 -3.7652 -2.0435 0.9787
-2.9229 -4.0321 -2.0382 0.9787
-2.5448 -4.2650 -2.0327 0.9788
-2.1483 -4.4621 -2.0269 0.9788
-1.7368 -4.6221 -2.0209 0.9789
-1.3138 -4.7440 -2.0147 0.9789
-0.8829 -4.8273 -2.0085 0.9790
-0.4477 -4.8715 -2.0022 0.9791
0.8494 -4.7715 -1.9836 0.9793
1.2676 -4.6627 -1.9776 0.9793
1.6733 -4.5180 -1.9718 0.9794
2.0636 -4.3386 -1.9663 0.9794
2.4357 -4.1263 -1.9611 0.9795
2.7868 -3.8830 -1.9561 0.9796
3.1146 -3.6106 -1.9516 0.9796
3.9360 -2.6424 -1.9403 0.9797
4.1497 -2.2776 -1.9374 0.9797
4.3309 -1.8962 -1.9350 0.9798
4.7142 0.1587 -1.9305 0.9798
4.6829 0.5785 -1.9312 0.9798
4.5125 1.4031 -1.9341 0.9798
4.2022 2.1876 -1.9389 0.9797
3.9969 2.5577 -1.9421 0.9797
3.1951 3.5435 -1.9528 0.9796
2.8669 3.8149 -1.9531 0.9796
1.9971 3.9715 -1.8194 0.9810
1.6398 4.1456 -1.8246 0.9809
0.8828 4.3973 -1.8356 0.9808
0.0884 4.5123 -1.8471 0.9807
-0.3152 4.5164 -1.8529 0.9806
-0.7188 4.4843 -1.8587 0.9806
-1.5129 4.3115 -1.8701 0.9804
-1.8968 4.1716 -1.8755 0.9804
-2.7607 3.9899 -1.9858 0.9792
-3.1921 3.8320 -2.0412 0.9787
-3.8483 3.2264 -2.0553 0.9785
-4.1283 2.8758 -2.0592 0.9785
-4.3754 2.5004 -2.0625 0.9785
-4.5872 2.1033 -2.0654 0.9784
-4.7617 1.6878 -2.0677 0.9784
-4.8973 1.2577 -2.0694 0.9784
-2.0398 0.3336 -0.8459 0.9911
-2.0116 0.1468 -0.8255 0.9913
-2.0182 -0.2141 -0.8306 0.9913
-2.0733 -0.4094 -0.8649 0.9909
-4.6974 -1.8409 -2.0649 0.9784
-4.2826 -2.6377 -2.0585 0.9785
-4.0227 -3.0032 -2.0546 0.9785
-1.8971 -4.5648 -2.0232 0.9789
-1.4782 -4.7016 -2.0171 0.9789
-0.6159 -4.8591 -2.0046 0.9791
0.6854 -4.8036 -1.9859 0.9792
1.5184 -4.5780 -1.9740 0.9794
1.9150 -4.4118 -1.9684 0.9794
2.2945 -4.2120 -1.9631 0.9795
2.9910 -3.7190 -1.9533 0.9796
3.3033 -3.4299 -1.9489 0.9796
3.5887 -3.1155 -1.9450 0.9797
3.8452 -2.7781 -1.9415 0.9797
4.2649 -2.0451 -1.9358 0.9798
4.5516 -1.2528 -1.9321 0.9798
4.7166 -0.0037 -1.9304 0.9798
4.6993 0.4169 -1.9309 0.9798
4.6458 0.8346 -1.9318 0.9798
4.5564 1.2464 -1.9333 0.9798
4.4318 1.6493 -1.9354 0.9798
4.2726 2.0405 -1.9378 0.9797
4.0799 2.4170 -1.9408 0.9797
3.8550 2.7760 -1.9442 0.9797
3.5993 3.1147 -1.9481 0.9796
3.3145 3.4307 -1.9524 0.9796
2.9963 3.7135 -1.9529 0.9796
2.1582 3.9472 -1.8412 0.9807
1.7796 4.0821 -1.8226 0.9809
-2.9491 -3.6315 -2.0388 0.9798
-1.4780 -4.3864 -2.0173 0.9800
-0.6716 -4.5526 -2.0056 0.9801
0.1467 -4.5725 -1.9938 0.9802
0.5521 -4.5279 -1.9880 0.9803
1.7162 -4.1853 -1.9714 0.9805
2.0771 -4.0052 -1.9663 0.9805
2.4199 -3.7948 -1.9615 0.9806
3.3165 -2.9999 -1.9490 0.9807
4.2588 -1.2661 -1.9363 0.9808
4.3521 -0.8809 -1.9352 0.9808
4.4375 -0.0940 -1.9344 0.9808
4.3096 1.0850 -1.9368 0.9808
3.6772 2.5357 -1.9467 0.9807
3.4427 2.8586 -1.9502 0.9807
2.8925 3.4390 -1.9584 0.9806
2.2385 3.9028 -1.9608 0.9806
1.8153 3.9426 -1.8917 0.9812
1.4112 3.9615 -1.8328 0.9818
0.6874 4.1617 -1.8383 0.9818
0.3145 4.2188 -1.8437 0.9817
-0.0630 4.2425 -1.8492 0.9817
-1.1938 4.1103 -1.8654 0.9815
-1.5603 3.9999 -1.8712 0.9814
-1.9814 3.9873 -1.9405 0.9808
-2.7898 3.7492 -2.0367 0.9798
-3.1257 3.4999 -2.0451 0.9797
-3.7123 2.9006 -2.0532 0.9797
-3.9627 2.5624 -2.0566 0.9796
-4.1814 2.2021 -2.0596 0.9796
-4.3663 1.8227 -2.0620 0.9796
-1.4465 0.0556 -0.6309 0.9937
-1.4737 -0.2079 -0.6486 0.9935
-3.6693 -2.9415 -2.0495 0.9797
-3.0752 -3.5310 -2.0407 0.9798
-2.7415 -3.7820 -2.0357 0.9798
-2.3873 -4.0010 -2.0305 0.9799
-1.6299 -4.3376 -2.0195 0.9800
-1.2332 -4.4529 -2.0137 0.9800
-0.4203 -4.5743 -2.0019 0.9802
-0.0108 -4.5800 -1.9960 0.9802
0.7980 -4.4829 -1.9845 0.9803
2.6204 -3.6512 -1.9587 0.9806
3.2136 -3.1146 -1.9504 0.9807
3.4721 -2.8106 -1.9468 0.9807
3.7029 -2.4858 -1.9437 0.9807
3.9043 -2.1428 -1.9410 0.9808
4.0750 -1.7841 -1.9387 0.9808
4.2139 -1.4124 -1.9369 0.9808
4.4316 -0.2467 -1.9344 0.9808
4.4363 0.1494 -1.9345 0.9808
4.2460 1.3202 -1.9379 0.9808
3.9534 2.0581 -1.9424 0.9807
3.7599 2.4060 -1.9454 0.9807
3.5366 2.7364 -1.9488 0.9807
3.0066 3.3345 -1.9567 0.9806
2.3708 3.8222 -1.9602 0.9806
1.9788 3.9352 -1.9196 0.9810
-0.2959 4.2404 -1.8525 0.9816
-0.6748 4.2094 -1.8579 0.9816
-1.4196 4.0457 -1.8686 0.9815
-1.8144 3.9905 -1.9105 0.9811
-2.2584 3.9811 -1.9948 0.9802
-3.3171 3.3277 -2.0477 0.9797
-3.8697 2.6957 -2.0554 0.9796
-4.2990 1.9711 -2.0612 0.9796
-1.4888 0.5277 -0.6884 0.9931
-1.4914 0.3830 -0.6711 0.9933
-1.4705 -0.1560 -0.6445 0.9936
-1.4720 -0.2907 -0.6539 0.9935
-4.2254 -2.1081 -2.0580 0.9796
-4.0144 -2.4725 -2.0547 0.9796
