ply
format ascii 1.0
element vertex 1580
property float32 x
property float32 y
property float32 z
property float32 I
end_header
8.1142 -16.0599 -1.7274 0.9302
9.5984 -15.4089 -1.7429 0.9296
11.0941 -14.7046 -1.7684 0.9287
13.8755 -12.8213 -1.8137 0.9269
15.1609 -11.6858 -1.8377 0.9260
16.3586 -10.4258 -1.8623 0.9250
17.4552 -9.0466 -1.8875 0.9240
14.6846 -6.0173 -1.5236 0.9382
10.5008 14.6827 -1.7330 0.9300
8.2883 14.0947 -1.5698 0.9364
4.7936 13.0080 -1.3309 0.9458
1.0383 12.1432 -1.1701 0.9522
-1.4350 15.3502 -1.4801 0.9399
-17.7942 2.4844 -1.7249 0.9303
-14.9109 -0.5936 -1.4327 0.9418
-17.3032 -2.2454 -1.6751 0.9323
-15.7436 -6.5973 -1.6388 0.9337
-14.1797 -9.1958 -1.6225 0.9343
-12.2476 -11.4981 -1.6128 0.9347
-10.2497 -13.8115 -1.6512 0.9332
-9.4418 -15.4284 -1.7366 0.9299
-6.5799 -16.9311 -1.7439 0.9296
-3.4976 -17.9781 -1.7583 0.9290
-1.8917 -18.3203 -1.7682 0.9287
-0.2528 -18.5364 -1.7798 0.9282
5.9683 -16.6919 -1.7019 0.9312
7.5115 -16.2645 -1.7200 0.9305
10.5194 -15.0137 -1.7600 0.9290
13.3476 -13.2338 -1.8045 0.9273
14.6639 -12.1486 -1.8282 0.9263
17.0358 -9.6041 -1.8775 0.9244
15.0205 9.3699 -1.6996 0.9313
8.7692 7.9470 -1.1361 0.9536
7.1026 13.7260 -1.4837 0.9398
5.3973 13.1958 -1.3687 0.9443
2.6255 12.3336 -1.2106 0.9506
1.4869 12.2808 -1.1876 0.9515
-2.8594 19.2731 -1.8706 0.9247
-17.1495 8.1089 -1.8212 0.9266
-17.3352 6.3755 -1.7732 0.9285
-17.2371 4.6440 -1.7139 0.9308
-17.7876 1.5094 -1.7138 0.9308
-17.6724 -0.0814 -1.6967 0.9314
-16.7998 -3.1112 -1.6403 0.9336
-16.0045 -6.0540 -1.6428 0.9336
-15.3114 -7.4130 -1.6332 0.9339
-13.6313 -9.9263 -1.6189 0.9345
-8.6014 -15.9296 -1.7380 0.9298
-7.1632 -16.6699 -1.7419 0.9297
-5.6670 -17.2979 -1.7475 0.9295
-4.1199 -17.8094 -1.7549 0.9292
-2.5292 -18.2002 -1.7641 0.9288
-0.9023 -18.4665 -1.7750 0.9284
6.9052 -16.4486 -1.7127 0.9308
8.4360 -15.9416 -1.7316 0.9301
9.9378 -15.3022 -1.7517 0.9293
11.3994 -14.5303 -1.7730 0.9285
14.1541 -12.5917 -1.8187 0.9267
16.5995 -10.1437 -1.8676 0.9248
17.6730 -8.7401 -1.8928 0.9238
14.7499 -5.7213 -1.5189 0.9384
10.8778 9.1821 -1.3666 0.9444
7.8589 13.9612 -1.5381 0.9376
6.0372 13.3947 -1.4105 0.9427
4.4830 12.9114 -1.3122 0.9466
1.9244 12.2620 -1.1916 0.9513
-0.2655 11.6208 -1.1159 0.9544
-17.7974 2.1431 -1.7210 0.9305
9.5380 14.3800 -2.0497 0.9329
7.4996 13.8463 -1.8705 0.9385
2.8884 12.4129 -1.5139 0.9500
0.5914 11.7924 -1.4025 0.9536
-0.4604 11.7569 -1.3976 0.9537
-2.1718 16.8210 -2.0147 0.9340
-7.6241 14.4523 -1.9410 0.9363
-9.5171 14.6959 -2.0798 0.9319
-12.6530 11.2855 -2.0140 0.9340
-14.1497 8.6718 -1.9713 0.9353
-14.7119 7.2994 -1.9508 0.9360
-15.4622 4.4806 -1.9123 0.9372
-15.0848 1.5674 -1.8015 0.9407
-14.6662 0.2095 -1.7423 0.9426
-13.7745 -3.5685 -1.6902 0.9443
-13.3247 -4.7547 -1.6805 0.9446
-12.7839 -5.8940 -1.6722 0.9449
-12.3640 -7.0999 -1.6936 0.9442
-10.5665 -10.6436 -1.7815 0.9414
-9.5671 -11.5328 -1.7799 0.9414
-7.3729 -13.0584 -1.7813 0.9414
-4.9576 -14.2191 -1.7888 0.9411
-1.0315 -15.2113 -1.8110 0.9404
5.3914 -13.5542 -1.7327 0.9429
9.0350 -11.9754 -1.7820 0.9414
10.1690 -11.2357 -1.8001 0.9408
11.2467 -10.3922 -1.8190 0.9402
12.2578 -9.4482 -1.8384 0.9396
15.4354 -4.7687 -1.9190 0.9370
17.2535 -3.6845 -2.0957 0.9314
18.0166 -0.5745 -2.1412 0.9300
18.1617 1.0433 -2.1609 0.9293
16.4967 9.0909 -2.2374 0.9269
14.5004 9.7704 -2.0770 0.9320
10.6141 8.6216 -1.6243 0.9464
12.6089 12.2618 -2.0892 0.9316
11.4812 13.3549 -2.0920 0.9315
10.2478 14.3290 -2.0926 0.9315
8.2860 14.0907 -1.9417 0.9363
6.3955 13.5032 -1.7748 0.9416
4.7925 13.0049 -1.6464 0.9457
3.3954 12.5705 -1.5467 0.9489
2.1484 12.1827 -1.4695 0.9514
-0.0461 11.6504 -1.3839 0.9542
-1.4347 15.3473 -1.8310 0.9398
-4.4891 16.1118 -1.9868 0.9348
-5.8520 15.5006 -1.9681 0.9354
-7.1394 14.7706 -1.9487 0.9361
-5.9015 9.8563 -1.3646 0.9548
-10.2317 14.0698 -2.0665 0.9323
-12.3004 11.7737 -2.0226 0.9337
-13.8938 9.2026 -1.9796 0.9351
-14.5052 7.8444 -1.9588 0.9357
-14.9917 6.4535 -1.9388 0.9364
-15.3536 5.0410 -1.9196 0.9370
-15.5919 3.6175 -1.9013 0.9376
-15.2576 2.1303 -1.8300 0.9398
-14.4562 -0.5755 -1.7186 0.9434
-14.2415 -1.8481 -1.7059 0.9438
-13.9258 -3.0893 -1.6944 0.9442
-13.5132 -4.2923 -1.6842 0.9445
-10.9408 -10.2713 -1.7826 0.9413
-9.9694 -11.1919 -1.7804 0.9414
-8.9287 -12.0314 -1.7797 0.9414
-7.8244 -12.7855 -1.7806 0.9414
-6.6624 -13.4499 -1.7829 0.9413
-4.1899 -14.4941 -1.7922 0.9410
-2.8923 -14.8665 -1.7990 0.9408
-1.5628 -15.1348 -1.8074 0.9406
-0.2086 -15.2960 -1.8171 0.9402
2.3493 -14.1193 -1.7002 0.9440
3.6256 -13.9578 -1.7130 0.9436
4.8948 -13.6895 -1.7269 0.9431
6.1486 -13.3135 -1.7420 0.9426
7.3783 -12.8296 -1.7580 0.9421
9.7282 -11.5398 -1.7929 0.9410
11.8678 -9.8321 -1.8307 0.9398
12.8337 -8.8292 -1.8504 0.9392
13.7169 -7.7330 -1.8705 0.9385
16.5666 -4.1522 -2.0288 0.9335
17.5656 -2.7684 -2.1123 0.9309
17.9178 -1.2034 -2.1332 0.9302
18.1228 0.4023 -2.1533 0.9296
18.0677 3.6759 -2.1902 0.9284
14.8108 9.2390 -2.0736 0.9321
11.9391 12.9375 -2.0912 0.9315
9.0028 14.1460 -1.9918 0.9347
7.1007 13.7224 -1.8353 0.9397
2.6249 12.3309 -1.4976 0.9505
1.4605 12.0628 -1.4434 0.9522
0.3662 11.7224 -1.3931 0.9539
-0.7218 12.4247 -1.4784 0.9511
-3.9335 16.3179 -1.9939 0.9346
-5.3231 15.7563 -1.9756 0.9352
-6.6416 15.0720 -1.9565 0.9358
-10.9064 13.4093 -2.0532 0.9327
-11.9292 12.2512 -2.0312 0.9334
-15.2258 5.5997 -1.9270 0.9367
-15.5126 4.1793 -1.9084 0.9373
-15.4357 2.7118 -1.8616 0.9388
-14.9941 1.2723 -1.7875 0.9412
-14.5806 -0.0671 -1.7320 0.9430
-14.3440 -1.3503 -1.7114 0.9436
-13.6872 -3.8231 -1.6881 0.9444
-13.2178 -4.9998 -1.6787 0.9447
-12.6764 -6.1373 -1.6730 0.9448
-12.2795 -7.3631 -1.7008 0.9440
-11.8674 -8.6418 -1.7438 0.9426
-10.3609 -10.8384 -1.7811 0.9414
-9.3469 -11.7104 -1.7798 0.9414
-8.2670 -12.4987 -1.7801 0.9414
-7.1270 -13.1990 -1.7818 0.9414
-5.9330 -13.8071 -1.7851 0.9413
-4.6912 -14.3193 -1.7899 0.9411
-3.4080 -14.7320 -1.7962 0.9409
-2.0902 -15.0417 -1.8039 0.9407
0.6206 -15.3404 -1.8237 0.9400
1.8460 -14.1540 -1.6955 0.9441
3.1228 -14.0341 -1.7078 0.9437
4.3958 -13.8081 -1.7213 0.9433
6.8970 -13.0332 -1.7516 0.9423
8.1075 -12.4840 -1.7682 0.9418
9.2791 -11.8277 -1.7857 0.9412
10.4021 -11.0658 -1.8040 0.9407
12.4623 -9.2360 -1.8426 0.9394
13.3793 -8.1759 -1.8625 0.9388
15.5572 -4.4864 -1.9233 0.9369
17.7962 -1.8260 -2.1250 0.9305
18.1727 1.3886 -2.1649 0.9292
17.9250 4.6684 -2.2003 0.9281
17.0329 7.8796 -2.2293 0.9272
16.2894 9.3820 -2.2329 0.9271
14.3250 10.0506 -2.0787 0.9319
10.5312 8.8895 -1.6371 0.9460
11.2287 13.5713 -2.0923 0.9315
7.8567 13.9573 -1.9026 0.9375
3.1206 12.4851 -1.5287 0.9495
1.9240 12.2594 -1.4741 0.9512
0.7885 11.8538 -1.4112 0.9533
-0.2646 11.5824 -1.3762 0.9544
-9.2940 14.8775 -2.0837 0.9318
-10.4720 13.8429 -2.0618 0.9325
-11.5398 12.7172 -2.0398 0.9332
-12.4919 11.5130 -2.0180 0.9339
-13.3241 10.2427 -1.9963 0.9345
-14.6186 7.5525 -1.9545 0.9359
-15.0787 6.1561 -1.9347 0.9365
-14.7408 0.4510 -1.7518 0.9423
7.9859 12.0400 -2.0471 0.9433
6.8739 12.6910 -2.0450 0.9434
5.7044 13.2280 -2.0411 0.9435
2.8878 12.4101 -1.8054 0.9498
0.5913 11.7901 -1.6726 0.9534
-3.0033 13.5795 -1.9706 0.9454
-5.2842 12.6329 -1.9402 0.9462
-6.3362 12.0111 -1.9241 0.9466
-8.9034 11.3789 -2.0471 0.9433
-11.2877 8.3881 -1.9926 0.9448
-12.7650 4.9703 -1.9409 0.9462
-13.0488 3.7812 -1.9249 0.9466
-13.3052 1.3825 -1.8954 0.9474
-13.1577 -0.9884 -1.8696 0.9481
-12.9384 -2.1442 -1.8582 0.9484
-12.2244 -4.3621 -1.8390 0.9489
-11.7369 -5.4113 -1.8312 0.9491
-11.1677 -6.4129 -1.8247 0.9493
-8.1619 -9.8389 -1.8113 0.9497
-6.2893 -11.1392 -1.8125 0.9496
-4.2264 -12.1219 -1.8189 0.9495
4.5634 -11.4725 -1.7494 0.9513
8.5562 -9.4537 -1.8066 0.9498
9.4472 -8.7295 -1.8225 0.9494
11.0434 -7.0383 -1.8555 0.9485
11.7323 -6.0805 -1.8723 0.9480
13.9151 -4.2991 -2.0636 0.9429
14.3666 -3.0680 -2.0815 0.9424
14.7054 -1.7900 -2.0990 0.9419
14.9255 -0.4759 -2.1159 0.9415
15.0221 0.8630 -2.1320 0.9410
14.5390 4.9014 -2.1739 0.9399
14.1174 6.2101 -2.1853 0.9396
13.5679 7.4770 -2.1950 0.9393
11.9101 8.0250 -2.0349 0.9436
9.4181 10.9550 -2.0470 0.9433
7.3198 12.4476 -2.0460 0.9433
6.1714 13.0302 -2.0429 0.9434
4.7913 13.0018 -1.9633 0.9456
3.3946 12.5677 -1.8445 0.9488
2.1480 12.1801 -1.7524 0.9513
-0.0461 11.6481 -1.6504 0.9540
-1.3071 13.9816 -1.9897 0.9448
-3.7160 13.3371 -1.9617 0.9456
-4.8520 12.8520 -1.9464 0.9460
-8.5274 11.7261 -2.0543 0.9431
-9.4539 10.8223 -2.0361 0.9436
-12.6244 5.4344 -1.9474 0.9460
-13.0362 -1.6917 -1.8626 0.9483
-12.3933 -3.9366 -1.8425 0.9488
-11.4016 -6.0241 -1.8271 0.9492
-10.7849 -6.9942 -1.8213 0.9494
-9.3319 -8.7608 -1.8136 0.9496
-7.6175 -10.2646 -1.8111 0.9497
-6.6749 -10.9071 -1.8118 0.9497
-5.6825 -11.4717 -1.8139 0.9496
-4.6459 -11.9547 -1.8173 0.9495
-3.5709 -12.3528 -1.8219 0.9494
-0.1774 -13.0096 -1.8435 0.9488
0.9881 -13.0413 -1.8531 0.9485
1.9942 -11.9854 -1.7216 0.9521
3.0741 -11.8349 -1.7325 0.9518
4.1452 -11.5930 -1.7445 0.9515
6.2311 -10.8349 -1.7710 0.9508
7.2306 -10.3198 -1.7854 0.9504
9.1026 -9.0250 -1.8162 0.9495
9.9587 -8.2505 -1.8324 0.9491
14.5857 -2.2988 -2.0921 0.9421
14.8533 -0.9976 -2.1093 0.9416
14.9990 0.3330 -2.1257 0.9412
14.9094 3.0333 -2.1558 0.9404
11.0239 8.3283 -1.9576 0.9457
9.7944 10.6134 -2.0463 0.9433
8.8143 11.4507 -2.0475 0.9433
5.3947 13.1892 -2.0191 0.9441
0.3661 11.7200 -1.6614 0.9537
-0.7210 12.4112 -1.7615 0.9510
-2.0524 13.8342 -1.9816 0.9451
-3.2541 13.4994 -1.9675 0.9454
-5.5122 12.5092 -1.9369 0.9463
-6.5501 11.8679 -1.9207 0.9467
-8.1378 12.0606 -2.0615 0.9429
-9.0994 11.1876 -2.0433 0.9434
-9.9704 10.2395 -2.0250 0.9439
-10.7460 9.2263 -2.0068 0.9444
-12.4675 5.8951 -1.9540 0.9458
-13.0954 3.5281 -1.9216 0.9467
-13.2630 -0.0611 -1.8792 0.9478
-12.8800 -2.3853 -1.8560 0.9485
-10.3747 -7.5549 -1.8184 0.9495
-7.9742 -9.9906 -1.8112 0.9497
-7.0527 -10.6629 -1.8114 0.9497
-2.9036 -12.5514 -1.8254 0.9493
0.5276 -13.0402 -1.8492 0.9486
3.7245 -11.6993 -1.7396 0.9516
4.7866 -11.4020 -1.7521 0.9513
5.8280 -11.0132 -1.7655 0.9509
7.8173 -9.9644 -1.7945 0.9501
8.7493 -9.3075 -1.8100 0.9497
9.6284 -8.5656 -1.8260 0.9493
10.4466 -7.7422 -1.8424 0.9488
14.0197 -4.0430 -2.0674 0.9428
14.4479 -2.8012 -2.0852 0.9423
14.9564 -0.1943 -2.1193 0.9414
15.0262 1.1482 -2.1353 0.9409
14.7797 3.8492 -2.1640 0.9402
14.4606 5.1810 -2.1765 0.9398
11.7643 8.2540 -2.0362 0.9436
10.4762 8.8430 -1.9425 0.9461
10.1569 10.2575 -2.0453 0.9433
8.1819 11.9093 -2.0473 0.9433
5.9218 13.1387 -2.0420 0.9434
3.1199 12.4823 -1.8230 0.9493
-1.5686 13.9350 -1.9869 0.9449
-2.7852 13.6448 -1.9732 0.9453
-3.9608 13.2431 -1.9585 0.9457
-5.0851 12.7363 -1.9431 0.9461
-6.1491 12.1315 -1.9271 0.9465
-8.7308 11.5413 -2.0505 0.9432
-12.7019 5.1858 -1.9439 0.9461
-13.0047 3.9994 -1.9278 0.9465
-13.2988 1.6014 -1.8979 0.9473
-13.2928 0.4067 -1.8843 0.9477
6.7628 10.1960 -2.0156 0.9516
5.8220 10.7489 -2.0138 0.9517
4.8329 11.2070 -2.0106 0.9517
3.8057 11.5661 -2.0059 0.9518
2.7512 11.8233 -1.9998 0.9520
-0.4595 11.7331 -1.9344 0.9535
-1.5259 11.8184 -1.9631 0.9528
-3.5558 11.2195 -1.9389 0.9534
-4.5110 10.7843 -1.9258 0.9537
-5.4156 10.2659 -1.9121 0.9540
-7.6289 9.7501 -2.0395 0.9511
-8.4028 8.9621 -2.0238 0.9514
-9.7090 7.2149 -1.9927 0.9521
-10.2345 6.2723 -1.9775 0.9525
-10.6718 5.2949 -1.9626 0.9529
-11.5230 1.1973 -1.9085 0.9541
-11.5128 0.1644 -1.8968 0.9544
-11.4160 -0.8575 -1.8860 0.9547
-10.9716 -2.8423 -1.8671 0.9551
-10.2110 -4.7078 -1.8523 0.9554
-9.7203 -5.5818 -1.8466 0.9556
-9.1609 -6.4098 -1.8419 0.9557
-8.5367 -7.1871 -1.8384 0.9558
-0.7632 -11.2556 -1.8585 0.9553
1.2587 -11.3127 -1.8752 0.9549
2.2555 -11.1230 -1.8697 0.9550
3.0324 -10.1870 -1.7510 0.9578
6.5738 -8.7132 -1.7981 0.9567
7.3785 -8.1524 -1.8114 0.9564
8.1370 -7.5188 -1.8251 0.9561
9.7204 -6.1951 -1.8989 0.9543
11.4471 -4.6907 -2.0380 0.9511
11.9096 -3.6794 -2.0535 0.9507
12.2806 -2.6225 -2.0687 0.9504
12.7958 0.7351 -2.1115 0.9494
7.9756 9.2772 -2.0155 0.9516
7.1183 9.9531 -2.0158 0.9516
6.1992 10.5420 -2.0147 0.9516
4.2145 11.4366 -2.0079 0.9518
2.1036 11.9287 -1.9955 0.9521
-0.0461 11.6457 -1.9185 0.9539
-1.1117 11.8912 -1.9675 0.9527
-4.1400 10.9661 -1.9310 0.9536
-5.0655 10.4798 -1.9175 0.9539
-5.8999 9.8537 -1.8920 0.9545
-8.8333 8.4551 -2.0144 0.9516
-9.4780 7.5750 -1.9988 0.9520
-10.0377 6.6485 -1.9834 0.9524
-10.5100 5.6838 -1.9684 0.9527
-10.8932 4.6892 -1.9538 0.9531
-11.1865 3.6728 -1.9396 0.9534
-11.3895 2.6425 -1.9261 0.9537
-11.4644 -0.4564 -1.8901 0.9546
-11.3162 -1.4685 -1.8798 0.9548
-11.0849 -2.4591 -1.8705 0.9550
-9.9222 -5.2425 -1.8487 0.9555
-7.4094 -8.3180 -1.8351 0.9558
-6.6366 -8.9428 -1.8346 0.9559
-4.9498 -9.9926 -1.8371 0.9558
0.8583 -11.3282 -1.8715 0.9550
1.8716 -11.2483 -1.8785 0.9548
2.6944 -10.3730 -1.7655 0.9575
3.5916 -10.0449 -1.7574 0.9577
4.5012 -9.7464 -1.7686 0.9574
5.3881 -9.3690 -1.7805 0.9571
7.0664 -8.3823 -1.8061 0.9565
8.5711 -7.1009 -1.8336 0.9559
9.2411 -6.3576 -1.8478 0.9555
11.2410 -5.0751 -2.0318 0.9512
12.1456 -3.0441 -2.0627 0.9505
12.4587 -1.9635 -2.0778 0.9502
12.6721 -0.8511 -2.0923 0.9498
12.7818 0.2837 -2.1062 0.9495
12.7847 1.4308 -2.1193 0.9492
11.7062 5.9240 -2.1613 0.9482
11.1692 6.9674 -2.1687 0.9480
8.2948 8.9884 -2.0149 0.9516
5.6164 10.8539 -2.0133 0.9517
2.5256 11.8644 -1.9983 0.9520
1.4524 11.9960 -1.9906 0.9522
0.3661 11.7176 -1.9313 0.9536
-2.7722 11.5003 -1.9488 0.9532
-5.5998 10.1462 -1.9091 0.9541
-6.4341 9.5356 -1.8950 0.9544
-8.5565 8.7874 -2.0205 0.9515
-9.2338 7.9280 -2.0049 0.9519
-10.7529 5.0844 -1.9595 0.9529
-11.0817 4.0756 -1.9451 0.9533
-11.3202 3.0499 -1.9314 0.9536
-11.4688 2.0149 -1.9183 0.9539
-11.5281 0.9782 -1.9060 0.9542
-11.1858 -2.0715 -1.8741 0.9549
-10.9056 -3.0461 -1.8654 0.9551
-10.1131 -4.8963 -1.8510 0.9555
-9.6076 -5.7610 -1.8455 0.9556
-9.0341 -6.5786 -1.8411 0.9557
-8.3967 -7.3446 -1.8378 0.9558
-6.9473 -8.7041 -1.8347 0.9559
-6.1445 -9.2897 -1.8349 0.9559
-4.4065 -10.2547 -1.8387 0.9558
-1.5483 -11.1415 -1.8531 0.9554
1.4737 -11.2990 -1.8771 0.9549
2.4102 -10.8314 -1.8280 0.9560
3.2283 -10.1407 -1.7532 0.9578
5.0416 -9.5272 -1.7757 0.9572
5.9114 -9.1024 -1.7880 0.9570
6.7475 -8.6008 -1.8009 0.9567
7.5430 -8.0243 -1.8143 0.9563
8.2909 -7.3757 -1.8281 0.9560
11.0110 -5.4455 -2.0237 0.9514
11.5523 -4.4810 -2.0413 0.9510
11.9959 -3.4594 -2.0567 0.9506
12.3469 -2.3938 -2.0719 0.9503
12.6001 -1.2928 -2.0866 0.9499
12.7965 0.9778 -2.1142 0.9493
12.7337 2.1272 -2.1268 0.9490
12.2796 4.3996 -2.1489 0.9485
11.3932 6.5620 -2.1660 0.9481
7.7998 9.4271 -2.0157 0.9516
3.9957 11.5080 -2.0069 0.9518
1.8765 11.9566 -1.9938 0.9521
0.7881 11.8489 -1.9563 0.9530
-0.2645 11.5778 -1.9078 0.9541
-1.3344 11.8541 -1.9652 0.9528
-5.2545 10.3665 -1.9146 0.9540
-8.2672 9.1107 -2.0267 0.9513
-9.6036 7.3826 -1.9955 0.9521
-10.5986 5.4756 -1.9653 0.9528
-10.9628 4.4758 -1.9507 0.9531
-11.4209 2.4235 -1.9234 0.9538
5.8588 8.8330 -1.9923 0.9578
5.0443 9.3131 -1.9908 0.9578
3.2991 10.0264 -1.9840 0.9579
2.3859 10.2535 -1.9787 0.9581
1.4578 10.3918 -1.9724 0.9582
0.5237 10.4409 -1.9649 0.9583
-0.4074 10.4012 -1.9565 0.9585
-2.2255 10.0626 -1.9371 0.9589
-4.7241 8.9550 -1.9031 0.9596
-6.6674 8.5212 -2.0337 0.9569
-7.9662 7.1053 -2.0064 0.9575
-8.5099 6.3238 -1.9928 0.9578
-9.3713 4.6496 -1.9663 0.9583
-9.9205 2.8747 -1.9414 0.9588
-10.0762 1.9671 -1.9297 0.9591
-10.1513 0.1450 -1.9082 0.9595
-9.9190 -1.6438 -1.8898 0.9599
-9.6920 -2.5108 -1.8819 0.9601
-9.3943 -3.3522 -1.8748 0.9602
-7.5547 -6.3603 -1.8562 0.9606
-6.9497 -7.0004 -1.8541 0.9606
-6.2943 -7.5875 -1.8530 0.9607
-5.5927 -8.1182 -1.8529 0.9607
-4.0690 -8.9969 -1.8560 0.9606
-3.2561 -9.3391 -1.8590 0.9605
-2.4160 -9.6132 -1.8631 0.9605
-1.5536 -9.8168 -1.8681 0.9604
-0.6746 -9.9482 -1.8742 0.9602
1.1113 -9.9884 -1.8890 0.9599
2.8887 -9.7043 -1.9031 0.9596
3.6340 -9.1360 -1.8481 0.9608
4.3027 -8.5159 -1.7934 0.9619
5.0410 -8.0927 -1.7921 0.9619
6.5103 -7.1932 -1.8236 0.9613
8.3685 -6.4504 -1.9860 0.9579
8.9959 -5.7333 -2.0051 0.9575
9.5356 -4.9421 -2.0187 0.9572
10.3996 -3.2129 -2.0459 0.9567
10.7135 -2.2878 -2.0591 0.9564
11.0837 -0.3534 -2.0844 0.9559
11.0903 1.6380 -2.1072 0.9554
10.9528 2.6327 -2.1173 0.9552
10.7210 3.6143 -2.1265 0.9550
9.4751 6.3843 -2.1475 0.9546
8.5505 6.9454 -2.0706 0.9562
5.3708 9.1333 -1.9915 0.9578
4.5301 9.5647 -1.9892 0.9578
3.6530 9.9128 -1.9857 0.9579
2.7482 10.1745 -1.9809 0.9580
1.8249 10.3479 -1.9750 0.9581
-0.9661 10.3346 -1.9510 0.9586
-2.7568 9.8945 -1.9306 0.9591
-3.6068 9.5538 -1.9195 0.9593
-4.4171 9.1383 -1.9078 0.9595
-6.3700 8.7595 -2.0358 0.9569
-7.0893 8.1154 -2.0254 0.9571
-8.3043 6.6370 -1.9982 0.9577
-8.8031 5.8308 -1.9847 0.9579
-9.8373 3.2298 -1.9461 0.9587
-10.1611 0.5031 -1.9122 0.9594
-9.9884 -1.2962 -1.8932 0.9598
-9.7901 -2.1718 -1.8849 0.9600
-9.1806 -3.8471 -1.8710 0.9603
-7.7784 -6.0943 -1.8573 0.9606
-7.1944 -6.7542 -1.8548 0.9606
-5.8745 -7.9160 -1.8528 0.9607
-3.5801 -9.2122 -1.8577 0.9606
-2.7501 -9.5134 -1.8614 0.9605
-1.8959 -9.7451 -1.8660 0.9604
1.6541 -9.9409 -1.8942 0.9598
2.5452 -9.7988 -1.9029 0.9596
3.3678 -9.4188 -1.8801 0.9601
4.0392 -8.7460 -1.8108 0.9615
6.2080 -7.3641 -1.8104 0.9616
7.0529 -6.9927 -1.8668 0.9604
8.0555 -6.6737 -1.9662 0.9583
9.3309 -5.2604 -2.0133 0.9573
9.8289 -4.4376 -2.0270 0.9571
10.2535 -3.5675 -2.0406 0.9568
10.8627 -1.7120 -2.0670 0.9562
11.0389 -0.7414 -2.0796 0.9560
11.1250 0.2470 -2.0916 0.9557
11.1186 1.2443 -2.1029 0.9555
10.5351 4.1984 -2.1316 0.9549
10.1544 5.1387 -2.1391 0.9547
4.8664 9.4044 -1.9903 0.9578
3.1076 10.0818 -1.9830 0.9580
2.1905 10.2902 -1.9775 0.9581
1.2603 10.4096 -1.9709 0.9582
-0.6031 10.3816 -1.9546 0.9586
-3.2761 9.6973 -1.9239 0.9592
-4.1028 9.3107 -1.9124 0.9594
-4.8858 8.8524 -1.9005 0.9597
-5.6189 8.3275 -1.8882 0.9599
-9.0684 5.3248 -1.9766 0.9581
-9.7418 3.5828 -1.9510 0.9586
-10.0464 -0.9457 -1.8967 0.9598
-9.6348 -2.6912 -1.8803 0.9601
-9.3224 -3.5264 -1.8734 0.9602
-8.4986 -5.0960 -1.8626 0.9605
-6.1496 -7.7046 -1.8529 0.9607
-4.6872 -8.6806 -1.8543 0.9606
-1.3689 -9.8507 -1.8693 0.9603
2.1953 -9.8655 -1.8997 0.9597
3.0720 -9.6497 -1.9035 0.9596
3.7741 -8.9901 -1.8326 0.9611
4.4476 -8.4046 -1.7873 0.9620
5.1997 -8.0065 -1.7944 0.9619
5.9300 -7.5587 -1.8058 0.9617
6.6920 -7.1190 -1.8365 0.9610
7.6463 -6.8022 -1.9236 0.9592
9.1156 -5.5704 -2.0080 0.9575
10.0952 -3.9158 -2.0352 0.9569
11.1020 -0.1442 -2.0869 0.9558
9.8800 5.6904 -2.1430 0.9547
7.4532 7.5270 -1.9910 0.9578
6.0024 8.7369 -1.9924 0.9578
5.1964 9.2313 -1.9911 0.9578
3.4636 9.9755 -1.9848 0.9579
2.5541 10.2186 -1.9798 0.9580
1.6280 10.3732 -1.9736 0.9582
-0.2379 10.4150 -1.9581 0.9585
-2.0631 10.1075 -1.9390 0.9589
-3.7818 9.4720 -1.9170 0.9593
-4.5827 9.0413 -1.9052 0.9596
-5.3362 8.5420 -1.8931 0.9598
-7.2310 7.9687 -2.0225 0.9571
-7.8591 7.2432 -2.0089 0.9574
-9.6340 3.9332 -1.9559 0.9585
-10.0536 2.1334 -1.9318 0.9590
-10.1573 0.3107 -1.9101 0.9595
5.1628 7.7837 -1.9743 0.9625
4.4454 8.2075 -1.9730 0.9626
3.6916 8.5605 -1.9706 0.9626
2.9086 8.8397 -1.9671 0.9627
2.1042 9.0427 -1.9625 0.9628
-0.3597 9.1852 -1.9430 0.9631
-1.1721 9.0781 -1.9349 0.9633
-2.7392 8.6428 -1.9165 0.9636
-3.4804 8.3205 -1.9065 0.9638
-4.1851 7.9334 -1.8960 0.9640
-6.5268 6.9612 -2.0171 0.9617
-7.0785 6.3135 -2.0050 0.9620
-7.5673 5.6234 -1.9929 0.9622
-7.9904 4.8970 -1.9810 0.9624
-8.3457 4.1407 -1.9693 0.9626
-8.8470 2.5637 -1.9470 0.9630
-8.9917 1.7554 -1.9365 0.9632
-9.0657 0.9420 -1.9266 0.9634
-8.8712 -1.4702 -1.9008 0.9639
-8.6720 -2.2466 -1.8936 0.9640
-8.4089 -3.0006 -1.8873 0.9642
-8.0843 -3.7273 -1.8817 0.9643
-7.7008 -4.4221 -1.8771 0.9643
-7.2614 -5.0808 -1.8733 0.9644
-5.6410 -6.8000 -1.8676 0.9645
-5.0123 -7.2756 -1.8675 0.9645
-4.3459 -7.6971 -1.8684 0.9645
-1.3912 -8.7904 -1.8813 0.9643
0.1930 -8.9531 -1.8930 0.9640
3.3671 -8.4651 -1.9257 0.9634
4.8577 -7.7985 -1.9421 0.9631
5.5643 -7.3752 -1.9529 0.9629
6.8791 -6.3565 -1.9798 0.9624
8.4673 -4.3884 -2.0159 0.9618
8.8776 -3.6378 -2.0280 0.9615
9.8062 -0.3127 -2.0739 0.9607
9.8439 0.5655 -2.0842 0.9605
9.7997 1.4474 -2.0939 0.9603
9.6727 2.3251 -2.1029 0.9601
9.1721 4.0347 -2.1181 0.9599
8.3538 5.6288 -2.1293 0.9597
7.8262 6.3571 -2.1313 0.9596
5.4340 7.5980 -1.9745 0.9625
3.9927 8.4300 -1.9717 0.9626
3.2203 8.7386 -1.9686 0.9626
2.4234 8.9719 -1.9644 0.9627
-0.0364 9.2064 -1.9461 0.9631
-0.8535 9.1294 -1.9382 0.9632
-3.9120 8.0935 -1.9002 0.9639
-4.5920 7.6693 -1.8895 0.9641
-5.6500 7.7694 -2.0306 0.9615
-6.2927 7.2035 -2.0218 0.9616
-6.8684 6.5743 -2.0097 0.9619
-7.3824 5.9001 -1.9976 0.9621
-7.8316 5.1873 -1.9857 0.9623
-9.0450 1.2629 -1.9305 0.9634
-9.0764 0.4494 -1.9209 0.9635
-9.0382 -0.3598 -1.9120 0.9637
-8.9316 -1.1590 -1.9038 0.9638
-8.7583 -1.9429 -1.8963 0.9640
-8.5201 -2.7063 -1.8897 0.9641
-7.8588 -4.1523 -1.8788 0.9643
-5.8776 -6.5983 -1.8679 0.9645
-5.2648 -7.0944 -1.8674 0.9645
-3.9256 -7.9249 -1.8694 0.9645
-1.6979 -8.7272 -1.8793 0.9643
-0.9157 -8.8678 -1.8844 0.9642
-0.1219 -8.9422 -1.8904 0.9641
1.4790 -8.8886 -1.9047 0.9638
3.0613 -8.5617 -1.9220 0.9635
4.5721 -7.9501 -1.9386 0.9632
5.2890 -7.5487 -1.9483 0.9630
6.6357 -6.5792 -1.9752 0.9625
7.7913 -5.3602 -1.9990 0.9621
8.7237 -3.9386 -2.0232 0.9616
9.0937 -3.1640 -2.0352 0.9614
9.3937 -2.3544 -2.0471 0.9612
9.6199 -1.5161 -2.0586 0.9610
9.8388 0.2184 -2.0802 0.9606
9.8270 1.0998 -2.0902 0.9604
9.7327 1.9801 -2.0994 0.9602
9.5556 2.8512 -2.1079 0.9601
9.2965 3.7048 -2.1154 0.9599
8.9569 4.5327 -2.1219 0.9598
5.6980 7.4022 -1.9746 0.9625
5.0144 7.8790 -1.9742 0.9625
3.5281 8.6258 -1.9700 0.9626
2.7400 8.8891 -1.9662 0.9627
1.9320 9.0758 -1.9614 0.9628
1.1120 9.1847 -1.9556 0.9629
-0.5326 9.1688 -1.9414 0.9631
-1.3420 9.0459 -1.9330 0.9633
-2.1330 8.8487 -1.9240 0.9635
-4.3290 7.8436 -1.8937 0.9640
-5.1533 7.6375 -1.9476 0.9630
-6.0496 7.4379 -2.0266 0.9616
-7.1873 6.1709 -2.0024 0.9620
-7.6624 5.4725 -1.9904 0.9622
-8.0713 4.7393 -1.9785 0.9625
-8.4120 3.9775 -1.9669 0.9627
-7.1616 -5.2151 -1.8727 0.9644
-6.1074 -6.3889 -1.8683 0.9645
-5.5113 -6.9050 -1.8675 0.9645
-4.8743 -7.3694 -1.8676 0.9645
-4.2004 -7.7791 -1.8687 0.9645
-3.4941 -8.1313 -1.8708 0.9645
-0.4359 -8.9209 -1.8879 0.9641
1.9623 -8.8185 -1.9096 0.9637
2.7530 -8.6478 -1.9184 0.9636
3.5301 -8.4089 -1.9277 0.9634
7.0068 -6.2333 -1.9823 0.9624
7.5799 -5.6176 -1.9943 0.9622
8.0992 -4.9493 -2.0064 0.9619
8.9559 -3.4739 -2.0305 0.9615
9.8210 -0.1276 -2.0761 0.9606
9.7797 1.6337 -2.0959 0.9603
9.6353 2.5094 -2.1046 0.9601
9.4084 3.3709 -2.1125 0.9600
8.7130 5.0183 -2.1254 0.9597
8.2496 5.7881 -2.1302 0.9596
7.6961 6.4963 -2.1289 0.9597
5.9544 7.1966 -1.9744 0.9625
5.2893 7.6989 -1.9744 0.9625
2.2524 9.0114 -1.9634 0.9627
1.4362 9.1511 -1.9580 0.9628
-0.2101 9.1965 -1.9445 0.9631
-4.0594 8.0088 -1.8979 0.9640
-4.7302 7.5720 -1.8872 0.9642
-6.4195 7.0744 -2.0193 0.9617
-7.9182 5.0321 -1.9831 0.9624
-8.9706 1.9036 -1.9384 0.9632
-9.0575 1.0907 -1.9284 0.9634
3.9697 7.3290 -1.9589 0.9663
3.2969 7.6453 -1.9568 0.9664
2.5982 7.8962 -1.9537 0.9664
1.8801 8.0795 -1.9496 0.9665
1.1495 8.1941 -1.9447 0.9666
0.4132 8.2393 -1.9389 0.9667
-1.7615 7.9647 -1.9171 0.9670
-2.4535 7.7416 -1.9086 0.9672
-4.5868 7.0828 -1.9832 0.9659
-5.3108 6.7875 -2.0255 0.9652
-5.8632 6.2535 -2.0147 0.9654
-6.8063 5.0579 -1.9930 0.9658
-7.1911 4.4072 -1.9822 0.9659
-7.5153 3.7287 -1.9717 0.9661
-7.7771 3.0282 -1.9615 0.9663
-7.9757 2.3112 -1.9516 0.9665
-8.1105 1.5833 -1.9421 0.9666
-8.1813 0.8501 -1.9332 0.9668
-7.8391 -2.0308 -1.9032 0.9673
-7.6038 -2.7133 -1.8974 0.9674
-7.3123 -3.3713 -1.8924 0.9675
-6.5708 -4.5975 -1.8848 0.9676
-5.1059 -6.1550 -1.8795 0.9677
-4.5369 -6.5855 -1.8795 0.9677
-1.2584 -7.9512 -1.8920 0.9675
-0.5460 -8.0527 -1.8969 0.9674
0.8982 -8.0730 -1.9090 0.9672
1.6203 -7.9905 -1.9162 0.9671
3.0388 -7.6396 -1.9323 0.9668
3.7248 -7.3722 -1.9412 0.9666
5.0241 -6.6591 -1.9605 0.9663
5.6268 -6.2170 -1.9707 0.9661
6.7128 -5.1741 -1.9919 0.9658
7.1861 -4.5799 -2.0028 0.9656
7.6069 -3.9424 -2.0136 0.9654
8.7841 -0.2801 -2.0655 0.9645
8.8133 0.5063 -2.0747 0.9644
8.6519 2.0797 -2.0913 0.9641
8.4611 2.8524 -2.0985 0.9640
8.1979 3.6061 -2.1049 0.9639
7.4623 5.0281 -2.1148 0.9637
6.4462 6.2687 -2.1132 0.9637
5.4367 6.3240 -1.9600 0.9663
4.8520 6.7843 -1.9603 0.9663
4.2263 7.1870 -1.9595 0.9663
2.8763 7.8052 -1.9550 0.9664
2.1650 8.0154 -1.9513 0.9665
-1.4827 8.0351 -1.9203 0.9670
-2.1836 7.8370 -1.9120 0.9671
-2.8603 7.5763 -1.9033 0.9673
-5.6516 6.4696 -2.0190 0.9653
-6.1724 5.9081 -2.0081 0.9655
-7.6814 3.3066 -1.9655 0.9662
-8.0650 1.8712 -1.9458 0.9666
-8.0696 -1.0472 -1.9125 0.9671
-7.9160 -1.7561 -1.9057 0.9672
-7.7034 -2.4469 -1.8996 0.9673
-7.4337 -3.1151 -1.8943 0.9674
-7.1094 -3.7563 -1.8898 0.9675
-5.8035 -5.4484 -1.8709 0.9678
-2.9028 -7.4694 -1.8834 0.9676
-2.2290 -7.7107 -1.8864 0.9676
-1.5359 -7.8947 -1.8902 0.9675
-0.1102 -8.0847 -1.9003 0.9673
2.0547 -7.9103 -1.9208 0.9670
3.4568 -7.4849 -1.9377 0.9667
4.1298 -7.1810 -1.9469 0.9665
4.7771 -6.8181 -1.9566 0.9664
5.3934 -6.3979 -1.9667 0.9662
5.9737 -5.9228 -1.9770 0.9660
6.5127 -5.3956 -1.9877 0.9658
7.8343 -3.5371 -2.0202 0.9653
8.1617 -2.8397 -2.0310 0.9651
8.4259 -2.1118 -2.0415 0.9649
8.6239 -1.3592 -2.0518 0.9648
8.7528 -0.5878 -2.0617 0.9646
8.7955 0.9844 -2.0800 0.9643
8.5450 2.5496 -2.0958 0.9640
7.1872 5.4298 -2.1170 0.9637
4.4775 7.0353 -1.9599 0.9663
3.8298 7.4013 -1.9586 0.9663
3.1511 7.7039 -1.9562 0.9664
2.4476 7.9406 -1.9529 0.9664
1.7263 8.1095 -1.9486 0.9665
0.9939 8.2094 -1.9435 0.9666
0.2574 8.2400 -1.9375 0.9667
-2.5967 7.6864 -1.9068 0.9672
-5.4319 6.6785 -2.0232 0.9652
-6.4614 5.5476 -2.0015 0.9656
-6.8927 4.9228 -1.9907 0.9658
-7.2648 4.2658 -1.9800 0.9660
-7.5759 3.5822 -1.9695 0.9662
-8.0095 2.1579 -1.9496 0.9665
-8.1821 -0.0377 -1.9230 0.9669
-8.1136 -0.7638 -1.9153 0.9671
-7.9837 -1.4785 -1.9083 0.9672
-7.5467 -2.8547 -1.8963 0.9674
-7.2436 -3.5070 -1.8914 0.9675
-6.8874 -4.1299 -1.8874 0.9675
-5.9989 -5.2473 -1.8731 0.9678
-4.9886 -6.2501 -1.8794 0.9677
-4.4120 -6.6704 -1.8796 0.9677
-3.8018 -7.0408 -1.8806 0.9677
-3.1622 -7.3589 -1.8824 0.9676
-1.8112 -7.8292 -1.8886 0.9675
-1.1086 -7.9776 -1.8929 0.9674
0.3275 -8.0943 -1.9039 0.9673
1.0513 -8.0607 -1.9105 0.9671
1.7724 -7.9651 -1.9178 0.9670
2.4855 -7.8074 -1.9257 0.9669
5.7496 -6.1164 -1.9729 0.9661
6.3054 -5.6094 -1.9835 0.9659
7.2797 -4.4485 -2.0051 0.9656
7.6887 -3.8024 -2.0159 0.9654
8.5540 -1.6585 -2.0478 0.9648
8.7103 -0.8937 -2.0579 0.9647
8.7963 -0.1143 -2.0675 0.9645
8.8101 0.6732 -2.0766 0.9643
8.4114 3.0137 -2.0999 0.9640
8.1331 3.7625 -2.1061 0.9638
7.3689 5.1701 -2.1156 0.9637
6.8893 5.8153 -2.1189 0.9636
5.3167 6.4259 -1.9602 0.9663
4.7228 6.8744 -1.9602 0.9663
3.4220 7.5924 -1.9572 0.9664
2.7275 7.8553 -1.9543 0.9664
2.0124 8.0511 -1.9504 0.9665
-0.9169 8.1452 -1.9264 0.9669
-1.6327 7.9985 -1.9186 0.9670
-2.3289 7.7870 -1.9102 0.9672
-5.2045 6.8798 -2.0275 0.9652
-5.7662 6.3545 -2.0167 0.9654
-6.7296 5.1733 -1.9949 0.9657
-7.4607 3.8545 -1.9736 0.9661
-7.7340 3.1575 -1.9633 0.9663
-7.9442 2.4431 -1.9534 0.9664
-8.0906 1.7168 -1.9438 0.9666
-8.1920 0.2506 -1.9262 0.9669
3.5822 6.6137 -1.9474 0.9694
2.3452 7.1273 -1.9427 0.9695
-0.9481 7.3429 -1.9170 0.9699
-2.2196 7.0035 -1.9022 0.9701
-2.8230 6.7490 -1.8941 0.9702
-4.2566 6.5728 -2.0275 0.9682
-4.8136 6.1520 -2.0225 0.9682
-5.3169 5.6708 -2.0127 0.9684
-5.7728 5.1489 -2.0028 0.9685
-6.5309 4.0025 -1.9833 0.9688
-7.0699 2.7528 -1.9644 0.9691
-7.2537 2.1020 -1.9554 0.9693
-7.3795 1.4406 -1.9468 0.9694
-7.4471 0.7738 -1.9386 0.9695
-7.4567 0.1065 -1.9309 0.9697
-7.4089 -0.5565 -1.9237 0.9698
-6.9329 -2.4739 -1.9059 0.9700
-6.6686 -3.0746 -1.9013 0.9701
-5.5898 -4.7061 -1.8919 0.9703
-4.6593 -5.6166 -1.8895 0.9703
-3.0108 -6.6571 -1.8917 0.9703
-2.4083 -6.9074 -1.8940 0.9702
-1.7859 -7.1060 -1.8971 0.9702
-0.4979 -7.3423 -1.9054 0.9701
0.1590 -7.3777 -1.9107 0.9700
0.8185 -7.3567 -1.9165 0.9699
2.7662 -6.9543 -1.9378 0.9695
3.9913 -6.4074 -1.9545 0.9693
6.0937 -4.6970 -1.9921 0.9687
6.5201 -4.1555 -2.0019 0.9686
6.8984 -3.5753 -2.0118 0.9684
7.2247 -2.9605 -2.0216 0.9683
7.4956 -2.3157 -2.0312 0.9681
7.8591 -0.9567 -2.0499 0.9678
7.9469 -0.2534 -2.0587 0.9677
7.9700 0.4578 -2.0670 0.9676
7.8181 1.8792 -2.0819 0.9673
7.4031 3.2565 -2.0941 0.9671
7.0999 3.9126 -2.0990 0.9671
6.3138 5.1285 -2.1061 0.9669
5.8366 5.6759 -2.1079 0.9669
5.0880 5.9184 -2.0208 0.9683
3.8137 6.4853 -1.9480 0.9694
2.5961 7.0448 -1.9439 0.9695
-5.1240 5.8656 -2.0166 0.9683
-6.3984 4.2380 -1.9871 0.9688
-6.9816 3.0054 -1.9680 0.9691
-7.1882 2.3601 -1.9589 0.9692
-7.4274 1.0370 -1.9417 0.9695
-7.4346 -0.2960 -1.9265 0.9697
-7.3525 -0.9541 -1.9197 0.9698
-6.4844 -3.4261 -1.8989 0.9702
-6.1421 -3.9833 -1.8954 0.9702
-5.7544 -4.5085 -1.8928 0.9702
-3.2419 -6.5447 -1.8910 0.9703
-2.0334 -7.0340 -1.8958 0.9702
-1.4009 -7.2006 -1.8993 0.9701
0.5585 -7.3717 -1.9141 0.9699
3.7568 -6.5324 -1.9511 0.9693
4.3437 -6.1994 -1.9599 0.9692
6.7553 -3.8084 -2.0079 0.9685
7.1025 -3.2067 -2.0177 0.9683
7.3956 -2.5732 -2.0275 0.9682
7.6313 -1.9127 -2.0370 0.9680
7.8069 -1.2304 -2.0463 0.9679
7.9200 -0.5319 -2.0552 0.9677
7.9687 0.1769 -2.0637 0.9676
7.9519 0.8899 -2.0717 0.9675
7.8689 1.6009 -2.0791 0.9674
7.7199 2.3034 -2.0859 0.9673
7.5054 2.9910 -2.0919 0.9672
7.2269 3.6572 -2.0971 0.9671
6.0315 5.4660 -2.1075 0.9669
5.5061 5.9665 -2.1021 0.9670
4.5908 5.9639 -1.9487 0.9694
3.4561 6.6790 -1.9471 0.9694
2.2094 7.1677 -1.9420 0.9695
0.2325 7.4437 -1.9282 0.9697
-0.4305 7.4115 -1.9222 0.9698
-1.0857 7.3181 -1.9155 0.9699
-3.5158 6.3702 -1.8839 0.9704
-6.5985 3.8745 -1.9812 0.9689
-7.2852 1.9627 -1.9535 0.9693
-7.3987 1.2998 -1.9450 0.9694
-7.4539 0.6325 -1.9369 0.9696
-7.4513 -0.0343 -1.9293 0.9697
-7.3916 -0.6958 -1.9223 0.9698
-7.2756 -1.3474 -1.9158 0.9699
-7.1050 -1.9845 -1.9100 0.9700
-6.6063 -3.1985 -1.9004 0.9701
-5.9125 -4.3055 -1.8937 0.9702
-5.4988 -4.8097 -1.8915 0.9703
-4.5523 -5.7034 -1.8894 0.9703
-4.0260 -6.0869 -1.8896 0.9703
-3.4691 -6.4246 -1.8905 0.9703
-2.8852 -6.7143 -1.8922 0.9703
-2.2781 -6.9538 -1.8946 0.9702
-1.6520 -7.1413 -1.8978 0.9702
-1.0110 -7.2753 -1.9018 0.9701
-0.3593 -7.3545 -1.9065 0.9700
0.2985 -7.3779 -1.9118 0.9700
2.2632 -7.1092 -1.9317 0.9696
3.5185 -6.6490 -1.9477 0.9694
4.1155 -6.3370 -1.9564 0.9693
4.6855 -5.9724 -1.9654 0.9691
6.1877 -4.5858 -1.9941 0.9687
6.6043 -4.0358 -2.0040 0.9685
6.9719 -3.4479 -2.0138 0.9684
7.5455 -2.1760 -2.0333 0.9681
7.9573 -0.1034 -2.0605 0.9677
7.9664 0.6087 -2.0687 0.9675
7.3442 3.3975 -2.0952 0.9671
6.6512 4.6666 -2.1037 0.9670
5.7229 5.7795 -2.1059 0.9670
4.8455 5.8564 -1.9680 0.9691
4.2616 6.2030 -1.9486 0.9694
3.0882 6.8519 -1.9459 0.9694
1.8167 7.2684 -1.9398 0.9695
0.4948 7.4393 -1.9304 0.9697
-0.1698 7.4315 -1.9247 0.9698
-1.4763 7.2324 -1.9112 0.9700
-2.1067 7.0440 -1.9036 0.9701
-2.7148 6.7995 -1.8957 0.9702
-3.2955 6.5016 -1.8873 0.9703
-4.1482 6.6402 -2.0272 0.9682
-5.2284 5.7619 -2.0145 0.9684
-6.1081 4.6955 -1.9948 0.9687
-6.4705 4.1121 -1.9850 0.9688
-6.7784 3.5020 -1.9754 0.9690
-7.3609 1.5620 -1.9483 0.9694
-7.4391 0.8958 -1.9400 0.9695
-7.4592 0.2282 -1.9322 0.9696
3.2602 6.0193 -1.9379 0.9719
2.7083 6.2802 -1.9362 0.9720
0.3400 6.7793 -1.9216 0.9722
-0.2649 6.7637 -1.9162 0.9723
-3.2364 6.1350 -1.9636 0.9716
-3.8949 6.0143 -2.0285 0.9707
-4.8589 5.1823 -2.0110 0.9709
-5.2777 4.7073 -2.0020 0.9710
-5.6508 4.1992 -1.9930 0.9712
-6.2508 3.1013 -1.9754 0.9714
-6.4742 2.5209 -1.9668 0.9715
-6.6451 1.9256 -1.9586 0.9716
-6.7029 -1.1108 -1.9234 0.9721
-6.3647 -2.2711 -1.9131 0.9723
-5.5060 -3.8525 -1.9024 0.9725
-5.1348 -4.3230 -1.9002 0.9725
-4.7253 -4.7598 -1.8987 0.9725
-3.8034 -5.5209 -1.8979 0.9725
-2.2121 -6.3446 -1.9021 0.9725
0.7511 -6.7507 -1.9229 0.9722
1.9505 -6.5525 -1.9354 0.9720
3.1062 -6.1478 -1.9499 0.9718
4.1827 -5.5440 -1.9660 0.9715
4.6804 -5.1714 -1.9745 0.9714
5.1454 -4.7545 -1.9833 0.9713
5.5737 -4.2961 -1.9922 0.9712
6.3044 -3.2674 -2.0102 0.9709
6.5998 -2.7044 -2.0191 0.9708
7.1706 -0.8729 -2.0449 0.9704
7.2250 1.0671 -2.0675 0.9701
7.1234 1.7123 -2.0740 0.9700
6.9621 2.3471 -2.0799 0.9699
6.7419 2.9657 -2.0851 0.9698
6.4644 3.5624 -2.0895 0.9698
6.1318 4.1316 -2.0932 0.9697
5.7469 4.6681 -2.0960 0.9697
5.3129 5.1666 -2.0980 0.9697
4.8237 5.6109 -2.0947 0.9697
4.0121 5.6099 -1.9525 0.9717
3.4708 5.9023 -1.9384 0.9719
2.9287 6.1836 -1.9369 0.9720
2.3631 6.4126 -1.9347 0.9720
1.7793 6.5875 -1.9317 0.9720
1.1828 6.7069 -1.9280 0.9721
-0.0268 6.7765 -1.9184 0.9722
-0.6289 6.7270 -1.9127 0.9723
-1.2220 6.6224 -1.9064 0.9724
-2.3611 6.2541 -1.8925 0.9726
-3.6800 6.1462 -2.0280 0.9707
-4.2039 5.7808 -2.0235 0.9707
-5.1179 4.8988 -2.0056 0.9710
-6.1484 3.3251 -1.9788 0.9714
-6.5841 2.1617 -1.9618 0.9716
-6.8082 0.9506 -1.9461 0.9718
-6.8402 0.3386 -1.9388 0.9719
-6.7460 -0.8754 -1.9257 0.9721
-6.6214 -1.4689 -1.9200 0.9722
-6.4469 -2.0478 -1.9149 0.9723
-5.9548 -3.1463 -1.9066 0.9724
-4.8911 -4.5918 -1.8992 0.9725
-3.9952 -5.3835 -1.8978 0.9725
-1.8675 -6.4604 -1.9038 0.9724
-1.2864 -6.6124 -1.9070 0.9724
-0.6933 -6.7145 -1.9109 0.9723
0.5126 -6.7652 -1.9207 0.9722
3.4422 -5.9854 -1.9547 0.9717
3.9785 -5.6782 -1.9628 0.9716
4.4879 -5.3237 -1.9712 0.9715
4.9663 -4.9240 -1.9798 0.9713
6.4893 -2.9298 -2.0156 0.9708
6.7542 -2.3500 -2.0245 0.9707
7.1241 -1.1228 -2.0417 0.9705
7.2663 0.1613 -2.0576 0.9702
7.2485 0.8112 -2.0648 0.9701
7.1707 1.4589 -2.0715 0.9700
6.2694 3.9109 -2.0918 0.9697
5.9047 4.4608 -2.0950 0.9697
5.4896 4.9749 -2.0973 0.9697
5.0265 5.4468 -2.0982 0.9697
3.6769 5.7775 -1.9387 0.9719
3.1455 6.0788 -1.9376 0.9719
2.0113 6.5251 -1.9330 0.9720
1.4191 6.6665 -1.9295 0.9721
0.8175 6.7518 -1.9253 0.9721
-0.9896 6.6702 -1.9089 0.9724
-2.1429 6.3429 -1.8953 0.9726
-2.6892 6.1027 -1.8879 0.9727
-3.4471 6.2457 -2.0195 0.9708
-4.4982 5.5305 -2.0181 0.9708
-4.9512 5.0848 -2.0091 0.9709
-5.3606 4.6025 -2.0001 0.9711
-5.7237 4.0879 -1.9912 0.9712
-6.3024 2.9800 -1.9736 0.9714
-6.5148 2.3960 -1.9651 0.9716
-6.7809 1.1913 -1.9490 0.9718
-6.5215 -1.8216 -1.9169 0.9722
-5.4308 -3.9547 -1.9019 0.9725
-5.0512 -4.4183 -1.8998 0.9725
-4.6340 -4.8476 -1.8985 0.9725
-4.1822 -5.2397 -1.8979 0.9725
-3.6987 -5.5920 -1.8980 0.9725
-3.1869 -5.9020 -1.8988 0.9725
-2.0925 -6.3870 -1.9027 0.9724
-1.5172 -6.5583 -1.9057 0.9724
-0.9283 -6.6802 -1.9093 0.9724
0.2740 -6.7716 -1.9186 0.9722
2.6581 -6.3317 -1.9440 0.9719
3.2244 -6.0931 -1.9516 0.9717
3.7700 -5.8051 -1.9595 0.9716
4.2905 -5.4689 -1.9678 0.9715
4.7817 -5.0868 -1.9764 0.9714
5.2392 -4.6609 -1.9852 0.9713
5.6592 -4.1941 -1.9941 0.9711
6.3710 -3.1507 -2.0121 0.9709
6.6559 -2.5817 -2.0210 0.9708
7.0688 -1.3705 -2.0384 0.9705
7.1919 -0.7379 -2.0467 0.9704
7.2569 -0.0943 -2.0546 0.9703
7.2627 0.5550 -2.0620 0.9702
7.0943 1.8476 -2.0753 0.9700
6.6879 3.0939 -2.0861 0.9698
6.3986 3.6853 -2.0904 0.9698
4.7126 5.6958 -2.0928 0.9697
3.3583 5.9660 -1.9381 0.9719
2.2410 6.4542 -1.9341 0.9720
1.6540 6.6174 -1.9310 0.9720
1.0554 6.7249 -1.9271 0.9721
-0.1547 6.7707 -1.9172 0.9722
-0.7553 6.7095 -1.9114 0.9723
-1.9213 6.4239 -1.8982 0.9725
-3.0685 6.0538 -1.9214 0.9722
-4.3083 5.6952 -2.0216 0.9707
-4.7776 5.2651 -2.0127 0.9709
-5.2046 4.7967 -2.0037 0.9710
-5.5862 4.2943 -1.9947 0.9711
-6.4373 2.6281 -1.9684 0.9715
-6.6179 2.0352 -1.9601 0.9716
-6.7454 1.4314 -1.9521 0.9717
3.6368 5.4831 -2.0237 0.9728
2.9882 5.5170 -1.9298 0.9741
0.3119 6.2180 -1.9149 0.9743
-1.3330 6.0273 -1.8987 0.9745
-1.8587 5.8648 -1.8923 0.9746
-2.3994 5.7361 -1.9124 0.9743
-4.4689 4.7664 -2.0096 0.9730
-5.2011 3.8650 -1.9931 0.9732
-5.5021 3.3721 -1.9849 0.9734
-5.9652 2.3227 -1.9689 0.9736
-6.1247 1.7748 -1.9613 0.9737
-6.2352 1.2172 -1.9540 0.9738
-6.2964 0.6543 -1.9471 0.9739
-6.2715 -0.4711 -1.9344 0.9740
-6.1866 -1.0253 -1.9288 0.9741
-6.0546 -1.5685 -1.9238 0.9742
-5.8769 -2.0971 -1.9192 0.9742
-5.6550 -2.6072 -1.9153 0.9743
-5.3907 -3.0956 -1.9120 0.9743
-5.0862 -3.5588 -1.9093 0.9744
-4.7437 -3.9937 -1.9073 0.9744
-3.0464 -5.3956 -1.9058 0.9744
-2.0434 -5.8609 -1.9091 0.9744
-1.5149 -6.0279 -1.9117 0.9743
0.1348 -6.2516 -1.9233 0.9742
1.2495 -6.1620 -1.9339 0.9740
2.3389 -5.8801 -1.9464 0.9739
2.8639 -5.6682 -1.9533 0.9738
3.3702 -5.4105 -1.9606 0.9737
3.8540 -5.1082 -1.9682 0.9736
4.3111 -4.7633 -1.9760 0.9735
5.4850 -3.4957 -2.0006 0.9731
5.7987 -3.0053 -2.0088 0.9730
6.0682 -2.4866 -2.0171 0.9729
6.4642 -1.3804 -2.0331 0.9727
6.6702 0.3832 -2.0550 0.9724
6.6303 0.9793 -2.0614 0.9723
6.5354 1.5709 -2.0674 0.9723
6.3858 2.1528 -2.0727 0.9722
6.1826 2.7196 -2.0775 0.9721
5.9271 3.2663 -2.0815 0.9721
5.2678 4.2789 -2.0874 0.9720
4.4303 5.1533 -2.0903 0.9720
3.9402 5.5094 -2.0834 0.9721
2.6845 5.6679 -1.9290 0.9741
2.1663 5.8784 -1.9269 0.9741
0.5309 6.2089 -1.9167 0.9743
-0.0246 6.2163 -1.9120 0.9743
-0.5770 6.1725 -1.9068 0.9744
-2.1683 5.7435 -1.8883 0.9746
-5.0702 4.0522 -1.9963 0.9732
-5.3888 3.5693 -1.9881 0.9733
-5.6623 3.0622 -1.9800 0.9734
-5.8890 2.5350 -1.9720 0.9735
-6.1975 1.4379 -1.9568 0.9737
-6.3095 0.3124 -1.9430 0.9739
-6.2918 -0.2505 -1.9368 0.9740
-6.2258 -0.8079 -1.9310 0.9741
-5.4998 -2.9059 -1.9132 0.9743
-5.2109 -3.3794 -1.9103 0.9743
-4.8831 -3.8258 -1.9080 0.9744
-3.2338 -5.2842 -1.9055 0.9744
-2.7514 -5.5544 -1.9065 0.9744
-2.2473 -5.7828 -1.9083 0.9744
-1.7251 -5.9675 -1.9106 0.9743
-0.6402 -6.2004 -1.9172 0.9743
0.4731 -6.2448 -1.9263 0.9741
2.1277 -5.9507 -1.9438 0.9739
2.6589 -5.7573 -1.9506 0.9738
3.1731 -5.5175 -1.9577 0.9737
5.6801 -3.2022 -2.0056 0.9731
5.9674 -2.6942 -2.0138 0.9730
6.2089 -2.1603 -2.0220 0.9729
6.4019 -1.6045 -2.0300 0.9728
6.6345 -0.4456 -2.0452 0.9726
6.6708 0.1481 -2.0523 0.9725
6.6526 0.7445 -2.0590 0.9724
6.5793 1.3386 -2.0651 0.9723
6.2690 2.4983 -2.0757 0.9722
5.4127 4.0892 -2.0865 0.9720
5.0317 4.5600 -2.0886 0.9720
4.1381 5.3759 -2.0867 0.9720
2.3728 5.8012 -1.9278 0.9741
1.8439 5.9820 -1.9254 0.9741
1.3012 6.1125 -1.9222 0.9742
-0.3599 6.1958 -1.9089 0.9744
-1.4456 5.9969 -1.8974 0.9745
-2.5551 5.7984 -1.9490 0.9738
-3.1880 5.7762 -2.0293 0.9728
-3.6811 5.4555 -2.0243 0.9728
-4.1360 5.0852 -2.0161 0.9729
-4.9325 4.2350 -1.9996 0.9732
-5.2685 3.7628 -1.9913 0.9733
-5.8053 2.7450 -1.9751 0.9735
-6.0030 2.2078 -1.9673 0.9736
-6.1521 1.6575 -1.9597 0.9737
-6.2522 1.0984 -1.9525 0.9738
-6.3030 0.5349 -1.9456 0.9739
-6.3046 -0.0290 -1.9392 0.9740
-6.2575 -0.5891 -1.9332 0.9740
-6.0208 -1.6817 -1.9228 0.9742
-5.6026 -2.7125 -1.9146 0.9743
-5.3296 -3.1958 -1.9114 0.9743
-5.0168 -3.6533 -1.9088 0.9744
-4.6666 -4.0818 -1.9070 0.9744
-3.8640 -4.8411 -1.9052 0.9744
-3.4173 -5.1665 -1.9053 0.9744
-1.4013 -6.0575 -1.9124 0.9743
-0.3046 -6.2340 -1.9197 0.9742
0.2529 -6.2512 -1.9243 0.9742
1.9146 -6.0140 -1.9412 0.9739
3.4746 -5.3502 -1.9622 0.9737
3.9530 -5.0387 -1.9698 0.9736
4.4040 -4.6850 -1.9777 0.9734
4.8238 -4.2913 -1.9858 0.9733
5.5549 -3.3945 -2.0023 0.9731
5.8595 -2.8978 -2.0106 0.9730
6.3318 -1.8259 -2.0269 0.9728
6.4944 -1.2591 -2.0347 0.9727
6.6053 -0.6777 -2.0423 0.9726
6.6148 1.1050 -2.0627 0.9723
6.3473 2.2741 -2.0738 0.9722
6.1328 2.8371 -2.0784 0.9721
5.5504 3.8943 -2.0855 0.9720
4.7800 4.8273 -2.0895 0.9720
4.3315 5.2352 -2.0899 0.9720
2.0543 5.9166 -1.9264 0.9741
0.9678 6.1667 -1.9200 0.9742
-0.1419 6.2113 -1.9110 0.9743
-1.2353 6.0518 -1.8998 0.9745
-1.7640 5.8980 -1.8935 0.9746
-2.9824 5.8840 -2.0290 0.9728
-4.3939 4.8422 -2.0111 0.9730
-5.1412 3.9523 -1.9946 0.9732
-5.4505 3.4639 -1.9864 0.9733
-5.9308 2.4213 -1.9704 0.9735
-6.0992 1.8757 -1.9627 0.9736
3.4560 5.2104 -2.0783 0.9740
0.2877 5.7365 -1.9092 0.9761
-2.8505 5.4035 -2.0308 0.9746
-3.7374 4.7765 -2.0160 0.9748
-4.8127 3.5764 -1.9931 0.9750
-5.3306 2.6448 -1.9780 0.9752
-5.8363 0.6064 -1.9504 0.9756
-5.6171 -1.4552 -1.9288 0.9758
-5.4531 -1.9459 -1.9246 0.9759
-5.0034 -2.8731 -1.9179 0.9760
-4.4036 -3.7074 -1.9135 0.9760
-4.0529 -4.0825 -1.9122 0.9760
-3.6716 -4.4260 -1.9115 0.9761
-2.8282 -5.0091 -1.9121 0.9760
-1.8968 -5.4403 -1.9152 0.9760
-1.4061 -5.5949 -1.9176 0.9760
0.6431 -5.7796 -1.9330 0.9758
3.1224 -5.0126 -1.9630 0.9754
3.5695 -4.7312 -1.9701 0.9753
4.3854 -4.0523 -1.9848 0.9751
5.3625 -2.7792 -2.0077 0.9749
5.8141 -1.7963 -2.0228 0.9747
5.9726 -1.2754 -2.0301 0.9746
6.1456 -0.1960 -2.0439 0.9744
5.8914 1.9861 -2.0666 0.9741
5.7029 2.5086 -2.0710 0.9741
5.4664 3.0124 -2.0747 0.9740
4.0846 4.7511 -2.0827 0.9739
3.6425 5.0931 -2.0814 0.9740
3.1360 5.3329 -2.0565 0.9743
2.4752 5.2260 -1.9221 0.9759
-0.0227 5.7356 -1.9066 0.9761
-2.1177 5.6093 -1.9930 0.9750
-2.6589 5.5009 -2.0309 0.9746
-3.1316 5.2303 -2.0264 0.9746
-3.5723 4.9123 -2.0190 0.9747
-4.6910 3.7491 -1.9961 0.9750
-5.2421 2.8349 -1.9810 0.9752
-5.6206 1.8454 -1.9664 0.9754
-5.8188 0.8124 -1.9530 0.9755
-5.8343 -0.2323 -1.9409 0.9757
-5.7743 -0.7493 -1.9355 0.9758
-5.3337 -2.2351 -1.9223 0.9759
-4.8368 -3.1368 -1.9163 0.9760
-4.1949 -3.9382 -1.9126 0.9760
-3.8254 -4.2945 -1.9117 0.9760
-3.4269 -4.6177 -1.9114 0.9761
-3.0021 -4.9057 -1.9118 0.9760
-2.0862 -5.3680 -1.9144 0.9760
0.4389 -5.7930 -1.9311 0.9758
0.9560 -5.7455 -1.9361 0.9757
1.4685 -5.6533 -1.9415 0.9757
2.4643 -5.3359 -1.9537 0.9755
3.3960 -4.8469 -1.9673 0.9754
4.6087 -3.8181 -1.9894 0.9751
5.7390 -1.9968 -2.0198 0.9747
5.9157 -1.4827 -2.0272 0.9746
6.1590 0.1367 -2.0478 0.9744
6.1406 0.6872 -2.0539 0.9743
6.0716 1.2353 -2.0596 0.9742
5.7830 2.3046 -2.0693 0.9741
5.5652 2.8163 -2.0733 0.9741
4.9910 3.7706 -2.0793 0.9740
4.6394 4.2044 -2.0812 0.9740
3.8222 4.9654 -2.0829 0.9739
3.3543 5.2706 -2.0767 0.9740
2.7162 5.2491 -1.9646 0.9754
1.7004 5.5164 -1.9188 0.9760
0.6915 5.7115 -1.9124 0.9760
0.1793 5.7381 -1.9083 0.9761
-0.8382 5.6498 -1.8986 0.9762
-1.3346 5.5364 -1.8931 0.9763
-2.4637 5.5909 -2.0309 0.9746
-4.2117 4.3254 -2.0068 0.9749
-4.5631 3.9177 -1.9991 0.9750
-4.8754 3.4820 -1.9915 0.9751
-5.3754 2.5417 -1.9765 0.9752
-5.5601 2.0449 -1.9692 0.9753
-5.6999 1.5356 -1.9622 0.9754
-5.8427 0.4958 -1.9491 0.9756
-5.8456 -0.0269 -1.9431 0.9757
-5.8033 -0.5463 -1.9376 0.9757
-5.5859 -1.5602 -1.9279 0.9758
-5.4131 -2.0476 -1.9238 0.9759
-5.1995 -2.5173 -1.9202 0.9759
-4.3321 -3.7893 -1.9132 0.9760
-3.9747 -4.1579 -1.9120 0.9760
-3.1725 -4.7965 -1.9116 0.9761
-2.2729 -5.2894 -1.9137 0.9760
-0.7956 -5.7251 -1.9213 0.9759
0.7525 -5.7696 -1.9341 0.9758
1.2672 -5.6950 -1.9393 0.9757
1.7750 -5.5757 -1.9451 0.9756
2.2721 -5.4123 -1.9512 0.9756
3.6610 -4.6665 -1.9716 0.9753
4.0775 -4.3377 -1.9789 0.9752
4.4648 -3.9719 -1.9864 0.9751
5.4183 -2.6796 -2.0093 0.9748
6.0001 -1.1633 -2.0316 0.9746
6.1008 -0.6260 -2.0386 0.9745
6.0053 1.5640 -2.0628 0.9742
5.6568 2.6169 -2.0718 0.9741
5.4103 3.1161 -2.0754 0.9740
5.1182 3.5910 -2.0783 0.9740
4.7829 4.0373 -2.0805 0.9740
4.4071 4.4507 -2.0820 0.9739
1.8944 5.4559 -1.9198 0.9759
0.8927 5.6880 -1.9139 0.9760
0.3814 5.7333 -1.9100 0.9761
-2.2588 5.6574 -2.0249 0.9746
-2.7624 5.4499 -2.0310 0.9746
-3.2274 5.1662 -2.0248 0.9747
-4.0631 4.4776 -2.0098 0.9748
-5.2904 2.7332 -1.9794 0.9752
-5.6502 1.7376 -1.9650 0.9754
-5.7624 1.2228 -1.9581 0.9755
3.2091 4.8383 -2.0762 0.9756
2.2204 5.1488 -2.0052 0.9765
1.6780 5.0996 -1.9198 0.9775
1.2112 5.2050 -1.9111 0.9776
0.7412 5.2836 -1.9079 0.9776
-0.2079 5.3093 -1.9001 0.9777
-0.6787 5.2568 -1.8955 0.9777
-1.1762 5.3185 -1.9479 0.9771
-2.6462 5.0161 -2.0281 0.9762
-3.4712 4.4364 -2.0144 0.9764
-4.4736 3.3244 -1.9931 0.9766
-4.7353 2.9021 -1.9861 0.9767
-4.9577 2.4598 -1.9791 0.9768
-5.4332 0.5646 -1.9534 0.9771
-5.4166 -0.4069 -1.9425 0.9772
-5.3454 -0.8859 -1.9376 0.9772
-4.8907 -2.2549 -1.9259 0.9774
-4.1049 -3.4559 -1.9189 0.9775
-3.7781 -3.8057 -1.9177 0.9775
-3.4228 -4.1260 -1.9171 0.9775
-3.0413 -4.4146 -1.9171 0.9775
-2.6365 -4.6695 -1.9176 0.9775
-1.7680 -5.0710 -1.9205 0.9774
0.1165 -5.4036 -1.9328 0.9773
0.5990 -5.3838 -1.9372 0.9773
2.0184 -5.0742 -1.9529 0.9771
2.4702 -4.8890 -1.9588 0.9770
3.3207 -4.4014 -1.9717 0.9769
4.0776 -3.7678 -1.9854 0.9767
4.4129 -3.4014 -1.9925 0.9766
5.3988 -1.6679 -2.0207 0.9763
5.7024 -0.1818 -2.0402 0.9761
5.7124 0.3281 -2.0462 0.9760
5.0666 2.7921 -2.0688 0.9757
4.5012 3.6562 -2.0738 0.9757
4.1604 4.0459 -2.0753 0.9756
3.3776 4.7227 -2.0763 0.9756
2.9380 4.9962 -2.0727 0.9757
1.8846 5.1141 -1.9491 0.9771
1.3943 5.1621 -1.9121 0.9775
0.9272 5.2578 -1.9092 0.9776
-0.4938 5.2827 -1.8974 0.9777
-0.9735 5.2760 -1.9186 0.9775
-3.3175 4.5620 -2.0172 0.9763
-4.0464 3.8731 -2.0031 0.9765
-4.3600 3.4846 -1.9959 0.9766
-4.6367 3.0711 -1.9889 0.9767
-4.8748 2.6363 -1.9819 0.9767
-5.4165 0.7562 -1.9558 0.9770
-5.4461 0.2696 -1.9499 0.9771
-5.4332 -0.2163 -1.9445 0.9772
-5.3784 -0.6979 -1.9395 0.9772
-4.2253 -3.3105 -1.9195 0.9775
-3.5661 -4.0034 -1.9173 0.9775
-2.7987 -4.5732 -1.9173 0.9775
-1.4924 -5.1626 -1.9218 0.9774
1.3675 -5.2646 -1.9451 0.9772
2.2938 -4.9668 -1.9564 0.9770
3.1596 -4.5095 -1.9691 0.9769
3.5611 -4.2242 -1.9758 0.9768
3.9371 -3.9035 -1.9827 0.9767
4.2845 -3.5496 -1.9897 0.9766
4.6002 -3.1648 -1.9968 0.9766
4.8813 -2.7519 -2.0039 0.9765
5.3296 -1.8543 -2.0180 0.9763
5.4922 -1.3765 -2.0248 0.9762
5.6114 -0.8844 -2.0315 0.9762
5.7140 0.1268 -2.0439 0.9760
5.6957 0.6374 -2.0495 0.9759
5.6306 1.1455 -2.0548 0.9759
5.5188 1.6467 -2.0595 0.9758
5.3611 2.1365 -2.0638 0.9758
5.1585 2.6105 -2.0675 0.9757
4.9125 3.0645 -2.0705 0.9757
3.5417 4.6010 -2.0763 0.9756
3.1161 4.8962 -2.0755 0.9756
2.6584 5.1375 -2.0686 0.9757
1.5759 5.1125 -1.9131 0.9775
1.1123 5.2252 -1.9104 0.9776
-1.2884 5.3449 -1.9661 0.9769
-1.8200 5.3872 -2.0335 0.9761
-2.2924 5.2023 -2.0330 0.9761
-2.7385 4.9618 -2.0267 0.9762
-3.1593 4.6822 -2.0199 0.9763
-3.5518 4.3668 -2.0129 0.9764
-3.9131 4.0187 -2.0059 0.9765
-4.7856 2.8100 -1.9846 0.9767
-5.1727 1.9024 -1.9709 0.9769
-5.3040 1.4290 -1.9644 0.9769
-5.3931 0.9475 -1.9581 0.9770
-5.4395 0.4616 -1.9522 0.9771
-5.4433 -0.0251 -1.9466 0.9771
-5.3250 -0.9861 -1.9366 0.9773
-5.2043 -1.4537 -1.9323 0.9773
-5.0441 -1.9080 -1.9285 0.9774
-4.6106 -2.7646 -1.9225 0.9774
-4.3408 -3.1610 -1.9203 0.9774
-4.0383 -3.5323 -1.9186 0.9775
-3.7052 -3.8760 -1.9175 0.9775
-2.9575 -4.4714 -1.9171 0.9775
-1.2122 -5.2399 -1.9233 0.9774
-0.7414 -5.3352 -1.9263 0.9774
0.2186 -5.4029 -1.9337 0.9773
2.9951 -4.6118 -1.9665 0.9769
5.0337 -2.4894 -2.0082 0.9764
5.4332 -1.5668 -2.0221 0.9763
5.5697 -1.0799 -2.0289 0.9762
5.6618 -0.5809 -2.0353 0.9761
5.7084 -0.0742 -2.0415 0.9760
5.6619 0.9458 -2.0528 0.9759
5.2436 2.4258 -2.0661 0.9758
4.7433 3.3280 -2.0721 0.9757
4.4322 3.7412 -2.0742 0.9757
4.0838 4.1242 -2.0755 0.9756
2.3265 5.1618 -2.0247 0.9762
1.7727 5.1056 -1.9327 0.9773
0.8275 5.2725 -1.9086 0.9776
0.3535 5.3153 -1.9050 0.9776
-0.5932 5.2696 -1.8964 0.9777
-1.0811 5.2962 -1.9330 0.9773
-1.6237 5.4290 -2.0264 0.9762
-2.5656 5.0616 -2.0293 0.9762
-2.9966 4.7969 -2.0226 0.9763
-3.4006 4.4952 -2.0157 0.9763
-4.9200 2.5419 -1.9804 0.9767
-5.4263 0.6534 -1.9545 0.9770
-5.4469 0.1666 -1.9488 0.9771
2.5720 4.7486 -2.0696 0.9771
1.6690 5.0724 -2.0464 0.9774
0.7095 5.0578 -1.9572 0.9784
0.2549 5.0822 -1.9501 0.9784
-0.2008 5.1267 -1.9661 0.9783
-2.8645 4.4232 -2.0195 0.9777
-3.5811 3.8195 -2.0064 0.9778
-4.9315 1.4290 -1.9676 0.9782
-2.3032 0.2393 -0.8874 0.9901
-4.8934 -1.2677 -1.9371 0.9786
-4.3619 -2.5048 -1.9276 0.9787
-3.8401 -3.2330 -1.9237 0.9787
-3.2022 -3.8602 -1.9220 0.9787
-1.2258 -4.8776 -1.9273 0.9787
-0.7872 -4.9743 -1.9300 0.9787
0.1089 -5.0528 -1.9368 0.9786
0.5600 -5.0335 -1.9408 0.9785
1.0088 -4.9751 -1.9454 0.9785
2.7139 -4.3567 -1.9670 0.9783
3.4662 -3.8297 -1.9795 0.9781
4.1181 -3.1742 -1.9925 0.9780
4.6471 -2.4084 -2.0058 0.9778
4.8591 -1.9911 -2.0124 0.9778
5.1681 -1.1036 -2.0252 0.9776
5.2860 0.7807 -2.0477 0.9774
5.0855 1.7144 -2.0566 0.9773
4.7161 2.5989 -2.0635 0.9772
4.4713 3.0128 -2.0662 0.9772
4.1891 3.4027 -2.0682 0.9771
3.8718 3.7652 -2.0696 0.9771
3.5221 4.0969 -2.0704 0.9771
3.1431 4.3948 -2.0706 0.9771
2.7382 4.6564 -2.0701 0.9771
1.8589 5.0443 -2.0601 0.9772
0.8915 5.0554 -1.9672 0.9783
0.4337 5.0721 -1.9508 0.9784
-0.9649 5.2289 -2.0376 0.9775
-1.4261 5.1184 -2.0362 0.9775
-1.8748 4.9659 -2.0341 0.9775
-2.3032 4.7650 -2.0282 0.9776
-4.3275 2.8663 -1.9892 0.9780
-4.7367 2.0390 -1.9762 0.9782
-4.9923 1.1583 -1.9640 0.9783
-5.0609 0.7066 -1.9582 0.9783
-2.2993 -0.0915 -0.8818 0.9902
-4.9389 -1.0957 -1.9387 0.9786
-4.6485 -1.9479 -1.9315 0.9786
-4.4496 -2.3510 -1.9286 0.9787
-4.2171 -2.7349 -1.9262 0.9787
-3.9527 -3.0969 -1.9243 0.9787
-2.9888 -4.0274 -1.9219 0.9787
-2.6183 -4.2785 -1.9222 0.9787
-2.2275 -4.4968 -1.9231 0.9787
-1.8191 -4.6809 -1.9245 0.9787
-1.3960 -4.8292 -1.9264 0.9787
-0.9612 -4.9407 -1.9289 0.9787
0.3823 -5.0458 -1.9392 0.9786
1.2782 -4.9207 -1.9483 0.9785
1.7162 -4.7998 -1.9534 0.9784
2.9509 -4.2116 -1.9707 0.9782
