ply
format ascii 1.0
element vertex 1585
property float32 x
property float32 y
property float32 z
property float32 I
end_header
1.3378 12.6541 1.6570 0.9500
0.1899 12.0657 1.5714 0.9525
-2.3694 14.3663 1.8961 0.9430
15.3012 -12.2004 2.1014 0.9243
11.1400 10.5960 1.6509 0.9400
5.5618 14.6669 1.6844 0.9388
3.8852 13.8835 1.5481 0.9437
-1.0277 11.9886 1.2921 0.9527
5.8034 14.7821 1.7053 0.9381
0.1949 12.3851 1.3301 0.9514
-0.8649 11.6887 1.2586 0.9539
11.6918 -14.0173 1.9601 0.9292
14.8485 -12.4162 2.0784 0.9251
7.6719 15.7993 1.4868 0.9319
5.6283 14.8422 1.3437 0.9383
0.0503 12.3150 1.0425 0.9518
-1.0272 11.9831 1.0181 0.9529
-16.9672 2.4150 1.4508 0.9335
-9.3612 -15.3556 1.5224 0.9304
11.9675 -14.0127 1.5599 0.9287
4.1319 14.1288 1.2461 0.9426
2.6499 13.4223 1.1582 0.9466
1.3466 12.7375 1.0843 0.9499
0.1949 12.3839 1.0485 0.9515
12.1484 -14.5647 1.6055 0.9267
13.3414 -13.3579 1.5982 0.9270
13.7675 -13.1566 1.1809 0.9265
15.4780 -12.3414 1.2276 0.9237
10.1947 16.9442 1.2262 0.9238
7.6703 15.7961 1.0889 0.9320
5.6276 14.8404 0.9842 0.9384
2.5169 13.5792 0.8564 0.9462
1.1896 12.6614 0.7886 0.9503
-2.1643 12.2333 0.7704 0.9514
-16.9906 2.4183 1.0642 0.9335
-9.2858 -15.2319 1.1062 0.9310
13.5541 -13.2583 1.1757 0.9268
15.2478 -12.4511 1.2207 0.9241
7.7819 15.5618 1.0789 0.9326
2.6979 13.6655 0.8638 0.9457
1.3464 12.7362 0.7942 0.9500
-0.8657 11.7000 0.7275 0.9541
-1.9350 11.7326 0.7374 0.9535
12.1406 -14.5554 1.1753 0.9269
13.3426 -13.3591 1.1708 0.9271
15.0201 -12.5596 1.2141 0.9245
15.5743 -12.4181 0.7854 0.9234
14.6547 11.6289 0.7377 0.9278
10.1464 16.8639 0.7760 0.9242
7.6688 15.7929 0.6923 0.9321
3.9255 14.0277 0.5744 0.9434
2.5166 13.5778 0.5445 0.9462
1.1923 12.6907 0.5026 0.9503
0.0503 12.3126 0.4855 0.9519
-1.0327 12.0472 0.4768 0.9527
-17.0039 2.4203 0.6772 0.9336
-9.2532 -15.1785 0.7010 0.9313
15.3700 -12.5509 0.7824 0.9236
14.7506 11.4275 0.7358 0.9280
5.8713 14.9550 0.6335 0.9377
4.1310 14.1256 0.5803 0.9428
2.6977 13.6640 0.5492 0.9458
0.1948 12.3774 0.4881 0.9517
-0.8668 11.7137 0.4631 0.9541
-2.5806 15.6472 0.6253 0.9385
15.1404 -12.6603 0.7782 0.9240
13.7700 -13.1590 0.3217 0.9266
15.5758 -12.4193 0.3365 0.9234
14.6523 11.6270 0.3160 0.9279
10.1310 16.8383 0.3319 0.9244
3.9251 14.0261 0.2460 0.9434
-1.0322 12.0418 0.2042 0.9528
-9.2078 -15.1041 0.2988 0.9317
11.9753 -14.0218 0.3114 0.9289
14.2260 -13.9155 0.3362 0.9235
7.7788 15.5555 0.2938 0.9328
5.8705 14.9531 0.2714 0.9378
4.1305 14.1240 0.2486 0.9428
0.1947 12.3730 0.2090 0.9517
-0.8667 11.7127 0.1984 0.9541
-2.5792 15.6384 0.2677 0.9386
15.1149 -12.6389 0.3328 0.9242
14.8437 11.2253 0.3144 0.9283
13.7713 -13.1602 -0.1072 0.9266
14.6500 11.6251 -0.1053 0.9279
11.0890 10.5474 -0.0862 0.9406
7.6657 15.7865 -0.0988 0.9322
5.6255 14.8349 -0.0893 0.9385
3.9246 14.0245 -0.0820 0.9434
-9.1836 -15.0643 -0.0993 0.9319
11.9754 -14.0219 -0.1037 0.9289
14.2858 -13.9740 -0.1125 0.9232
15.3729 -12.5532 -0.1117 0.9237
7.7772 15.5524 -0.0979 0.9328
4.1300 14.1223 -0.0828 0.9428
1.3493 12.7631 -0.0723 0.9500
-17.3559 2.6770 -0.0989 0.9322
14.8413 11.2235 -0.1048 0.9283
15.5787 -12.4217 -0.5610 0.9234
14.6819 11.6505 -0.5277 0.9277
11.1285 10.5850 -0.4325 0.9404
10.1279 16.8331 -0.5532 0.9244
7.5230 15.4926 -0.4849 0.9334
3.9242 14.0229 -0.4100 0.9434
2.4708 13.3305 -0.3818 0.9472
1.1920 12.6870 -0.3588 0.9503
0.0503 12.3091 -0.3466 0.9519
-1.0313 12.0310 -0.3400 0.9528
-2.8268 15.9780 -0.4569 0.9371
11.9754 -14.0220 -0.5192 0.9289
15.3743 -12.5544 -0.5589 0.9236
7.7757 15.5493 -0.4895 0.9328
5.8691 14.9494 -0.4522 0.9378
4.1296 14.1207 -0.4143 0.9428
1.3492 12.7619 -0.3613 0.9499
0.1946 12.3642 -0.3482 0.9517
-2.5762 15.6206 -0.4458 0.9386
-17.1298 2.6421 -0.4880 0.9330
15.1447 -12.6638 -0.5559 0.9240
13.7738 -13.1626 -0.9662 0.9265
14.6798 11.6488 -0.9504 0.9277
10.1868 16.9311 -1.0021 0.9239
5.5109 14.5326 -0.7882 0.9396
3.8448 13.7390 -0.7235 0.9445
2.4208 13.0607 -0.6736 0.9482
1.1918 12.6857 -0.6462 0.9502
0.0502 12.3080 -0.6242 0.9519
-2.8265 15.9766 -0.8228 0.9371
11.9755 -14.0220 -0.9351 0.9288
14.2727 -13.9612 -1.0125 0.9231
15.1461 -12.6650 -1.0013 0.9240
13.7750 -13.1638 -1.3970 0.9264
9.9518 16.5404 -1.4154 0.9255
7.5209 15.4883 -1.2624 0.9333
3.8443 13.7374 -1.0460 0.9444
2.4205 13.0593 -0.9738 0.9481
1.1917 12.6844 -0.9341 0.9502
0.0502 12.3068 -0.9024 0.9518
-2.7074 15.3035 -1.1395 0.9396
-9.5748 16.2120 -1.3805 0.9273
-17.1443 2.4402 -1.2697 0.9329
-17.2304 -0.6517 -1.2643 0.9332
-11.4655 -12.8984 -1.2654 0.9331
-9.0846 -14.9019 -1.2797 0.9324
11.9755 -14.0221 -1.3520 0.9287
15.3773 -12.5568 -1.4556 0.9235
7.7726 15.5431 -1.2742 0.9327
5.7494 14.6447 -1.1536 0.9388
-17.7543 6.1254 -1.3771 0.9274
-17.1337 2.6427 -1.2711 0.9328
-11.5278 -12.6681 -1.2559 0.9336
15.1475 -12.6662 -1.4478 0.9239
16.0737 -10.6122 -1.8491 0.9255
17.9729 -7.6909 -1.8768 0.9244
18.7254 -6.0964 -1.8906 0.9239
14.6755 11.6454 -1.7986 0.9275
-17.9253 7.7944 -1.8766 0.9245
-18.1711 4.2734 -1.7921 0.9277
-16.6417 2.3687 -1.6138 0.9347
-18.4082 0.9542 -1.7697 0.9286
-16.5381 -2.1183 -1.6007 0.9352
-10.7032 -8.3921 -1.3058 0.9468
-10.5837 -14.3025 -1.7082 0.9310
-5.2926 -18.4968 -1.8470 0.9256
-3.6324 -18.9799 -1.8552 0.9253
-1.9258 -19.2909 -1.8612 0.9251
-0.1928 -19.4591 -1.8683 0.9248
5.0535 -19.0834 -1.8953 0.9237
6.2618 -17.2363 -1.7606 0.9290
7.8263 -16.7081 -1.7713 0.9285
10.8201 -15.2447 -1.7947 0.9276
14.7943 -12.0807 -1.8337 0.9261
15.9336 -10.7883 -1.8474 0.9256
16.9608 -9.3891 -1.8612 0.9251
17.8649 -7.8922 -1.8750 0.9245
10.3246 16.7161 -1.8863 0.9241
4.0450 13.8316 -1.3835 0.9437
2.5944 13.1408 -1.2859 0.9476
0.1903 12.0955 -1.1614 0.9526
-0.8623 11.6538 -1.1219 0.9541
-2.5130 15.2371 -1.4826 0.9398
-9.8985 17.2152 -1.9065 0.9233
-18.0720 8.1098 -1.9017 0.9235
-17.7820 6.1350 -1.8059 0.9272
-18.1358 4.4887 -1.7937 0.9277
-19.5362 -2.2714 -1.8882 0.9240
-19.1599 -3.9905 -1.8789 0.9244
-12.8535 -3.9048 -1.2897 0.9474
-17.2085 -8.8306 -1.8569 0.9252
-11.3661 -7.1849 -1.2909 0.9474
-14.1500 -12.9956 -1.8445 0.9257
-11.5293 -12.6698 -1.6446 0.9335
-10.7497 -14.1784 -1.7082 0.9310
-7.8879 -15.5467 -1.6737 0.9323
-6.6142 -16.5630 -1.7122 0.9308
-3.8518 -18.9292 -1.8545 0.9253
-2.1495 -19.2585 -1.8604 0.9251
1.3279 -19.4872 -1.8752 0.9245
6.0559 -17.2949 -1.7592 0.9290
7.6249 -16.7845 -1.7699 0.9286
10.6323 -15.3561 -1.7931 0.9277
14.6385 -12.2405 -1.8319 0.9262
15.7916 -10.9626 -1.8456 0.9257
17.7547 -8.0921 -1.8732 0.9246
16.8273 -4.2690 -1.6667 0.9326
17.5786 -2.8163 -1.7092 0.9310
11.1127 -10.6196 -1.8259 0.9400
12.0899 -9.6398 -1.8367 0.9396
12.9816 -8.5707 -1.8478 0.9393
13.7789 -7.4193 -1.8589 0.9389
14.4737 -6.1935 -1.8701 0.9386
16.4744 -2.2471 -1.9751 0.9352
17.4140 -0.8010 -2.0707 0.9322
17.5040 0.7641 -2.0812 0.9319
17.4478 2.3382 -2.0911 0.9315
17.2436 3.9070 -2.1002 0.9313
16.8914 5.4556 -2.1085 0.9310
16.3928 6.9695 -2.1159 0.9308
15.7511 8.4337 -2.1223 0.9306
14.9710 9.8340 -2.1277 0.9304
9.8088 13.4182 -1.9744 0.9352
8.5665 14.2381 -1.9738 0.9353
7.2521 14.9348 -1.9721 0.9353
5.5088 14.5272 -1.8455 0.9393
3.8434 13.7343 -1.6941 0.9442
2.4200 13.0566 -1.5774 0.9479
-4.2347 15.6230 -1.9228 0.9369
-5.5874 15.1051 -1.9131 0.9372
-6.8797 14.4674 -1.9029 0.9375
-8.1015 13.7174 -1.8924 0.9378
-10.0068 13.9262 -2.0370 0.9333
-11.1469 12.8989 -2.0251 0.9336
-14.6093 7.9765 -1.9772 0.9352
-15.6159 5.1849 -1.9545 0.9359
-15.2302 2.1678 -1.8274 0.9399
-15.0024 0.7777 -1.7845 0.9413
-13.5877 -5.6836 -1.7495 0.9424
-12.2958 -7.9746 -1.7409 0.9427
-10.6449 -10.0075 -1.7355 0.9428
-8.6813 -11.7317 -1.7336 0.9429
-7.9346 -13.0156 -1.8107 0.9404
-0.1577 -15.9202 -1.8912 0.9379
4.1237 -15.5719 -1.9135 0.9372
5.1042 -14.0499 -1.7757 0.9416
6.3723 -13.6040 -1.7845 0.9413
7.6036 -13.0473 -1.7938 0.9410
8.7883 -12.3821 -1.8036 0.9407
10.9798 -10.7401 -1.8245 0.9400
12.8708 -8.7145 -1.8463 0.9393
14.3895 -6.3568 -1.8686 0.9386
17.5006 0.5598 -2.0799 0.9319
17.4634 2.1335 -2.0898 0.9316
17.2785 3.7038 -2.0991 0.9313
15.8425 8.2466 -2.1216 0.9306
11.0208 10.2407 -1.7870 0.9412
7.4267 14.8514 -1.9724 0.9353
4.0446 13.8300 -1.7116 0.9436
2.5941 13.1394 -1.5909 0.9475
1.3348 12.6259 -1.5081 0.9501
0.1903 12.0944 -1.4368 0.9524
-0.8623 11.6527 -1.3880 0.9540
-2.5127 15.2357 -1.8342 0.9397
-6.7155 14.5569 -1.9043 0.9375
-9.8513 14.0525 -2.0386 0.9332
-12.0547 11.9298 -2.0146 0.9340
-12.9954 10.7386 -2.0025 0.9343
-14.5265 8.1524 -1.9787 0.9351
-15.1090 6.7802 -1.9672 0.9355
-15.8958 3.9343 -1.9452 0.9362
-15.0018 0.9530 -1.7856 0.9412
-14.9560 -0.3912 -1.7772 0.9415
-14.7958 -1.7202 -1.7694 0.9418
-14.5239 -3.0249 -1.7623 0.9420
-12.8562 -3.9056 -1.5961 0.9473
-13.0726 -6.7083 -1.7454 0.9425
-11.6192 -8.8937 -1.7381 0.9428
-9.8263 -10.7982 -1.7343 0.9429
-7.1253 -14.0437 -1.8706 0.9385
-5.8469 -14.6416 -1.8728 0.9385
-3.1555 -15.5073 -1.8798 0.9382
-0.3431 -15.9105 -1.8904 0.9379
1.0856 -15.9324 -1.8969 0.9377
3.9397 -15.6098 -1.9124 0.9372
4.9371 -14.0997 -1.7746 0.9416
14.3033 -6.5190 -1.8672 0.9386
15.8623 -2.5413 -1.9082 0.9373
17.3670 -1.2049 -2.0679 0.9323
17.4946 0.3556 -2.0785 0.9319
17.3109 3.5003 -2.0979 0.9313
16.5365 6.5799 -2.1141 0.9308
15.1869 9.4767 -2.1264 0.9304
11.4452 10.3892 -1.8361 0.9396
8.6049 9.3461 -1.5091 0.9501
10.1186 13.1857 -1.9743 0.9352
9.3297 -8.9157 -1.8285 0.9492
10.8777 -7.1817 -1.8469 0.9487
11.5346 -6.2108 -1.8562 0.9485
12.1044 -5.1797 -1.8655 0.9482
12.5811 -4.0960 -1.8747 0.9480
13.9946 -3.2053 -2.0342 0.9436
14.3275 -1.9542 -2.0489 0.9433
14.5136 1.9450 -2.0748 0.9426
14.3332 3.2475 -2.0823 0.9424
14.0311 4.5318 -2.0892 0.9422
12.4168 8.1562 -2.1049 0.9417
11.6564 9.2497 -2.1084 0.9417
9.0891 10.3457 -1.9512 0.9459
8.1290 11.1202 -1.9517 0.9459
6.0113 12.3794 -1.9499 0.9459
4.8738 12.8525 -1.9476 0.9460
3.6983 13.2155 -1.9444 0.9461
2.4198 13.0551 -1.8813 0.9478
1.1859 12.6227 -1.7964 0.9501
-2.3567 13.3210 -1.9168 0.9468
-3.5253 13.0056 -1.9092 0.9470
-5.7371 12.0644 -1.8928 0.9475
-8.3407 11.6076 -2.0252 0.9439
-9.3218 10.7870 -2.0200 0.9440
-13.5774 1.9325 -1.9432 0.9461
-13.6382 0.7070 -1.9350 0.9463
-13.3504 -1.7100 -1.9071 0.9471
-12.3137 -3.8981 -1.8301 0.9492
-11.8149 -4.9421 -1.8146 0.9496
-10.8161 -7.0149 -1.8266 0.9493
-10.3004 -8.0763 -1.8546 0.9485
-9.7187 -9.1369 -1.8900 0.9475
-8.8563 -9.9631 -1.8888 0.9476
-7.9274 -10.7128 -1.8883 0.9476
-6.9383 -11.3812 -1.8886 0.9476
-5.8957 -11.9635 -1.8898 0.9475
-4.8065 -12.4558 -1.8917 0.9475
-3.6781 -12.8544 -1.8944 0.9474
-1.3336 -13.3584 -1.9022 0.9472
2.2819 -13.3511 -1.9191 0.9468
4.5618 -12.5570 -1.8930 0.9475
5.3694 -11.4630 -1.7935 0.9501
6.4016 -10.9848 -1.8014 0.9499
7.3927 -10.4158 -1.8097 0.9497
8.3346 -9.7589 -1.8184 0.9495
10.0390 -8.1977 -1.8364 0.9490
10.7863 -7.3032 -1.8457 0.9487
11.4540 -6.3406 -1.8550 0.9485
12.0355 -5.3169 -1.8643 0.9482
13.9337 -3.3626 -2.0309 0.9437
14.2953 -2.1198 -2.0476 0.9433
14.4923 -0.8359 -2.0568 0.9430
14.3636 3.0789 -2.0814 0.9424
13.6705 5.6249 -2.0945 0.9420
13.1461 6.8430 -2.0999 0.9419
12.5079 8.0090 -2.1044 0.9418
9.2084 10.2384 -1.9511 0.9459
8.2579 11.0247 -1.9517 0.9459
7.2372 11.7174 -1.9514 0.9459
6.1558 12.3100 -1.9501 0.9459
5.0241 12.7972 -1.9480 0.9460
3.8529 13.1746 -1.9449 0.9461
-2.2024 13.3541 -1.9177 0.9468
-3.3753 13.0526 -1.9103 0.9470
-6.6323 11.5346 -1.8852 0.9477
-10.0895 9.9850 -2.0113 0.9443
-12.1938 6.8433 -1.9812 0.9451
-12.6946 5.6967 -1.9715 0.9453
-13.3796 3.3115 -1.9529 0.9458
-13.6048 -0.3559 -1.9283 0.9465
-11.8795 -4.8073 -1.8158 0.9495
-11.3830 -5.8413 -1.8128 0.9496
-10.8820 -6.8788 -1.8241 0.9493
-8.9723 -9.8598 -1.8889 0.9476
-7.0700 -11.2990 -1.8885 0.9476
-6.0340 -11.8928 -1.8896 0.9475
-3.8268 -12.8079 -1.8940 0.9474
-1.4887 -13.3378 -1.9016 0.9472
-0.2900 -13.4520 -1.9064 0.9471
0.9174 -13.4633 -1.9120 0.9469
4.4926 -12.8302 -1.9261 0.9466
7.2664 -10.4948 -1.8086 0.9497
8.2152 -9.8492 -1.8172 0.9495
9.1077 -9.1190 -1.8261 0.9493
11.3719 -6.4694 -1.8538 0.9485
11.9649 -5.4533 -1.8631 0.9483
14.5405 1.6047 -2.0727 0.9426
14.3919 2.9101 -2.0804 0.9424
14.1213 4.2002 -2.0875 0.9422
13.2208 6.6873 -2.0993 0.9419
12.5971 7.8607 -2.1039 0.9418
11.8642 8.9721 -2.1076 0.9417
10.1866 9.2468 -1.9493 0.9459
9.9101 -5.3361 -1.8542 0.9554
12.0289 -2.7550 -2.0329 0.9512
12.2759 -1.6744 -2.0410 0.9510
12.4237 -0.5715 -2.0488 0.9508
12.4128 1.6635 -2.0632 0.9505
12.2521 2.7760 -2.0696 0.9503
10.5972 6.9610 -2.0887 0.9499
9.9459 7.8923 -2.0917 0.9498
7.7531 8.8250 -1.9352 0.9535
6.9339 9.4853 -1.9356 0.9535
6.0562 10.0657 -1.9352 0.9535
4.1586 10.9664 -1.9321 0.9536
-3.0166 11.1291 -1.8996 0.9543
-3.9860 10.7758 -1.8927 0.9545
-4.9154 10.3366 -1.8856 0.9547
-8.7620 8.4714 -2.0078 0.9518
-9.4438 7.6204 -1.9991 0.9520
-10.0442 6.7157 -1.9905 0.9522
-10.5594 5.7653 -1.9819 0.9524
-10.9864 4.7772 -1.9736 0.9526
-11.3230 3.7595 -1.9655 0.9528
-11.7197 1.6681 -1.9502 0.9531
-11.7462 -0.4443 -1.9364 0.9535
-11.6224 -1.4887 -1.9303 0.9536
-10.7253 -4.4863 -1.9152 0.9540
-9.1037 -7.1380 -1.9058 0.9542
-7.6740 -8.6330 -1.9029 0.9543
-6.0121 -9.8619 -1.9027 0.9543
-5.1082 -10.3656 -1.9037 0.9542
-2.1803 -11.3924 -1.9108 0.9541
-0.1154 -11.6473 -1.9189 0.9539
1.9730 -11.5439 -1.9293 0.9536
3.0074 -11.3566 -1.9354 0.9535
4.9208 -10.5054 -1.9111 0.9541
6.3740 -8.9805 -1.8142 0.9563
8.6381 -7.0537 -1.8372 0.9558
12.4261 1.5181 -2.0623 0.9505
12.2788 2.6321 -2.0688 0.9504
12.0283 3.7307 -2.0746 0.9502
10.6753 6.8356 -2.0883 0.9499
9.2765 8.6199 -2.0861 0.9500
7.8549 8.7336 -1.9351 0.9535
6.1733 9.9950 -1.9353 0.9535
5.2514 10.5014 -1.9343 0.9535
3.2881 11.2435 -1.9298 0.9536
2.2650 11.4729 -1.9265 0.9537
1.2269 11.6053 -1.9225 0.9538
-1.8834 11.4200 -1.9067 0.9542
-3.8620 10.8267 -1.8937 0.9545
-5.6857 9.8883 -1.8791 0.9548
-8.6675 8.5777 -2.0089 0.9518
-10.4973 5.8912 -1.9830 0.9524
-10.9359 4.9075 -1.9747 0.9526
-11.5411 2.8565 -1.9586 0.9529
-11.7052 1.8054 -1.9511 0.9531
-11.7766 0.7481 -1.9440 0.9533
-11.7557 -0.3075 -1.9373 0.9534
-11.6436 -1.3537 -1.9311 0.9536
-11.4420 -2.3831 -1.9254 0.9537
-10.7799 -4.3623 -1.9158 0.9540
-10.3254 -5.2985 -1.9119 0.9540
-9.1876 -7.0325 -1.9061 0.9542
-8.5131 -7.8185 -1.9042 0.9542
-6.9770 -9.2024 -1.9025 0.9543
-6.1263 -9.7908 -1.9027 0.9543
-5.2282 -10.3045 -1.9036 0.9542
-4.2888 -10.7400 -1.9052 0.9542
-2.3123 -11.3636 -1.9104 0.9541
4.8589 -10.6958 -1.9353 0.9535
5.4095 -9.5360 -1.8061 0.9565
7.0791 -8.4871 -1.8207 0.9562
7.8429 -7.8526 -1.8283 0.9560
8.5505 -7.1499 -1.8362 0.9558
9.1956 -6.3837 -1.8441 0.9556
9.7721 -5.5593 -1.8521 0.9554
12.2211 -1.9580 -2.0390 0.9511
12.4677 0.2534 -2.0543 0.9507
12.3038 2.4879 -2.0679 0.9504
10.7519 6.7093 -2.0878 0.9499
9.3861 8.5201 -2.0883 0.9499
7.9556 8.6409 -1.9350 0.9535
7.1529 9.3210 -1.9356 0.9535
7.2280 -6.9073 -1.8792 0.9601
7.9420 -6.3325 -1.9092 0.9595
8.7802 -5.7969 -1.9776 0.9581
9.3916 -5.0569 -2.0049 0.9575
10.2230 -3.3283 -2.0208 0.9572
10.8521 -0.4992 -2.0419 0.9567
10.8331 1.4518 -2.0544 0.9565
9.7245 5.2069 -2.0734 0.9561
9.2340 6.0655 -2.0766 0.9560
8.6649 6.8758 -2.0791 0.9560
6.0393 8.2617 -1.9235 0.9592
5.2750 8.7674 -1.9232 0.9592
2.7502 9.8278 -1.9182 0.9593
1.8570 10.0190 -1.9152 0.9594
0.9514 10.1261 -1.9117 0.9594
-1.7590 9.9425 -1.8978 0.9597
-2.6338 9.7167 -1.8923 0.9599
-3.4817 9.4125 -1.8863 0.9600
-5.0690 8.5828 -1.8736 0.9602
-5.7957 8.0657 -1.8668 0.9604
-7.0048 8.1058 -2.0136 0.9573
-7.6731 7.4186 -2.0061 0.9575
-8.2746 6.6770 -1.9985 0.9576
-8.8054 5.8874 -1.9909 0.9578
-9.2619 5.0569 -1.9835 0.9580
-9.9418 3.3009 -1.9690 0.9583
-10.3000 1.4660 -1.9555 0.9585
-10.3321 -0.3908 -1.9434 0.9588
-10.2271 -1.3100 -1.9380 0.9589
-9.7821 -3.0967 -1.9286 0.9591
-8.0230 -6.2906 -1.9163 0.9594
-6.7642 -7.6096 -1.9137 0.9594
-6.0551 -8.1827 -1.9133 0.9594
-5.2994 -8.6928 -1.9136 0.9594
-3.6698 -9.5099 -1.9160 0.9594
-2.8072 -9.8109 -1.9181 0.9593
-1.9209 -10.0368 -1.9208 0.9593
-1.0169 -10.1858 -1.9240 0.9592
0.8183 -10.2474 -1.9322 0.9590
1.7362 -10.1586 -1.9371 0.9589
2.6455 -9.9900 -1.9425 0.9588
4.4106 -9.4162 -1.9544 0.9586
5.2446 -8.9995 -1.9578 0.9585
6.5140 -7.6272 -1.8853 0.9600
7.1429 -6.9870 -1.8781 0.9601
7.8419 -6.4036 -1.9030 0.9596
9.3223 -5.1606 -2.0028 0.9576
10.1787 -3.4455 -2.0198 0.9572
10.4840 -2.5301 -2.0271 0.9571
10.7057 -1.5875 -2.0343 0.9569
10.8452 1.3250 -2.0536 0.9565
10.7125 2.2963 -2.0593 0.9564
10.1792 4.1884 -2.0689 0.9562
9.7823 5.0921 -2.0729 0.9561
9.3023 5.9564 -2.0762 0.9560
6.8418 7.6072 -1.9231 0.9592
5.3770 8.7057 -1.9233 0.9592
1.9740 9.9988 -1.9157 0.9594
-0.7473 10.0999 -1.9036 0.9596
-4.1919 9.0867 -1.8809 0.9601
-4.9709 8.6452 -1.8744 0.9602
-9.5965 4.3065 -1.9771 0.9581
-10.1376 2.5091 -1.9630 0.9584
-10.2866 1.5866 -1.9563 0.9585
-9.8203 -2.9833 -1.9291 0.9591
-9.4943 -3.8421 -1.9251 0.9592
-9.0962 -4.6678 -1.9217 0.9592
-7.5032 -6.8911 -1.9149 0.9594
-6.1500 -8.1116 -1.9133 0.9594
-5.4001 -8.6302 -1.9135 0.9594
-4.6082 -9.0825 -1.9143 0.9594
-2.9209 -9.7760 -1.9178 0.9593
-2.0373 -10.0118 -1.9204 0.9593
-1.1352 -10.1708 -1.9236 0.9592
1.6172 -10.1747 -1.9365 0.9589
2.5280 -10.0165 -1.9417 0.9588
3.4241 -9.7788 -1.9475 0.9587
4.2988 -9.4629 -1.9536 0.9586
5.1401 -9.0612 -1.9581 0.9585
7.0578 -7.0665 -1.8772 0.9602
9.2519 -5.2634 -2.0007 0.9576
10.4489 -2.6509 -2.0262 0.9571
10.8284 -0.7513 -2.0402 0.9568
10.8559 1.1981 -2.0529 0.9565
10.7348 2.1706 -2.0586 0.9564
10.2246 4.0684 -2.0684 0.9562
9.8387 4.9766 -2.0724 0.9561
8.8202 6.6701 -2.0785 0.9560
7.0431 7.6498 -1.9545 0.9586
6.2301 8.1186 -1.9235 0.9592
7.3647 -5.8722 -1.9910 0.9622
7.8872 -5.2073 -1.9978 0.9621
8.7474 -3.7432 -2.0112 0.9618
9.0770 -2.9552 -2.0178 0.9617
9.3348 -2.1380 -2.0243 0.9616
9.5180 -1.2982 -2.0305 0.9615
9.6523 0.4214 -2.0422 0.9613
9.2599 2.9908 -2.0569 0.9610
8.9724 3.8146 -2.0609 0.9609
8.6093 4.6098 -2.0643 0.9609
7.6687 6.0853 -2.0694 0.9608
7.0991 6.7524 -2.0710 0.9607
6.4455 7.3366 -2.0643 0.9609
5.3441 7.3105 -1.9142 0.9637
4.6678 7.7582 -1.9139 0.9637
3.2064 8.4555 -1.9115 0.9637
2.4344 8.6991 -1.9095 0.9637
1.6440 8.8699 -1.9069 0.9638
0.8424 8.9667 -1.9037 0.9638
0.0367 8.9889 -1.9001 0.9639
-0.7661 8.9369 -1.8960 0.9640
-1.5589 8.8114 -1.8915 0.9641
-3.0877 8.3475 -1.8813 0.9643
-4.4989 7.6175 -1.8700 0.9645
-5.1764 7.2039 -1.8751 0.9644
-7.3562 5.9358 -1.9980 0.9621
-7.8313 5.2361 -1.9913 0.9622
-8.8528 2.9393 -1.9718 0.9626
-9.1786 1.3064 -1.9597 0.9628
-9.2134 -0.3485 -1.9489 0.9630
-8.4326 -3.5273 -1.9321 0.9633
-8.0705 -4.2610 -1.9291 0.9634
-7.6470 -4.9595 -1.9266 0.9634
-7.1652 -5.6180 -1.9246 0.9635
-6.0419 -6.7969 -1.9223 0.9635
-5.4086 -7.3090 -1.9220 0.9635
-4.7335 -7.7646 -1.9222 0.9635
-3.2775 -8.4933 -1.9243 0.9635
-2.5068 -8.7611 -1.9262 0.9634
-1.7150 -8.9615 -1.9286 0.9634
4.6796 -8.0300 -1.9646 0.9627
5.3961 -7.6027 -1.9707 0.9626
6.7081 -6.5617 -1.9835 0.9624
7.2926 -5.9551 -1.9902 0.9622
8.2929 -4.5908 -2.0036 0.9620
9.0382 -3.0594 -2.0170 0.9617
9.3055 -2.2457 -2.0235 0.9616
9.4985 -1.4085 -2.0297 0.9615
9.6531 0.3088 -2.0415 0.9613
9.6120 1.1743 -2.0469 0.9612
9.4914 2.0346 -2.0519 0.9611
9.0141 3.7090 -2.0604 0.9609
8.6607 4.5082 -2.0639 0.9609
7.7382 5.9948 -2.0691 0.9608
5.4289 7.2478 -1.9142 0.9637
4.0480 8.0950 -1.9131 0.9637
2.5360 8.6715 -1.9098 0.9637
-0.6621 8.9478 -1.8966 0.9640
-2.2352 8.6439 -1.8872 0.9642
-4.4116 7.6725 -1.8708 0.9645
-6.1404 7.2751 -2.0123 0.9618
-6.7442 6.6743 -2.0057 0.9620
-8.5415 3.8330 -1.9790 0.9624
-9.1663 1.4138 -1.9605 0.9628
-9.2200 -0.2412 -1.9496 0.9630
-8.4750 -3.4296 -1.9326 0.9633
-8.1212 -4.1674 -1.9295 0.9634
-7.7054 -4.8708 -1.9269 0.9634
-7.2310 -5.5348 -1.9249 0.9635
-4.8235 -7.7086 -1.9221 0.9635
-3.3758 -8.4536 -1.9241 0.9635
-2.6084 -8.7300 -1.9260 0.9634
-1.8190 -8.9393 -1.9283 0.9634
0.6234 -9.1490 -1.9384 0.9632
1.4427 -9.0766 -1.9427 0.9631
3.0527 -8.7181 -1.9525 0.9629
3.8312 -8.4336 -1.9580 0.9628
7.2196 -6.0370 -1.9893 0.9623
7.7569 -5.3849 -1.9960 0.9621
8.6504 -3.9426 -2.0095 0.9619
9.2748 -2.3530 -2.0226 0.9616
9.4777 -1.5184 -2.0289 0.9615
9.6218 1.0619 -2.0462 0.9612
9.0545 3.6028 -2.0599 0.9609
7.8065 5.9035 -2.0689 0.9608
6.6255 7.1962 -2.0677 0.9608
6.6250 -5.2824 -1.9914 0.9658
7.0925 -4.6826 -1.9974 0.9657
8.5449 -1.1655 -2.0268 0.9652
8.3022 2.6815 -2.0504 0.9648
8.0428 3.4194 -2.0540 0.9647
6.8713 5.4525 -2.0616 0.9646
6.3603 6.0497 -2.0630 0.9646
4.8566 6.6437 -1.9341 0.9668
2.8730 7.5761 -1.9043 0.9673
0.7551 8.0376 -1.8973 0.9674
0.0329 8.0591 -1.8941 0.9674
-0.6870 8.0142 -1.8904 0.9675
-2.0950 7.7289 -1.8820 0.9676
-3.4213 7.1947 -1.8724 0.9678
-4.0401 6.8407 -1.8672 0.9679
-5.5913 6.4701 -2.0097 0.9655
-6.1293 5.9260 -2.0037 0.9656
-7.0446 4.7101 -1.9916 0.9658
-7.4154 4.0487 -1.9856 0.9659
-8.2697 1.1771 -1.9632 0.9663
-8.3204 0.4313 -1.9581 0.9663
-8.0817 -1.7817 -1.9450 0.9666
-7.6081 -3.1824 -1.9382 0.9667
-5.9834 -5.6252 -1.9301 0.9668
-4.2728 -7.0089 -1.9292 0.9668
-2.2624 -7.9068 -1.9329 0.9668
-0.0818 -8.2576 -1.9408 0.9666
1.3966 -8.1714 -1.9483 0.9665
2.1268 -8.0314 -1.9526 0.9664
2.8437 -7.8276 -1.9573 0.9664
6.0366 -5.9048 -1.9846 0.9659
7.0347 -4.7630 -1.9966 0.9657
7.4552 -4.1270 -2.0027 0.9656
7.8180 -3.4538 -2.0087 0.9655
8.1196 -2.7485 -2.0147 0.9654
8.5118 1.8246 -2.0459 0.9649
8.3308 2.5839 -2.0500 0.9648
8.0804 3.3248 -2.0535 0.9647
6.9335 5.3715 -2.0613 0.9646
6.4299 5.9747 -2.0629 0.9646
2.2725 7.7705 -1.9027 0.9673
1.5662 7.9332 -1.9005 0.9673
0.8489 8.0299 -1.8977 0.9674
-0.5937 8.0238 -1.8909 0.9675
-2.6846 7.5260 -1.8779 0.9677
-3.3384 7.2366 -1.8730 0.9678
-3.9616 6.8899 -1.8679 0.9679
-5.5176 6.5373 -2.0105 0.9655
-6.0622 5.9994 -2.0045 0.9656
-6.5549 5.4165 -1.9985 0.9657
-7.3706 4.1364 -1.9864 0.9659
-7.6882 3.4501 -1.9805 0.9660
-8.1332 2.0130 -1.9692 0.9662
-8.2583 1.2738 -1.9638 0.9662
-8.3176 0.5284 -1.9588 0.9663
-7.9056 -2.4017 -1.9418 0.9666
-7.6462 -3.0942 -1.9386 0.9667
-7.3281 -3.7605 -1.9358 0.9667
-6.9539 -4.3958 -1.9335 0.9668
-6.5264 -4.9955 -1.9316 0.9668
-6.0490 -5.5555 -1.9303 0.9668
-5.5252 -6.0717 -1.9294 0.9668
-4.9588 -6.5405 -1.9290 0.9668
-4.3541 -6.9585 -1.9292 0.9668
-3.7153 -7.3226 -1.9298 0.9668
-3.0470 -7.6302 -1.9310 0.9668
-2.3541 -7.8789 -1.9326 0.9668
-1.6415 -8.0668 -1.9347 0.9667
-0.9144 -8.1923 -1.9373 0.9667
1.3010 -8.1848 -1.9478 0.9665
2.0325 -8.0532 -1.9520 0.9664
3.4521 -7.5991 -1.9616 0.9663
4.1292 -7.2791 -1.9668 0.9662
4.7772 -6.8996 -1.9723 0.9661
5.9650 -5.9724 -1.9838 0.9659
6.4950 -5.4310 -1.9898 0.9658
7.4037 -4.2119 -2.0019 0.9656
7.7742 -3.5432 -2.0079 0.9655
8.3299 -2.1133 -2.0197 0.9653
8.5094 -1.3633 -2.0254 0.9652
8.6203 -0.5981 -2.0308 0.9651
8.6613 0.1761 -2.0360 0.9650
8.6313 0.9526 -2.0409 0.9649
8.1168 3.2297 -2.0531 0.9647
7.8073 3.9491 -2.0563 0.9647
6.9948 5.2897 -2.0611 0.9646
6.4985 5.8989 -2.0627 0.9646
5.5460 -5.2999 -1.9862 0.9688
6.0144 -4.7955 -1.9916 0.9687
6.4370 -4.2499 -1.9971 0.9686
7.6000 -1.7407 -2.0187 0.9683
7.7447 -1.0564 -2.0238 0.9682
7.8269 -0.3600 -2.0287 0.9681
7.7998 1.0453 -2.0376 0.9680
7.5165 2.4277 -2.0451 0.9679
7.2804 3.0953 -2.0483 0.9678
5.2442 5.9692 -2.0573 0.9677
3.7837 6.2888 -1.9003 0.9701
1.3336 7.1950 -1.8946 0.9702
0.0298 7.2964 -1.8892 0.9703
-1.2664 7.1584 -1.8822 0.9704
-1.8978 7.0016 -1.8783 0.9705
-3.6741 6.2210 -1.8707 0.9706
-5.5612 5.3768 -2.0029 0.9685
-7.4096 1.7426 -1.9708 0.9690
-7.5173 1.0700 -1.9660 0.9691
-7.5652 0.3922 -1.9614 0.9692
-7.5534 -0.2857 -1.9571 0.9693
-7.4822 -0.9584 -1.9531 0.9693
-7.3527 -1.6210 -1.9495 0.9694
-7.1660 -2.2685 -1.9462 0.9694
-6.9240 -2.8963 -1.9433 0.9695
-6.6285 -3.4996 -1.9408 0.9695
-6.2821 -4.0743 -1.9387 0.9695
-5.8874 -4.6162 -1.9371 0.9696
-5.4474 -5.1213 -1.9359 0.9696
-2.6931 -6.9789 -1.9368 0.9696
-2.0595 -7.1976 -1.9384 0.9695
-0.7454 -7.4664 -1.9428 0.9695
-0.0745 -7.5141 -1.9456 0.9694
1.9343 -7.3043 -1.9564 0.9693
2.5857 -7.1174 -1.9607 0.9692
4.4149 -6.2203 -1.9750 0.9690
5.4819 -5.3623 -1.9855 0.9688
5.9560 -4.8635 -1.9909 0.9687
6.3848 -4.3230 -1.9964 0.9686
6.7645 -3.7447 -2.0019 0.9686
7.0918 -3.1329 -2.0074 0.9685
7.5426 2.3394 -2.0447 0.9679
4.7542 6.3470 -2.0532 0.9678
1.4175 7.1801 -1.8949 0.9702
0.7684 7.2686 -1.8925 0.9703
0.1148 7.2971 -1.8896 0.9703
-1.8167 7.0252 -1.8788 0.9705
-3.5914 6.2460 -1.8655 0.9707
-4.4579 6.3590 -2.0107 0.9684
-5.0047 5.9295 -2.0090 0.9684
-5.5002 5.4432 -2.0036 0.9685
-5.9488 4.9157 -1.9981 0.9686
-6.3473 4.3517 -1.9926 0.9687
-6.6928 3.7561 -1.9871 0.9688
-6.9831 3.1337 -1.9818 0.9689
-7.5624 0.4804 -1.9620 0.9692
-7.5583 -0.1977 -1.9576 0.9692
-7.4948 -0.8714 -1.9536 0.9693
-6.9585 -2.8159 -1.9436 0.9695
-6.6699 -3.4227 -1.9411 0.9695
-6.3300 -4.0014 -1.9389 0.9695
-4.5148 -5.9549 -1.9349 0.9696
-3.9642 -6.3354 -1.9350 0.9696
-2.7739 -6.9464 -1.9366 0.9696
-2.1430 -7.1723 -1.9382 0.9695
-1.4941 -7.3426 -1.9401 0.9695
-0.1620 -7.5113 -1.9452 0.9694
1.8485 -7.3243 -1.9559 0.9693
3.7529 -6.6157 -1.9693 0.9691
6.3317 -4.3955 -1.9957 0.9687
7.0523 -3.2142 -2.0067 0.9685
7.3313 -2.5773 -2.0121 0.9684
7.7130 -1.2357 -2.0225 0.9682
7.8116 -0.5420 -2.0274 0.9682
7.8468 0.1595 -2.0321 0.9681
7.8179 0.8628 -2.0365 0.9680
7.3477 2.9237 -2.0475 0.9679
5.8802 5.3376 -2.0562 0.9677
5.3814 5.8450 -2.0571 0.9677
5.0742 -4.8490 -1.9869 0.9712
5.5014 -4.3865 -1.9919 0.9712
5.8866 -3.8865 -1.9969 0.9711
6.2264 -3.3526 -2.0019 0.9710
6.5176 -2.7890 -2.0069 0.9710
6.7575 -2.2000 -2.0118 0.9709
7.1480 -0.3288 -2.0257 0.9707
7.0191 1.5904 -2.0374 0.9705
6.6433 2.8244 -2.0436 0.9704
4.7835 5.4448 -2.0517 0.9703
3.6546 6.0741 -2.0068 0.9710
2.9232 6.0200 -1.8945 0.9726
1.8010 6.4359 -1.8919 0.9726
1.2167 6.5646 -1.8900 0.9726
0.0272 6.6588 -1.8851 0.9727
-0.5678 6.6239 -1.8821 0.9727
-1.1561 6.5350 -1.8787 0.9728
-2.2932 6.1995 -1.8712 0.9729
-4.1473 5.7717 -2.0120 0.9709
-6.1608 3.3637 -1.9871 0.9712
-6.4212 2.7921 -1.9822 0.9713
-6.8837 0.9798 -1.9684 0.9715
-6.9194 -0.2617 -1.9602 0.9716
-6.8554 -0.8781 -1.9566 0.9717
-6.5676 -2.0791 -1.9502 0.9718
-6.3466 -2.6547 -1.9475 0.9718
-6.0764 -3.2081 -1.9452 0.9718
-5.3979 -4.2323 -1.9418 0.9719
-3.5671 -5.8512 -1.9400 0.9719
-3.0302 -6.1488 -1.9406 0.9719
-2.4692 -6.3986 -1.9416 0.9719
-1.8881 -6.5988 -1.9430 0.9719
-1.2914 -6.7476 -1.9449 0.9718
2.3683 -6.5190 -1.9635 0.9716
3.5075 -6.0186 -1.9720 0.9715
4.0413 -5.6939 -1.9766 0.9714
5.0157 -4.9062 -1.9863 0.9713
6.1849 -3.4238 -2.0013 0.9710
6.4825 -2.8638 -2.0063 0.9710
6.7292 -2.2779 -2.0112 0.9709
6.9226 -1.6706 -2.0160 0.9708
7.0606 -1.0470 -2.0207 0.9708
7.1417 -0.4119 -2.0251 0.9707
7.1648 0.2292 -2.0294 0.9706
7.1295 0.8710 -2.0333 0.9706
7.0356 1.5081 -2.0370 0.9705
6.0923 3.9010 -2.0479 0.9704
5.7235 4.4341 -2.0496 0.9703
5.3071 4.9314 -2.0509 0.9703
4.8464 5.3885 -2.0517 0.9703
4.3455 5.8014 -2.0520 0.9703
3.7839 6.1264 -2.0385 0.9705
1.8761 6.4152 -1.8922 0.9726
0.7012 6.6324 -1.8881 0.9727
0.1048 6.6593 -1.8854 0.9727
-2.2214 6.2275 -1.8718 0.9729
-4.0811 5.8215 -2.0126 0.9709
-5.0285 4.9764 -2.0028 0.9710
-5.8057 3.9804 -1.9927 0.9712
-6.1231 3.4364 -1.9877 0.9712
-6.3902 2.8676 -1.9828 0.9713
-6.8738 1.0602 -1.9689 0.9715
-6.9262 0.4400 -1.9647 0.9716
-6.9237 -0.1811 -1.9607 0.9716
-6.8667 -0.7984 -1.9570 0.9717
-6.5927 -2.0028 -1.9506 0.9718
-6.3781 -2.5810 -1.9478 0.9718
-6.1143 -3.1376 -1.9455 0.9718
-5.8032 -3.6684 -1.9435 0.9719
-5.0494 -4.6375 -1.9408 0.9719
-4.6125 -5.0688 -1.9401 0.9719
-4.1398 -5.4603 -1.9398 0.9719
-1.3697 -6.7312 -1.9446 0.9718
-0.7628 -6.8344 -1.9468 0.9718
-0.1484 -6.8843 -1.9493 0.9718
1.0843 -6.8221 -1.9555 0.9717
2.2916 -6.5444 -1.9630 0.9716
2.8740 -6.3264 -1.9671 0.9715
3.4361 -6.0573 -1.9715 0.9715
4.4817 -5.3731 -1.9808 0.9713
4.9566 -4.9627 -1.9856 0.9713
5.3942 -4.5106 -1.9906 0.9712
5.7907 -4.0199 -1.9956 0.9711
6.1425 -3.4945 -2.0006 0.9710
6.4467 -2.9382 -2.0056 0.9710
6.9005 -1.7506 -2.0154 0.9708
7.1344 -0.4950 -2.0245 0.9707
7.1651 0.1457 -2.0288 0.9706
7.1374 0.7877 -2.0328 0.9706
7.0511 1.4257 -2.0365 0.9705
6.9066 2.0543 -2.0399 0.9705
6.7050 2.6679 -2.0429 0.9704
6.1365 3.8292 -2.0477 0.9704
5.7743 4.3667 -2.0494 0.9704
5.3638 4.8689 -2.0508 0.9703
4.9087 5.3315 -2.0516 0.9703
4.6716 -4.4643 -1.9875 0.9733
5.9957 -2.5657 -2.0059 0.9731
6.2152 -2.0235 -2.0104 0.9730
6.5707 -0.3022 -2.0231 0.9728
6.5839 0.2874 -2.0270 0.9728
6.4492 1.4612 -2.0339 0.9727
4.8208 4.5853 -2.0464 0.9725
4.3926 4.9999 -2.0470 0.9725
2.1779 5.7433 -1.8893 0.9746
1.6541 5.9108 -1.8879 0.9746
1.1176 6.0295 -1.8861 0.9747
0.0250 6.1173 -1.8816 0.9747
-0.5217 6.0861 -1.8788 0.9748
-1.0624 6.0052 -1.8758 0.9748
-2.7601 5.8042 -1.9768 0.9735
-3.3289 5.6364 -2.0134 0.9730
-3.8145 5.3085 -2.0106 0.9730
-4.2646 4.9348 -2.0061 0.9731
-4.6783 4.5231 -2.0015 0.9731
-5.6720 3.0968 -1.9877 0.9733
-5.9129 2.5711 -1.9832 0.9734
-6.1056 2.0272 -1.9788 0.9734
-6.3772 -0.2412 -1.9629 0.9736
-6.3192 -0.8094 -1.9595 0.9737
-6.2116 -1.3694 -1.9564 0.9737
-4.6070 -4.3312 -1.9449 0.9739
-4.1996 -4.7245 -1.9443 0.9739
-3.2902 -5.3971 -1.9442 0.9739
-2.7949 -5.6715 -1.9448 0.9739
-1.7414 -6.0859 -1.9470 0.9739
-1.1909 -6.2227 -1.9487 0.9738
1.6332 -6.1673 -1.9623 0.9737
2.7165 -5.7993 -1.9697 0.9736
3.2311 -5.5444 -1.9738 0.9735
3.7222 -5.2443 -1.9780 0.9734
4.6179 -4.5171 -1.9869 0.9733
5.3738 -3.6385 -1.9961 0.9732
5.9636 -2.6346 -2.0053 0.9731
6.5651 -0.3787 -2.0226 0.9729
6.5852 0.2106 -2.0265 0.9728
6.5517 0.8004 -2.0302 0.9728
6.4645 1.3857 -2.0335 0.9727
6.1313 2.5228 -2.0393 0.9726
5.5953 3.5828 -2.0436 0.9726
4.8736 4.5286 -2.0463 0.9725
4.4504 4.9482 -2.0470 0.9725
3.9904 5.3273 -2.0473 0.9725
3.4934 5.6560 -2.0448 0.9726
2.8862 5.7717 -1.9848 0.9734
1.1879 6.0169 -1.8864 0.9747
0.6441 6.0923 -1.8843 0.9747
0.0963 6.1177 -1.8819 0.9747
-0.4508 6.0930 -1.8792 0.9748
-0.9926 6.0185 -1.8762 0.9748
-2.6632 5.7729 -1.9555 0.9737
-3.2622 5.6735 -2.0129 0.9730
-3.7534 5.3541 -2.0112 0.9730
-5.0062 4.1368 -1.9975 0.9732
-5.3438 3.6638 -1.9929 0.9732
-5.6372 3.1636 -1.9883 0.9733
-5.8842 2.6406 -1.9837 0.9734
-6.0833 2.0988 -1.9793 0.9734
-6.3330 0.9768 -1.9709 0.9735
-6.3295 -0.7359 -1.9599 0.9737
-6.0785 -1.8466 -1.9540 0.9738
-5.6385 -2.8934 -1.9493 0.9738
-3.8186 -5.0365 -1.9440 0.9739
-3.3528 -5.3583 -1.9442 0.9739
-2.3458 -5.8743 -1.9455 0.9739
-1.8120 -6.0646 -1.9468 0.9739
-0.1369 -6.3476 -1.9529 0.9738
0.9996 -6.2887 -1.9586 0.9737
3.1654 -5.5802 -1.9733 0.9735
4.5636 -4.5692 -1.9863 0.9733
5.3294 -3.6997 -1.9955 0.9732
5.6521 -3.2155 -2.0001 0.9732
6.5585 -0.4550 -2.0221 0.9729
6.4789 1.3100 -2.0331 0.9727
6.1593 2.4508 -2.0389 0.9726
5.9222 2.9956 -2.0413 0.9726
5.3029 4.0102 -2.0449 0.9726
4.9257 4.4713 -2.0461 0.9725
4.0522 5.2804 -2.0473 0.9725
5.0124 -3.3093 -1.9965 0.9750
5.2997 -2.8536 -2.0008 0.9749
5.5455 -2.3730 -2.0050 0.9749
6.0128 -0.8201 -2.0172 0.9747
6.0734 -0.2794 -2.0210 0.9747
6.0847 0.2656 -2.0245 0.9747
6.0465 0.8103 -2.0278 0.9746
5.6371 2.3966 -2.0361 0.9745
5.1295 3.3694 -2.0400 0.9745
4.4520 4.2346 -2.0424 0.9744
4.0565 4.6173 -2.0430 0.9744
2.6776 5.5142 -2.0376 0.9745
0.5293 5.6334 -1.8808 0.9764
0.0231 5.6514 -1.8786 0.9765
-0.4820 5.6232 -1.8760 0.9765
-2.0669 5.5877 -1.9804 0.9752
-2.6021 5.4719 -2.0141 0.9748
-4.3277 4.1842 -2.0010 0.9749
-5.7866 1.3609 -1.9760 0.9753
-5.8739 0.8361 -1.9722 0.9753
-5.9079 -0.2234 -1.9652 0.9754
-5.7558 -1.2689 -1.9592 0.9755
-4.6151 -3.6186 -1.9494 0.9756
-4.2708 -4.0151 -1.9485 0.9756
-3.4854 -4.7101 -1.9477 0.9756
-0.5839 -5.8492 -1.9540 0.9755
0.9942 -5.8168 -1.9616 0.9754
1.5130 -5.7135 -1.9647 0.9754
2.0216 -5.5646 -1.9680 0.9754
2.5159 -5.3711 -1.9716 0.9753
2.9921 -5.1342 -1.9753 0.9753
3.4463 -4.8556 -1.9792 0.9752
6.0014 -0.8899 -2.0167 0.9748
6.0683 -0.3500 -2.0205 0.9747
6.0861 0.1947 -2.0241 0.9747
6.0543 0.7397 -2.0274 0.9746
5.9729 1.2803 -2.0305 0.9746
5.8425 1.8121 -2.0333 0.9745
5.6638 2.3305 -2.0358 0.9745
5.4384 2.8309 -2.0380 0.9745
1.5961 5.4576 -1.8901 0.9763
1.0972 5.5575 -1.8830 0.9764
0.5950 5.6277 -1.8811 0.9764
-1.4134 5.4657 -1.8766 0.9765
-1.9876 5.5720 -1.9665 0.9754
-2.5378 5.5010 -2.0138 0.9748
-3.0201 5.2524 -2.0140 0.9748
-3.8919 4.6111 -2.0057 0.9749
-4.2798 4.2355 -2.0015 0.9749
-4.6317 3.8274 -1.9972 0.9750
-5.4469 2.4443 -1.9845 0.9751
-5.6321 1.9431 -1.9804 0.9752
-5.8652 0.9047 -1.9727 0.9753
-5.9113 -0.1546 -1.9656 0.9754
-5.7712 -1.2020 -1.9596 0.9755
-4.6573 -3.5649 -1.9496 0.9756
-3.5400 -4.6692 -1.9477 0.9756
-2.6520 -5.2269 -1.9483 0.9756
-2.1746 -5.4455 -1.9491 0.9756
-1.6796 -5.6217 -1.9503 0.9756
-1.1708 -5.7539 -1.9518 0.9756
1.9562 -5.5865 -1.9675 0.9754
2.4526 -5.3988 -1.9711 0.9753
2.9313 -5.1675 -1.9748 0.9753
4.2240 -4.2292 -1.9869 0.9751
4.5952 -3.8425 -1.9911 0.9751
4.9312 -3.4232 -1.9954 0.9750
5.4857 -2.5002 -2.0039 0.9749
5.6993 -2.0035 -2.0081 0.9749
5.8676 -1.4886 -2.0122 0.9748
6.0624 -0.4206 -2.0200 0.9747
6.0865 0.1237 -2.0236 0.9747
6.0612 0.6689 -2.0270 0.9746
5.9863 1.2104 -2.0301 0.9746
5.6897 2.2640 -2.0355 0.9745
5.4703 2.7670 -2.0377 0.9745
4.8976 3.7037 -2.0411 0.9744
4.5490 4.1293 -2.0422 0.9744
4.1627 4.5213 -2.0429 0.9744
3.7421 4.8764 -2.0432 0.9744
4.0200 -3.8416 -1.9884 0.9767
4.3562 -3.4734 -1.9924 0.9766
4.9251 -2.6519 -2.0003 0.9765
5.1527 -2.2049 -2.0043 0.9765
5.4841 -1.2561 -2.0119 0.9764
5.6137 0.7523 -2.0254 0.9762
5.4041 1.7454 -2.0309 0.9762
5.0170 2.6863 -2.0351 0.9761
4.7603 3.1269 -2.0367 0.9761
4.4643 3.5425 -2.0380 0.9761
3.3660 4.6046 -2.0397 0.9761
2.0163 5.3171 -2.0336 0.9761
0.9933 5.3592 -1.9491 0.9771
0.5007 5.3293 -1.9142 0.9775
-1.4741 5.4382 -2.0149 0.9763
-1.9558 5.2873 -2.0160 0.9763
-3.2771 4.5606 -2.0083 0.9764
-3.6649 4.2410 -2.0044 0.9765
-4.0217 3.8884 -2.0005 0.9765
-4.6319 3.0970 -1.9925 0.9766
-5.0896 2.2131 -1.9847 0.9767
-5.5025 0.2852 -1.9704 0.9769
-5.4972 -0.2079 -1.9672 0.9769
-5.2232 -1.6535 -1.9592 0.9770
-5.0488 -2.1119 -1.9571 0.9770
-4.5837 -2.9728 -1.9537 0.9771
-4.2967 -3.3689 -1.9525 0.9771
-3.6248 -4.0778 -1.9511 0.9771
-3.2451 -4.3854 -1.9509 0.9771
-2.8399 -4.6585 -1.9511 0.9771
-2.4123 -4.8951 -1.9515 0.9771
-1.5028 -5.2519 -1.9535 0.9771
-1.0276 -5.3694 -1.9550 0.9770
-0.0543 -5.4773 -1.9588 0.9770
0.9252 -5.4131 -1.9638 0.9769
1.8809 -5.1773 -1.9698 0.9769
2.3405 -4.9966 -1.9731 0.9768
2.7831 -4.7756 -1.9766 0.9768
3.2051 -4.5158 -1.9803 0.9768
3.6032 -4.2189 -1.9841 0.9767
3.9739 -3.8872 -1.9879 0.9767
4.3143 -3.5230 -1.9919 0.9766
4.6214 -3.1291 -1.9958 0.9766
4.8926 -2.7084 -1.9998 0.9765
5.6354 -0.3251 -2.0186 0.9763
5.6210 0.6867 -2.0251 0.9762
5.5449 1.1886 -2.0279 0.9762
5.4232 1.6821 -2.0305 0.9762
5.2570 2.1631 -2.0329 0.9761
5.0473 2.6273 -2.0349 0.9761
4.7959 3.0709 -2.0365 0.9761
4.5049 3.4900 -2.0379 0.9761
3.8137 4.2403 -2.0395 0.9761
2.5503 5.0999 -2.0391 0.9761
2.0789 5.2953 -2.0343 0.9761
1.5875 5.4284 -2.0226 0.9763
0.5636 5.3309 -1.9170 0.9775
0.0837 5.3216 -1.9033 0.9776
-0.8860 5.3722 -1.9471 0.9771
-2.3617 5.1195 -2.0162 0.9763
-2.8053 4.8788 -2.0126 0.9764
-3.2245 4.5997 -2.0088 0.9764
-3.6162 4.2844 -2.0049 0.9765
-4.3049 3.5573 -1.9970 0.9766
-4.5967 3.1515 -1.9931 0.9766
-4.8506 2.7222 -1.9891 0.9766
-5.0648 2.2728 -1.9852 0.9767
-5.2378 1.8071 -1.9814 0.9767
-5.3684 1.3287 -1.9777 0.9768
-5.5003 -0.1439 -1.9676 0.9769
-5.3711 -1.1187 -1.9620 0.9770
-4.8650 -2.4965 -1.9555 0.9770
-4.6185 -2.9195 -1.9539 0.9771
-4.0197 -3.6918 -1.9517 0.9771
-3.2960 -4.3473 -1.9509 0.9771
-2.8939 -4.6250 -1.9510 0.9771
-2.4691 -4.8664 -1.9515 0.9771
-1.0900 -5.3565 -1.9548 0.9770
0.3728 -5.4706 -1.9609 0.9770
1.3456 -5.3314 -1.9663 0.9769
1.8200 -5.1978 -1.9694 0.9769
2.2816 -5.0224 -1.9727 0.9768
3.1515 -4.5517 -1.9798 0.9768
3.5529 -4.2595 -1.9836 0.9767
3.9274 -3.9322 -1.9874 0.9767
4.2719 -3.5721 -1.9914 0.9766
4.8594 -2.7645 -1.9993 0.9765
5.0974 -2.3232 -2.0033 0.9765
5.5627 -0.8912 -2.0146 0.9764
5.6300 -0.3906 -2.0182 0.9763
5.6518 0.1149 -2.0215 0.9763
5.2811 2.1014 -2.0326 0.9761
5.0770 2.5680 -2.0346 0.9761
4.8309 3.0145 -2.0363 0.9761
3.4724 4.5249 -2.0397 0.9761
3.7521 -3.5856 -1.9888 0.9780
4.3471 -2.8701 -1.9962 0.9779
4.8068 -2.0569 -2.0036 0.9779
4.9805 -1.6215 -2.0072 0.9778
5.2331 0.7013 -2.0233 0.9776
5.1561 1.1682 -2.0260 0.9776
4.8761 2.0731 -2.0305 0.9776
4.4359 2.9138 -2.0338 0.9775
4.1598 3.3009 -2.0350 0.9775
3.8494 3.6614 -2.0359 0.9775
3.1363 4.2904 -2.0366 0.9775
2.7396 4.5534 -2.0364 0.9775
2.3206 4.7791 -2.0359 0.9775
1.4284 5.1043 -2.0312 0.9776
0.4940 5.2576 -2.0237 0.9776
-0.4501 5.2506 -2.0195 0.9777
-1.3782 5.0844 -2.0187 0.9777
-1.8265 4.9377 -2.0175 0.9777
-3.4188 3.9562 -2.0037 0.9779
-4.0542 3.2714 -1.9964 0.9779
-4.5554 2.4872 -1.9890 0.9780
-4.7510 2.0659 -1.9854 0.9781
-5.1025 0.7263 -1.9751 0.9782
-2.3016 0.1193 -0.8832 0.9902
-2.3019 -0.2948 -0.8893 0.9901
-5.0043 -1.1032 -1.9638 0.9783
-4.8799 -1.5448 -1.9615 0.9783
-4.5179 -2.3853 -1.9578 0.9784
-4.2832 -2.7779 -1.9564 0.9784
-0.9602 -5.0171 -1.9576 0.9784
-0.0507 -5.1174 -1.9612 0.9783
0.4078 -5.1071 -1.9634 0.9783
1.3150 -4.9657 -1.9685 0.9782
1.7566 -4.8353 -1.9714 0.9782
2.5986 -4.4591 -1.9778 0.9781
2.9923 -4.2160 -1.9812 0.9781
3.7091 -3.6282 -1.9884 0.9780
4.0263 -3.2878 -1.9920 0.9780
4.3123 -2.9198 -1.9957 0.9779
4.5648 -2.5269 -1.9994 0.9779
4.9601 -1.6790 -2.0068 0.9778
5.1979 -0.7708 -2.0137 0.9777
5.2545 -0.3031 -2.0170 0.9777
5.2400 0.6402 -2.0230 0.9776
5.1685 1.1079 -2.0257 0.9776
4.7036 2.4484 -2.0321 0.9775
4.1977 3.2520 -2.0349 0.9775
3.5535 3.9510 -2.0364 0.9775
3.1861 4.2535 -2.0366 0.9775
2.7925 4.5213 -2.0365 0.9775
1.9408 4.9435 -2.0352 0.9775
1.4882 5.0887 -2.0318 0.9775
0.0830 5.2742 -2.0214 0.9777
-0.3889 5.2559 -2.0197 0.9777
-0.8572 5.1977 -2.0188 0.9777
-1.3188 5.1000 -2.0187 0.9777
-1.7692 4.9597 -2.0179 0.9777
-2.2023 4.7738 -2.0147 0.9777
-3.0076 4.2902 -2.0078 0.9778
-4.2897 2.9410 -1.9931 0.9780
-4.5272 2.5407 -1.9895 0.9780
-5.0124 1.2406 -1.9788 0.9781
-2.3031 0.1463 -0.8844 0.9902
-2.2958 -0.0601 -0.8801 0.9902
-5.0176 -1.0450 -1.9641 0.9783
-4.8983 -1.4880 -1.9618 0.9783
-4.7406 -1.9184 -1.9598 0.9783
-4.5458 -2.3327 -1.9580 0.9784
-3.7564 -3.4500 -1.9545 0.9784
-3.4317 -3.7712 -1.9540 0.9784
-3.0802 -4.0626 -1.9538 0.9784
-2.7045 -4.3221 -1.9539 0.9784
-2.3074 -4.5477 -1.9543 0.9784
-1.8919 -4.7377 -1.9550 0.9784
0.3482 -5.1108 -1.9631 0.9783
0.8051 -5.0654 -1.9655 0.9783
2.1307 -4.6902 -1.9741 0.9782
2.5459 -4.4881 -1.9774 0.9781
2.9423 -4.2496 -1.9808 0.9781
3.6657 -3.6703 -1.9879 0.9780
3.9868 -3.3337 -1.9915 0.9780
4.9391 -1.7363 -2.0063 0.9778
5.0836 -1.2897 -2.0098 0.9778
5.1874 -0.8311 -2.0133 0.9777
5.2496 -0.3642 -2.0166 0.9777
5.0718 1.5086 -2.0278 0.9776
4.2350 3.2027 -2.0348 0.9775
3.5992 3.9092 -2.0363 0.9775
3.5138 -3.3579 -1.9892 0.9792
3.8067 -3.0353 -1.9926 0.9792
4.3017 -2.3162 -1.9996 0.9791
4.9204 -0.2263 -2.0159 0.9789
4.8229 1.0928 -2.0239 0.9789
4.7110 1.5216 -2.0262 0.9788
4.3723 2.3411 -2.0299 0.9788
3.8899 3.0867 -2.0324 0.9788
3.2796 3.7330 -2.0337 0.9788
2.5618 4.2578 -2.0337 0.9788
2.1700 4.4689 -2.0332 0.9788
1.7608 4.6433 -2.0324 0.9788
1.3375 4.7796 -2.0313 0.9788
0.9039 4.8767 -2.0299 0.9788
-0.4222 4.9249 -2.0230 0.9789
-2.1122 4.4418 -2.0130 0.9790
-2.4972 4.2283 -2.0098 0.9790
-2.8608 3.9814 -2.0065 0.9790
-3.2002 3.7032 -2.0031 0.9791
-3.5127 3.3962 -1.9997 0.9791
-4.0476 2.7063 -1.9928 0.9792
-4.4498 1.9349 -1.9859 0.9792
-4.5974 1.5264 -1.9826 0.9793
-2.0966 0.4931 -0.8815 0.9907
-2.0207 0.2876 -0.8354 0.9912
-2.0203 -0.2588 -0.8336 0.9912
-4.5740 -1.4480 -1.9636 0.9795
-4.4219 -1.8496 -1.9617 0.9795
-4.2352 -2.2360 -1.9601 0.9795
-4.0154 -2.6042 -1.9588 0.9795
-3.7642 -2.9514 -1.9577 0.9795
-3.1759 -3.5728 -1.9565 0.9796
-2.8433 -3.8423 -1.9563 0.9796
-1.7219 -4.4623 -1.9576 0.9795
-1.3165 -4.6008 -1.9586 0.9795
-0.9001 -4.7032 -1.9599 0.9795
-0.4761 -4.7687 -1.9614 0.9795
-0.0475 -4.7967 -1.9632 0.9795
0.8099 -4.7389 -1.9676 0.9794
1.2323 -4.6534 -1.9702 0.9794
1.6460 -4.5307 -1.9729 0.9794
2.8030 -3.9492 -1.9820 0.9793
3.7702 -3.0787 -1.9922 0.9792
4.0376 -2.7338 -1.9956 0.9791
4.2734 -2.3657 -1.9991 0.9791
4.4757 -1.9772 -2.0026 0.9791
4.7723 -1.1517 -2.0093 0.9790
4.9292 0.1577 -2.0184 0.9789
4.8346 1.0363 -2.0236 0.9789
4.5821 1.8854 -2.0279 0.9788
4.1793 2.6761 -2.0311 0.9788
3.9254 3.0410 -2.0323 0.9788
3.3228 3.6945 -2.0336 0.9788
2.9792 3.9774 -2.0339 0.9788
2.6112 4.2277 -2.0337 0.9788
1.8149 4.6227 -2.0325 0.9788
0.9607 4.8663 -2.0301 0.9788
0.5208 4.9260 -2.0273 0.9788
0.0778 4.9468 -2.0248 0.9788
-0.3648 4.9298 -2.0232 0.9789
-0.8039 4.8744 -2.0219 0.9789
-1.2352 4.7766 -2.0193 0.9789
-1.6553 4.6404 -2.0164 0.9789
-2.0607 4.4670 -2.0134 0.9790
-3.1575 3.7411 -2.0036 0.9791
-3.4736 3.4376 -2.0002 0.9791
-4.0167 2.7539 -1.9932 0.9792
-4.4279 1.9870 -1.9864 0.9792
-2.1030 0.5205 -0.8867 0.9907
-2.0296 0.3130 -0.8405 0.9912
-2.0090 0.1276 -0.8239 0.9913
-1.9968 -0.0522 -0.8175 0.9914
-2.0194 -0.2348 -0.8321 0.9913
-2.0806 -0.4333 -0.8698 0.9909
-3.7986 -2.9076 -1.9578 0.9795
-3.5218 -3.2344 -1.9570 0.9795
-3.2174 -3.5356 -1.9565 0.9796
-2.5356 -4.0522 -1.9564 0.9796
-1.7737 -4.4417 -1.9574 0.9795
-0.1034 -4.7952 -1.9630 0.9795
0.7546 -4.7472 -1.9673 0.9794
1.5928 -4.5488 -1.9725 0.9794
2.7562 -3.9807 -1.9816 0.9793
4.2446 -2.4148 -1.9987 0.9791
4.6228 -1.6251 -2.0055 0.9790
4.8542 -0.7777 -2.0121 0.9790
4.9298 0.1002 -2.0181 0.9789
4.9077 0.5416 -2.0208 0.9789
4.8456 0.9798 -2.0233 0.9789
4.2099 2.6270 -2.0309 0.9788
3.9603 2.9949 -2.0321 0.9788
3.6780 3.3387 -2.0330 0.9788
3.3655 3.6554 -2.0336 0.9788
3.0253 3.9424 -2.0338 0.9788
3.3003 -3.1539 -1.9895 0.9803
4.0391 -2.1748 -1.9992 0.9802
4.2243 -1.8076 -2.0025 0.9802
4.4928 -1.0290 -2.0087 0.9801
4.6177 -0.2124 -2.0146 0.9800
4.5251 1.0253 -2.0221 0.9800
4.2783 1.8189 -2.0261 0.9799
3.8912 2.5560 -2.0290 0.9799
3.6488 2.8954 -2.0300 0.9799
3.0762 3.5015 -2.0312 0.9799
2.4029 3.9937 -2.0313 0.9799
2.0354 4.1917 -2.0308 0.9799
0.8479 4.5748 -2.0277 0.9799
-0.3963 4.6231 -2.0222 0.9800
-0.8074 4.5638 -2.0199 0.9800
-1.6038 4.3357 -2.0147 0.9800
-1.9825 4.1689 -2.0118 0.9801
-2.6856 3.7375 -2.0058 0.9801
-3.0045 3.4767 -2.0026 0.9801
-3.2982 3.1888 -1.9994 0.9802
-3.8013 2.5416 -1.9929 0.9802
-4.0069 2.1877 -1.9896 0.9803
-1.4926 0.4956 -0.6854 0.9932
-1.4737 0.2098 -0.6487 0.9935
-1.4462 -0.0547 -0.6307 0.9937
-1.4819 -0.3267 -0.6613 0.9934
-4.1567 -1.7387 -1.9637 0.9805
-3.7749 -2.4483 -1.9609 0.9806
-3.5389 -2.7748 -1.9599 0.9806
-2.6732 -3.6125 -1.9586 0.9806
-2.3394 -3.8374 -1.9587 0.9806
-1.6189 -4.1952 -1.9598 0.9806
-1.2376 -4.3253 -1.9607 0.9806
-0.4475 -4.4828 -1.9634 0.9805
-0.0447 -4.5088 -1.9651 0.9805
0.3593 -4.4992 -1.9671 0.9805
0.7612 -4.4539 -1.9692 0.9805
1.5467 -4.2576 -1.9742 0.9804
1.9241 -4.1078 -1.9769 0.9804
2.2873 -3.9249 -1.9798 0.9804
3.2627 -3.1914 -1.9891 0.9803
3.5409 -2.8914 -1.9923 0.9803
3.7916 -2.5672 -1.9956 0.9802
4.0126 -2.2213 -1.9988 0.9802
4.2020 -1.8563 -2.0021 0.9802
4.3582 -1.4753 -2.0052 0.9801
4.4796 -1.0811 -2.0083 0.9801
4.5652 -0.6769 -2.0113 0.9801
4.6140 -0.2661 -2.0142 0.9800
4.5996 0.5619 -2.0195 0.9800
4.5361 0.9723 -2.0218 0.9800
4.1265 2.1480 -2.0275 0.9799
3.9204 2.5103 -2.0288 0.9799
3.4134 3.1718 -2.0307 0.9799
1.7023 4.3361 -2.0302 0.9799
1.3069 4.4689 -2.0292 0.9799
0.9012 4.5650 -2.0279 0.9799
0.4888 4.6238 -2.0263 0.9799
0.0731 4.6448 -2.0245 0.9799
-0.3425 4.6280 -2.0225 0.9800
-0.7543 4.5736 -2.0202 0.9800
-2.2981 3.9967 -2.0093 0.9801
-2.6424 3.7693 -2.0062 0.9801
-2.9644 3.5122 -2.0030 0.9801
-3.2615 3.2277 -1.9998 0.9802
-3.5315 2.9182 -1.9965 0.9802
-1.4907 0.5143 -0.6872 0.9931
-1.4735 0.2273 -0.6498 0.9935
-1.4720 -0.1711 -0.6458 0.9936
-1.4770 -0.3076 -0.6575 0.9934
-4.0060 -2.0557 -1.9623 0.9805
-3.8035 -2.4043 -1.9610 0.9806
-3.5712 -2.7335 -1.9600 0.9806
-3.3110 -3.0409 -1.9593 0.9806
-3.0250 -3.3242 -1.9588 0.9806
-0.4997 -4.4768 -1.9632 0.9805
-0.0972 -4.5074 -1.9649 0.9805
0.3068 -4.5025 -1.9668 0.9805
0.7092 -4.4618 -1.9689 0.9805
1.1069 -4.3857 -1.9713 0.9805
1.8758 -4.1292 -1.9765 0.9804
2.2410 -3.9505 -1.9794 0.9804
2.9181 -3.4985 -1.9855 0.9803
3.5062 -2.9318 -1.9919 0.9803
4.1792 -1.9048 -2.0016 0.9802
4.3398 -1.5256 -2.0048 0.9801
4.6098 -0.3198 -2.0139 0.9800
4.6051 0.5082 -2.0192 0.9800
4.1508 2.0996 -2.0273 0.9799
2.8377 3.6978 -2.0314 0.9799
3.8023 -2.0474 -1.9990 0.9811
3.9763 -1.7015 -2.0020 0.9811
4.2283 -0.9684 -2.0079 0.9811
4.3216 0.5792 -2.0183 0.9810
4.1577 1.3429 -2.0224 0.9809
4.0243 1.7110 -2.0242 0.9809
2.2599 3.7561 -2.0291 0.9809
1.5534 4.0964 -2.0279 0.9809
0.7976 4.3030 -2.0257 0.9809
0.4091 4.3539 -2.0242 0.9809
0.0178 4.3693 -2.0225 0.9809
-0.3728 4.3492 -2.0205 0.9809
-1.1394 4.2036 -2.0160 0.9810
-1.5091 4.0797 -2.0135 0.9810
-1.8656 3.9231 -2.0108 0.9810
-2.2060 3.7352 -2.0080 0.9811
-2.8281 3.2726 -2.0021 0.9811
-3.1049 3.0019 -1.9991 0.9811
-1.2465 0.5420 -0.6292 0.9940
-1.2668 0.4206 -0.6179 0.9941
-1.2683 0.0657 -0.5879 0.9944
-1.2752 -0.1633 -0.5951 0.9943
-1.2679 -0.2795 -0.6010 0.9943
-1.2685 -0.4016 -0.6159 0.9942
-1.2481 -0.5221 -0.6263 0.9941
-3.7521 -1.9810 -1.9640 0.9815
-3.5577 -2.3074 -1.9628 0.9815
-3.3354 -2.6152 -1.9619 0.9815
-3.0869 -2.9021 -1.9612 0.9815
-2.8143 -3.1660 -1.9608 0.9815
-2.5195 -3.4048 -1.9606 0.9815
-1.8728 -3.8003 -1.9611 0.9815
-1.5258 -3.9539 -1.9617 0.9815
-0.4217 -4.2245 -1.9652 0.9815
-0.0421 -4.2488 -1.9668 0.9814
2.4801 -3.4943 -1.9835 0.9813
2.7869 -3.2632 -1.9864 0.9813
3.0723 -3.0053 -1.9894 0.9812
3.3340 -2.7225 -1.9924 0.9812
3.5697 -2.4170 -1.9955 0.9812
4.2159 -1.0175 -2.0075 0.9811
4.2961 -0.6370 -2.0103 0.9810
4.3522 0.1392 -2.0156 0.9810
3.8814 2.0204 -2.0255 0.9809
3.6874 2.3611 -2.0268 0.9809
1.9602 3.9200 -2.0287 0.9809
0.8477 4.2938 -2.0259 0.9809
0.4598 4.3493 -2.0244 0.9809
-1.0906 4.2173 -2.0163 0.9810
-1.4617 4.0977 -2.0138 0.9810
-2.1628 3.7614 -2.0084 0.9811
-2.7903 3.3060 -2.0025 0.9811
-3.3247 2.7474 -1.9964 0.9812
-3.7496 2.1043 -1.9903 0.9812
-1.2744 0.1966 -0.5969 0.9943
-1.2703 0.0807 -0.5892 0.9944
-1.2641 -0.0331 -0.5853 0.9944
-3.3658 -2.5763 -1.9620 0.9815
-2.8510 -3.1330 -1.9608 0.9815
-1.5716 -3.9357 -1.9616 0.9815
-0.8459 -4.1569 -1.9636 0.9815
-0.4709 -4.2189 -1.9650 0.9815
0.6682 -4.2040 -1.9704 0.9814
1.7670 -3.8897 -1.9776 0.9813
2.1108 -3.7211 -1.9803 0.9813
2.4388 -3.5223 -1.9831 0.9813
2.7482 -3.2948 -1.9860 0.9813
3.0365 -3.0403 -1.9890 0.9812
3.5406 -2.4579 -1.9951 0.9812
4.2030 -1.0663 -2.0071 0.9811
4.2876 -0.6869 -2.0100 0.9810
4.2772 0.8649 -2.0199 0.9809
4.1868 1.2453 -2.0219 0.9809
4.0622 1.6164 -2.0237 0.9809
3.9043 1.9749 -2.0253 0.9809
3.7144 2.3178 -2.0266 0.9809
3.4939 2.6422 -2.0277 0.9809
3.2448 2.9454 -2.0285 0.9809
2.9690 3.2247 -2.0290 0.9809
2.6688 3.4778 -2.0292 0.9809
3.1766 -2.5329 -1.9929 0.9821
3.5876 -1.9318 -1.9987 0.9820
3.8855 -1.2650 -2.0044 0.9820
3.9885 -0.9135 -2.0071 0.9819
4.0596 -0.5537 -2.0098 0.9819
4.0753 0.5462 -2.0169 0.9818
3.4505 2.2665 -2.0251 0.9818
3.2354 2.5674 -2.0260 0.9818
2.9937 2.8475 -2.0267 0.9818
2.7274 3.1045 -2.0271 0.9818
2.4389 3.3363 -2.0272 0.9818
1.8048 3.7167 -2.0267 0.9818
0.7520 4.0570 -2.0239 0.9818
0.3857 4.1051 -2.0225 0.9818
0.0168 4.1198 -2.0209 0.9818
-1.0746 3.9644 -2.0148 0.9819
-1.7596 3.7003 -2.0099 0.9819
-2.9295 2.8324 -1.9988 0.9820
-3.3776 2.2583 -1.9930 0.9821
-1.1272 0.3742 -0.5826 0.9947
-1.1327 0.2664 -0.5708 0.9948
-1.1438 0.1628 -0.5667 0.9949
-1.1400 -0.0431 -0.5596 0.9949
-1.1344 -0.2501 -0.5698 0.9948
-1.1292 -0.3575 -0.5810 0.9947
-1.0985 -0.5800 -0.6094 0.9945
-2.6582 -2.9904 -1.9626 0.9823
-1.4411 -3.7346 -1.9635 0.9823
-0.0398 -4.0125 -1.9683 0.9823
0.3197 -4.0035 -1.9701 0.9823
0.6773 -3.9627 -1.9720 0.9822
1.0302 -3.8904 -1.9741 0.9822
1.3758 -3.7870 -1.9764 0.9822
2.0338 -3.4900 -1.9814 0.9822
2.6305 -3.0800 -1.9868 0.9821
2.8996 -2.8363 -1.9897 0.9821
3.1463 -2.5692 -1.9925 0.9821
3.3685 -2.2807 -1.9954 0.9820
3.5642 -1.9730 -1.9983 0.9820
3.7318 -1.6486 -2.0012 0.9820
3.8698 -1.3099 -2.0040 0.9820
3.9769 -0.9598 -2.0068 0.9819
4.0522 -0.6009 -2.0094 0.9819
4.0949 -0.2362 -2.0120 0.9819
3.9344 1.2203 -2.0206 0.9818
3.6595 1.9049 -2.0237 0.9818
3.4765 2.2260 -2.0249 0.9818
3.0265 2.8123 -2.0266 0.9818
2.7634 3.0725 -2.0270 0.9818
1.8480 3.6955 -2.0267 0.9818
0.4335 4.1008 -2.0227 0.9818
-0.3038 4.1054 -2.0193 0.9818
-0.6692 4.0577 -2.0173 0.9818
-1.0285 3.9772 -2.0151 0.9819
-1.3786 3.8647 -2.0127 0.9819
-2.3462 3.3467 -2.0049 0.9820
-2.6325 3.1190 -2.0020 0.9820
-1.1251 0.3882 -0.5838 0.9947
-1.1330 0.2804 -0.5725 0.9948
-1.1431 0.1763 -0.5674 0.9949
-1.1427 0.0726 -0.5616 0.9949
-1.1383 -0.0298 -0.5586 0.9949
-1.1366 -0.2367 -0.5695 0.9948
-1.1306 -0.3435 -0.5796 0.9947
-1.1123 -0.4501 -0.5886 0.9947
-1.0915 -0.5601 -0.6018 0.9945
-3.1790 -2.4333 -1.9638 0.9823
-2.9476 -2.7071 -1.9631 0.9823
