ply
format ascii 1.0
element vertex 1582
property float32 x
property float32 y
property float32 z
property float32 I
end_header
4.4727 10.6825 1.2436 0.9545
3.5578 11.2120 1.2631 0.9538
2.4503 11.0601 1.2165 0.9554
-0.5502 11.0553 1.1886 0.9564
-1.5611 11.1598 1.2100 0.9557
-2.5538 10.9947 1.2121 0.9556
5.2446 4.8449 0.6044 0.9717
5.5341 10.9488 1.0385 0.9519
2.2447 11.0596 0.9553 0.9557
1.2548 11.2580 0.9589 0.9555
0.2405 11.0564 0.9362 0.9566
-0.7474 11.0548 0.9380 0.9565
-3.8913 11.1687 1.0012 0.9536
-2.2961 -17.7239 1.5129 0.9308
0.8808 -17.7187 1.5018 0.9313
4.1133 -17.7134 1.5394 0.9296
4.4907 -10.4270 0.9611 0.9554
8.9579 4.2432 0.8391 0.9610
5.6499 4.8575 0.6307 0.9705
2.6198 4.7540 0.4595 0.9784
3.7969 11.2622 1.0061 0.9534
2.6589 11.0603 0.9630 0.9554
-1.3693 11.2538 0.9597 0.9555
-2.3595 11.0522 0.9567 0.9556
-3.4500 11.1694 0.9896 0.9542
-4.5752 11.1676 1.0216 0.9527
-5.9020 11.3901 1.0860 0.9498
-2.9425 -17.7249 1.5210 0.9304
1.8357 -17.7171 1.5078 0.9310
6.8888 -17.7088 1.6085 0.9266
8.9588 3.8586 0.8257 0.9616
8.9565 4.8459 0.8621 0.9599
15.2941 12.2280 1.6576 0.9244
6.5543 10.9505 1.0804 0.9501
5.2900 10.9484 1.0293 0.9524
3.0802 11.0610 0.9720 0.9550
1.0511 11.2577 0.9571 0.9556
-3.0183 11.1701 0.9795 0.9546
-4.1168 11.1684 1.0076 0.9533
-5.4067 11.4133 1.0691 0.9506
-3.5966 -17.7259 1.5311 0.9300
-0.3843 -17.7207 1.5005 0.9313
1.1990 -17.7182 1.5033 0.9312
2.8011 -17.7156 1.5183 0.9305
4.4487 -17.7129 1.5460 0.9293
6.1715 -17.7100 1.5876 0.9275
8.9575 4.4410 0.8464 0.9607
5.3752 4.7913 0.6096 0.9715
5.7808 10.9492 1.0481 0.9515
4.4727 10.6823 0.9804 0.9546
2.4502 11.0600 0.9590 0.9555
-0.5502 11.0551 0.9370 0.9565
-2.5538 10.9945 0.9555 0.9557
-4.7360 10.9948 1.0134 0.9531
8.9671 3.6734 0.6009 0.9619
8.9612 4.6431 0.6258 0.9604
8.2662 10.9531 0.8509 0.9465
5.5593 10.9987 0.7642 0.9518
3.3543 11.2613 0.7286 0.9540
0.2405 11.0562 0.6858 0.9566
-0.7474 11.0546 0.6871 0.9566
-1.7785 11.2530 0.7065 0.9554
-3.8912 11.1685 0.7334 0.9537
-4.9693 10.9943 0.7482 0.9528
-2.2962 -17.7241 1.1083 0.9309
-0.7062 -17.8306 1.1065 0.9310
2.4959 -17.8513 1.1177 0.9303
5.8628 -17.8458 1.1648 0.9275
8.9620 4.2452 0.6149 0.9610
5.2043 5.3519 0.4629 0.9705
8.9383 11.0042 0.8791 0.9448
7.4129 11.0017 0.8226 0.9482
3.7969 11.2620 0.7370 0.9535
2.6588 11.0601 0.7054 0.9554
-5.9135 11.4123 0.7970 0.9498
-2.9425 -17.7252 1.1142 0.9305
-1.3363 -17.7226 1.1021 0.9312
1.8497 -17.8524 1.1130 0.9306
5.1656 -17.8469 1.1521 0.9282
6.9414 -17.8440 1.1873 0.9261
8.9628 3.8604 0.6052 0.9616
8.9607 4.8482 0.6318 0.9600
5.1564 4.9373 0.4427 0.9718
9.4311 10.7999 0.8891 0.9442
6.5454 10.9355 0.7903 0.9502
4.1747 11.0626 0.7332 0.9537
3.0802 11.0608 0.7120 0.9550
1.0511 11.2575 0.7011 0.9557
0.0425 11.0559 0.6856 0.9567
-0.9635 11.2543 0.7004 0.9557
-1.9503 11.0527 0.6960 0.9560
-3.0182 11.1700 0.7175 0.9547
-3.5967 -17.7262 1.1216 0.9301
-1.9742 -17.7236 1.1058 0.9310
1.2081 -17.8534 1.1096 0.9308
2.8225 -17.8508 1.1207 0.9301
4.4827 -17.8481 1.1411 0.9289
4.6270 -10.2354 0.6965 0.9560
8.9616 4.4431 0.6203 0.9607
5.3889 4.8035 0.4477 0.9715
7.0876 10.9364 0.8081 0.9491
5.8072 10.9991 0.7713 0.9514
0.4372 11.0565 0.6862 0.9566
-1.5741 11.2533 0.7046 0.9555
-2.5599 11.0207 0.7016 0.9557
-4.7359 10.9947 0.7423 0.9532
8.9700 3.6746 0.3822 0.9619
8.9654 4.6452 0.3981 0.9604
5.2592 4.8583 0.2823 0.9717
9.6783 10.6905 0.5686 0.9439
5.5592 10.9985 0.4859 0.9519
4.4025 11.0628 0.4695 0.9535
3.3543 11.2611 0.4633 0.9541
2.2447 11.0593 0.4450 0.9558
-3.8911 11.1684 0.4663 0.9538
-2.2962 -17.7244 0.7047 0.9310
0.8891 -17.8861 0.7061 0.9308
2.5004 -17.8835 0.7120 0.9303
4.1521 -17.8808 0.7238 0.9292
8.9381 11.0040 0.5590 0.9448
7.3691 10.9367 0.5200 0.9486
2.6211 4.7564 0.2141 0.9785
4.6991 10.6823 0.4602 0.9544
3.7968 11.2618 0.4686 0.9535
2.6588 11.0600 0.4485 0.9555
-1.3693 11.2534 0.4470 0.9556
-2.3594 11.0518 0.4456 0.9558
-1.3469 -17.8638 0.7064 0.9308
0.2499 -17.8612 0.7044 0.9310
3.4853 -17.8819 0.7184 0.9297
6.9540 -17.8762 0.7563 0.9261
8.9649 4.8505 0.4019 0.9600
5.1586 4.9395 0.2816 0.9718
9.4371 10.8067 0.5657 0.9442
6.5453 10.9354 0.5025 0.9503
5.3140 10.9981 0.4816 0.9523
2.0392 11.0590 0.4434 0.9560
1.0510 11.2574 0.4458 0.9557
0.0425 11.0557 0.4359 0.9567
-1.9503 11.0525 0.4425 0.9561
-4.1166 11.1680 0.4693 0.9535
-5.4065 11.4129 0.4980 0.9507
-5.9848 -9.6059 0.4463 0.9557
-0.3874 -17.8622 0.7045 0.9310
1.2103 -17.8856 0.7069 0.9308
2.8276 -17.8830 0.7139 0.9301
4.4908 -17.8802 0.7269 0.9289
4.6364 -10.2561 0.4438 0.9559
8.6154 11.0035 0.5511 0.9456
7.0875 10.9362 0.5139 0.9492
5.8071 10.9989 0.4904 0.9514
1.4578 11.2580 0.4476 0.9556
-1.5741 11.2531 0.4480 0.9555
-2.5598 11.0206 0.4461 0.9557
-4.7472 11.0209 0.4732 0.9531
5.2650 4.8637 0.1211 0.9717
6.8142 10.9356 0.2177 0.9498
5.5591 10.9983 0.2082 0.9519
4.4025 11.0627 0.2011 0.9535
3.3542 11.2610 0.1985 0.9541
2.2446 11.0591 0.1906 0.9559
-0.7474 11.0543 0.1872 0.9566
-2.2962 -17.7246 0.3019 0.9310
-0.7062 -17.8311 0.3014 0.9311
2.5005 -17.8838 0.3050 0.9303
8.9702 4.2491 0.1677 0.9611
7.3690 10.9365 0.2228 0.9486
2.6588 11.0598 0.1921 0.9555
0.6442 11.2065 0.1896 0.9561
-1.3693 11.2533 0.1915 0.9557
-3.4498 11.1689 0.1975 0.9543
-4.5750 11.1671 0.2038 0.9529
-1.3446 -17.8321 0.3021 0.9310
0.2495 -17.8295 0.3012 0.9311
1.8531 -17.8848 0.3037 0.9306
5.1658 4.9463 0.1208 0.9718
7.9512 10.9375 0.2284 0.9473
3.0801 11.0605 0.1939 0.9551
1.0510 11.2572 0.1910 0.9558
0.0425 11.0556 0.1868 0.9567
4.4908 -17.8805 0.3114 0.9289
4.6466 -10.2788 0.1905 0.9559
8.9699 4.4472 0.1691 0.9607
8.6153 11.0033 0.2361 0.9456
5.8070 10.9987 0.2101 0.9515
-1.5741 11.2530 0.1919 0.9556
-2.5598 11.0204 0.1911 0.9557
-3.6699 11.1686 0.1986 0.9541
-4.7472 11.0207 0.2027 0.9531
8.9737 4.6496 -0.0569 0.9604
5.2620 4.8610 -0.0403 0.9718
9.6780 10.6901 -0.0812 0.9440
4.4024 11.0625 -0.0670 0.9535
3.2946 11.0607 -0.0650 0.9549
2.2446 11.0590 -0.0635 0.9559
0.2404 11.0557 -0.0623 0.9567
-0.7473 11.0541 -0.0624 0.9566
-2.7670 11.0199 -0.0640 0.9556
-4.9809 11.0201 -0.0681 0.9528
-0.7075 -17.8633 -0.1006 0.9310
0.8891 -17.8866 -0.1008 0.9309
5.8736 -17.8785 -0.1060 0.9275
4.5314 -10.5217 -0.0645 0.9552
8.9743 4.2510 -0.0559 0.9611
5.0848 5.2289 -0.0411 0.9712
8.9378 11.0036 -0.0798 0.9449
7.3689 10.9363 -0.0742 0.9486
2.6225 4.7588 -0.0306 0.9785
2.6587 11.0597 -0.0640 0.9555
1.6336 11.0580 -0.0629 0.9563
-1.3632 11.2031 -0.0635 0.9559
-3.4498 11.1688 -0.0658 0.9543
-1.3446 -17.8324 -0.1007 0.9310
1.8531 -17.8851 -0.1012 0.9306
3.4854 -17.8824 -0.1026 0.9297
5.1717 4.9520 -0.0403 0.9718
9.4489 10.8202 -0.0808 0.9442
7.9510 10.9373 -0.0761 0.9473
6.5450 10.9350 -0.0718 0.9503
5.3138 10.9978 -0.0688 0.9523
2.0391 11.0587 -0.0633 0.9560
1.0323 11.0570 -0.0625 0.9566
-1.9502 11.0522 -0.0632 0.9561
-3.0181 11.1695 -0.0651 0.9548
-0.3874 -17.8627 -0.1006 0.9310
1.2104 -17.8861 -0.1009 0.9308
2.8277 -17.8835 -0.1019 0.9301
6.2301 -17.8779 -0.1066 0.9271
8.6151 11.0031 -0.0787 0.9456
-0.5502 11.0544 -0.0623 0.9567
-2.5598 11.0202 -0.0637 0.9558
-3.6689 11.1655 -0.0662 0.9541
-4.7471 11.0205 -0.0676 0.9531
9.6778 10.6899 -0.4060 0.9439
6.8140 10.9352 -0.3628 0.9497
4.3144 10.8412 -0.3286 0.9544
0.2404 11.0556 -0.3114 0.9567
-0.7473 11.0540 -0.3120 0.9566
-1.7468 11.0523 -0.3151 0.9562
-2.7670 11.0197 -0.3199 0.9556
-3.8910 11.1679 -0.3330 0.9538
-2.2963 -17.7252 -0.5033 0.9310
-0.7075 -17.8635 -0.5034 0.9310
0.8891 -17.8869 -0.5043 0.9308
2.5005 -17.8843 -0.5085 0.9303
5.8736 -17.8788 -0.5299 0.9275
4.5365 -10.5334 -0.3229 0.9551
15.4060 11.0189 -0.5333 0.9270
5.0633 5.2068 -0.2045 0.9714
8.9376 11.0034 -0.3992 0.9449
7.3687 10.9361 -0.3713 0.9486
2.6231 4.7600 -0.1530 0.9785
4.6989 10.6818 -0.3286 0.9544
3.6546 10.8402 -0.3221 0.9553
2.6056 10.8385 -0.3139 0.9564
-1.3449 11.0530 -0.3135 0.9564
-4.5679 11.1497 -0.3393 0.9529
1.8531 -17.8853 -0.5063 0.9306
3.4854 -17.8827 -0.5130 0.9297
5.1752 -17.8799 -0.5241 0.9282
5.1406 -10.3694 -0.3259 0.9547
15.3671 12.2864 -0.5540 0.9243
5.1767 4.9568 -0.2018 0.9717
9.4549 10.8270 -0.4048 0.9441
6.5449 10.9348 -0.3588 0.9503
4.0910 10.8409 -0.3263 0.9547
3.0184 10.8391 -0.3168 0.9560
2.0391 11.0585 -0.3166 0.9560
0.0425 11.0553 -0.3113 0.9567
-1.9502 11.0520 -0.3160 0.9561
-3.0180 11.1693 -0.3258 0.9548
-5.9758 -9.5914 -0.3182 0.9558
-0.3874 -17.8630 -0.5031 0.9310
1.2104 -17.8864 -0.5048 0.9308
2.8277 -17.8837 -0.5098 0.9301
6.2302 -17.8782 -0.5331 0.9270
4.6730 -10.3371 -0.3194 0.9556
8.6150 11.0029 -0.3935 0.9456
7.0871 10.9357 -0.3669 0.9492
5.8068 10.9984 -0.3502 0.9514
2.4011 10.8381 -0.3126 0.9566
-1.5461 11.0527 -0.3142 0.9563
-4.7470 11.0203 -0.3379 0.9531
9.6776 10.6897 -0.7313 0.9439
8.2655 10.9521 -0.6958 0.9465
6.8543 10.9999 -0.6573 0.9494
1.2077 10.8361 -0.5529 0.9573
-0.7324 10.8329 -0.5506 0.9574
-2.7669 11.0196 -0.5762 0.9555
-4.9808 11.0198 -0.6133 0.9527
-2.2963 -17.7254 -0.9064 0.9309
-0.7075 -17.8638 -0.9067 0.9309
0.8875 -17.8552 -0.9066 0.9309
2.4772 -17.7176 -0.9073 0.9309
4.5476 -10.5593 -0.5831 0.9550
15.1554 10.8396 -0.9450 0.9281
8.9375 11.0032 -0.7189 0.9448
2.6055 10.8383 -0.5653 0.9563
0.6228 10.8351 -0.5504 0.9575
-2.3122 10.8303 -0.5616 0.9566
1.8498 -17.8537 -0.9103 0.9306
3.4530 -17.7161 -0.9154 0.9303
5.1270 -17.7133 -0.9352 0.9288
5.1322 -10.3524 -0.5860 0.9548
15.4805 12.3771 -1.0052 0.9237
9.4608 10.8339 -0.7294 0.9440
7.9979 11.0017 -0.6898 0.9470
6.5836 10.9994 -0.6501 0.9500
4.0909 10.8407 -0.5876 0.9547
3.0184 10.8390 -0.5706 0.9559
1.9983 10.8373 -0.5589 0.9568
0.0417 10.8342 -0.5494 0.9575
-0.9274 10.8326 -0.5514 0.9574
-1.9112 10.8310 -0.5578 0.9569
-3.0180 11.1691 -0.5867 0.9547
-4.1164 11.1673 -0.6036 0.9534
-10.2894 -16.5150 -0.9868 0.9250
-1.9901 -17.8659 -0.9117 0.9305
-0.3874 -17.8633 -0.9061 0.9309
4.4491 -17.7144 -0.9263 0.9295
4.6901 -10.3750 -0.5774 0.9554
16.3678 10.0245 -0.9734 0.9260
7.1290 11.0003 -0.6648 0.9489
5.8067 10.9982 -0.6307 0.9514
3.4397 10.8397 -0.5767 0.9555
1.4032 10.8364 -0.5541 0.9572
-1.5152 10.8316 -0.5547 0.9571
16.1089 10.2641 -1.4006 0.9263
15.5461 11.9797 -1.4390 0.9243
5.3017 4.8976 -0.5292 0.9715
4.3142 10.8409 -0.8555 0.9543
3.2286 10.8392 -0.8293 0.9557
0.2356 10.8343 -0.7946 0.9575
-0.7324 10.8328 -0.7961 0.9574
-1.7119 10.8312 -0.8040 0.9570
-2.7669 11.0194 -0.8330 0.9555
-3.8908 11.1675 -0.8671 0.9537
0.8808 -17.7205 -1.3009 0.9313
2.4773 -17.7179 -1.3117 0.9308
4.5570 -10.5811 -0.8447 0.9548
9.0779 4.3001 -0.7365 0.9605
14.6318 12.5797 -1.4148 0.9255
8.7340 10.7527 -1.0157 0.9460
7.2435 10.7503 -0.9505 0.9493
2.6055 10.8382 -0.8173 0.9563
0.6228 10.8350 -0.7958 0.9574
-0.3449 10.8334 -0.7947 0.9575
-2.3121 10.8302 -0.8120 0.9566
0.2500 -17.8625 -1.3098 0.9309
3.4530 -17.7163 -1.3234 0.9302
6.8896 -17.7108 -1.3934 0.9266
5.1473 -10.3829 -0.8497 0.9546
14.9565 11.9581 -1.4041 0.9261
5.1616 4.9424 -0.5240 0.9717
6.4965 10.8539 -0.9275 0.9505
1.0117 10.8356 -0.7979 0.9573
-1.9111 10.8308 -0.8064 0.9568
-3.0179 11.1690 -0.8483 0.9547
-4.1163 11.1672 -0.8727 0.9534
-10.1384 -16.2727 -1.4058 0.9260
1.1991 -17.7200 -1.3022 0.9312
16.3218 9.9963 -1.4034 0.9261
5.4937 4.8969 -0.5396 0.9709
5.1357 5.4741 -0.5504 0.9703
6.9667 10.7499 -0.9393 0.9499
5.7802 10.9480 -0.9077 0.9516
4.4722 10.6811 -0.8490 0.9546
3.4396 10.8395 -0.8338 0.9554
2.4010 10.8378 -0.8139 0.9565
0.4284 10.8346 -0.7950 0.9574
-1.5151 10.8315 -0.8019 0.9571
-2.5155 10.8298 -0.8152 0.9564
-3.6543 11.1210 -0.8583 0.9541
-4.7469 11.0200 -0.8798 0.9530
16.4035 6.7197 -1.7018 0.9312
13.2768 10.2310 -1.6092 0.9349
9.6772 10.6892 -1.3843 0.9437
8.1141 10.7515 -1.2932 0.9473
0.2356 10.8342 -1.0404 0.9574
-0.7324 10.8326 -1.0424 0.9573
-2.7543 10.9693 -1.0858 0.9556
-2.2964 -17.7259 -1.7160 0.9307
-0.7062 -17.8324 -1.7133 0.9308
2.4773 -17.7182 -1.7176 0.9306
4.1138 -17.7155 -1.7460 0.9295
9.5639 -14.4343 -1.6623 0.9328
10.6829 -13.3625 -1.6424 0.9336
12.6181 -11.0196 -1.6083 0.9349
14.5377 -10.5692 -1.7256 0.9303
15.9554 -7.7099 -1.7013 0.9313
16.9127 -4.7104 -1.6855 0.9319
17.2175 -3.1754 -1.6808 0.9321
17.4059 -1.6257 -1.6783 0.9322
17.4327 1.4919 -1.6797 0.9321
16.9913 4.5906 -1.6897 0.9317
16.5948 6.1164 -1.6979 0.9314
9.0779 4.3001 -0.9644 0.9604
14.2737 8.3944 -1.5897 0.9356
13.5830 9.7149 -1.6032 0.9351
12.7849 10.9918 -1.6187 0.9345
8.7338 10.7525 -1.3299 0.9459
7.2434 10.7501 -1.2445 0.9492
2.6251 4.7636 -0.5222 0.9784
1.6009 10.8364 -1.0516 0.9569
0.6228 10.8348 -1.0419 0.9573
-0.3449 10.8332 -1.0406 0.9574
0.2495 -17.8308 -1.7120 0.9308
1.8359 -17.7192 -1.7102 0.9309
3.4531 -17.7166 -1.7329 0.9300
5.1622 -10.4129 -1.1158 0.9544
9.0891 -14.8415 -1.6708 0.9325
11.3066 -12.6854 -1.6314 0.9340
13.2481 -10.3736 -1.6154 0.9346
15.0113 -9.7291 -1.7174 0.9306
15.7088 -8.2944 -1.7054 0.9311
16.7584 -5.3184 -1.6880 0.9318
17.3446 -2.2465 -1.6791 0.9321
17.4630 -0.6910 -1.6778 0.9322
17.4647 0.8687 -1.6788 0.9321
16.7673 5.5091 -1.6944 0.9315
14.5196 7.8559 -1.5849 0.9358
13.1167 10.4871 -1.6123 0.9347
5.1845 4.9642 -0.6891 0.9716
7.8157 10.7510 -1.2761 0.9480
6.4336 10.7489 -1.2027 0.9509
5.1926 10.7469 -1.1459 0.9532
4.0908 10.8404 -1.1124 0.9545
-1.9111 10.8307 -1.0559 0.9568
-4.0387 10.9567 -1.1211 0.9542
-3.7659 -18.5605 -1.8182 0.9267
1.1991 -17.7202 -1.7051 0.9311
2.8014 -17.7176 -1.7221 0.9305
4.4493 -17.7150 -1.7535 0.9292
5.9219 -16.9935 -1.7277 0.9302
8.5988 -15.2357 -1.6796 0.9321
10.8953 -13.1389 -1.6387 0.9337
11.8937 -11.9851 -1.6210 0.9344
14.7005 -10.2904 -1.7227 0.9304
15.4437 -8.8728 -1.7100 0.9309
16.9832 -4.4040 -1.6844 0.9319
17.4297 -1.3137 -1.6781 0.9322
17.4095 1.8044 -1.6804 0.9321
16.9212 4.8983 -1.6912 0.9317
14.7483 7.3120 -1.5804 0.9360
14.1437 8.6624 -1.5923 0.9355
13.4315 9.9748 -1.6062 0.9350
5.4809 4.8856 -0.7049 0.9709
5.1092 5.4457 -0.7169 0.9704
6.9666 10.7497 -1.2298 0.9498
5.6744 10.7476 -1.1668 0.9523
4.4721 10.6810 -1.1117 0.9545
3.4396 10.8393 -1.0918 0.9553
0.4284 10.8345 -1.0410 0.9574
-0.5392 10.8329 -1.0413 0.9574
-3.6205 11.0181 -1.1134 0.9545
-10.6470 11.1186 -1.4779 0.9400
14.3095 3.0544 -1.7381 0.9428
12.6075 5.1647 -1.6184 0.9466
12.1632 6.3021 -1.6272 0.9463
11.6277 7.4087 -1.6378 0.9460
11.0021 8.4781 -1.6499 0.9456
6.6980 10.7491 -1.5044 0.9503
5.4321 10.7471 -1.4304 0.9527
4.3141 10.8406 -1.3859 0.9541
2.1996 10.8372 -1.3136 0.9564
0.2356 10.8340 -1.2872 0.9573
-0.7324 10.8324 -1.2897 0.9572
-2.7542 10.9691 -1.3434 0.9555
-3.8037 10.9173 -1.3733 0.9545
-11.0588 13.3378 -2.0581 0.9326
-13.3571 13.4615 -2.2526 0.9265
-16.9010 9.7115 -2.3154 0.9245
-18.5876 6.6387 -2.3445 0.9236
-19.1867 4.9767 -2.3545 0.9233
-15.3731 -11.4151 -2.2745 0.9258
-12.8244 -13.6674 -2.2263 0.9273
-10.5487 -13.4709 -2.0324 0.9334
-4.9091 -15.4669 -1.9276 0.9367
-3.4623 -15.6237 -1.9009 0.9376
-2.0275 -15.6499 -1.8745 0.9384
-0.6159 -15.5507 -1.8487 0.9392
0.7621 -15.3320 -1.8235 0.9400
2.0973 -15.0003 -1.7992 0.9408
3.3815 -14.5624 -1.7758 0.9416
4.6077 -14.0255 -1.7536 0.9423
4.3053 -9.9965 -1.2929 0.9571
8.8213 -11.0340 -1.6781 0.9447
12.7186 -7.6132 -1.7608 0.9420
14.0931 -3.9251 -1.7378 0.9428
14.5748 -0.0565 -1.7313 0.9430
14.5346 1.2439 -1.7328 0.9429
14.3939 2.5394 -1.7362 0.9428
14.1527 3.8237 -1.7414 0.9427
9.0780 4.3001 -1.1932 0.9603
8.7337 10.7523 -1.6455 0.9457
7.2433 10.7500 -1.5398 0.9491
2.6258 4.7648 -0.6462 0.9783
4.6986 10.6812 -1.3861 0.9541
3.6544 10.8395 -1.3588 0.9550
1.6009 10.8362 -1.3012 0.9568
-0.3449 10.8331 -1.2875 0.9573
-2.3120 10.8299 -1.3154 0.9564
-3.3723 10.9181 -1.3574 0.9550
-7.7389 14.9350 -1.9981 0.9345
-10.5269 13.6599 -2.0485 0.9329
-16.4928 10.2763 -2.3083 0.9247
-17.4715 8.8302 -2.3254 0.9242
-18.3008 7.2823 -2.3397 0.9237
-19.1741 -4.8151 -2.3483 0.9235
-18.5728 -6.4715 -2.3363 0.9238
-16.8880 -9.5306 -2.3035 0.9249
-15.8309 -10.9012 -2.2832 0.9255
-14.6509 -12.1483 -2.2608 0.9262
-11.9890 -14.2336 -2.2106 0.9278
-6.9298 -15.0205 -1.9650 0.9355
-5.4879 -15.3668 -1.9383 0.9364
-4.0399 -15.5769 -1.9115 0.9372
-2.5988 -15.6548 -1.8850 0.9381
-1.1766 -15.6051 -1.8589 0.9389
0.2159 -15.4334 -1.8334 0.9397
4.1250 -14.2515 -1.7624 0.9420
4.1644 -10.7053 -1.3645 0.9548
7.4827 -12.2185 -1.7019 0.9439
8.4549 -11.3856 -1.6846 0.9445
9.3473 -10.4871 -1.6687 0.9450
10.1571 -9.5299 -1.6544 0.9454
11.7695 -9.2158 -1.7757 0.9416
12.4693 -8.0816 -1.7651 0.9419
13.0641 -6.8979 -1.7549 0.9422
13.9611 -4.4307 -1.7399 0.9427
14.2615 -3.1600 -1.7352 0.9429
14.4622 2.0225 -1.7346 0.9429
12.5258 5.3950 -1.6200 0.9465
11.5094 7.6264 -1.6401 0.9459
9.3151 10.6670 -1.6822 0.9446
7.8155 10.7509 -1.5788 0.9479
6.4335 10.7487 -1.4880 0.9508
4.0907 10.8402 -1.3763 0.9544
1.0116 10.8353 -1.2927 0.9571
-1.9111 10.8305 -1.3064 0.9567
-2.9503 10.9187 -1.3435 0.9555
-4.0241 10.9170 -1.3821 0.9542
-7.1636 15.1220 -1.9876 0.9348
-11.3218 13.1679 -2.0628 0.9324
-13.6248 13.2483 -2.2574 0.9263
-17.0974 9.4213 -2.3189 0.9244
-17.9881 7.9122 -2.3343 0.9239
-19.2859 4.6356 -2.3562 0.9232
-18.8335 -5.8179 -2.3415 0.9237
-16.2691 -10.3675 -2.2916 0.9252
-13.8903 -12.8332 -2.2464 0.9267
-7.5014 -14.8435 -1.9756 0.9352
-4.6185 -15.5090 -1.9222 0.9369
-3.1732 -15.6393 -1.8956 0.9377
-1.7422 -15.6399 -1.8693 0.9386
-0.3365 -15.5163 -1.8435 0.9394
2.3592 -14.9207 -1.7944 0.9410
3.6323 -14.4624 -1.7713 0.9417
4.8461 -13.9065 -1.7493 0.9424
9.8435 -9.9192 -1.6600 0.9453
11.1704 -9.4083 -1.7348 0.9429
12.2047 -8.5433 -1.7697 0.9418
12.8379 -7.3757 -1.7587 0.9421
13.3745 -6.1699 -1.7496 0.9424
13.8133 -4.9326 -1.7423 0.9426
14.5345 -1.0955 -1.7314 0.9430
14.5748 0.2044 -1.7314 0.9430
14.3536 2.7981 -1.7371 0.9428
12.6851 4.9350 -1.6168 0.9466
12.2590 6.0779 -1.6253 0.9464
11.7416 7.1912 -1.6355 0.9460
11.1338 8.2684 -1.6473 0.9457
8.4183 10.7518 -1.6221 0.9465
3.4395 10.8392 -1.3508 0.9552
2.4009 10.8375 -1.3186 0.9563
0.4284 10.8343 -1.2880 0.9573
-2.5155 10.8295 -1.3206 0.9562
-4.7252 10.9697 -1.4188 0.9530
-8.0259 14.8326 -2.0033 0.9343
-9.4347 14.2373 -2.0288 0.9335
-10.7951 13.5011 -2.0534 0.9327
-10.6423 11.1138 -1.8278 0.9399
-14.4027 12.5766 -2.2713 0.9259
-15.6126 11.3491 -2.2928 0.9252
-16.7004 9.9951 -2.3119 0.9246
-18.4480 6.9610 -2.3422 0.9236
-18.4320 -6.7948 -2.3335 0.9239
-17.6342 -8.3544 -2.3179 0.9244
12.0082 3.7086 -1.7807 0.9505
10.7852 4.4182 -1.6514 0.9540
10.3969 5.3870 -1.6591 0.9538
9.9299 6.3269 -1.6683 0.9535
9.3854 7.2323 -1.6788 0.9533
5.3871 4.9765 -1.0391 0.9708
8.0714 8.9155 -1.7040 0.9526
7.3063 9.6812 -1.7185 0.9522
5.4320 10.7469 -1.7062 0.9525
3.2285 10.8387 -1.6024 0.9553
-2.7542 10.9689 -1.6024 0.9553
-8.0093 11.6320 -2.0010 0.9445
-9.1029 10.9788 -2.0207 0.9440
-10.1374 10.2166 -2.0393 0.9435
-13.8156 7.9386 -2.2577 0.9377
-14.5499 6.7132 -2.2704 0.9373
-15.1595 5.4144 -2.2808 0.9370
-15.6358 4.0557 -2.2887 0.9368
-16.2073 -0.2263 -2.2966 0.9366
-16.1031 -1.6679 -2.2938 0.9367
-15.8524 -3.0892 -2.2884 0.9368
-15.4593 -4.4740 -2.2803 0.9371
-14.9296 -5.8072 -2.2698 0.9373
-14.2712 -7.0744 -2.2569 0.9377
-8.7022 -11.1129 -1.9999 0.9446
-5.2781 -12.6038 -1.9361 0.9463
-4.0867 -12.8758 -1.9140 0.9469
-2.8890 -13.0365 -1.8919 0.9475
4.3068 -10.0002 -1.5427 0.9570
5.4137 -10.0065 -1.6120 0.9551
6.6959 -10.1058 -1.7177 0.9522
7.5063 -9.3891 -1.7032 0.9526
8.6737 -9.0591 -1.7771 0.9506
10.8722 -6.5079 -1.7954 0.9501
11.3565 -5.4876 -1.7871 0.9503
12.2973 -2.2679 -1.7718 0.9507
12.4533 1.0658 -1.7709 0.9508
12.1174 3.2738 -1.7785 0.9506
11.7828 4.3428 -1.7793 0.9505
9.6122 6.8749 -1.6745 0.9534
7.6205 9.3818 -1.7126 0.9523
6.8141 10.1130 -1.7278 0.9519
4.6985 10.6810 -1.6533 0.9540
3.6544 10.8393 -1.6208 0.9548
2.6054 10.8377 -1.5793 0.9560
1.6008 10.8361 -1.5520 0.9567
-1.3179 10.8313 -1.5460 0.9569
-2.3120 10.8297 -1.5690 0.9562
-6.4032 12.3572 -1.9720 0.9453
-7.5585 11.8618 -1.9929 0.9448
-12.5982 9.5071 -2.2363 0.9382
-13.4895 8.4050 -2.2520 0.9378
-15.4619 4.6050 -2.2859 0.9369
-15.8549 3.2175 -2.2923 0.9367
-16.1046 1.7944 -2.2960 0.9366
-16.2076 0.3520 -2.2970 0.9366
-16.1625 -1.0932 -2.2953 0.9367
-15.9700 -2.5246 -2.2909 0.9368
-15.6332 -3.9259 -2.2838 0.9370
-15.1573 -5.2814 -2.2743 0.9372
-12.0281 -9.9735 -2.2139 0.9388
-10.9931 -10.9086 -2.1943 0.9394
-9.8724 -11.7207 -2.1713 0.9400
-6.9144 -12.0340 -1.9665 0.9455
0.1813 -12.9538 -1.8356 0.9490
3.4840 -12.0368 -1.7755 0.9506
4.1692 -10.7177 -1.6294 0.9546
4.9595 -10.0039 -1.5821 0.9559
7.1903 -9.6827 -1.7088 0.9524
8.0795 -9.0648 -1.7205 0.9521
10.6553 -6.9059 -1.7991 0.9500
12.2169 -2.7070 -1.7730 0.9507
12.3918 -1.6050 -1.7704 0.9508
12.4782 0.6207 -1.7702 0.9508
12.3894 1.7327 -1.7725 0.9507
10.7137 4.6145 -1.6528 0.9540
10.3095 5.5780 -1.6609 0.9537
9.8268 6.5115 -1.6703 0.9535
5.1979 4.9771 -1.0197 0.9713
6.2981 10.5223 -1.7376 0.9517
5.1924 10.7465 -1.6911 0.9529
4.0907 10.8400 -1.6416 0.9543
0.0417 10.8335 -1.5350 0.9572
-1.9111 10.8303 -1.5583 0.9565
-2.9503 10.9186 -1.6025 0.9553
-4.0240 10.9168 -1.6485 0.9541
-7.1009 12.0735 -1.9846 0.9450
-12.2138 9.9201 -2.2295 0.9384
-13.9724 7.6993 -2.2604 0.9376
-14.6824 6.4582 -2.2727 0.9373
-16.1842 0.9298 -2.2969 0.9366
-16.1983 -0.5163 -2.2963 0.9366
-15.7848 -3.3704 -2.2870 0.9369
-15.3638 -4.7460 -2.2784 0.9371
-14.8076 -6.0670 -2.2674 0.9374
-14.1245 -7.3195 -2.2540 0.9378
-11.4167 -10.5478 -2.2023 0.9391
-10.3345 -11.4167 -2.1819 0.9397
-8.4846 -11.2439 -1.9958 0.9447
-6.2188 -12.3055 -1.9536 0.9458
-5.0402 -12.6674 -1.9317 0.9464
-3.8466 -12.9169 -1.9096 0.9470
-0.2822 -13.0119 -1.8441 0.9488
0.8687 -12.8371 -1.8230 0.9493
3.0655 -12.2053 -1.7831 0.9504
4.0977 -11.7590 -1.7644 0.9509
4.5212 -10.0014 -1.5552 0.9566
7.6608 -9.2383 -1.7005 0.9527
8.9896 -9.0588 -1.8083 0.9497
10.9760 -6.3060 -1.7936 0.9501
11.4434 -5.2791 -1.7856 0.9504
11.8260 -4.2229 -1.7792 0.9505
12.1226 -3.1436 -1.7745 0.9507
12.4547 -0.9387 -1.7697 0.9508
12.4355 1.2888 -1.7714 0.9507
12.2938 2.3966 -1.7747 0.9507
10.4806 5.1962 -1.6575 0.9538
9.4999 7.0550 -1.6766 0.9533
5.0254 5.3564 -1.0407 0.9708
7.4642 9.5332 -1.7155 0.9523
6.6442 10.2523 -1.7310 0.9518
5.6742 10.7473 -1.7220 0.9521
3.4395 10.8390 -1.6112 0.9551
1.4031 10.8357 -1.5481 0.9568
-0.5392 10.8326 -1.5368 0.9571
-1.5151 10.8310 -1.5496 0.9568
-2.5154 10.8294 -1.5753 0.9561
-3.5875 10.9175 -1.6283 0.9546
-8.8894 11.1177 -2.0169 0.9441
-10.9148 9.5309 -2.0531 0.9431
-12.7853 9.2938 -2.2396 0.9381
-13.6554 8.1727 -2.2549 0.9377
-15.0485 5.6783 -2.2789 0.9371
-15.9166 2.9344 -2.2932 0.9367
-16.1372 1.5061 -2.2964 0.9366
-16.1356 -1.3819 -2.2946 0.9367
-15.5487 -4.2019 -2.2821 0.9370
-14.4122 -6.8279 -2.2596 0.9376
-13.6574 -8.0331 -2.2450 0.9380
-12.7919 -9.1504 -2.2285 0.9384
10.7079 2.2856 -1.8038 0.9566
9.0712 4.7001 -1.6831 0.9594
8.6576 5.5163 -1.6912 0.9592
8.1763 6.3006 -1.7005 0.9590
5.1106 5.6451 -1.2545 0.9696
6.3457 8.4084 -1.7354 0.9582
3.1123 10.4486 -1.7960 0.9568
0.2356 10.8337 -1.7852 0.9570
-1.7118 10.8305 -1.8064 0.9565
-2.7542 10.9688 -1.8631 0.9552
-5.8488 10.3648 -1.9606 0.9529
-7.7274 9.3199 -1.9945 0.9521
-8.5937 8.6609 -2.0100 0.9517
-10.9656 7.6770 -2.2052 0.9472
-12.7862 4.5667 -2.2367 0.9464
-13.6183 1.0273 -2.2498 0.9461
-13.6553 -0.1906 -2.2498 0.9461
-13.5700 -1.4056 -2.2475 0.9462
-13.3638 -2.6042 -2.2429 0.9463
-13.0396 -3.7737 -2.2363 0.9465
-12.6019 -4.9018 -2.2276 0.9467
-10.6746 -7.9263 -2.1903 0.9475
-7.9892 -10.2024 -2.1347 0.9488
-5.5033 -10.4219 -1.9416 0.9533
-4.5091 -10.7675 -1.9231 0.9538
-1.4558 -11.2374 -1.8667 0.9551
0.5515 -11.0944 -1.8299 0.9560
2.4647 -10.6141 -1.7951 0.9568
5.0500 -9.3344 -1.7484 0.9579
5.9870 -9.0358 -1.7857 0.9570
7.0508 -8.8193 -1.8601 0.9553
9.4862 -5.6783 -1.8213 0.9562
9.9146 -4.7908 -1.8140 0.9563
10.2684 -3.8753 -1.8081 0.9565
10.7476 -1.9822 -1.8004 0.9567
10.9171 -0.0423 -1.7985 0.9567
10.8846 0.9315 -1.7997 0.9567
10.7740 1.9007 -1.8023 0.9566
10.5854 2.8599 -1.8064 0.9565
10.2987 3.7958 -1.8082 0.9565
9.0780 4.3001 -1.6548 0.9601
8.3767 5.9913 -1.6966 0.9591
5.9140 8.7772 -1.7435 0.9580
2.6278 4.7684 -0.8969 0.9782
3.4700 10.2926 -1.7894 0.9569
1.6008 10.8359 -1.8045 0.9566
-0.3449 10.8327 -1.7855 0.9570
-1.3179 10.8312 -1.7975 0.9567
-4.4535 10.8705 -1.9353 0.9535
-6.4298 10.0905 -1.9711 0.9527
-7.3661 9.5584 -1.9880 0.9523
-11.4003 7.1033 -2.2128 0.9470
-12.0493 6.0898 -2.2241 0.9467
-12.5972 5.0127 -2.2335 0.9465
-13.0368 3.8827 -2.2409 0.9463
-13.3623 2.7117 -2.2462 0.9462
-13.5693 1.5119 -2.2492 0.9462
-13.4605 -2.1279 -2.2450 0.9463
-13.1831 -3.3106 -2.2392 0.9464
-12.7901 -4.4566 -2.2313 0.9466
-11.6810 -6.5921 -2.2096 0.9471
-10.9796 -7.5606 -2.1961 0.9474
-10.1919 -8.4510 -2.1811 0.9477
-9.3275 -9.2558 -2.1647 0.9481
-8.3969 -9.9689 -2.1472 0.9485
-6.8462 -9.7796 -1.9666 0.9528
-4.9092 -10.6408 -1.9305 0.9536
-0.8469 -11.2316 -1.8555 0.9554
1.1381 -10.9843 -1.8192 0.9562
4.7295 -9.5400 -1.7541 0.9578
5.5363 -9.0402 -1.7463 0.9579
6.7050 -9.0292 -1.8527 0.9554
7.4971 -8.4114 -1.8562 0.9553
8.7647 -6.8630 -1.8339 0.9559
10.1360 -4.2443 -1.8103 0.9564
10.6765 -2.3656 -1.8015 0.9566
10.8312 -1.4029 -1.7992 0.9567
10.9082 -0.4317 -1.7984 0.9567
10.8276 1.5142 -1.8011 0.9566
9.3521 4.0281 -1.6775 0.9596
8.9938 4.8661 -1.6846 0.9594
8.0717 6.4535 -1.7025 0.9590
6.8880 7.8876 -1.7251 0.9584
0.0417 10.8334 -1.7847 0.9570
-1.9110 10.8302 -1.8117 0.9564
-2.9503 10.9184 -1.8632 0.9552
-5.0578 10.6767 -1.9462 0.9532
-6.0443 10.2769 -1.9641 0.9528
-6.9970 9.7822 -1.9813 0.9524
-7.9057 9.1948 -1.9977 0.9520
-12.3908 5.4502 -2.2300 0.9466
-13.2462 3.1839 -2.2443 0.9463
-13.5010 1.9941 -2.2483 0.9462
-13.6355 0.7834 -2.2500 0.9461
-13.6479 -0.4350 -2.2495 0.9461
-13.5383 -1.6477 -2.2467 0.9462
-13.3081 -2.8416 -2.2418 0.9463
-12.9607 -4.0037 -2.2347 0.9465
-12.5010 -5.1220 -2.2256 0.9467
-11.2709 -7.1824 -2.2017 0.9473
-10.5165 -8.1049 -2.1873 0.9476
-9.6816 -8.9448 -2.1714 0.9480
-8.7761 -9.6952 -2.1544 0.9484
-7.7028 -10.2079 -2.1067 0.9495
-6.2787 -10.0775 -1.9560 0.9530
-4.3073 -10.8254 -1.9193 0.9539
-3.2927 -11.0570 -1.9006 0.9543
-2.2713 -11.1943 -1.8817 0.9548
-0.2427 -11.1936 -1.8445 0.9556
1.7147 -10.8445 -1.8087 0.9565
4.4010 -9.7353 -1.7600 0.9576
6.2211 -9.0338 -1.8070 0.9565
7.2055 -8.6893 -1.8596 0.9553
7.9058 -7.9666 -1.8490 0.9555
8.5332 -7.1870 -1.8379 0.9558
9.0913 -6.3639 -1.8282 0.9560
9.5781 -5.5028 -1.8198 0.9562
10.3303 -3.6888 -1.8070 0.9565
10.5930 -2.7469 -1.8028 0.9566
10.9169 0.1531 -1.7986 0.9567
10.8687 1.1265 -1.8001 0.9567
10.7424 2.0941 -1.8030 0.9566
10.5382 3.0506 -1.8073 0.9565
9.1453 4.5342 -1.6816 0.9595
6.1692 4.5815 -1.2659 0.9693
4.8236 6.1607 -1.2890 0.9688
5.7652 8.8959 -1.7463 0.9579
4.9907 9.4526 -1.7609 0.9576
4.1645 9.9464 -1.7764 0.9572
2.3761 10.7253 -1.8097 0.9564
1.4030 10.8356 -1.7999 0.9567
-1.5151 10.8308 -1.8016 0.9566
-2.5154 10.8292 -1.8315 0.9559
-3.5874 10.9174 -1.8931 0.9545
-4.6562 10.8096 -1.9390 0.9534
-7.5484 9.4405 -1.9912 0.9522
-8.4258 8.7991 -2.0070 0.9518
-10.8131 7.8602 -2.2023 0.9472
-12.6942 4.7899 -2.2352 0.9465
-13.1114 3.6508 -2.2421 0.9463
-13.4134 2.4729 -2.2470 0.9462
-13.5963 1.2690 -2.2496 0.9461
-13.5967 -1.1645 -2.2481 0.9462
-13.1133 -3.5438 -2.2378 0.9464
-12.6979 -4.6810 -2.2295 0.9466
-12.1737 -5.7674 -2.2192 0.9469
8.0386 4.1650 -1.7017 0.9638
5.4116 4.9992 -1.3848 0.9705
4.6076 5.0895 -1.2904 0.9724
4.6122 6.1113 -1.4391 0.9693
4.9539 7.9501 -1.7607 0.9626
4.2570 8.4222 -1.7738 0.9623
3.5166 8.8366 -1.7876 0.9620
-0.6694 9.9005 -1.8652 0.9604
-2.4591 9.7937 -1.8980 0.9597
-3.3507 9.6173 -1.9142 0.9594
-5.9160 8.5919 -1.9607 0.9584
-7.4507 7.5089 -1.9883 0.9579
-8.1402 6.8570 -2.0005 0.9576
-10.6134 4.8970 -2.1970 0.9535
-11.6181 1.9291 -2.2136 0.9532
-11.7137 -1.2133 -2.2135 0.9532
-11.5388 -2.2486 -2.2096 0.9533
-10.8912 -4.2364 -2.1965 0.9536
-9.8764 -6.0480 -2.1768 0.9540
-7.7792 -8.2906 -2.1369 0.9548
-6.9586 -8.8863 -2.1215 0.9551
-6.0699 -9.3647 -2.0976 0.9556
-3.9320 -9.3893 -1.9133 0.9594
-3.0533 -9.6199 -1.8970 0.9598
-1.2743 -9.8360 -1.8642 0.9604
-0.3891 -9.8240 -1.8480 0.9608
2.1677 -9.3351 -1.8013 0.9617
3.8796 -9.0081 -1.8435 0.9609
6.8745 -7.1799 -1.8684 0.9603
8.4066 -5.0321 -1.8416 0.9609
8.7902 -4.2475 -1.8350 0.9610
9.1073 -3.4371 -1.8297 0.9612
9.6477 -0.9011 -1.8213 0.9613
9.6884 -0.0376 -1.8211 0.9613
9.6589 0.8266 -1.8221 0.9613
9.5591 1.6864 -1.8245 0.9613
8.1965 3.8825 -1.7047 0.9638
7.8233 4.6009 -1.7059 0.9637
7.4163 5.3044 -1.7138 0.9636
5.3515 4.6010 -1.3265 0.9717
4.6106 5.6763 -1.3745 0.9707
3.0531 9.0558 -1.7963 0.9619
2.2523 9.3690 -1.8112 0.9615
-1.2049 9.9024 -1.8750 0.9602
-5.5889 8.7709 -1.9548 0.9586
-7.1593 7.7495 -1.9831 0.9580
-7.8717 7.1259 -1.9958 0.9577
-8.5246 6.4331 -2.0073 0.9575
-10.4158 5.2642 -2.1936 0.9536
-10.8832 4.3306 -2.2016 0.9534
-11.2579 3.3529 -2.2079 0.9533
-11.7853 0.2559 -2.2157 0.9532
-11.6209 -1.8371 -2.2114 0.9532
-11.0514 -3.8508 -2.1997 0.9535
-10.1064 -5.7034 -2.1812 0.9539
-9.5073 -6.5468 -2.1697 0.9541
-8.8333 -7.3245 -2.1568 0.9544
-8.0923 -8.0300 -2.1428 0.9547
-6.4361 -9.1938 -2.1094 0.9554
-3.4061 -9.5376 -1.9036 0.9596
-1.6300 -9.8187 -1.8708 0.9603
0.1368 -9.7795 -1.8383 0.9610
0.9993 -9.6450 -1.8226 0.9613
3.5049 -9.0099 -1.8171 0.9614
4.4639 -9.0044 -1.8890 0.9599
5.9769 -8.0487 -1.8844 0.9600
7.7611 -6.0771 -1.8528 0.9607
8.2350 -5.3373 -1.8445 0.9608
9.6806 -0.3831 -1.8210 0.9613
9.2542 3.0406 -1.8309 0.9611
7.5862 5.0268 -1.7105 0.9636
4.6093 5.2782 -1.3171 0.9719
0.9081 9.7261 -1.8361 0.9610
0.0379 9.8538 -1.8521 0.9607
-2.6386 9.7649 -1.9013 0.9597
-5.2563 8.9371 -1.9488 0.9587
-6.8598 7.9783 -1.9777 0.9581
-8.2713 6.7180 -2.0029 0.9576
-10.7071 4.7096 -2.1986 0.9535
-11.1195 3.7484 -2.2056 0.9534
-11.4363 2.7489 -2.2108 0.9533
-11.1964 -3.4587 -2.2026 0.9534
-10.8053 -4.4272 -2.1948 0.9536
-10.3232 -5.3496 -2.1854 0.9538
-9.7562 -6.2172 -2.1745 0.9540
-7.6188 -8.4166 -2.1339 0.9548
-6.7882 -8.9959 -2.1183 0.9552
-2.8756 -9.6562 -1.8938 0.9598
0.6569 -9.7077 -1.8288 0.9612
1.5067 -9.5290 -1.8133 0.9615
4.0717 -9.0070 -1.8579 0.9606
4.9644 -8.7961 -1.8985 0.9597
6.3753 -7.6880 -1.8773 0.9602
6.9940 -7.0478 -1.8663 0.9604
8.8592 -4.0869 -1.8338 0.9611
9.6615 -0.7282 -1.8211 0.9613
9.6881 0.1359 -1.8212 0.9613
9.6445 0.9996 -1.8225 0.9613
9.3470 2.7057 -1.8290 0.9612
9.0849 3.5344 -1.8323 0.9611
8.1050 4.0184 -1.7004 0.9638
7.7465 4.7444 -1.7074 0.9637
5.0871 7.8496 -1.7582 0.9626
4.3994 8.3326 -1.7711 0.9624
3.6673 8.7589 -1.7848 0.9621
2.8952 9.1239 -1.7992 0.9618
-0.4924 9.8936 -1.8619 0.9605
-1.3844 9.8966 -1.8783 0.9601
-2.2807 9.8190 -1.8947 0.9598
-3.1739 9.6590 -1.9110 0.9595
-4.0560 9.4161 -1.9271 0.9591
-4.9187 9.0904 -1.9427 0.9588
-5.7538 8.6827 -1.9578 0.9585
-6.5525 8.1950 -1.9722 0.9582
-7.3066 7.6303 -1.9857 0.9579
-9.9794 5.9726 -2.1860 0.9538
-10.9659 4.1378 -2.2030 0.9534
-11.5789 2.1347 -2.2131 0.9532
-11.7875 0.0449 -2.2156 0.9532
-11.3262 -3.0608 -2.2052 0.9534
-9.9926 -5.8775 -2.1790 0.9539
-9.3779 -6.7083 -2.1672 0.9542
8.5291 1.8206 -1.8435 0.9650
8.1082 3.3215 -1.8521 0.9648
6.8752 4.3806 -1.7232 0.9672
5.9698 4.6003 -1.5931 0.9697
4.9808 4.6012 -1.4333 0.9727
4.6116 5.0939 -1.4525 0.9723
4.6155 6.1157 -1.6196 0.9692
4.4279 7.1060 -1.7698 0.9663
3.8020 7.5220 -1.7816 0.9661
3.1381 7.8856 -1.7940 0.9659
-0.5945 8.7940 -1.8631 0.9646
-1.3867 8.7739 -1.8777 0.9643
-2.1800 8.6820 -1.8922 0.9641
-2.9675 8.5173 -1.9065 0.9638
-3.7423 8.2797 -1.9206 0.9635
-5.2249 7.5881 -1.9474 0.9630
-6.5695 6.6208 -1.9715 0.9626
-9.3351 4.3072 -2.1732 0.9588
-9.7103 3.4681 -2.1795 0.9587
-10.0029 2.5946 -2.1844 0.9586
-10.3275 0.7790 -2.1892 0.9585
-10.3557 -0.1446 -2.1892 0.9585
-10.2935 -1.0662 -2.1875 0.9586
-9.9031 -2.8660 -2.1792 0.9587
-9.5797 -3.7262 -2.1728 0.9588
-8.1472 -6.0497 -2.1450 0.9594
-7.5344 -6.7151 -2.1334 0.9596
-6.1460 -7.8486 -2.1072 0.9601
-5.3853 -8.3085 -2.0929 0.9603
-3.7381 -8.9263 -2.0456 0.9612
-2.8339 -8.9286 -1.9801 0.9624
-1.9820 -8.9436 -1.9364 0.9632
-1.1602 -8.9553 -1.9088 0.9638
-0.3550 -8.9641 -1.8963 0.9640
2.0840 -8.9744 -1.9475 0.9630
4.3109 -7.9682 -1.9150 0.9636
5.5895 -6.9916 -1.8921 0.9641
7.1356 -5.1877 -1.8648 0.9646
8.1750 -3.0853 -1.8470 0.9649
8.6642 -0.8092 -1.8394 0.9650
8.2122 3.0268 -1.8500 0.9649
7.0159 4.1261 -1.7205 0.9673
6.6477 4.7546 -1.7276 0.9671
5.3514 4.6009 -1.4918 0.9716
4.6103 4.7410 -1.3979 0.9733
3.4078 7.7468 -1.7890 0.9660
2.7231 8.0770 -1.8017 0.9658
2.0070 8.3488 -1.8151 0.9655
0.5004 8.7043 -1.8429 0.9650
-1.0696 8.7905 -1.8718 0.9644
-3.4346 8.3834 -1.9150 0.9636
-4.9377 7.7490 -1.9423 0.9631
-5.6455 7.3258 -1.9550 0.9629
-6.3145 6.8351 -1.9670 0.9627
-7.5079 5.6657 -1.9882 0.9623
-8.6800 5.4083 -2.1618 0.9590
-9.5700 3.8081 -2.1772 0.9588
-9.8961 2.9473 -2.1826 0.9587
-10.2911 1.1467 -2.1888 0.9585
-10.3292 -0.6986 -2.1884 0.9586
-10.0089 -2.5135 -2.1814 0.9587
-9.3467 -4.2249 -2.1682 0.9589
-8.8969 -5.0209 -2.1594 0.9591
-8.3748 -5.7669 -2.1494 0.9593
-7.7866 -6.4565 -2.1382 0.9595
-5.6939 -8.1336 -2.0987 0.9602
-1.4859 -8.9510 -1.9180 0.9636
0.1255 -8.9681 -1.8959 0.9640
0.9297 -8.9726 -1.9068 0.9638
3.3152 -8.5224 -1.9330 0.9633
6.4737 -6.0740 -1.8764 0.9644
6.9576 -5.4480 -1.8679 0.9645
7.3859 -4.7869 -1.8605 0.9647
7.7565 -4.0955 -1.8541 0.9648
8.0676 -3.3782 -1.8488 0.9649
8.6317 -1.1180 -1.8398 0.9650
8.6938 -0.3440 -1.8391 0.9651
8.6923 0.4323 -1.8396 0.9650
8.6270 1.2065 -1.8413 0.9650
8.4982 1.9737 -1.8442 0.9650
8.3063 2.7291 -1.8481 0.9649
5.7541 4.6005 -1.5573 0.9703
4.8055 4.6013 -1.4064 0.9732
4.6123 5.2817 -1.4822 0.9717
3.6718 7.5993 -1.7840 0.9661
2.2967 8.2474 -1.8097 0.9656
1.5641 8.4826 -1.8233 0.9653
0.8080 8.6541 -1.8373 0.9651
-0.7530 8.7956 -1.8660 0.9646
-1.5460 8.7613 -1.8806 0.9643
-3.8955 8.2232 -1.9234 0.9635
-4.6455 7.8987 -1.9370 0.9632
-5.3669 7.5032 -1.9500 0.9630
-8.4422 5.6879 -2.1517 0.9592
-9.4167 4.1420 -2.1746 0.9588
-9.7757 3.2954 -2.1806 0.9587
-10.0513 2.4160 -2.1852 0.9586
-10.2403 1.5125 -2.1881 0.9586
-10.3504 -0.3299 -2.1890 0.9585
-9.8449 -3.0412 -2.1780 0.9587
-9.0856 -4.7083 -2.1631 0.9590
-8.5918 -5.4751 -2.1535 0.9592
-8.0292 -6.1880 -2.1428 0.9594
-4.4197 -8.7456 -2.0713 0.9607
-3.5507 -8.9239 -2.0302 0.9615
-2.6599 -8.9319 -1.9700 0.9626
-1.8152 -8.9462 -1.9296 0.9634
-0.9977 -8.9573 -1.9051 0.9638
0.6071 -8.9711 -1.9006 0.9639
1.4189 -8.9740 -1.9205 0.9635
2.2421 -8.9272 -1.9456 0.9631
4.4471 -7.8796 -1.9126 0.9637
5.1003 -7.4063 -1.9008 0.9639
5.7074 -6.8827 -1.8900 0.9641
6.2652 -6.3134 -1.8801 0.9643
6.7708 -5.7027 -1.8712 0.9645
7.2215 -5.0551 -1.8633 0.9646
7.6154 -4.3752 -1.8565 0.9647
7.9504 -3.6677 -1.8508 0.9648
8.5891 -1.4256 -1.8404 0.9650
8.5572 1.6681 -1.8429 0.9650
8.3905 2.4289 -1.8464 0.9649
7.7907 3.8626 -1.8381 0.9651
6.1177 4.5433 -1.6108 0.9693
4.5983 4.9012 -1.4206 0.9729
4.6146 5.8937 -1.5823 0.9699
4.5477 7.0173 -1.7676 0.9664
3.9298 7.4433 -1.7792 0.9662
2.5818 8.1363 -1.8044 0.9657
1.8601 8.3960 -1.8178 0.9655
1.1127 8.5934 -1.8316 0.9652
0.3450 8.7254 -1.8458 0.9649
-1.2287 8.7836 -1.8748 0.9644
-2.0222 8.7061 -1.8893 0.9641
-5.0825 7.6696 -1.9449 0.9631
-7.6154 5.5357 -1.9901 0.9622
-8.7828 5.2564 -2.1636 0.9590
-9.2509 4.4694 -2.1717 0.9589
-10.1793 -1.7965 -2.1849 0.9586
7.7316 1.6503 -1.8580 0.9680
7.5677 2.3372 -1.8615 0.9680
7.3468 3.0096 -1.8659 0.9679
7.0558 3.6559 -1.8677 0.9679
6.2255 3.9666 -1.7349 0.9701
5.8703 4.5236 -1.7418 0.9700
4.9807 4.6011 -1.5936 0.9725
4.5298 6.0021 -1.7673 0.9696
3.4317 6.7895 -1.7879 0.9692
2.8306 7.1128 -1.7992 0.9690
1.5430 7.6022 -1.8231 0.9686
0.8652 7.7625 -1.8357 0.9684
0.1710 7.8633 -1.8485 0.9682
-1.2451 7.8780 -1.8745 0.9678
-4.0256 7.1338 -1.9251 0.9669
-4.6736 6.7875 -1.9368 0.9667
-5.8687 5.9146 -1.9582 0.9663
-6.4035 5.3940 -1.9677 0.9662
-7.0909 4.9643 -2.0343 0.9651
-7.9221 4.5521 -2.1474 0.9632
-8.3231 3.8402 -2.1543 0.9630
-9.0961 1.5103 -2.1671 0.9628
-9.2006 0.6940 -2.1685 0.9628
-8.1845 -4.0572 -2.1469 0.9632
-4.8208 -7.4376 -2.0831 0.9642
-4.1124 -7.7879 -2.0698 0.9645
-2.6288 -8.2826 -2.0423 0.9649
-1.1009 -8.4980 -2.0139 0.9654
-0.3367 -8.5029 -2.0000 0.9656
0.4196 -8.4407 -1.9862 0.9659
1.1622 -8.3125 -1.9726 0.9661
1.8858 -8.1212 -1.9595 0.9663
2.5853 -7.8695 -1.9468 0.9665
3.2560 -7.5603 -1.9346 0.9667
4.4943 -6.7831 -1.9124 0.9671
5.0544 -6.3222 -1.9024 0.9673
5.5708 -5.8184 -1.8932 0.9674
6.0407 -5.2754 -1.8849 0.9676
6.8310 -4.0889 -1.8711 0.9678
7.4093 -2.7963 -1.8612 0.9680
7.6152 -2.1209 -1.8579 0.9680
7.8557 -0.7337 -1.8543 0.9681
7.8890 -0.0306 -1.8541 0.9681
7.4419 2.7429 -1.8640 0.9679
7.1873 3.4045 -1.8691 0.9679
4.6132 4.7440 -1.5552 0.9732
4.5537 5.6062 -1.6975 0.9708
4.2159 6.2570 -1.7732 0.9695
2.5827 4.6866 -1.2576 0.9783
3.0747 6.9895 -1.7946 0.9691
2.4552 7.2823 -1.8062 0.9689
1.8083 7.5220 -1.8182 0.9687
0.4501 7.8303 -1.8433 0.9683
-0.9607 7.8954 -1.8693 0.9678
-3.7592 7.2546 -1.9203 0.9670
-5.6424 6.1075 -1.9542 0.9664
-6.1954 5.6084 -1.9641 0.9662
-6.7010 5.0568 -1.9730 0.9661
-9.0324 1.8330 -2.1661 0.9628
-9.1683 1.0216 -2.1681 0.9628
-9.2252 0.2004 -2.1686 0.9628
-9.2024 -0.6224 -2.1677 0.9628
-8.9202 -2.2401 -2.1615 0.9629
-8.6642 -3.0190 -2.1564 0.9630
-8.3355 -3.7678 -2.1499 0.9631
-7.9378 -4.4796 -2.1421 0.9632
-5.0956 -7.2788 -2.0882 0.9641
-4.3989 -7.6560 -2.0752 0.9644
-3.6749 -7.9655 -2.0617 0.9646
-1.4074 -8.4778 -2.0197 0.9653
-0.6415 -8.5086 -2.0054 0.9655
0.1186 -8.4737 -1.9917 0.9658
0.8674 -8.3714 -1.9780 0.9660
1.5992 -8.2051 -1.9647 0.9662
3.6430 -7.3485 -1.9277 0.9669
4.2589 -6.9544 -1.9166 0.9670
4.8356 -6.5118 -1.9063 0.9672
5.3699 -6.0247 -1.8967 0.9674
5.8586 -5.4969 -1.8881 0.9675
6.6895 -4.3356 -1.8735 0.9678
7.0274 -3.7105 -1.8677 0.9679
7.8261 -1.0136 -1.8547 0.9681
7.8827 -0.3119 -1.8541 0.9681
7.8212 1.0938 -1.8561 0.9681
6.9865 3.7801 -1.8669 0.9679
5.6598 4.5251 -1.7031 0.9707
4.8054 4.6012 -1.5636 0.9730
4.4265 6.0890 -1.7692 0.9695
2.7063 7.1715 -1.8015 0.9690
1.4086 7.6390 -1.8256 0.9686
0.7271 7.7876 -1.8382 0.9684
-0.6766 7.9025 -1.8641 0.9679
-3.4891 7.3653 -1.9154 0.9671
-4.1578 7.0693 -1.9275 0.9669
-4.8000 6.7107 -1.9391 0.9667
-8.7126 2.9371 -2.1609 0.9629
-8.9563 2.1528 -2.1649 0.9629
-9.2120 0.5292 -2.1686 0.9628
-9.0014 -1.9220 -2.1632 0.9629
-8.4754 -3.4726 -2.1526 0.9631
-8.1047 -4.2000 -2.1454 0.9632
-7.1696 -5.5256 -2.1274 0.9635
-5.3649 -7.1096 -2.0933 0.9641
-4.6810 -7.5132 -2.0805 0.9643
-2.4767 -8.3168 -2.0395 0.9650
-1.7136 -8.4457 -2.0254 0.9652
0.5698 -8.4201 -1.9835 0.9659
1.3091 -8.2791 -1.9700 0.9661
2.0282 -8.0755 -1.9569 0.9664
4.0172 -7.1179 -1.9209 0.9670
4.6100 -6.6943 -1.9103 0.9672
5.1616 -6.2245 -1.9004 0.9673
6.1291 -5.1622 -1.8833 0.9676
6.5397 -4.5778 -1.8761 0.9677
7.6497 -1.9837 -1.8573 0.9680
7.8670 -0.5929 -1.8542 0.9681
7.8521 0.8138 -1.8553 0.9681
7.3953 2.8771 -1.8650 0.9679
6.3666 3.8993 -1.7546 0.9698
5.9448 4.4149 -1.7403 0.9700
5.1617 4.6009 -1.6251 0.9720
4.6139 4.9178 -1.5849 0.9727
4.5546 5.8171 -1.7363 0.9701
2.9528 7.0524 -1.7969 0.9691
1.6756 7.5634 -1.8207 0.9687
1.0016 7.7353 -1.8331 0.9685
0.3103 7.8480 -1.8459 0.9682
-1.1034 7.8880 -1.8719 0.9678
-3.8933 7.1952 -1.9227 0.9669
-4.5469 6.8614 -1.9345 0.9667
-5.1701 6.4661 -1.9457 0.9666
-7.8343 4.6888 -2.1458 0.9632
-8.5945 3.2430 -2.1589 0.9630
-8.8680 2.4692 -2.1635 0.9629
-9.1861 0.8574 -2.1683 0.9628
-8.8748 -2.3983 -2.1606 0.9629
-8.6040 -3.1718 -2.1552 0.9630
-8.2611 -3.9138 -2.1484 0.9631
-7.8501 -4.6173 -2.1404 0.9633
6.7100 2.7488 -1.8775 0.9705
6.4556 3.3449 -1.8825 0.9704
6.0924 3.8819 -1.8704 0.9706
5.3566 4.1278 -1.7509 0.9724
4.8991 4.5257 -1.7269 0.9728
4.5543 5.0306 -1.7570 0.9724
3.6428 5.8461 -1.7835 0.9719
0.1552 7.1370 -1.8483 0.9709
-0.4846 7.1678 -1.8601 0.9708
-3.0329 6.7103 -1.9066 0.9700
-4.2233 6.1336 -1.9281 0.9697
-6.7025 4.6924 -2.1184 0.9668
-7.1421 4.1039 -2.1328 0.9665
-7.7982 2.7852 -2.1440 0.9664
-8.2607 -0.8556 -2.1503 0.9663
-8.1415 -1.5866 -2.1476 0.9663
-7.9533 -2.3017 -2.1437 0.9664
-7.6981 -2.9943 -2.1386 0.9664
-7.3788 -3.6578 -2.1324 0.9665
-6.9992 -4.2861 -2.1250 0.9667
-6.5634 -4.8736 -2.1166 0.9668
-6.0761 -5.4154 -2.1074 0.9669
-5.5426 -5.9069 -2.0973 0.9671
-4.3590 -6.7251 -2.0750 0.9674
-3.7207 -7.0461 -2.0631 0.9676
-3.0595 -7.3059 -2.0508 0.9678
-2.3815 -7.5032 -2.0382 0.9680
-0.9987 -7.7091 -2.0127 0.9684
-0.3057 -7.7183 -2.0000 0.9686
0.3811 -7.6662 -1.9874 0.9688
1.0563 -7.5546 -1.9750 0.9690
3.5468 -6.5558 -1.9299 0.9697
4.6085 -5.7645 -1.9109 0.9700
5.0815 -5.3073 -1.9025 0.9701
5.8982 -4.2881 -1.8881 0.9703
6.5280 -3.1544 -1.8772 0.9705
6.7686 -2.5545 -1.8732 0.9705
6.9578 -1.9378 -1.8701 0.9706
7.0947 -1.3085 -1.8679 0.9706
7.1787 -0.6705 -1.8668 0.9706
7.2092 -0.0280 -1.8666 0.9707
7.1861 0.6150 -1.8674 0.9706
7.1096 1.2543 -1.8692 0.9706
6.9798 1.8858 -1.8720 0.9706
6.7974 2.5054 -1.8757 0.9705
5.4923 3.9282 -1.7483 0.9725
5.1401 4.4192 -1.7551 0.9724
4.5529 4.6819 -1.6909 0.9734
3.8410 5.7005 -1.7797 0.9720
2.5690 4.6618 -1.3782 0.9782
0.4086 7.1089 -1.8437 0.9710
-0.8710 7.1587 -1.8672 0.9706
-1.5152 7.0972 -1.8790 0.9705
-2.1550 6.9770 -1.8907 0.9703
-2.7851 6.7981 -1.9021 0.9701
-6.0445 4.5614 -1.9606 0.9692
-7.3649 3.7223 -2.1366 0.9665
-7.9452 2.3663 -2.1464 0.9663
-8.2577 0.9201 -2.1513 0.9663
-8.2886 -0.5606 -2.1510 0.9663
-7.8079 -2.7206 -2.1408 0.9664
-6.7440 -4.6440 -2.1201 0.9667
-5.7610 -5.7167 -2.1014 0.9670
-4.6063 -6.5800 -2.0797 0.9674
-3.9789 -6.9251 -2.0679 0.9675
-2.6541 -7.4319 -2.0433 0.9679
-0.5822 -7.7220 -2.0050 0.9685
0.7881 -7.6063 -1.9799 0.9689
2.7231 -7.0001 -1.9448 0.9694
3.3178 -6.6924 -1.9340 0.9696
3.8806 -6.3367 -1.9239 0.9698
4.4082 -5.9363 -1.9145 0.9699
5.3453 -5.0152 -1.8978 0.9702
5.7494 -4.5019 -1.8907 0.9703
6.4178 -3.3887 -1.8791 0.9705
6.6785 -2.7965 -1.8747 0.9705
7.0463 -1.5613 -1.8687 0.9706
7.1515 -0.9263 -1.8671 0.9706
7.2018 0.3582 -1.8670 0.9706
6.8766 2.2594 -1.8741 0.9705
6.6631 2.8699 -1.8784 0.9705
6.3966 3.4609 -1.8831 0.9704
5.8759 3.8935 -1.8251 0.9713
4.7267 4.5259 -1.6944 0.9733
4.0336 5.5486 -1.7761 0.9721
3.0165 6.2430 -1.7952 0.9718
1.2800 6.9414 -1.8275 0.9713
0.6603 7.0719 -1.8390 0.9711
-1.2579 7.1288 -1.8743 0.9705
-1.9001 7.0320 -1.8860 0.9704
-3.1563 6.6627 -1.9089 0.9700
-3.7589 6.3912 -1.9198 0.9698
-7.8499 2.6462 -2.1449 0.9664
-8.2424 -1.0032 -2.1498 0.9663
-7.9074 -2.4427 -2.1428 0.9664
-7.3074 -3.7868 -2.1310 0.9666
-6.9162 -4.4074 -2.1234 0.9667
-6.4696 -4.9861 -2.1149 0.9668
-5.9726 -5.5181 -2.1054 0.9670
-5.4305 -5.9991 -2.0951 0.9671
-4.8487 -6.4255 -2.0842 0.9673
-4.2331 -6.7943 -2.0727 0.9675
-2.9247 -7.3505 -2.0483 0.9678
-0.1673 -7.7127 -1.9974 0.9686
1.1898 -7.5252 -1.9726 0.9690
1.8446 -7.3445 -1.9607 0.9692
2.4773 -7.1090 -1.9492 0.9694
3.6597 -6.4844 -1.9279 0.9697
4.2018 -6.1015 -1.9181 0.9699
4.7067 -5.6759 -1.9091 0.9700
5.9701 -4.1791 -1.8868 0.9703
6.5803 -3.0356 -1.8763 0.9705
6.8107 -2.4320 -1.8725 0.9706
6.9895 -1.8125 -1.8696 0.9706
7.1891 -0.5418 -1.8667 0.9707
7.1751 0.7436 -1.8677 0.9706
7.0878 1.3817 -1.8697 0.9706
6.5103 3.2277 -1.8814 0.9704
5.4251 4.0289 -1.7496 0.9725
5.0643 4.5142 -1.7566 0.9724
4.5536 4.8535 -1.7232 0.9729
3.7422 5.7744 -1.7816 0.9720
2.6870 6.4175 -1.8014 0.9717
1.5229 6.8743 -1.8230 0.9713
-0.3567 7.1662 -1.8578 0.9708
-1.0003 7.1511 -1.8696 0.9706
-1.6440 7.0778 -1.8813 0.9704
-2.2824 6.9458 -1.8930 0.9702
-2.9098 6.7552 -1.9044 0.9701
-3.5207 6.5065 -1.9155 0.9699
-4.1093 6.2010 -1.9261 0.9697
-5.1971 5.4273 -1.9456 0.9694
-7.0635 4.2275 -2.1314 0.9666
-7.4345 3.5919 -2.1378 0.9665
-7.7442 2.9221 -2.1431 0.9664
-7.9889 2.2245 -2.1472 0.9663
-8.1661 1.5055 -2.1500 0.9663
-8.2737 0.7722 -2.1515 0.9662
-8.2760 -0.7088 -2.1506 0.9663
-8.1708 -1.4420 -2.1483 0.9663
-7.4474 -3.5283 -2.1337 0.9665
-7.0794 -4.1640 -2.1266 0.9666
6.3569 1.9633 -1.8835 0.9727
6.1691 2.5272 -1.8873 0.9727
5.9338 3.0745 -1.8919 0.9726
5.6448 3.5967 -1.8948 0.9726
4.5804 4.2313 -1.7653 0.9744
4.2021 4.6415 -1.7725 0.9743
3.7883 5.0197 -1.7803 0.9742
3.3415 5.3626 -1.7887 0.9741
1.8322 6.1510 -1.8169 0.9737
0.1420 6.5271 -1.8482 0.9732
-1.6177 6.4426 -1.8805 0.9728
-2.1978 6.3081 -1.8910 0.9726
-2.7663 6.1203 -1.9014 0.9725
-4.3514 5.2481 -1.9300 0.9721
-5.2714 4.4404 -1.9512 0.9718
-6.4951 3.7321 -2.1206 0.9693
-7.5067 -0.7775 -2.1365 0.9691
-6.7105 -3.3265 -2.1203 0.9693
-6.3673 -3.8991 -2.1136 0.9694
-5.0481 -5.3799 -2.0885 0.9698
-4.5271 -5.7812 -2.0787 0.9699
-3.9739 -6.1309 -2.0683 0.9701
-2.7921 -6.6673 -2.0463 0.9704
-2.1745 -6.8510 -2.0348 0.9706
-1.5463 -6.9775 -2.0232 0.9707
-0.9129 -7.0466 -2.0115 0.9709
0.3487 -7.0151 -1.9884 0.9712
0.9670 -6.9165 -1.9771 0.9714
1.5709 -6.7650 -1.9661 0.9715
2.1559 -6.5624 -1.9554 0.9717
2.7180 -6.3111 -1.9453 0.9718
3.2535 -6.0137 -1.9356 0.9720
4.2309 -5.2922 -1.9181 0.9722
5.4202 -3.9406 -1.8971 0.9725
6.2240 -2.3490 -1.8833 0.9727
6.6029 -0.6167 -1.8774 0.9728
6.6311 -0.0257 -1.8772 0.9728
6.6096 0.5657 -1.8780 0.9728
6.5387 1.1536 -1.8796 0.9728
6.2499 2.3035 -1.8857 0.9727
5.4355 3.8877 -1.8918 0.9726
4.3577 4.4812 -1.7695 0.9743
3.9578 4.8726 -1.7771 0.9742
0.9465 6.4066 -1.8333 0.9734
-0.2085 6.5481 -1.8547 0.9731
-1.3837 6.4814 -1.8762 0.9728
-3.6393 5.7113 -1.9172 0.9722
-5.0885 4.6065 -1.9431 0.9719
-6.3503 3.9567 -2.1181 0.9694
-7.2212 2.1507 -2.1330 0.9692
-7.3938 1.5004 -2.1358 0.9691
-7.5037 0.8361 -2.1374 0.9691
-7.5499 0.1640 -2.1378 0.9691
-7.5319 -0.5094 -2.1371 0.9691
-7.4498 -1.1777 -2.1352 0.9691
-5.2461 -5.2058 -2.0922 0.9697
-4.7395 -5.6268 -2.0827 0.9699
-3.0348 -6.5779 -2.0508 0.9703
-2.4229 -6.7844 -2.0394 0.9705
-1.7983 -6.9338 -2.0279 0.9707
-1.1664 -7.0259 -2.0162 0.9708
-0.5324 -7.0608 -2.0045 0.9710
0.0985 -7.0392 -1.9930 0.9712
4.0464 -5.4490 -1.9214 0.9722
4.4971 -5.0455 -1.9134 0.9723
5.2829 -4.1366 -1.8995 0.9725
6.1408 -2.5714 -1.8847 0.9727
6.3347 -2.0104 -1.8815 0.9727
6.5779 -0.8520 -1.8777 0.9728
6.6258 -0.2622 -1.8772 0.9728
6.6242 0.3295 -1.8776 0.9728
6.4725 1.5032 -1.8811 0.9728
6.1256 2.6384 -1.8881 0.9727
5.8811 3.1820 -1.8930 0.9726
4.5075 4.3160 -1.7667 0.9744
3.7012 5.0914 -1.7819 0.9742
2.7755 4.6372 -1.5299 0.9778
2.7655 5.7235 -1.7995 0.9739
2.2562 5.9787 -1.8090 0.9738
1.1717 6.3543 -1.8292 0.9735
0.6041 6.4704 -1.8397 0.9733
0.0251 6.5361 -1.8504 0.9732
-1.7347 6.4199 -1.8826 0.9727
-3.9514 5.5243 -1.9228 0.9722
-4.4486 5.1740 -1.9317 0.9720
-4.9131 4.7773 -1.9400 0.9719
-5.3401 4.3373 -1.9476 0.9718
-6.1920 4.1719 -2.1137 0.9694
-6.8783 3.0255 -2.1272 0.9692
-7.1351 2.4053 -2.1316 0.9692
-7.3322 1.7624 -2.1348 0.9691
-7.5392 0.4331 -2.1378 0.9691
-7.5468 -0.2405 -2.1375 0.9691
-7.4903 -0.9116 -2.1361 0.9691
-6.9457 -2.8458 -2.1249 0.9693
-5.8880 -4.5378 -2.1044 0.9696
-5.4379 -5.0241 -2.0959 0.9697
-4.9464 -5.4644 -2.0866 0.9698
-3.2746 -6.4796 -2.0553 0.9703
-0.1530 -7.0545 -1.9976 0.9711
1.6899 -6.7284 -1.9639 0.9716
3.8563 -5.5998 -1.9248 0.9721
5.1388 -4.3282 -1.9020 0.9725
5.4865 -3.8406 -1.8959 0.9725
5.7909 -3.3270 -1.8907 0.9726
6.0501 -2.7910 -1.8862 0.9727
6.4282 -1.6669 -1.8800 0.9728
6.6308 0.0930 -1.8773 0.9728
6.5994 0.6840 -1.8782 0.9728
6.5185 1.2707 -1.8801 0.9728
6.3886 1.8494 -1.8828 0.9727
5.2489 3.8980 -1.8509 0.9732
4.2803 4.5623 -1.7710 0.9743
2.5535 4.8365 -1.5483 0.9775
2.4627 5.8819 -1.8052 0.9738
1.9391 6.1108 -1.8149 0.9737
1.3944 6.2942 -1.8251 0.9736
0.8326 6.4299 -1.8355 0.9734
-2.6542 6.1619 -1.8993 0.9725
-3.2098 5.9321 -1.9094 0.9723
-3.7446 5.6508 -1.9191 0.9722
-4.2536 5.3198 -1.9282 0.9721
-6.0184 4.3749 -2.1063 0.9695
-6.4240 3.8447 -2.1194 0.9694
-7.0395 2.6562 -2.1300 0.9692
-7.4209 1.3681 -2.1362 0.9691
-7.5182 0.7017 -2.1376 0.9691
-7.5206 -0.6441 -2.1368 0.9691
-7.2681 -1.9642 -2.1314 0.9692
6.0077 1.2824 -1.8895 0.9746
5.7033 2.3364 -1.8957 0.9745
5.4849 2.8419 -1.9000 0.9745
5.2237 3.3284 -1.9051 0.9744
4.9072 3.7814 -1.9055 0.9744
4.2501 3.9261 -1.7796 0.9761
3.8800 4.2858 -1.7782 0.9761
3.4968 4.6334 -1.7854 0.9760
3.0833 4.9481 -1.7932 0.9759
2.6421 5.2272 -1.8015 0.9758
2.1761 5.4682 -1.8102 0.9757
1.1826 5.8265 -1.8287 0.9754
0.6620 5.9399 -1.8383 0.9753
0.1306 6.0071 -1.8481 0.9752
-3.9907 4.8131 -1.9231 0.9742
-4.9869 4.2007 -2.0055 0.9731
-5.9492 3.4185 -2.1104 0.9717
-6.6807 1.7329 -2.1228 0.9715
-6.8153 1.1316 -2.1249 0.9715
-6.9112 -0.0965 -2.1259 0.9715
-6.8715 -0.7117 -2.1248 0.9715
-6.7738 -1.3200 -2.1227 0.9715
-6.4094 -2.4931 -2.1153 0.9716
-6.1466 -3.0469 -2.1101 0.9717
-5.8337 -3.5724 -2.1040 0.9718
-5.0714 -4.5199 -2.0895 0.9720
-3.6474 -5.6273 -2.0626 0.9723
-3.1163 -5.9015 -2.0527 0.9725
-1.9985 -6.2966 -2.0319 0.9727
-0.8398 -6.4825 -2.0105 0.9730
-0.2573 -6.4967 -1.9998 0.9732
0.8908 -6.3715 -1.9788 0.9734
1.4477 -6.2346 -1.9687 0.9736
1.9877 -6.0505 -1.9589 0.9737
2.5070 -5.8212 -1.9495 0.9738
3.0021 -5.5490 -1.9405 0.9739
4.3106 -4.5021 -1.9171 0.9743
