ply
format ascii 1.0
element vertex 1588
property float32 x
property float32 y
property float32 z
property float32 I
end_header
18.0630 4.0525 -1.7773 0.9283
17.2776 7.2942 -1.8005 0.9274
16.6869 8.8763 -1.8146 0.9269
15.9643 10.4195 -1.8302 0.9263
15.1108 11.9137 -1.8474 0.9256
10.2631 11.5988 -1.4869 0.9397
9.2845 12.6015 -1.5027 0.9390
8.2808 16.8743 -1.8046 0.9272
4.3350 15.2224 -1.5195 0.9384
2.6988 14.1826 -1.3860 0.9436
0.1172 12.6479 -1.2143 0.9504
-2.5536 14.9197 -1.4532 0.9410
-10.6891 15.0854 -1.7750 0.9284
-11.5328 -7.3155 -1.3112 0.9466
-5.9975 -15.0244 -1.5531 0.9371
-5.5241 -18.4837 -1.8521 0.9254
-3.6147 -17.7384 -1.7380 0.9298
-2.1264 -18.9688 -1.8325 0.9262
1.3290 -19.7633 -1.9017 0.9235
3.0539 -19.3500 -1.8807 0.9243
6.3162 -18.1256 -1.8428 0.9258
7.8371 -17.3302 -1.8260 0.9264
8.5682 -15.1721 -1.6728 0.9324
9.8139 -14.2384 -1.6602 0.9329
14.6425 -8.3910 -1.6202 0.9344
15.8533 -5.6364 -1.6153 0.9346
16.2929 -4.1986 -1.6153 0.9346
16.8296 -1.2381 -1.6201 0.9344
18.1333 3.5765 -1.7744 0.9284
17.8448 5.2111 -1.7847 0.9280
17.4244 6.8288 -1.7967 0.9276
16.8721 8.4203 -1.8103 0.9270
16.1877 9.9759 -1.8255 0.9264
14.4158 12.9287 -1.8590 0.9251
12.3360 13.2329 -1.7368 0.9299
8.1875 10.5289 -1.2805 0.9478
8.6851 16.5944 -1.7981 0.9275
6.9050 16.6661 -1.7319 0.9301
0.4554 12.9222 -1.2414 0.9494
-0.6590 12.1544 -1.1686 0.9523
-1.7236 11.9245 -1.1567 0.9527
-3.5683 15.0405 -1.4840 0.9398
-16.8225 2.9883 -1.6403 0.9336
-18.9124 1.6383 -1.8225 0.9266
-13.7243 -6.6282 -1.4632 0.9406
-4.3025 -18.6282 -1.8355 0.9261
0.8182 -19.8570 -1.9080 0.9232
4.2422 -18.9743 -1.8666 0.9248
5.8599 -18.3346 -1.8479 0.9256
7.4036 -17.5731 -1.8307 0.9262
10.6448 -13.5219 -1.6522 0.9332
8.8008 -6.4943 -1.0501 0.9570
14.4308 -8.7751 -1.6215 0.9344
15.1218 -7.4347 -1.6177 0.9345
15.7047 -6.0472 -1.6156 0.9346
16.5361 -3.1594 -1.6163 0.9346
16.7804 -1.6734 -1.6190 0.9345
17.0461 7.9613 -1.8062 0.9272
13.5791 -3.1257 -1.6552 0.9454
14.2421 -1.9614 -1.7077 0.9437
14.9149 3.3462 -1.8157 0.9403
14.2339 6.0092 -1.8353 0.9397
11.5650 10.9268 -1.8899 0.9379
8.8760 12.0470 -1.7775 0.9415
6.7215 13.6968 -1.8123 0.9404
4.2648 14.9761 -1.8497 0.9392
1.3164 13.3000 -1.5876 0.9476
0.1171 12.6444 -1.5020 0.9503
-0.9603 11.9594 -1.4252 0.9528
-2.5550 14.9276 -1.7990 0.9408
-5.6982 15.6934 -1.9832 0.9350
-9.8863 13.9523 -2.0312 0.9334
-12.0861 14.1800 -2.2132 0.9277
-15.6368 10.6240 -2.2456 0.9267
-17.9968 6.1365 -2.2586 0.9263
-16.3250 0.9880 -1.9427 0.9362
-12.4737 -3.8190 -1.5496 0.9488
-16.3005 -8.4011 -2.1783 0.9288
-14.3031 -10.9788 -2.1418 0.9299
-5.8414 -14.6334 -1.8716 0.9385
-1.8351 -16.3701 -1.9567 0.9358
1.0841 -16.1222 -1.9194 0.9370
2.4963 -15.8171 -1.9021 0.9375
3.8650 -15.3982 -1.8858 0.9381
7.0517 -12.4868 -1.7034 0.9439
8.0877 -11.7340 -1.6929 0.9442
9.0527 -10.9047 -1.6835 0.9445
9.9421 -10.0048 -1.6754 0.9448
10.7519 -9.0406 -1.6687 0.9450
11.4784 -8.0184 -1.6632 0.9452
12.6689 -5.8253 -1.6564 0.9454
13.1273 -4.6672 -1.6550 0.9454
13.4914 -3.4767 -1.6549 0.9454
13.7790 -2.2635 -1.6587 0.9453
15.1531 0.2418 -1.8002 0.9408
14.9771 2.9540 -1.8133 0.9404
14.7239 4.2997 -1.8220 0.9401
14.3602 5.6279 -1.8321 0.9398
13.3035 8.1984 -1.8562 0.9390
10.0844 10.8175 -1.7567 0.9422
8.1689 10.5049 -1.5807 0.9478
4.6382 14.8158 -1.8441 0.9394
1.6963 13.5415 -1.6211 0.9465
0.4553 12.9185 -1.5355 0.9493
-0.6588 12.1511 -1.4455 0.9522
-3.5674 15.0367 -1.8357 0.9396
-5.2751 15.7950 -1.9781 0.9351
-6.7227 15.3952 -1.9955 0.9346
-9.5012 14.1752 -2.0271 0.9336
-11.6926 14.4626 -2.2092 0.9278
-13.0147 13.4413 -2.2224 0.9274
-14.2353 12.2886 -2.2338 0.9270
-15.3398 11.0149 -2.2433 0.9268
-17.2812 4.6934 -2.1271 0.9304
-16.5554 1.4341 -1.9739 0.9353
-16.6113 -0.0494 -1.9732 0.9353
-13.2914 -2.4427 -1.6053 0.9470
-17.9546 -4.9912 -2.2136 0.9277
-11.4170 -5.5139 -1.5061 0.9502
-10.8069 -6.4678 -1.4961 0.9505
-12.2669 -12.8209 -2.1077 0.9310
-8.9030 -13.4552 -1.9165 0.9371
-4.8662 -14.8645 -1.8579 0.9389
-3.7556 -16.2604 -1.9824 0.9350
-2.2660 -16.3643 -1.9624 0.9356
4.8053 -15.0350 -1.8749 0.9384
6.0814 -14.4347 -1.8606 0.9389
9.6918 -10.2731 -1.6776 0.9447
8.8032 -6.4961 -1.2996 0.9569
11.9416 -7.2614 -1.6602 0.9453
12.5183 -6.1547 -1.6570 0.9454
13.0038 -5.0072 -1.6552 0.9454
13.3955 -3.8254 -1.6548 0.9454
14.9706 -1.4929 -1.7871 0.9412
15.0300 2.5610 -1.8111 0.9404
14.0354 6.5552 -1.8401 0.9395
9.3445 -7.4518 -1.6935 0.9529
10.9224 -4.6827 -1.6838 0.9531
11.4044 -3.7241 -1.6998 0.9527
12.4975 -2.8767 -1.8171 0.9495
12.7510 -1.7560 -1.8237 0.9493
12.8774 -0.6117 -1.8267 0.9493
12.8482 1.6969 -1.8363 0.9490
12.0923 5.1051 -1.8598 0.9484
11.6515 6.1978 -1.8699 0.9481
11.1181 7.2565 -1.8812 0.9478
7.4860 10.1605 -1.7882 0.9503
6.6021 10.8754 -1.8026 0.9499
4.6402 12.0772 -1.8332 0.9491
2.4608 12.9318 -1.8652 0.9482
1.3078 13.2140 -1.8814 0.9478
-0.9600 11.9562 -1.6995 0.9527
-8.1558 11.5101 -1.9988 0.9446
-9.9591 11.6845 -2.1753 0.9399
-11.9823 9.8125 -2.1944 0.9393
-12.8518 8.7318 -2.2015 0.9392
-13.6129 7.5680 -2.2068 0.9390
-14.2568 6.3326 -2.2103 0.9389
-15.1653 3.6988 -2.2117 0.9389
-13.9855 -2.9476 -2.0251 0.9439
-10.9954 -8.4399 -1.9640 0.9455
-10.1203 -9.3162 -1.9490 0.9459
-8.1681 -10.7901 -1.9175 0.9468
-7.1117 -11.3791 -1.9013 0.9472
-2.7902 -13.6925 -1.9799 0.9451
-1.5436 -13.7700 -1.9633 0.9456
0.9147 -13.6027 -1.9317 0.9464
3.2699 -13.0274 -1.9031 0.9472
4.3897 -12.5971 -1.8901 0.9475
5.4618 -12.0778 -1.8781 0.9479
6.4741 -11.4639 -1.8654 0.9482
6.8971 -10.0067 -1.7220 0.9521
7.6988 -9.2738 -1.7078 0.9525
9.1559 -7.6987 -1.6950 0.9528
9.7793 -6.8315 -1.6902 0.9529
10.8002 -4.9661 -1.6843 0.9531
11.1924 -3.9793 -1.6831 0.9531
12.6969 -2.0858 -1.8231 0.9493
12.8503 -0.9453 -1.8257 0.9493
12.7466 2.5141 -1.8409 0.9489
12.5221 3.6568 -1.8484 0.9487
11.7892 5.8836 -1.8669 0.9482
11.2825 6.9530 -1.8778 0.9479
9.2038 9.8729 -1.9125 0.9469
2.7886 12.8311 -1.8605 0.9483
-0.6586 12.1478 -1.7237 0.9520
-6.7234 12.2749 -1.9830 0.9450
-10.7163 11.0676 -2.1828 0.9397
-15.3601 2.7285 -2.2104 0.9389
-15.0986 1.3080 -2.1473 0.9406
-13.7237 -3.8150 -2.0182 0.9441
-13.2566 -4.9979 -2.0074 0.9444
-11.2349 -8.1691 -1.9682 0.9454
-8.4660 -10.6001 -1.9222 0.9467
-4.3962 -13.4287 -2.0021 0.9445
-3.1525 -13.6493 -1.9849 0.9450
-1.9052 -13.7588 -1.9681 0.9454
4.0690 -12.7314 -1.8938 0.9474
5.1557 -12.2375 -1.8815 0.9478
6.8438 -10.5028 -1.7762 0.9506
7.4652 -9.4829 -1.7100 0.9524
8.8056 -6.4979 -1.5506 0.9568
11.9076 -3.4005 -1.7546 0.9512
12.7940 2.1800 -1.8389 0.9489
11.4391 6.6461 -1.8745 0.9480
8.1988 -6.5382 -1.7276 0.9584
9.4443 -5.0911 -1.7675 0.9574
10.2580 -4.3979 -1.8387 0.9558
10.9131 -2.5121 -1.8448 0.9556
11.1025 -1.5290 -1.8463 0.9556
11.1771 1.4762 -1.8573 0.9553
11.0353 2.4758 -1.8631 0.9552
10.5021 4.4337 -1.8780 0.9548
9.6414 6.2927 -1.8967 0.9544
6.4669 8.7772 -1.7960 0.9568
5.6970 9.3844 -1.8086 0.9565
4.8712 9.9264 -1.8216 0.9562
3.9948 10.3974 -1.8349 0.9559
1.1218 11.3345 -1.8764 0.9549
0.1063 11.4736 -1.8902 0.9546
-0.9250 11.5203 -1.9040 0.9542
-1.9635 11.4721 -1.9174 0.9539
-3.0000 11.3274 -1.9304 0.9536
-6.0020 10.3130 -1.9657 0.9528
-6.9342 9.7862 -1.9759 0.9525
-9.3504 9.1682 -2.1573 0.9483
-12.0824 5.3668 -2.1780 0.9478
-12.5211 4.2694 -2.1793 0.9478
-13.0688 1.9730 -2.1773 0.9478
-13.1726 0.7972 -2.1740 0.9479
-12.5614 -2.6474 -2.1148 0.9493
-10.1525 -6.4399 -1.9806 0.9524
-9.5688 -7.3449 -1.9872 0.9523
-8.9742 -8.2612 -2.0094 0.9518
-6.5701 -10.5126 -2.0422 0.9510
-2.4028 -11.7916 -1.9825 0.9524
-1.3309 -11.8722 -1.9681 0.9527
-0.2639 -11.8590 -1.9541 0.9531
0.7904 -11.7540 -1.9407 0.9534
1.8244 -11.5598 -1.9279 0.9537
4.7374 -10.4758 -1.8940 0.9545
5.6250 -9.9604 -1.8845 0.9547
6.4620 -9.3753 -1.8758 0.9549
8.5949 -6.0041 -1.7272 0.9584
10.0155 -4.6053 -1.8160 0.9563
10.5466 -3.7497 -1.8440 0.9556
10.8430 -2.7942 -1.8446 0.9556
11.0558 -1.8162 -1.8457 0.9556
10.8841 3.1785 -1.8679 0.9551
10.2336 5.1073 -1.8842 0.9547
9.7863 6.0309 -1.8937 0.9545
9.2596 6.9184 -1.9042 0.9542
8.6561 7.7632 -1.9155 0.9540
7.9785 8.5585 -1.9275 0.9537
6.6793 8.5894 -1.7925 0.9568
5.9265 9.2145 -1.8049 0.9566
-0.6244 11.5164 -1.9000 0.9543
-1.6617 11.4960 -1.9135 0.9540
-2.6997 11.3794 -1.9267 0.9537
-3.7291 11.1659 -1.9393 0.9534
-6.6683 9.9486 -1.9730 0.9526
-7.5657 9.3580 -1.9824 0.9524
-9.0992 9.3975 -2.1549 0.9484
-9.9373 8.5783 -2.1626 0.9482
-10.6947 7.6794 -2.1690 0.9480
-12.4047 4.5925 -2.1791 0.9478
-12.7667 3.4673 -2.1794 0.9478
-13.0173 2.3123 -2.1780 0.9478
-13.1543 1.1395 -2.1751 0.9479
-13.1767 -0.0392 -2.1707 0.9480
-12.1092 -3.3662 -2.0705 0.9503
-10.9043 -5.2663 -1.9949 0.9521
-10.3213 -6.1772 -1.9816 0.9524
-7.8090 -9.7775 -2.0614 0.9505
-6.8553 -10.3605 -2.0466 0.9509
-3.7800 -11.5465 -2.0015 0.9519
1.5266 -11.6252 -1.9316 0.9536
2.5420 -11.3697 -1.9193 0.9539
5.3722 -10.1175 -1.8871 0.9546
6.2244 -9.5522 -1.8782 0.9548
7.0011 -8.8934 -1.8646 0.9552
7.4561 -7.9033 -1.7899 0.9569
7.9052 -7.0053 -1.7401 0.9581
8.4288 -6.2198 -1.7257 0.9584
9.0375 -5.4955 -1.7425 0.9580
10.4323 -4.0171 -1.8416 0.9557
10.7661 -3.0745 -1.8445 0.9556
11.0023 -2.1021 -1.8453 0.9556
11.1576 -1.1127 -1.8472 0.9556
10.3485 4.8332 -1.8816 0.9548
9.9245 5.7661 -1.8909 0.9545
7.7831 -6.2067 -1.8711 0.9603
8.2896 -5.4762 -1.8674 0.9604
9.4179 -3.0754 -1.8622 0.9605
9.9167 -0.4711 -1.8661 0.9604
9.9366 0.4168 -1.8693 0.9603
9.7533 2.1882 -1.8788 0.9601
9.2734 3.9150 -1.8920 0.9599
8.0138 6.3183 -1.9181 0.9593
7.4572 7.0457 -1.9283 0.9591
6.8368 7.7266 -1.9392 0.9589
5.9899 8.1298 -1.8981 0.9597
3.5038 9.1195 -1.8363 0.9610
1.8502 9.7232 -1.8604 0.9605
0.0929 10.0263 -1.8846 0.9600
-3.5050 9.6533 -1.9303 0.9591
-4.3758 9.3511 -1.9406 0.9589
-5.2186 8.9669 -1.9501 0.9587
-6.0251 8.5031 -1.9588 0.9585
-7.3199 8.5881 -2.1210 0.9551
-8.1153 7.9572 -2.1363 0.9548
-8.8191 7.2222 -2.1426 0.9547
-9.4511 6.4213 -2.1477 0.9546
-10.0043 5.5618 -2.1515 0.9545
-10.4731 4.6520 -2.1540 0.9544
-11.1386 2.7167 -2.1550 0.9544
-11.3286 1.7103 -2.1535 0.9544
-11.4209 0.6912 -2.1506 0.9545
-11.3112 -1.3447 -2.1410 0.9547
-10.8190 -3.3124 -2.1267 0.9550
-10.4370 -4.2475 -2.1180 0.9552
-9.9704 -5.1386 -2.1083 0.9554
-9.4246 -5.9782 -2.0978 0.9556
-8.8059 -6.7593 -2.0866 0.9558
-7.3770 -8.1222 -2.0624 0.9563
-6.5817 -8.6944 -2.0496 0.9566
-4.8679 -9.6023 -2.0235 0.9571
-3.9653 -9.9335 -2.0104 0.9574
-3.0427 -10.1811 -1.9973 0.9577
-1.1686 -10.4248 -1.9717 0.9582
4.1790 -9.2410 -1.9063 0.9596
5.7067 -8.2796 -1.8901 0.9599
7.0404 -7.0848 -1.8774 0.9602
8.1489 -5.6926 -1.8684 0.9603
9.8971 -0.7281 -1.8653 0.9604
9.9057 1.0474 -1.8723 0.9603
9.7984 1.9326 -1.8772 0.9602
8.6329 5.3201 -1.9060 0.9596
8.1630 6.0991 -1.9153 0.9594
5.2086 8.0983 -1.8098 0.9616
4.4928 8.5844 -1.8212 0.9613
2.0980 9.6535 -1.8568 0.9606
1.2359 9.8665 -1.8690 0.9603
-0.5452 10.0572 -1.8931 0.9598
-1.4498 10.0303 -1.9049 0.9596
-2.3534 9.9199 -1.9163 0.9594
-5.7951 8.6458 -1.9564 0.9585
-6.5709 8.1276 -1.9645 0.9584
-7.8984 8.1573 -2.1342 0.9548
-8.6218 7.4427 -2.1409 0.9547
-9.8521 5.8170 -2.1505 0.9545
-10.3460 4.9209 -2.1534 0.9544
-10.7518 3.9806 -2.1550 0.9544
-11.2835 2.0043 -2.1541 0.9544
-11.4268 -0.0340 -2.1478 0.9546
-11.3513 -1.0515 -2.1427 0.9547
-11.1794 -2.0546 -2.1365 0.9548
-10.9134 -3.0338 -2.1291 0.9549
-10.5569 -3.9801 -2.1206 0.9551
-10.1143 -4.8848 -2.1112 0.9553
-8.9927 -6.5388 -2.0899 0.9558
-8.3263 -7.2746 -2.0782 0.9560
-6.8175 -8.5361 -2.0534 0.9565
-5.9904 -9.0533 -2.0405 0.9568
-5.1252 -9.4906 -2.0274 0.9570
-4.2298 -9.8459 -2.0142 0.9573
-2.3803 -10.3059 -1.9881 0.9579
-0.5033 -10.4314 -1.9630 0.9584
1.3435 -10.2310 -1.9395 0.9589
2.2388 -10.0138 -1.9287 0.9591
5.4961 -8.4345 -1.8922 0.9599
6.2038 -7.8807 -1.8852 0.9600
9.5265 -2.7205 -1.8622 0.9605
9.9229 0.7894 -1.8710 0.9603
9.4431 3.4208 -1.8878 0.9599
8.7564 5.0874 -1.9035 0.9596
6.9699 -5.5582 -1.8844 0.9642
8.1613 -3.4989 -1.8770 0.9643
8.4381 -2.7555 -1.8763 0.9644
8.8002 -1.2119 -1.8777 0.9643
8.8484 1.1686 -1.8866 0.9642
8.7305 1.9587 -1.8913 0.9641
8.5457 2.7382 -1.8969 0.9640
8.2948 3.5019 -1.9032 0.9639
7.9787 4.2442 -1.9103 0.9637
6.0992 6.8930 -1.9455 0.9631
5.4817 7.4401 -1.9535 0.9629
4.4598 7.3465 -1.8166 0.9655
3.8074 7.7586 -1.8268 0.9653
3.1174 8.1138 -1.8373 0.9651
0.0824 8.8948 -1.8803 0.9643
-0.7160 8.9164 -1.8908 0.9641
-1.5173 8.8649 -1.9011 0.9639
-2.3147 8.7397 -1.9111 0.9637
-3.1010 8.5405 -1.9206 0.9635
-3.8690 8.2681 -1.9296 0.9634
-6.4643 7.5843 -2.1065 0.9601
-7.1613 7.0217 -2.1200 0.9598
-8.3348 5.6629 -2.1300 0.9596
-8.8209 4.9039 -2.1333 0.9596
-10.0674 -0.2914 -2.1289 0.9597
-9.2194 -3.7519 -2.1040 0.9601
-8.8119 -4.5416 -2.0955 0.9603
-8.3344 -5.2866 -2.0862 0.9605
-6.5364 -7.1967 -2.0550 0.9610
-5.0955 -8.1532 -2.0323 0.9615
-1.8759 -9.2056 -1.9859 0.9623
-1.0407 -9.2833 -1.9746 0.9625
-0.2066 -9.2873 -1.9636 0.9627
1.4329 -9.0794 -1.9430 0.9631
6.8273 -5.7407 -1.8855 0.9642
8.5961 -2.2152 -1.8764 0.9644
8.7637 -1.4397 -1.8773 0.9643
8.9014 0.1421 -1.8818 0.9643
8.8701 0.9379 -1.8854 0.9642
8.7716 1.7301 -1.8899 0.9641
8.6062 2.5132 -1.8952 0.9640
8.0772 4.0311 -1.9082 0.9638
7.7158 4.7550 -1.9158 0.9636
6.8082 6.1059 -1.9331 0.9633
6.2668 6.7224 -1.9427 0.9631
5.6710 7.2927 -1.9528 0.9629
2.6075 8.3291 -1.8449 0.9649
1.8644 8.5783 -1.8556 0.9647
1.0975 8.7611 -1.8664 0.9645
0.3128 8.8750 -1.8772 0.9643
-1.2846 8.8875 -1.8982 0.9640
-2.0839 8.7837 -1.9082 0.9638
-8.1804 5.8741 -2.1288 0.9597
-8.6871 5.1292 -2.1325 0.9596
-9.1212 4.3384 -2.1350 0.9595
-10.0133 -0.9275 -2.1257 0.9597
-8.4800 -5.0752 -2.0890 0.9604
-7.9559 -5.7849 -2.0793 0.9606
-7.3711 -6.4400 -2.0690 0.9608
-6.7315 -7.0355 -2.0582 0.9610
-6.0437 -7.5672 -2.0471 0.9612
-5.3142 -8.0314 -2.0357 0.9614
-4.5500 -8.4254 -2.0241 0.9616
-2.9448 -8.9954 -2.0007 0.9620
-2.1178 -9.1691 -1.9892 0.9623
-1.2834 -9.2684 -1.9778 0.9625
-0.4484 -9.2937 -1.9668 0.9627
0.3810 -9.2461 -1.9561 0.9629
4.9160 -7.5443 -1.9034 0.9639
5.5513 -7.0517 -1.8970 0.9640
7.5988 -4.6207 -1.8799 0.9643
8.5353 -2.4375 -1.8763 0.9644
8.8979 -0.0890 -1.8809 0.9643
8.1702 3.8159 -1.9061 0.9638
7.8273 4.5476 -1.9135 0.9637
6.7176 -4.4377 -1.8922 0.9675
7.0785 -3.8158 -1.8899 0.9675
7.6360 -2.4935 -1.8879 0.9675
7.9631 -1.0967 -1.8892 0.9675
8.0507 0.3377 -1.8938 0.9674
8.0031 1.0570 -1.8973 0.9674
6.8622 4.4788 -1.9259 0.9669
6.4608 5.0939 -1.9336 0.9668
6.0059 5.6745 -1.9419 0.9666
4.9466 6.7139 -1.9599 0.9663
4.2949 7.0749 -1.9452 0.9666
2.1533 7.5614 -1.8478 0.9682
1.4774 7.7639 -1.8574 0.9680
0.7825 7.9058 -1.8671 0.9679
0.0740 7.9850 -1.8767 0.9677
-2.0744 7.8326 -1.9043 0.9673
-2.7777 7.6501 -1.9128 0.9671
-3.4640 7.4025 -1.9208 0.9670
-4.1269 7.0911 -1.9283 0.9668
-4.7603 6.7181 -1.9351 0.9667
-6.4015 6.2768 -2.1071 0.9638
-7.8798 4.3807 -2.1189 0.9636
-8.2470 3.6632 -2.1208 0.9636
-8.5448 2.9136 -2.1218 0.9636
-8.7702 2.1390 -2.1216 0.9636
-8.9964 0.5445 -2.1182 0.9636
-8.9184 -1.0603 -2.1108 0.9638
-8.7668 -1.8477 -2.1057 0.9639
-8.5424 -2.6154 -2.0996 0.9640
-5.2367 -6.9176 -2.0391 0.9650
-4.5750 -7.3203 -2.0288 0.9652
-3.8832 -7.6599 -2.0184 0.9653
-3.1673 -7.9346 -2.0079 0.9655
-2.4336 -8.1430 -1.9974 0.9657
-1.6882 -8.2846 -1.9871 0.9659
-0.9371 -8.3593 -1.9769 0.9660
-0.1862 -8.3675 -1.9671 0.9662
2.7044 -7.7609 -1.9316 0.9668
5.1779 -6.2372 -1.9052 0.9672
6.6029 -4.6126 -1.8930 0.9674
7.3019 -3.3575 -1.8888 0.9675
7.7790 -2.0046 -1.8880 0.9675
8.0531 0.1285 -1.8929 0.9674
8.0233 0.8484 -1.8962 0.9674
7.2976 3.6420 -1.9168 0.9670
6.1434 5.5097 -1.9394 0.9667
5.6521 6.0630 -1.9481 0.9665
4.5156 7.0209 -1.9619 0.9663
3.6028 6.8838 -1.8260 0.9686
2.9892 7.2148 -1.8354 0.9684
2.3453 7.4916 -1.8450 0.9683
1.6759 7.7112 -1.8546 0.9681
0.2808 7.9685 -1.8740 0.9678
-0.4338 8.0022 -1.8835 0.9676
-1.1521 7.9707 -1.8928 0.9674
-1.8679 7.8733 -1.9018 0.9673
-3.2668 7.4811 -1.9185 0.9670
-3.9372 7.1880 -1.9262 0.9669
-4.5797 6.8326 -1.9332 0.9668
-5.5957 6.9214 -2.0918 0.9641
-6.2317 6.4360 -2.1055 0.9639
-6.7980 5.8684 -2.1106 0.9638
-8.4656 3.1342 -2.1216 0.9636
-8.7123 2.3662 -2.1218 0.9636
-9.0035 -0.0268 -2.1160 0.9637
-8.8184 -1.6207 -2.1072 0.9638
-8.3405 -3.1444 -2.0949 0.9640
-7.9983 -3.8628 -2.0875 0.9642
-7.5921 -4.5438 -2.0795 0.9643
-6.0360 -6.3086 -2.0520 0.9648
-4.7706 -7.2098 -2.0318 0.9651
-4.0869 -7.5679 -2.0214 0.9653
-2.6482 -8.0893 -2.0005 0.9656
-1.9056 -8.2504 -1.9901 0.9658
-1.1555 -8.3445 -1.9799 0.9660
-0.4039 -8.3720 -1.9699 0.9661
1.0808 -8.2306 -1.9510 0.9665
2.5050 -7.8378 -1.9339 0.9668
3.8292 -7.2115 -1.9190 0.9670
5.0183 -6.3747 -1.9067 0.9672
7.7240 -2.2058 -1.8879 0.9675
7.8925 -1.5079 -1.8885 0.9675
8.0503 -0.0805 -1.8921 0.9675
8.0382 0.6394 -1.8951 0.9674
7.9651 1.3572 -1.8990 0.9673
7.3824 3.4479 -1.9149 0.9671
6.1276 -4.0480 -1.9015 0.9701
6.7378 -2.8887 -1.8981 0.9702
7.1428 -1.6442 -1.8978 0.9702
7.2648 -1.0005 -1.8987 0.9702
7.3317 -0.3483 -1.9005 0.9701
7.1981 1.6149 -1.9100 0.9700
7.0422 2.2565 -1.9147 0.9699
6.8314 2.8840 -1.9199 0.9698
6.5668 3.4931 -1.9258 0.9697
6.2497 4.0791 -1.9323 0.9696
5.8820 4.6375 -1.9394 0.9695
5.4658 5.1642 -1.9469 0.9694
5.0035 5.6547 -1.9550 0.9693
3.9477 6.5029 -1.9697 0.9691
2.5472 6.6297 -1.8389 0.9711
1.9544 6.8629 -1.8476 0.9709
0.7095 7.1685 -1.8651 0.9707
0.0670 7.2369 -1.8738 0.9705
-2.5129 6.9209 -1.9064 0.9700
-3.1326 6.6942 -1.9136 0.9699
-7.1129 3.9544 -2.1071 0.9669
-7.4437 3.3064 -2.1089 0.9669
-8.0523 1.2157 -2.1085 0.9669
-8.1210 0.4915 -2.1065 0.9669
-8.1213 -0.2351 -2.1036 0.9670
-7.9183 -1.6688 -2.0952 0.9671
-7.7178 -2.3629 -2.0898 0.9672
-7.1301 -3.6748 -2.0769 0.9674
-6.7494 -4.2813 -2.0695 0.9675
-6.3159 -4.8480 -2.0615 0.9676
-5.3085 -5.8447 -2.0443 0.9679
-4.7444 -6.2673 -2.0352 0.9680
-1.5332 -7.5238 -1.9881 0.9688
-0.1692 -7.6062 -1.9699 0.9691
0.5082 -7.5575 -1.9612 0.9692
1.8287 -7.2858 -1.9449 0.9694
3.0724 -6.7940 -1.9306 0.9697
3.6545 -6.4712 -1.9242 0.9698
4.7203 -5.6860 -1.9134 0.9699
6.0228 -4.2073 -1.9022 0.9701
6.3667 -3.6485 -1.8999 0.9701
6.6616 -3.0631 -1.8984 0.9702
7.0972 -1.8289 -1.8976 0.9702
7.3180 -0.5383 -1.8999 0.9701
7.3455 0.1172 -1.9021 0.9701
7.3172 0.7737 -1.9051 0.9701
6.8982 2.7035 -1.9183 0.9699
6.3471 3.9115 -1.9304 0.9697
5.5916 5.0148 -1.9447 0.9694
4.6491 5.9786 -1.9609 0.9692
2.1290 6.8005 -1.8450 0.9710
0.8941 7.1380 -1.8626 0.9707
0.2546 7.2230 -1.8713 0.9706
-0.3931 7.2501 -1.8799 0.9704
-1.0433 7.2181 -1.8883 0.9703
-2.3298 6.9758 -1.9042 0.9701
-5.6287 5.8132 -2.0951 0.9671
-6.1387 5.2992 -2.0997 0.9670
-6.5992 4.7386 -2.1035 0.9670
-7.0056 4.1364 -2.1064 0.9669
-7.6408 2.8288 -2.1096 0.9669
-7.8634 2.1356 -2.1097 0.9669
-8.1081 0.7024 -2.1072 0.9669
-8.1283 -0.0242 -2.1046 0.9670
-8.0801 -0.7485 -2.1010 0.9670
-7.9644 -1.4637 -2.0967 0.9671
-7.2302 -3.4919 -2.0789 0.9674
-6.4470 -4.6878 -2.0639 0.9676
-5.4654 -5.7122 -2.0469 0.9679
-4.9119 -6.1501 -2.0379 0.9680
-4.3236 -6.5342 -2.0286 0.9681
-3.7057 -6.8621 -2.0192 0.9683
-3.0639 -7.1318 -2.0097 0.9684
-2.4035 -7.3420 -2.0002 0.9686
-1.0497 -7.5808 -1.9815 0.9689
-0.3671 -7.6092 -1.9725 0.9690
0.3122 -7.5777 -1.9637 0.9691
0.9832 -7.4873 -1.9552 0.9693
1.6409 -7.3393 -1.9472 0.9694
2.2806 -7.1356 -1.9396 0.9695
3.4885 -6.5700 -1.9260 0.9697
4.5745 -5.8109 -1.9148 0.9699
5.5101 -4.8829 -1.9062 0.9700
5.9140 -4.3641 -1.9030 0.9701
6.2717 -3.8137 -1.9005 0.9701
6.8401 -2.6338 -1.8978 0.9702
7.2005 -1.3757 -1.8981 0.9702
7.2996 -0.7279 -1.8994 0.9701
7.3312 0.5832 -1.9042 0.9701
6.9604 2.5214 -1.9168 0.9699
6.7269 3.1418 -1.9223 0.9698
5.6275 -3.7176 -1.9094 0.9724
6.5609 -1.5102 -1.9059 0.9724
6.6727 -0.9189 -1.9068 0.9724
6.7337 -0.3199 -1.9084 0.9724
6.6083 1.4826 -1.9173 0.9722
5.3933 4.2522 -1.9443 0.9719
5.0100 4.7335 -1.9512 0.9718
3.6191 5.9617 -1.9744 0.9714
3.0757 6.2675 -1.9764 0.9714
2.3304 6.0655 -1.8395 0.9733
1.7873 6.2763 -1.8474 0.9732
1.2252 6.4387 -1.8555 0.9731
0.6483 6.5505 -1.8635 0.9730
0.0612 6.6103 -1.8714 0.9729
-1.1244 6.5694 -1.8868 0.9727
-2.2919 6.3122 -1.9011 0.9725
-2.8561 6.1034 -1.9077 0.9724
-3.4147 5.8673 -1.9218 0.9722
-4.7730 5.5999 -2.0830 0.9699
-5.7165 4.6814 -2.0917 0.9698
-6.1210 4.1588 -2.0949 0.9697
-6.4753 3.5999 -2.0973 0.9697
-6.7759 3.0097 -2.0989 0.9696
-7.3944 -0.2140 -2.0942 0.9697
-7.2122 -1.5200 -2.0866 0.9698
-7.0311 -2.1527 -2.0817 0.9699
-6.7927 -2.7644 -2.0761 0.9700
-6.1543 -3.9038 -2.0632 0.9702
-5.7609 -4.4220 -2.0559 0.9703
-4.8456 -5.3351 -2.0403 0.9705
-4.3323 -5.7230 -2.0320 0.9706
-2.0205 -6.7606 -1.9975 0.9711
-1.4028 -6.8843 -1.9889 0.9712
-0.1550 -6.9650 -1.9722 0.9715
1.6764 -6.6788 -1.9494 0.9718
2.2579 -6.4797 -1.9425 0.9719
3.3530 -5.9373 -1.9303 0.9721
3.8591 -5.5989 -1.9250 0.9721
5.1716 -4.3485 -1.9128 0.9723
5.5311 -3.8638 -1.9100 0.9723
5.8475 -3.3510 -1.9079 0.9724
6.1188 -2.8135 -1.9065 0.9724
6.6454 -1.0917 -1.9065 0.9724
6.7459 0.1077 -1.9100 0.9723
6.7190 0.7105 -1.9127 0.9723
6.6407 1.3098 -1.9161 0.9723
6.1006 3.0446 -1.9302 0.9721
5.1257 4.5970 -1.9491 0.9718
4.7124 5.0550 -1.9564 0.9717
3.7682 5.8587 -1.9720 0.9715
3.2374 6.1857 -1.9765 0.9714
2.5379 6.1257 -1.8771 0.9728
1.3902 6.3967 -1.8531 0.9732
-1.5428 6.5029 -1.8920 0.9726
-2.1251 6.3629 -1.8991 0.9725
-2.6940 6.1695 -1.9058 0.9724
-3.2446 5.9237 -1.9120 0.9723
-4.0678 6.0689 -2.0683 0.9701
-5.1267 5.2948 -2.0864 0.9698
-5.5902 4.8257 -2.0906 0.9698
-6.9551 2.5750 -2.0996 0.9696
-7.1577 1.9439 -2.0997 0.9696
-7.3002 1.2968 -2.0990 0.9696
-7.3577 -0.6815 -2.0918 0.9697
-5.4547 -4.7658 -2.0506 0.9703
-3.9492 -5.9684 -2.0260 0.9707
-2.8008 -6.5195 -2.0087 0.9709
-2.1981 -6.7143 -2.0000 0.9711
-1.5831 -6.8541 -1.9914 0.9712
0.9009 -6.8604 -1.9588 0.9716
1.5040 -6.7272 -1.9514 0.9718
2.0911 -6.5426 -1.9445 0.9718
3.2005 -6.0275 -1.9320 0.9720
3.7153 -5.7016 -1.9265 0.9721
4.6478 -4.9266 -1.9174 0.9722
5.4310 -4.0077 -1.9108 0.9723
5.7602 -3.5026 -1.9085 0.9724
6.0447 -2.9719 -1.9069 0.9724
6.4730 -1.8485 -1.9057 0.9724
6.6139 -1.2636 -1.9062 0.9724
6.7045 -0.6686 -1.9074 0.9724
6.7440 -0.0675 -1.9093 0.9724
6.6687 1.1363 -1.9151 0.9723
6.5539 1.7306 -1.9190 0.9722
6.1725 2.8828 -1.9286 0.9721
5.9078 3.4324 -1.9342 0.9720
5.1979 -3.4338 -1.9161 0.9743
5.9116 -1.9304 -1.9128 0.9743
6.1889 0.8174 -1.9201 0.9742
6.1018 1.3690 -1.9234 0.9742
5.7864 2.4429 -1.9319 0.9741
5.5596 2.9574 -1.9369 0.9740
5.2885 3.4517 -1.9424 0.9739
4.6198 4.3648 -1.9549 0.9738
4.2263 4.7764 -1.9617 0.9737
0.0563 6.0774 -1.8693 0.9749
-0.4883 6.0813 -1.8765 0.9748
-1.0331 6.0358 -1.8835 0.9747
-2.6459 5.6542 -1.9201 0.9742
-3.3661 5.7838 -2.0583 0.9724
-3.8929 5.4940 -2.0710 0.9722
-4.3782 5.1367 -2.0760 0.9721
-4.8293 4.7352 -2.0803 0.9721
-5.9363 3.3003 -2.0891 0.9720
-6.7196 1.0145 -2.0902 0.9720
-6.7798 -0.1963 -2.0862 0.9720
-6.6147 -1.3941 -2.0792 0.9721
-5.9649 -3.0742 -2.0640 0.9723
-5.6497 -3.5837 -2.0578 0.9724
-5.2901 -4.0606 -2.0512 0.9725
-4.4523 -4.9021 -2.0369 0.9727
-3.4831 -5.5733 -2.0215 0.9729
-1.2916 -6.3385 -1.9897 0.9733
2.6002 -5.7498 -1.9410 0.9739
3.0945 -5.4795 -1.9355 0.9740
3.5622 -5.1682 -1.9307 0.9741
4.4059 -4.4336 -1.9225 0.9742
5.1087 -3.5688 -1.9168 0.9743
5.4014 -3.0953 -1.9148 0.9743
5.6523 -2.5990 -1.9135 0.9743
6.0222 -1.5519 -1.9128 0.9743
6.1388 -1.0084 -1.9135 0.9743
6.2085 -0.4567 -1.9148 0.9743
6.2307 0.0994 -1.9167 0.9743
6.1320 1.2094 -1.9224 0.9742
5.8437 2.2902 -1.9305 0.9741
5.6301 2.8098 -1.9354 0.9740
5.3717 3.3104 -1.9408 0.9739
4.3444 4.6603 -1.9596 0.9737
3.9251 5.0476 -1.9667 0.9736
2.4685 5.9581 -1.9836 0.9734
1.2791 5.8856 -1.8525 0.9751
-0.8751 6.0541 -1.8815 0.9747
-1.4171 5.9733 -1.8883 0.9746
-1.9514 5.8430 -1.8947 0.9745
-2.4732 5.6637 -1.9009 0.9745
-3.7430 5.5843 -2.0677 0.9723
-4.2406 5.2452 -2.0746 0.9722
-4.7021 4.8562 -2.0791 0.9721
-5.1263 4.4252 -2.0829 0.9721
-5.5091 3.9559 -2.0861 0.9720
-5.8471 3.4523 -2.0885 0.9720
-6.1368 2.9189 -2.0902 0.9720
-6.6921 1.1888 -2.0906 0.9720
-6.7669 0.5862 -2.0891 0.9720
-6.7851 -0.0202 -2.0870 0.9720
-6.7467 -0.6249 -2.0840 0.9720
-6.6524 -1.2226 -2.0804 0.9721
-6.3010 -2.3755 -2.0712 0.9722
-6.0476 -2.9207 -2.0657 0.9723
-5.7459 -3.4389 -2.0597 0.9724
-5.0100 -4.3772 -2.0463 0.9725
-3.6307 -5.4872 -2.0237 0.9728
-3.1142 -5.7668 -2.0158 0.9729
-1.4574 -6.3101 -1.9919 0.9733
-0.3097 -6.4184 -1.9765 0.9735
0.2635 -6.3963 -1.9690 0.9736
0.8305 -6.3242 -1.9619 0.9737
1.3869 -6.2031 -1.9551 0.9737
1.9287 -6.0346 -1.9486 0.9738
2.4521 -5.8204 -1.9426 0.9739
2.9535 -5.5623 -1.9371 0.9740
3.4293 -5.2627 -1.9320 0.9741
3.8763 -4.9240 -1.9275 0.9741
4.6724 -4.1405 -1.9202 0.9742
5.3206 -3.2353 -1.9153 0.9743
5.9797 -1.7077 -1.9128 0.9743
6.1097 -1.1673 -1.9132 0.9743
6.1931 -0.6176 -1.9143 0.9743
6.2292 -0.0623 -1.9161 0.9743
6.1582 1.0493 -1.9214 0.9742
6.0512 1.5978 -1.9250 0.9741
5.6969 2.6607 -1.9339 0.9740
4.8244 -3.1871 -1.9220 0.9759
5.0853 -2.7414 -1.9204 0.9759
5.3069 -2.2752 -1.9193 0.9760
5.6261 -1.2951 -1.9190 0.9760
5.7732 -0.2742 -1.9212 0.9759
5.7805 0.2425 -1.9232 0.9759
5.6619 1.2703 -1.9288 0.9758
5.5364 1.7740 -1.9325 0.9758
5.1562 2.7427 -1.9413 0.9757
4.2816 4.0454 -1.9580 0.9755
3.5171 4.7736 -1.9710 0.9753
3.0877 5.0862 -1.9778 0.9752
2.6307 5.3607 -1.9849 0.9751
1.6414 5.7640 -1.9922 0.9751
1.0754 5.6516 -1.9123 0.9760
0.0521 5.6181 -1.8676 0.9766
-0.4513 5.6201 -1.8742 0.9765
-0.9545 5.5765 -1.8806 0.9764
-1.4532 5.4870 -1.8868 0.9764
-2.0071 5.5279 -1.9549 0.9755
-2.6109 5.5794 -2.0476 0.9744
-3.1159 5.3539 -2.0591 0.9742
-3.5923 5.0698 -2.0654 0.9741
-4.0394 4.7393 -2.0699 0.9741
-4.4549 4.3681 -2.0739 0.9740
-4.8349 3.9594 -2.0773 0.9740
-5.7278 2.5442 -2.0833 0.9739
-5.9338 2.0233 -2.0839 0.9739
-6.2528 -0.1810 -2.0793 0.9740
-6.2031 -0.7374 -2.0765 0.9740
-6.1021 -1.2861 -2.0729 0.9741
-5.7516 -2.3407 -2.0641 0.9742
-5.5058 -2.8376 -2.0589 0.9742
-4.8853 -3.7499 -2.0471 0.9744
-3.2202 -5.1525 -2.0197 0.9747
-2.7374 -5.3997 -2.0124 0.9748
1.4329 -5.7086 -1.9564 0.9755
1.9309 -5.5412 -1.9506 0.9756
3.7115 -4.4708 -1.9315 0.9758
5.7830 0.0923 -1.9225 0.9759
5.5773 1.6287 -1.9314 0.9758
5.2219 2.6061 -1.9399 0.9757
4.9812 3.0697 -1.9449 0.9756
4.3812 3.9293 -1.9562 0.9755
4.0257 4.3184 -1.9625 0.9754
3.6362 4.6761 -1.9690 0.9753
3.2154 4.9992 -1.9758 0.9753
2.7661 5.2851 -1.9828 0.9752
1.2352 5.6837 -1.9334 0.9758
0.6994 5.5836 -1.8705 0.9766
-0.3049 5.6242 -1.8723 0.9765
-0.8086 5.5939 -1.8788 0.9765
-1.3090 5.5177 -1.8850 0.9764
-1.8411 5.5126 -1.9319 0.9758
-2.4415 5.5910 -2.0280 0.9746
-3.9126 4.8396 -2.0687 0.9741
-4.7284 4.0818 -2.0764 0.9740
-5.3921 3.1837 -2.0815 0.9740
-5.6590 2.6916 -2.0830 0.9739
-6.0502 1.6431 -2.0840 0.9739
-6.2402 0.5406 -2.0820 0.9739
-6.2575 -0.0186 -2.0800 0.9740
-6.2228 -0.5764 -2.0774 0.9740
-6.1367 -1.1278 -2.0740 0.9740
-5.8144 -2.1921 -2.0655 0.9741
-5.5818 -2.6958 -2.0605 0.9742
-4.9854 -3.6250 -2.0490 0.9744
-4.6275 -4.0430 -2.0426 0.9744
-4.2342 -4.4254 -2.0359 0.9745
-3.8092 -4.7694 -2.0289 0.9746
-3.3563 -5.0724 -2.0218 0.9747
-1.8717 -5.7174 -1.9997 0.9750
-0.2868 -5.9438 -1.9781 0.9752
0.2441 -5.9250 -1.9712 0.9753
1.7880 -5.5943 -1.9522 0.9755
3.1810 -4.8817 -1.9368 0.9757
3.5963 -4.5683 -1.9326 0.9758
4.6555 -3.4354 -1.9232 0.9759
5.3876 -2.0746 -1.9191 0.9760
5.6714 -1.0836 -1.9193 0.9760
5.7704 0.4590 -1.9242 0.9759
5.4708 1.9818 -1.9342 0.9758
5.2840 2.4679 -1.9386 0.9757
5.0553 2.9371 -1.9434 0.9757
4.2179 -3.3636 -1.9293 0.9773
4.7400 -2.5552 -1.9256 0.9774
4.9466 -2.1207 -1.9247 0.9774
5.2442 -1.2071 -1.9244 0.9774
5.3809 -0.2556 -1.9264 0.9774
5.3874 0.2260 -1.9283 0.9774
5.2757 1.1836 -1.9335 0.9773
5.1581 1.6528 -1.9370 0.9773
4.8024 2.5546 -1.9452 0.9772
3.6444 4.1187 -1.9667 0.9769
3.2724 4.4414 -1.9728 0.9768
2.4464 4.9852 -1.9858 0.9767
-0.4374 5.4469 -1.9541 0.9771
-0.9306 5.4372 -1.9727 0.9768
-1.4442 5.4529 -2.0172 0.9763
-1.9467 5.3614 -2.0398 0.9761
-4.1299 4.0494 -2.0684 0.9757
-4.4816 3.6701 -2.0715 0.9757
-4.7971 3.2593 -2.0740 0.9757
-5.0735 2.8206 -2.0758 0.9756
-5.3082 2.3578 -2.0771 0.9756
-5.4990 1.8750 -2.0777 0.9756
-5.6442 1.3766 -2.0776 0.9756
-5.7425 0.8669 -2.0768 0.9756
-5.3339 -2.1707 -2.0593 0.9758
-4.8390 -3.0695 -2.0492 0.9760
-4.1921 -3.8590 -2.0376 0.9761
-3.8191 -4.2049 -2.0313 0.9762
-2.9909 -4.7857 -2.0182 0.9763
-2.5432 -5.0167 -2.0114 0.9764
-1.5996 -5.3522 -1.9976 0.9765
-1.1116 -5.4550 -1.9908 0.9766
-0.6181 -5.5138 -1.9841 0.9767
0.3698 -5.4998 -1.9712 0.9769
0.8567 -5.4280 -1.9651 0.9769
1.7979 -5.1594 -1.9538 0.9771
2.6732 -4.7336 -1.9441 0.9772
3.0784 -4.4663 -1.9398 0.9772
3.4581 -4.1655 -1.9360 0.9773
4.1307 -3.4733 -1.9300 0.9773
4.6730 -2.6779 -1.9260 0.9774
5.0702 -1.8026 -1.9243 0.9774
5.3712 -0.3951 -1.9260 0.9774
5.3898 0.0860 -1.9277 0.9774
5.1965 1.5175 -1.9359 0.9773
4.8638 2.4274 -1.9439 0.9772
2.1306 5.1426 -1.9906 0.9766
1.6686 5.3300 -1.9973 0.9766
0.6961 5.5574 -2.0029 0.9765
-0.2957 5.4541 -1.9533 0.9771
-0.7861 5.4386 -1.9651 0.9769
-1.8045 5.4031 -2.0371 0.9761
-2.7597 5.0384 -2.0544 0.9759
-3.2060 4.7832 -2.0592 0.9758
-3.6279 4.4873 -2.0635 0.9758
-4.7094 3.3816 -2.0733 0.9757
-4.9974 2.9507 -2.0754 0.9756
-5.6068 1.5227 -2.0777 0.9756
-5.7188 1.0159 -2.0771 0.9756
-5.7833 0.5010 -2.0759 0.9756
-5.7997 -0.0173 -2.0740 0.9757
-5.6890 -1.0455 -2.0685 0.9757
-5.5631 -1.5465 -2.0648 0.9758
-5.3918 -2.0328 -2.0606 0.9758
-4.9209 -2.9451 -2.0508 0.9759
-4.6258 -3.3635 -2.0453 0.9760
-4.2946 -3.7522 -2.0394 0.9761
-3.9305 -4.1080 -2.0332 0.9761
-3.1172 -4.7110 -2.0201 0.9763
-2.2147 -5.1553 -2.0065 0.9764
-1.7397 -5.3142 -1.9996 0.9765
-0.7618 -5.5012 -1.9860 0.9767
-0.2668 -5.5288 -1.9794 0.9768
0.2271 -5.5126 -1.9730 0.9768
0.7161 -5.4532 -1.9669 0.9769
1.1964 -5.3514 -1.9610 0.9770
1.6646 -5.2084 -1.9554 0.9770
2.1173 -5.0256 -1.9502 0.9771
2.5512 -4.8047 -1.9454 0.9772
2.9632 -4.5475 -1.9410 0.9772
3.3506 -4.2562 -1.9371 0.9773
3.7106 -3.9331 -1.9336 0.9773
4.8311 -2.3752 -1.9252 0.9774
5.0219 -1.9337 -1.9244 0.9774
5.3887 -0.0539 -1.9271 0.9774
5.3777 0.4278 -1.9292 0.9773
5.3252 0.9074 -1.9318 0.9773
5.0968 1.8463 -1.9385 0.9772
4.9220 2.2988 -1.9426 0.9772
4.7081 2.7354 -1.9472 0.9771
4.2060 -2.7785 -1.9318 0.9786
4.4339 -2.3902 -1.9303 0.9787
4.9058 -1.1293 -1.9292 0.9787
4.9888 -0.6870 -1.9298 0.9787
5.0333 -0.2391 -1.9310 0.9786
5.0391 0.2114 -1.9328 0.9786
5.0059 0.6611 -1.9350 0.9786
4.4894 2.3881 -1.9487 0.9785
3.7238 3.5183 -1.9632 0.9783
3.0562 4.1481 -1.9745 0.9782
2.2839 4.6539 -1.9867 0.9780
1.8652 4.8546 -1.9929 0.9780
1.4289 5.0177 -1.9993 0.9779
0.9784 5.1416 -2.0057 0.9778
-0.4219 5.2542 -2.0200 0.9777
-0.8922 5.2125 -2.0266 0.9776
-1.3589 5.1309 -2.0340 0.9775
-2.6932 4.6276 -2.0518 0.9773
-3.4872 4.0913 -2.0601 0.9772
-4.1718 3.4164 -2.0664 0.9772
-4.4652 3.0337 -2.0687 0.9771
-4.7221 2.6252 -2.0705 0.9771
-4.9404 2.1944 -2.0716 0.9771
-5.1178 1.7451 -2.0721 0.9771
-5.2530 1.2812 -2.0721 0.9771
-5.3446 0.8069 -2.0714 0.9771
-2.2965 -0.0665 -0.8804 0.9902
-2.3011 -0.2736 -0.8880 0.9901
-4.5079 -2.8595 -2.0457 0.9774
-4.2238 -3.2421 -2.0405 0.9774
-3.5599 -3.9195 -2.0291 0.9776
-2.7892 -4.4629 -2.0168 0.9777
-2.3722 -4.6793 -2.0105 0.9778
-1.4927 -4.9946 -1.9977 0.9779
-0.5771 -5.1477 -1.9850 0.9781
-0.1149 -5.1627 -1.9789 0.9781
1.6802 -4.8217 -1.9567 0.9784
2.4991 -4.4252 -1.9476 0.9785
3.2336 -3.8952 -1.9400 0.9785
3.5628 -3.5853 -1.9370 0.9786
3.8634 -3.2485 -1.9344 0.9786
4.8746 -1.2562 -1.9291 0.9787
5.0244 -0.3696 -1.9306 0.9787
5.0414 0.0805 -1.9322 0.9786
4.7218 1.8505 -1.9435 0.9785
4.0901 3.0559 -1.9566 0.9784
3.8109 3.4178 -1.9617 0.9783
3.1602 4.0639 -1.9728 0.9782
2.4017 4.5889 -1.9848 0.9781
1.9887 4.8001 -1.9911 0.9780
1.5572 4.9743 -1.9975 0.9779
1.1105 5.1098 -2.0039 0.9778
0.6514 5.2005 -2.0085 0.9778
-0.2851 5.2589 -2.0183 0.9777
-0.7558 5.2287 -2.0246 0.9776
-1.2239 5.1587 -2.0318 0.9775
-2.5705 4.6929 -2.0505 0.9773
-2.9857 4.4544 -2.0550 0.9773
-4.0802 3.5222 -2.0656 0.9772
-4.6514 2.7463 -2.0700 0.9771
-4.8811 2.3216 -2.0713 0.9771
-5.0706 1.8773 -2.0720 0.9771
-2.3042 0.1996 -0.8863 0.9901
-2.3040 -0.2134 -0.8867 0.9901
-5.2963 -0.9734 -2.0636 0.9772
-5.1797 -1.4399 -2.0602 0.9772
-5.0210 -1.8930 -2.0563 0.9773
-4.3098 -3.1338 -2.0420 0.9774
-3.6635 -3.8290 -2.0308 0.9776
-3.2973 -4.1285 -2.0248 0.9776
-2.9067 -4.3929 -2.0186 0.9777
-2.0661 -4.8094 -2.0059 0.9778
-1.1705 -5.0677 -1.9931 0.9780
-0.2491 -5.1625 -1.9807 0.9781
0.2121 -5.1485 -1.9747 0.9782
1.1179 -5.0000 -1.9634 0.9783
1.5556 -4.8673 -1.9582 0.9783
2.7705 -4.2517 -1.9447 0.9785
3.1330 -3.9798 -1.9410 0.9785
3.4700 -3.6782 -1.9378 0.9786
3.7792 -3.3490 -1.9351 0.9786
4.0583 -2.9947 -1.9328 0.9786
4.3056 -2.6181 -1.9311 0.9786
4.5193 -2.2219 -1.9299 0.9787
4.8402 -1.3822 -1.9290 0.9787
5.0122 -0.4998 -1.9303 0.9787
4.6015 2.1491 -1.9462 0.9785
4.4009 2.5569 -1.9505 0.9784
3.9465 -2.6071 -1.9358 0.9798
4.3423 -1.8616 -1.9336 0.9798
4.6036 -1.0597 -1.9334 0.9798
4.7230 -0.2244 -1.9352 0.9798
4.6966 0.6203 -1.9389 0.9797
4.3847 1.8511 -1.9479 0.9796
4.0021 2.6121 -1.9560 0.9796
3.7617 2.9658 -1.9605 0.9795
3.4906 3.2980 -1.9654 0.9795
2.5125 4.1388 -1.9816 0.9793
2.1392 4.3592 -1.9874 0.9792
1.3379 4.6980 -1.9992 0.9791
0.4840 4.8902 -2.0112 0.9790
0.0457 4.9283 -2.0171 0.9789
-0.8362 4.8853 -2.0285 0.9788
-1.2723 4.8039 -2.0339 0.9788
-1.7003 4.6829 -2.0390 0.9787
-2.1166 4.5231 -2.0439 0.9786
-3.2587 3.8233 -2.0560 0.9785
-3.8977 3.1919 -2.0619 0.9785
-4.4113 2.4524 -2.0657 0.9784
-4.6150 2.0499 -2.0668 0.9784
-2.1012 0.5125 -0.8852 0.9907
-4.6425 -1.8893 -2.0514 0.9786
-3.9495 -3.0316 -2.0377 0.9787
-3.3300 -3.6663 -2.0271 0.9788
-2.6100 -4.1763 -2.0156 0.9789
-2.2203 -4.3797 -2.0097 0.9790
-1.8150 -4.5468 -2.0037 0.9791
-0.5405 -4.8219 -1.9859 0.9792
-0.1076 -4.8369 -1.9801 0.9793
0.3237 -4.8136 -1.9746 0.9794
0.7501 -4.7526 -1.9692 0.9794
1.5753 -4.5207 -1.9593 0.9795
2.3438 -4.1502 -1.9507 0.9796
3.0334 -3.6540 -1.9436 0.9797
3.3425 -3.3636 -1.9407 0.9797
3.6248 -3.0479 -1.9383 0.9797
3.8785 -2.7094 -1.9363 0.9798
4.1017 -2.3505 -1.9348 0.9798
4.2929 -1.9739 -1.9338 0.9798
4.4508 -1.5824 -1.9333 0.9798
4.7146 -0.3468 -1.9348 0.9798
4.7095 0.4980 -1.9382 0.9797
4.5584 1.3312 -1.9435 0.9797
4.4289 1.7357 -1.9469 0.9797
3.8347 2.8652 -1.9592 0.9795
2.9614 3.8082 -1.9744 0.9794
1.8625 4.4955 -1.9915 0.9792
-0.2673 4.9313 -2.0212 0.9789
-1.9971 4.5735 -2.0425 0.9787
-2.7905 4.1632 -2.0513 0.9786
-3.1568 3.9047 -2.0550 0.9785
-3.8122 3.2909 -2.0612 0.9785
-4.0954 2.9407 -2.0635 0.9784
-2.0148 0.1745 -0.8277 0.9913
-2.0612 -0.3788 -0.8577 0.9910
-4.8403 -1.3456 -2.0562 0.9785
-4.5070 -2.1767 -2.0485 0.9786
-4.0298 -2.9301 -2.0392 0.9787
-3.0848 -3.8624 -2.0231 0.9789
-2.7199 -4.1106 -2.0173 0.9789
-1.9341 -4.5021 -2.0054 0.9790
-1.5199 -4.6428 -1.9994 0.9791
-1.0961 -4.7458 -1.9935 0.9792
-0.6661 -4.8104 -1.9876 0.9792
0.6269 -4.7742 -1.9707 0.9794
1.0479 -4.6868 -1.9656 0.9795
1.4584 -4.5632 -1.9607 0.9795
2.5985 -3.9878 -1.9480 0.9796
3.2554 -3.4506 -1.9415 0.9797
4.2408 -2.0850 -1.9341 0.9798
4.4085 -1.6975 -1.9334 0.9798
4.5420 -1.2971 -1.9333 0.9798
4.7296 -0.0473 -1.9358 0.9798
4.7194 0.3754 -1.9376 0.9797
4.5893 1.2118 -1.9427 0.9797
4.3157 2.0156 -1.9495 0.9796
3.7132 -2.4530 -1.9395 0.9808
4.0858 -1.7517 -1.9374 0.9808
4.4485 0.1866 -1.9404 0.9808
4.2558 1.3637 -1.9476 0.9807
4.1239 1.7410 -1.9509 0.9807
3.5366 2.7884 -1.9628 0.9805
3.2813 3.1002 -1.9674 0.9805
2.3607 3.8887 -1.9826 0.9803
2.0096 4.0951 -1.9880 0.9803
1.6406 4.2700 -1.9936 0.9802
0.4543 4.5905 -2.0104 0.9801
0.0429 4.6255 -2.0159 0.9800
-0.7845 4.5835 -2.0266 0.9799
-1.5948 4.3922 -2.0365 0.9798
-2.3605 4.0559 -2.0452 0.9797
-3.0549 3.5841 -2.0524 0.9797
-3.3675 3.3019 -2.0554 0.9796
-3.6533 2.9917 -2.0579 0.9796
-4.1341 2.2983 -2.0614 0.9796
-4.3249 1.9210 -2.0624 0.9796
-1.4570 0.0882 -0.6361 0.9937
-1.4413 -0.0417 -0.6284 0.9937
-1.4723 -0.1750 -0.6462 0.9936
-1.4781 -0.3115 -0.6583 0.9934
-1.4940 -0.4574 -0.6809 0.9932
-4.3527 -1.7714 -2.0481 0.9797
-4.1692 -2.1488 -2.0441 0.9797
-3.9525 -2.5071 -2.0399 0.9798
-3.4276 -3.1553 -2.0304 0.9799
-2.0843 -4.1115 -2.0089 0.9801
-0.9127 -4.4789 -1.9921 0.9803
1.0983 -4.3757 -1.9661 0.9805
2.5392 -3.6840 -1.9500 0.9807
2.8534 -3.4371 -1.9469 0.9807
3.4103 -2.8675 -1.9418 0.9807
3.8593 -2.2116 -1.9386 0.9808
4.1880 -1.4890 -1.9371 0.9808
4.3042 -1.1092 -1.9371 0.9808
4.3871 -0.7207 -1.9376 0.9808
4.4360 -0.3263 -1.9385 0.9808
4.4507 0.0710 -1.9399 0.9808
4.1656 1.6326 -1.9499 0.9807
3.6055 2.6939 -1.9615 0.9806
3.3583 3.0119 -1.9660 0.9805
3.0835 3.3077 -1.9708 0.9805
2.7830 3.5789 -1.9758 0.9804
2.4589 3.8231 -1.9810 0.9804
1.3694 4.3741 -1.9975 0.9802
0.5729 4.5735 -2.0088 0.9801
0.1628 4.6191 -2.0143 0.9800
-0.2509 4.6277 -2.0198 0.9800
-1.4792 4.4292 -2.0351 0.9798
-2.6163 3.9034 -2.0479 0.9797
-3.5732 3.0845 -2.0572 0.9796
-3.8383 2.7561 -2.0594 0.9796
-1.4676 -0.1359 -0.6423 0.9936
-1.5177 -0.5722 -0.7069 0.9929
-4.2260 -2.0410 -2.0453 0.9797
-4.0187 -2.4052 -2.0411 0.9798
-3.5109 -3.0674 -2.0318 0.9799
-3.2150 -3.3602 -2.0268 0.9799
-2.5527 -3.8580 -2.0161 0.9800
-1.8159 -4.2269 -2.0050 0.9801
-1.4273 -4.3599 -1.9993 0.9802
-0.2192 -4.5442 -1.9828 0.9803
0.5892 -4.4872 -1.9724 0.9804
2.4440 -3.7506 -1.9510 0.9807
2.7644 -3.5116 -1.9477 0.9807
3.5827 -2.6437 -1.9405 0.9808
3.8013 -2.3115 -1.9389 0.9808
4.1482 -1.5973 -1.9372 0.9808
4.4500 -0.0445 -1.9395 0.9808
4.4401 0.3532 -1.9412 0.9808
4.3957 0.7490 -1.9434 0.9807
4.3171 1.1399 -1.9459 0.9807
4.2046 1.5231 -1.9490 0.9807
4.0589 1.8957 -1.9524 0.9806
3.5021 -2.3135 -1.9428 0.9817
4.0857 -0.9405 -1.9407 0.9817
4.1546 -0.5722 -1.9412 0.9817
4.0129 1.2858 -1.9505 0.9816
3.8881 1.6415 -1.9536 0.9816
3.5472 2.3152 -1.9607 0.9815
3.0922 2.9215 -1.9691 0.9814
2.8256 3.1933 -1.9737 0.9814
1.5448 4.0208 -1.9938 0.9812
0.8095 4.2539 -2.0044 0.9811
0.4276 4.3205 -2.0097 0.9810
-1.1226 4.2387 -2.0297 0.9809
-2.2194 3.8135 -2.0424 0.9807
-2.8716 3.3692 -2.0492 0.9807
-3.8852 2.1599 -2.0576 0.9806
-1.2519 0.5561 -0.6341 0.9940
-1.2655 0.4315 -0.6189 0.9941
-1.2746 0.1924 -0.5967 0.9943
-1.2646 -0.0366 -0.5856 0.9944
-1.2672 -0.2671 -0.5995 0.9943
-1.2694 -0.3887 -0.6145 0.9942
-3.9201 -2.0204 -2.0414 0.9807
-3.4841 -2.6743 -2.0331 0.9808
-2.9393 -3.2363 -2.0237 0.9809
-2.6322 -3.4771 -2.0187 0.9810
-2.3054 -3.6888 -2.0135 0.9810
-1.9618 -3.8698 -2.0083 0.9811
-1.6043 -4.0189 -2.0030 0.9811
-1.2358 -4.1351 -1.9977 0.9812
-0.8595 -4.2178 -1.9925 0.9812
-0.4783 -4.2665 -1.9873 0.9813
0.2866 -4.2619 -1.9772 0.9813
1.3960 -4.0061 -1.9637 0.9815
1.7445 -3.8576 -1.9597 0.9815
2.3941 -3.4735 -1.9527 0.9816
3.6400 -2.0859 -1.9419 0.9817
4.1379 -0.6797 -1.9410 0.9817
4.1975 0.0670 -1.9432 0.9817
4.1786 0.4418 -1.9450 0.9816
4.1270 0.8140 -1.9471 0.9816
4.0432 1.1807 -1.9497 0.9816
3.7809 1.8869 -1.9560 0.9815
3.6041 2.2211 -1.9596 0.9815
3.3983 2.5391 -1.9636 0.9815
2.3163 3.6013 -1.9820 0.9813
1.9906 3.8034 -1.9871 0.9813
1.6474 3.9763 -1.9923 0.9812
0.9189 4.2282 -2.0029 0.9811
-0.2361 4.3543 -2.0185 0.9810
-1.7613 4.0334 -2.0372 0.9808
-2.1185 3.8677 -2.0413 0.9808
-2.4597 3.6697 -2.0450 0.9807
-2.7820 3.4411 -2.0483 0.9807
-3.3584 2.8991 -2.0537 0.9806
-3.6074 2.5903 -2.0557 0.9806
-3.8271 2.2597 -2.0573 0.9806
-1.2590 -0.0037 -0.5828 0.9945
-1.2737 -0.1180 -0.5921 0.9944
-1.2715 -0.2337 -0.5984 0.9943
-1.2589 -0.4746 -0.6227 0.9941
-1.2755 -0.6160 -0.6556 0.9938
-3.3023 -2.8852 -2.0298 0.9809
-2.4022 -3.6304 -2.0150 0.9810
-2.0632 -3.8205 -2.0098 0.9810
-1.7094 -3.9789 -2.0046 0.9811
-0.5893 -4.2558 -1.9888 0.9812
0.9282 -4.1518 -1.9693 0.9814
1.6447 -3.9039 -1.9609 0.9815
2.6066 -3.3111 -1.9506 0.9816
4.1739 -0.4162 -1.9416 0.9817
4.1453 0.7063 -1.9465 0.9816
4.0708 1.0749 -1.9489 0.9816
3.6585 2.1256 -1.9585 0.9815
3.4898 -1.8813 -1.9447 0.9825
3.8618 -0.8889 -1.9438 0.9825
3.9268 -0.5408 -1.9444 0.9825
3.9651 0.1663 -1.9467 0.9825
3.8801 0.8705 -1.9506 0.9824
3.7918 1.2150 -1.9531 0.9824
3.5264 1.8758 -1.9593 0.9824
2.6682 3.0155 -1.9751 0.9822
2.3938 3.2491 -1.9796 0.9822
1.7865 3.6404 -1.9891 0.9821
1.4580 3.7947 -1.9941 0.9821
0.4034 4.0757 -2.0090 0.9819
0.0380 4.1055 -2.0139 0.9819
-0.6959 4.0658 -2.0234 0.9818
-1.4139 3.8940 -2.0321 0.9817
-1.7593 3.7596 -2.0361 0.9817
-2.4082 3.3986 -2.0432 0.9816
-2.7059 3.1747 -2.0462 0.9816
-2.9824 2.9243 -2.0488 0.9816
-3.2350 2.6492 -2.0510 0.9815
-1.1010 0.4890 -0.5909 0.9946
-1.1258 0.3839 -0.5834 0.9947
-1.1433 0.1726 -0.5672 0.9949
-1.1424 0.0691 -0.5614 0.9949
-3.2845 -2.5212 -2.0310 0.9817
-3.0399 -2.7983 -2.0267 0.9818
-2.7717 -3.0517 -2.0222 0.9818
-2.1746 -3.4795 -2.0127 0.9819
-1.8507 -3.6507 -2.0077 0.9819
-1.5137 -3.7919 -2.0027 0.9820
-0.8112 -3.9807 -1.9928 0.9821
-0.4515 -4.0273 -1.9879 0.9821
-0.0899 -4.0418 -1.9831 0.9821
0.2706 -4.0242 -1.9784 0.9822
0.6273 -3.9749 -1.9739 0.9822
0.9775 -3.8946 -1.9696 0.9823
1.3186 -3.7840 -1.9656 0.9823
1.6480 -3.6442 -1.9619 0.9823
2.8021 -2.8198 -1.9500 0.9824
3.0395 -2.5557 -1.9479 0.9825
3.4403 -1.9715 -1.9450 0.9825
3.8372 -0.9888 -1.9437 0.9825
3.9110 -0.6425 -1.9442 0.9825
3.9672 0.0633 -1.9462 0.9825
3.9490 0.4176 -1.9479 0.9825
3.7110 1.4544 -1.9552 0.9824
3.5721 1.7827 -1.9583 0.9824
3.4047 2.0982 -1.9617 0.9823
3.2099 2.3983 -1.9655 0.9823
2.9891 2.6808 -1.9695 0.9823
2.7438 2.9433 -1.9738 0.9822
1.2167 3.8864 -1.9976 0.9820
0.8670 3.9894 -2.0026 0.9820
0.5087 4.0610 -2.0076 0.9819
-0.5897 4.0798 -2.0221 0.9818
-1.3115 3.9271 -2.0309 0.9817
-1.6602 3.8019 -2.0350 0.9817
-2.9044 2.9996 -2.0481 0.9816
-3.1642 2.7315 -2.0504 0.9815
-3.3986 2.4404 -2.0524 0.9815
-3.6055 2.1288 -2.0538 0.9815
-1.1203 0.4148 -0.5860 0.9947
-1.1327 0.3076 -0.5757 0.9948
-1.0878 -0.5254 -0.5926 0.9946
-3.5620 -2.1318 -2.0362 0.9817
-3.3509 -2.4365 -2.0323 0.9817
-2.8519 -2.9807 -2.0235 0.9818
-2.5685 -3.2160 -2.0189 0.9818
-2.2658 -3.4242 -2.0141 0.9819
-1.6128 -3.7541 -2.0042 0.9820
-1.2680 -3.8734 -1.9992 0.9820
-0.5563 -4.0171 -1.9893 0.9821
0.5243 -3.9925 -1.9752 0.9822
1.2206 -3.8192 -1.9668 0.9823
1.5537 -3.6878 -1.9629 0.9823
2.1771 -3.3411 -1.9561 0.9824
2.4630 -3.1288 -1.9532 0.9824
2.7289 -2.8926 -1.9507 0.9824
2.9729 -2.6345 -1.9485 0.9825
3.1933 -2.3564 -1.9467 0.9825
3.3886 -2.0605 -1.9453 0.9825
3.5572 -1.7489 -1.9444 0.9825
3.6981 -1.4240 -1.9438 0.9825
3.8102 -1.0881 -1.9437 0.9825
3.9667 -0.0397 -1.9458 0.9825
3.9575 0.3148 -1.9474 0.9825
3.6154 1.6886 -1.9573 0.9824
2.9390 -2.3437 -1.9501 0.9832
3.4492 -1.4788 -1.9469 0.9832
3.5669 -1.1648 -1.9466 0.9832
3.7544 0.1575 -1.9494 0.9832
3.6735 0.8242 -1.9531 0.9832
3.4776 1.4681 -1.9583 0.9831
3.1714 2.0699 -1.9647 0.9831
2.9795 2.3491 -1.9683 0.9830
1.9856 3.2708 -1.9850 0.9829
1.6896 3.4430 -1.9896 0.9829
1.3787 3.5884 -1.9943 0.9828
0.3813 3.8526 -2.0084 0.9827
0.0360 3.8802 -2.0131 0.9827
-0.3113 3.8766 -2.0176 0.9826
-0.9999 3.7756 -2.0262 0.9826
-1.3356 3.6785 -2.0302 0.9825
-2.2742 3.2096 -2.0407 0.9824
-2.8160 2.7612 -2.0460 0.9824
-3.0544 2.5013 -2.0481 0.9824
-3.2682 2.2205 -2.0498 0.9824
-0.9492 0.5277 -0.5634 0.9951
-0.9881 0.4389 -0.5609 0.9951
-1.0119 0.3450 -0.5547 0.9952
-1.0213 0.2491 -0.5454 0.9953
-1.0276 -0.2166 -0.5448 0.9953
-1.0167 -0.3113 -0.5516 0.9952
-0.9983 -0.4063 -0.5591 0.9952
-2.8721 -2.6439 -2.0251 0.9826
-2.6190 -2.8836 -2.0209 0.9826
-2.0553 -3.2886 -2.0119 0.9827
0.2560 -3.8070 -1.9795 0.9830
0.5936 -3.7609 -1.9752 0.9830
0.9250 -3.6853 -1.9712 0.9830
1.8583 -3.2906 -1.9605 0.9831
2.1414 -3.1068 -1.9575 0.9831
2.4069 -2.8993 -1.9549 0.9832
2.8779 -2.4198 -1.9506 0.9832
3.0799 -2.1515 -1.9490 0.9832
3.5355 -1.2570 -1.9466 0.9832
3.7034 -0.6084 -1.9470 0.9832
3.7445 -0.2755 -1.9478 0.9832
3.7564 0.0599 -1.9490 0.9832
3.7391 0.3954 -1.9506 0.9832
3.6925 0.7283 -1.9525 0.9832
3.3812 1.6875 -1.9604 0.9831
3.2224 1.9859 -1.9637 0.9831
2.8285 2.5367 -1.9711 0.9830
2.3421 3.0119 -1.9793 0.9830
2.0685 3.2161 -1.9837 0.9829
1.4704 3.5490 -1.9929 0.9828
1.1504 3.6747 -1.9976 0.9828
0.8197 3.7717 -2.0023 0.9828
0.4809 3.8388 -2.0070 0.9827
0.1366 3.8754 -2.0117 0.9827
-1.2390 3.7099 -2.0291 0.9825
-1.5682 3.5912 -2.0329 0.9825
-1.8858 3.4429 -2.0365 0.9825
-2.1892 3.2661 -2.0398 0.9824
-2.7425 2.8324 -2.0453 0.9824
-2.9876 2.5790 -2.0475 0.9824
-3.2087 2.3041 -2.0493 0.9824
-0.9783 0.4653 -0.5620 0.9951
-1.0066 0.3727 -0.5568 0.9952
-1.0376 0.0899 -0.5403 0.9953
-1.0377 -0.0961 -0.5406 0.9953
-1.0191 -0.2833 -0.5487 0.9952
-1.0052 -0.3790 -0.5573 0.9952
-0.9759 -0.4713 -0.5622 0.9951
-2.4272 -3.0391 -2.0177 0.9826
-2.1414 -3.2363 -2.0132 0.9827
-1.5247 -3.5490 -2.0039 0.9827
-1.1989 -3.6623 -1.9991 0.9828
0.1572 -3.8148 -1.9807 0.9829
1.1551 -3.6143 -1.9684 0.9830
1.4704 -3.4902 -1.9648 0.9831
2.0609 -3.1627 -1.9584 0.9831
2.3317 -2.9620 -1.9556 0.9832
2.8148 -2.4944 -1.9511 0.9832
3.0237 -2.2312 -1.9494 0.9832
3.6080 -1.0304 -1.9466 0.9832
3.7355 -0.3725 -1.9475 0.9832
3.7090 0.6320 -1.9519 0.9832
3.6419 0.9617 -1.9541 0.9832
3.4223 1.5984 -1.9595 0.9831
3.2713 1.9006 -1.9627 0.9831
3.1342 -1.6896 -1.9502 0.9839
3.2714 -1.4026 -1.9495 0.9839
1.8723 -0.6114 -1.0787 0.9911
1.8826 0.0790 -1.0320 0.9914
3.0066 1.9623 -1.9664 0.9838
2.8243 2.2268 -1.9699 0.9837
2.6192 2.4746 -1.9735 0.9837
1.3060 3.3993 -1.9945 0.9835
0.0340 3.6738 -2.0123 0.9834
-0.2947 3.6700 -2.0165 0.9833
-1.2640 3.4813 -2.0285 0.9833
-1.8693 3.2119 -2.0354 0.9832
-2.6639 2.6120 -2.0434 0.9831
-0.8752 0.5946 -0.5795 0.9952
-0.9002 0.3999 -0.5395 0.9955
-0.9170 0.3127 -0.5306 0.9956
-0.9305 0.2269 -0.5246 0.9956
-0.9448 0.1426 -0.5233 0.9957
-0.9369 -0.1975 -0.5244 0.9956
-2.9366 -2.2541 -2.0275 0.9833
-2.4792 -2.7297 -2.0196 0.9833
-2.2210 -2.9340 -2.0154 0.9834
-1.3553 -3.3952 -2.0022 0.9835
-1.0445 -3.4948 -1.9978 0.9835
-0.7267 -3.5661 -1.9933 0.9835
-0.4045 -3.6088 -1.9889 0.9836
0.2426 -3.6077 -1.9804 0.9836
0.8768 -3.4932 -1.9726 0.9837
1.1829 -3.3947 -1.9690 0.9837
2.0305 -2.9459 -1.9596 0.9838
2.2824 -2.7494 -1.9571 0.9838
2.5159 -2.5318 -1.9549 0.9839
3.2342 -1.4871 -1.9497 0.9839
1.8853 -0.4858 -1.0663 0.9912
1.8765 0.0299 -1.0279 0.9915
1.8851 0.3718 -1.0524 0.9913
2.8797 2.1516 -1.9688 0.9837
2.6810 2.4045 -1.9725 0.9837
2.4605 2.6393 -1.9763 0.9837
2.2195 2.8542 -1.9803 0.9836
1.9600 3.0474 -1.9845 0.9836
1.6838 3.2171 -1.9888 0.9836
1.3929 3.3620 -1.9932 0.9835
-0.1992 3.6742 -2.0153 0.9834
-0.8529 3.5949 -2.0236 0.9833
-1.4840 3.3984 -2.0311 0.9832
-2.0713 3.0902 -2.0375 0.9832
-2.8261 2.4397 -2.0448 0.9831
-3.0352 2.1794 -2.0465 0.9831
-0.8940 0.4252 -0.5422 0.9955
-0.9121 0.3377 -0.5327 0.9956
-0.9474 -0.0878 -0.5211 0.9957
-0.9411 -0.1730 -0.5241 0.9956
-0.9244 -0.2570 -0.5255 0.9956
-0.9112 -0.3435 -0.5333 0.9956
-0.8925 -0.4310 -0.5429 0.9955
-0.8646 -0.5175 -0.5519 0.9954
-2.9957 -2.1782 -2.0286 0.9832
-2.2978 -2.8771 -2.0167 0.9833
-1.4439 -3.3610 -2.0035 0.9835
-0.8196 -3.5483 -1.9946 0.9835
-0.1747 -3.6216 -1.9859 0.9836
0.4701 -3.5799 -1.9776 0.9837
0.7862 -3.5167 -1.9737 0.9837
1.0950 -3.4261 -1.9700 0.9837
1.6811 -3.1660 -1.9633 0.9838
1.9541 -2.9988 -1.9604 0.9838
2.6695 -2.3656 -1.9536 0.9839
1.8821 -0.5375 -1.0720 0.9911
1.8845 -0.3600 -1.0508 0.9913
1.8861 0.3214 -1.0479 0.9913
3.2449 1.5155 -1.9615 0.9838
2.8232 -1.8651 -1.9535 0.9845
2.9769 -1.6048 -1.9526 0.9845
1.7326 -0.3988 -1.0265 0.9918
1.7359 -0.0825 -1.0033 0.9920
1.7350 0.0728 -1.0026 0.9920
1.7417 0.2300 -1.0143 0.9919
1.7327 0.3887 -1.0253 0.9918
1.8407 0.7771 -1.1536 0.9908
2.8545 1.8631 -1.9680 0.9844
2.6813 2.1140 -1.9713 0.9844
2.4862 2.3490 -1.9748 0.9843
1.7854 2.9410 -1.9864 0.9842
0.6486 3.4084 -2.0031 0.9841
0.3424 3.4599 -2.0074 0.9841
0.0323 3.4839 -2.0115 0.9840
-0.2794 3.4799 -2.0156 0.9840
-0.5901 3.4478 -2.0195 0.9840
-0.8972 3.3877 -2.0233 0.9839
-1.7716 3.0440 -2.0334 0.9839
-2.0391 2.8777 -2.0363 0.9838
-2.5242 2.4750 -2.0410 0.9838
-0.7970 0.5415 -0.5563 0.9956
-0.8222 0.4571 -0.5431 0.9957
-0.8616 0.2938 -0.5255 0.9958
-0.8721 0.2127 -0.5183 0.9959
-0.8801 -0.0255 -0.5083 0.9959
-0.8820 -0.1049 -0.5128 0.9959
-0.8761 -0.1846 -0.5169 0.9959
-0.8649 -0.2648 -0.5222 0.9958
-0.8058 -0.6185 -0.5865 0.9953
-2.5771 -2.3724 -2.0224 0.9840
-0.6894 -3.3834 -1.9936 0.9842
-0.0765 -3.4378 -1.9853 0.9842
0.5340 -3.3833 -1.9775 0.9843
1.6730 -2.9624 -1.9642 0.9844
2.1675 -2.6109 -1.9592 0.9844
2.7743 -1.9381 -1.9539 0.9845
2.9347 -1.6817 -1.9528 0.9845
1.7391 -0.1279 -1.0068 0.9920
1.7300 0.0276 -0.9989 0.9920
1.7416 0.1842 -1.0111 0.9919
1.7248 0.5037 -1.0374 0.9917
1.7450 0.6839 -1.0821 0.9914
2.9006 1.7875 -1.9671 0.9844
2.7339 2.0426 -1.9703 0.9844
2.5450 2.2825 -1.9738 0.9843
2.3354 2.5052 -1.9774 0.9843
2.1065 2.7089 -1.9812 0.9843
1.8600 2.8919 -1.9852 0.9842
1.5977 3.0527 -1.9893 0.9842
1.3216 3.1898 -1.9934 0.9842
-0.1889 3.4840 -2.0144 0.9840
-0.5001 3.4600 -2.0184 0.9840
