ply
format ascii 1.0
element vertex 1592
property float32 x
property float32 y
property float32 z
property float32 I
end_header
-2.0536 12.2012 -1.4697 0.9514
-3.1463 12.0104 -1.4748 0.9512
-5.2285 11.2477 -1.4734 0.9513
-12.1005 8.2584 -1.7402 0.9427
-13.7736 4.7252 -1.7297 0.9430
-15.2097 3.7385 -1.8605 0.9389
-15.4544 2.3603 -1.8570 0.9390
-15.4927 -1.8184 -1.8530 0.9391
-15.2743 -3.1966 -1.8537 0.9391
-14.9418 -4.5528 -1.8554 0.9390
-14.2009 -5.7583 -1.8203 0.9401
-12.9313 -6.6452 -1.7270 0.9431
-9.0027 -6.8954 -1.3470 0.9553
-7.5719 -8.3218 -1.3365 0.9557
-6.7070 -8.8450 -1.3186 0.9563
-8.5096 -13.5936 -1.9050 0.9374
-6.0202 -15.0554 -1.9261 0.9368
-4.6788 -15.6260 -1.9376 0.9364
-3.2844 -16.0814 -1.9497 0.9360
-1.8463 -16.4159 -1.9623 0.9356
-0.3194 -14.1716 -1.6838 0.9445
0.9433 -14.0733 -1.6755 0.9448
3.5276 -14.0579 -1.7217 0.9433
7.0885 -15.6712 -2.0431 0.9331
11.1994 -13.4820 -2.0819 0.9318
12.4299 -12.4986 -2.0939 0.9315
10.5050 -8.8247 -1.6297 0.9462
10.8511 -7.5715 -1.5717 0.9481
10.9902 -6.2891 -1.5041 0.9503
15.1381 -6.9481 -1.9786 0.9351
17.8738 -2.9195 -2.1513 0.9296
18.0584 1.9303 -2.1573 0.9295
17.8070 3.5346 -2.1565 0.9295
14.9180 7.4720 -1.9819 0.9350
14.1496 8.7495 -1.9762 0.9352
13.2651 9.9440 -1.9693 0.9354
12.2741 11.0449 -1.9614 0.9357
5.8544 11.2395 -1.5054 0.9502
2.4175 11.2422 -1.3659 0.9547
-0.6700 11.8305 -1.4075 0.9534
-4.9479 11.2475 -1.4596 0.9517
-6.2020 11.2483 -1.5258 0.9496
-3.9469 5.8522 -0.8385 0.9720
-5.0309 6.1855 -0.9471 0.9684
-5.8900 6.0465 -1.0027 0.9666
-7.1593 5.1065 -1.0446 0.9652
-12.6010 7.3851 -1.7349 0.9429
-15.4080 2.6807 -1.8577 0.9389
-15.5637 1.2915 -1.8551 0.9390
-15.6033 -0.1041 -1.8535 0.9391
-15.5269 -1.4973 -1.8529 0.9391
-15.3350 -2.8793 -1.8534 0.9391
-13.0593 -6.3727 -1.7261 0.9431
-10.3092 -6.2281 -1.4307 0.9526
-8.6356 -6.3350 -1.2722 0.9578
-7.0412 -6.2054 -1.1149 0.9629
-6.9440 -8.7741 -1.3292 0.9559
-7.5862 -14.2036 -1.9128 0.9372
-3.7107 -8.7500 -1.1290 0.9624
-0.7177 -16.5878 -1.9722 0.9353
6.7522 -15.7904 -2.0400 0.9332
9.5774 -14.5227 -2.0665 0.9323
10.9029 -13.6922 -2.0791 0.9319
11.5168 -6.9108 -1.5954 0.9473
15.6212 -5.9073 -1.9838 0.9349
17.8015 -3.2874 -2.1503 0.9297
18.0551 -1.6867 -2.1540 0.9296
18.0944 1.5560 -2.1573 0.9295
11.4469 11.8215 -1.9547 0.9359
9.4644 11.7076 -1.7883 0.9412
8.1708 12.1935 -1.7435 0.9426
6.1533 11.2393 -1.5221 0.9497
14.3070 4.5217 -2.1260 0.9412
10.0751 5.3100 -1.6137 0.9550
9.9826 9.3641 -1.9393 0.9462
9.0711 10.1793 -1.9319 0.9464
8.0911 10.9029 -1.9237 0.9466
7.0524 11.5294 -1.9150 0.9469
4.3603 11.2404 -1.7083 0.9525
3.2395 11.2413 -1.6576 0.9538
1.1468 11.2429 -1.6013 0.9554
0.1370 11.2436 -1.5932 0.9556
-0.9329 12.0482 -1.7122 0.9524
-2.0535 12.2010 -1.7531 0.9512
-6.3428 10.9607 -1.7943 0.9501
-5.1422 6.0615 -1.1263 0.9684
-6.1312 6.0388 -1.2193 0.9658
-10.2354 6.9855 -1.7558 0.9512
-10.7830 6.0232 -1.7500 0.9513
-12.5745 4.3139 -1.8836 0.9477
-13.1013 2.0009 -1.8778 0.9479
-13.2131 0.8215 -1.8758 0.9479
-13.1382 -1.5421 -1.8743 0.9480
-12.6684 -3.8601 -1.8765 0.9479
-12.2886 -4.9829 -1.8789 0.9478
-10.4338 -6.6021 -1.7495 0.9513
-7.6814 -7.0574 -1.4780 0.9587
-8.1485 -10.7459 -1.9108 0.9470
-5.0748 -12.6913 -1.9367 0.9463
-3.9404 -13.1599 -1.9464 0.9460
-1.5518 -13.7974 -1.9673 0.9455
2.1994 -13.9486 -2.0008 0.9445
8.2408 -11.9501 -2.0568 0.9430
6.1649 -6.1990 -1.2387 0.9653
8.9862 -6.2703 -1.5526 0.9567
10.9876 -6.2876 -1.7937 0.9501
14.7954 -2.4166 -2.1241 0.9412
14.9717 -1.0865 -2.1269 0.9412
15.0205 0.2557 -2.1286 0.9411
14.9410 1.5970 -2.1290 0.9411
14.4014 4.2257 -2.1266 0.9412
13.9470 5.4879 -2.1236 0.9412
12.3542 6.1878 -1.9577 0.9457
10.9974 8.2440 -1.9474 0.9460
9.2885 9.9985 -1.9337 0.9464
8.3235 10.7439 -1.9257 0.9466
4.6301 11.2402 -1.7224 0.9521
2.4175 11.2419 -1.6293 0.9546
1.3825 11.2427 -1.6050 0.9553
-1.7946 12.2008 -1.7473 0.9514
-2.9265 12.1960 -1.7771 0.9506
-6.1217 11.1027 -1.7964 0.9501
-3.9486 5.8547 -1.0006 0.9719
-5.0328 6.1878 -1.1301 0.9683
-5.8900 6.0465 -1.1960 0.9665
-7.1612 5.1079 -1.2463 0.9651
-10.6637 6.2497 -1.7513 0.9513
-12.8274 3.4360 -1.8816 0.9478
-13.0612 2.2724 -1.8784 0.9478
-13.2314 -0.0882 -1.8748 0.9479
-13.1672 -1.2697 -1.8743 0.9480
-12.3849 -4.7258 -1.8782 0.9479
-11.7841 -5.7504 -1.8579 0.9484
-7.0420 -6.2060 -1.3300 0.9628
-7.6134 -8.0272 -1.5676 0.9563
-6.9451 -8.7756 -1.5857 0.9558
-1.8348 -13.7449 -1.9648 0.9455
1.0094 -7.3935 -1.0573 0.9703
3.1664 -13.8250 -2.0096 0.9443
2.8534 -8.7683 -1.3065 0.9634
5.6395 -13.1884 -2.0323 0.9437
6.8325 -12.7010 -2.0435 0.9434
10.1084 -10.5942 -2.0747 0.9426
10.2618 -8.9894 -1.9330 0.9464
10.8009 -7.8740 -1.8939 0.9474
11.4169 -6.8509 -1.8865 0.9476
12.4181 -6.0140 -1.9550 0.9458
14.7367 -2.7214 -2.1233 0.9413
14.9422 -1.3959 -2.1264 0.9412
15.0206 -0.0553 -2.1283 0.9411
14.9708 1.2874 -2.1290 0.9411
14.0628 5.1999 -2.1244 0.9412
12.4857 5.9336 -1.9587 0.9457
10.3787 8.9575 -1.9425 0.9461
9.5021 9.8130 -1.9354 0.9463
8.5526 10.5797 -1.9276 0.9465
7.5398 11.2518 -1.9191 0.9468
4.9046 11.2400 -1.7376 0.9517
12.0908 -4.0085 -2.0984 0.9497
12.6534 -1.7987 -2.1055 0.9495
12.7915 0.4828 -2.1088 0.9494
10.0756 5.3102 -1.8763 0.9549
9.8631 6.3849 -1.9356 0.9535
6.0319 9.8611 -1.9043 0.9542
5.1055 10.3176 -1.8964 0.9544
4.1450 10.6856 -1.8881 0.9546
0.1370 11.2434 -1.8524 0.9554
-0.8640 11.1578 -1.8436 0.9556
-1.8484 10.9822 -1.8346 0.9559
-2.8086 10.7211 -1.8258 0.9561
-4.6283 9.9565 -1.8088 0.9565
-5.4749 9.4609 -1.8007 0.9567
-3.9248 5.5672 -1.1221 0.9728
-5.6123 5.5277 -1.2977 0.9686
-8.8609 6.0475 -1.7673 0.9574
-9.3391 5.2167 -1.7623 0.9576
-10.5097 4.6927 -1.8961 0.9544
-11.3604 1.7350 -1.8932 0.9545
-11.4707 -0.3141 -1.8904 0.9545
-11.3953 -1.3375 -1.8901 0.9546
-10.9862 -3.3475 -1.8920 0.9545
-9.1101 -5.7645 -1.7760 0.9572
-8.5141 -6.5212 -1.7668 0.9575
-6.2129 -9.9247 -1.9289 0.9536
-2.3828 -11.6672 -1.9617 0.9529
-0.2709 -12.0181 -1.9804 0.9524
1.1553 -7.3269 -1.2219 0.9704
2.9690 -11.8318 -2.0096 0.9518
4.0338 -11.5753 -2.0194 0.9515
7.3982 -8.9061 -1.9074 0.9541
6.1665 -6.2006 -1.4406 0.9652
10.1958 -5.8345 -1.9352 0.9535
11.5433 -5.2982 -2.0924 0.9498
11.9992 -4.2559 -2.0974 0.9497
12.7295 1.3606 -2.1090 0.9494
12.2719 3.6009 -2.1069 0.9495
10.5325 5.2754 -1.9406 0.9534
9.9985 6.1826 -1.9366 0.9535
8.6923 7.8218 -1.9264 0.9537
7.9332 8.5397 -1.9202 0.9538
6.2405 9.7431 -1.9061 0.9542
5.3232 10.2198 -1.8983 0.9544
4.3699 10.6084 -1.8901 0.9546
2.3900 11.1141 -1.8728 0.9550
0.3702 11.2528 -1.8548 0.9554
-0.6335 11.1860 -1.8457 0.9556
-2.5889 10.7890 -1.8278 0.9560
-4.4258 10.0608 -1.8107 0.9564
-5.2832 9.5819 -1.8026 0.9566
-3.9503 5.8572 -1.1639 0.9718
-8.1746 7.0128 -1.7743 0.9573
-7.1632 5.1093 -1.4495 0.9650
-9.2349 5.4123 -1.7634 0.9575
-10.8293 3.9676 -1.9000 0.9543
-11.1200 2.9787 -1.8965 0.9544
-11.4440 0.9497 -1.8918 0.9545
-11.4758 -0.0765 -1.8906 0.9545
-10.7390 -4.0978 -1.8936 0.9545
-9.5246 -5.7541 -1.8332 0.9559
-5.9465 -9.0759 -1.7875 0.9570
-5.5326 -10.3587 -1.9346 0.9535
-1.5812 -11.8457 -1.9688 0.9527
-0.3785 -8.7482 -1.4425 0.9651
2.8530 -8.7670 -1.5188 0.9633
5.8560 -10.8858 -2.0363 0.9511
7.2052 -9.0485 -1.9055 0.9542
8.0178 -8.4031 -1.9134 0.9540
9.4552 -6.8930 -1.9276 0.9537
11.4242 -5.5326 -2.0911 0.9498
12.5604 -2.3195 -2.1042 0.9495
12.7328 -1.1895 -2.1067 0.9495
12.7980 -0.0471 -2.1083 0.9494
12.7549 1.0968 -2.1090 0.9494
10.1295 5.9773 -1.9376 0.9534
9.5324 6.8422 -1.9330 0.9535
6.4468 9.6206 -1.9078 0.9541
5.5390 10.1172 -1.9001 0.9543
4.5932 10.5264 -1.8920 0.9545
10.5286 -3.4906 -2.0849 0.9559
11.0138 -1.5656 -2.0910 0.9557
11.1194 -0.5758 -2.0928 0.9557
11.1317 0.4201 -2.0938 0.9557
10.2579 4.2836 -2.0894 0.9558
9.0697 4.7801 -1.9270 0.9591
8.5903 5.5609 -1.9234 0.9592
8.0412 6.2921 -1.9191 0.9593
7.4279 6.9676 -1.9143 0.9594
6.7563 7.5816 -1.9088 0.9595
6.0328 8.1293 -1.9028 0.9596
5.2645 8.6065 -1.8963 0.9598
4.4582 9.0096 -1.8894 0.9599
3.6216 9.3362 -1.8822 0.9601
-0.7571 9.7778 -1.8433 0.9609
-1.6208 9.6297 -1.8355 0.9610
-2.4642 9.4064 -1.8277 0.9612
-3.8707 5.4904 -1.2627 0.9730
-5.1422 6.0615 -1.4941 0.9682
-7.2394 5.9547 -1.7619 0.9626
-7.8050 5.3268 -1.7761 0.9623
-8.4637 4.7277 -1.8222 0.9613
-9.6133 3.2980 -1.9103 0.9595
-10.1074 0.6284 -1.9035 0.9596
-10.1183 -0.2770 -1.9025 0.9596
-10.0519 -1.1798 -1.9023 0.9596
-9.9088 -2.0737 -1.9028 0.9596
-9.6899 -2.9525 -1.9040 0.9596
-9.3965 -3.8102 -1.9059 0.9596
-9.0305 -4.6406 -1.9084 0.9595
-8.5942 -5.4380 -1.9116 0.9595
-6.3924 -7.0255 -1.7853 0.9621
-4.7599 -6.2772 -1.4807 0.9684
-5.0707 -8.1002 -1.7962 0.9619
-2.9878 -9.9784 -1.9578 0.9585
-2.0926 -10.2460 -1.9656 0.9583
-0.2376 -10.5419 -1.9820 0.9580
1.1504 -7.2956 -1.3882 0.9704
2.5996 -10.3597 -2.0076 0.9575
6.1681 -6.2022 -1.6441 0.9650
9.5797 -5.4820 -2.0746 0.9561
10.4496 -3.7062 -2.0840 0.9559
10.9762 -1.7928 -2.0904 0.9557
11.0776 1.1841 -2.0940 0.9557
10.9249 2.1686 -2.0935 0.9557
10.6807 3.1340 -2.0922 0.9557
8.7076 5.3844 -1.9243 0.9592
7.5752 6.8166 -1.9154 0.9594
6.9165 7.4453 -1.9101 0.9595
6.2045 8.0087 -1.9042 0.9596
5.4459 8.5025 -1.8979 0.9597
2.0903 9.7205 -1.8688 0.9603
1.2084 9.8271 -1.8610 0.9605
0.3242 9.8537 -1.8531 0.9607
-0.5551 9.8011 -1.8452 0.9608
-3.0947 9.1854 -1.8218 0.9613
-3.8871 8.8360 -1.8144 0.9615
-4.6426 8.4201 -1.8073 0.9616
-7.1971 6.1741 -1.7823 0.9621
-7.1652 5.1107 -1.6543 0.9648
-8.1365 4.7686 -1.7727 0.9623
-9.8052 2.6265 -1.9080 0.9595
-9.9879 1.7377 -1.9055 0.9596
-10.0938 0.8376 -1.9038 0.9596
-10.1226 -0.0675 -1.9027 0.9596
-9.9487 -1.8679 -1.9026 0.9596
-9.4709 -3.6139 -1.9054 0.9596
-7.8440 -5.7543 -1.8286 0.9612
-4.5139 -8.4514 -1.8009 0.9618
-3.6987 -8.7216 -1.7806 0.9622
-2.0252 -6.2869 -1.2415 0.9735
-0.3785 -8.7484 -1.6459 0.9650
0.4889 -10.5679 -1.9885 0.9579
0.9973 -7.3044 -1.3857 0.9704
2.3822 -10.4010 -2.0056 0.9575
4.7477 -8.8256 -1.8837 0.9600
6.2913 -7.9008 -1.8983 0.9597
7.6501 -6.7014 -1.9116 0.9595
8.2438 -6.0098 -1.9175 0.9593
9.4584 -5.6757 -2.0733 0.9561
10.3659 -3.9200 -2.0830 0.9559
11.1376 -0.0410 -2.0935 0.9557
10.7453 2.9127 -2.0926 0.9557
9.9978 4.7513 -2.0806 0.9559
7.7193 6.6623 -1.9166 0.9593
5.6252 8.3946 -1.8994 0.9597
9.3149 -3.0882 -2.0744 0.9607
9.5674 -2.2469 -2.0774 0.9606
9.8332 -0.5092 -2.0813 0.9605
9.8435 0.3715 -2.0822 0.9605
9.7717 1.2496 -2.0824 0.9605
9.6182 2.1170 -2.0818 0.9605
9.0730 3.7889 -2.0784 0.9606
8.6666 4.5677 -2.0708 0.9607
7.6104 4.9266 -1.9163 0.9636
7.1170 5.5690 -1.9102 0.9637
5.9835 6.7144 -1.9011 0.9639
2.4510 8.5052 -1.8710 0.9645
1.6752 8.6585 -1.8642 0.9646
0.1066 8.7522 -1.8502 0.9648
-0.6732 8.6935 -1.8431 0.9650
-2.1930 8.3712 -1.8292 0.9652
-2.9213 8.1116 -1.8224 0.9654
-3.6212 7.7900 -1.8159 0.9655
-4.2878 7.4094 -1.8095 0.9656
-4.9162 6.9734 -1.8035 0.9657
-5.1422 6.0615 -1.6802 0.9680
-7.9436 4.4372 -1.9233 0.9635
-8.3043 3.7080 -1.9224 0.9635
-8.8047 2.1642 -1.9165 0.9636
-8.9532 1.3674 -1.9145 0.9636
-9.0328 0.5616 -1.9130 0.9637
-8.8557 -1.8533 -1.9125 0.9637
-8.6594 -2.6386 -1.9135 0.9637
-8.0682 -4.1461 -1.9175 0.9636
-7.6770 -4.8577 -1.9203 0.9635
-6.2683 -5.7591 -1.7993 0.9658
-5.7059 -6.2711 -1.7922 0.9659
-3.1894 -6.2811 -1.4891 0.9716
-2.4690 -8.2457 -1.8194 0.9654
-0.9689 -8.6152 -1.8326 0.9652
-0.1961 -8.6997 -1.8394 0.9650
0.5842 -8.7154 -1.8464 0.9649
0.9893 -6.2741 -1.3426 0.9744
2.1423 -8.5372 -1.8605 0.9647
2.9074 -8.3431 -1.8676 0.9645
2.8043 -6.1998 -1.4383 0.9726
4.3778 -7.7490 -1.8813 0.9643
5.7259 -6.8929 -1.8942 0.9640
6.1498 -6.1838 -1.8435 0.9650
8.8990 -4.0845 -2.0697 0.9608
9.5159 -2.4437 -2.0767 0.9606
9.7078 -1.5857 -2.0792 0.9606
9.8191 -0.7126 -2.0810 0.9605
9.7956 1.0470 -2.0824 0.9605
9.4456 2.7716 -2.0808 0.9606
9.1519 3.6011 -2.0789 0.9606
8.7752 4.3952 -2.0746 0.9607
6.7060 6.0344 -1.9069 0.9638
4.8261 7.5349 -1.8914 0.9641
4.1205 7.9108 -1.8854 0.9642
3.3859 8.2197 -1.8791 0.9643
0.2881 8.7558 -1.8518 0.9648
-1.2652 8.6014 -1.8377 0.9651
-5.0384 6.1947 -1.6879 0.9679
-5.9211 6.0784 -1.7937 0.9659
-6.4225 5.5097 -1.7887 0.9660
-7.8433 4.5967 -1.9217 0.9635
-8.5282 3.1245 -1.9199 0.9635
-8.7605 2.3467 -1.9171 0.9636
-8.9250 1.5528 -1.9149 0.9636
-9.0206 0.7486 -1.9133 0.9637
-9.0468 -0.0603 -1.9124 0.9637
-8.8914 -1.6694 -1.9123 0.9637
-8.7108 -2.4583 -1.9132 0.9637
-7.3350 -5.3809 -1.9229 0.9635
-5.8312 -6.1481 -1.7912 0.9659
-5.2720 -6.6614 -1.7957 0.9659
-4.6687 -7.1256 -1.8007 0.9658
-1.9017 -8.4186 -1.8244 0.9653
-0.2715 -6.2751 -1.3277 0.9746
0.4033 -8.7180 -1.8448 0.9649
2.7317 -8.3942 -1.8660 0.9646
3.4837 -8.1469 -1.8729 0.9644
4.2130 -7.8315 -1.8798 0.9643
4.9131 -7.4499 -1.8864 0.9642
5.5778 -7.0047 -1.8927 0.9641
6.7771 -5.9367 -1.9045 0.9638
7.8296 -5.7078 -2.0481 0.9612
9.4602 -2.6393 -2.0761 0.9606
9.8006 -0.9155 -2.0807 0.9606
9.8490 -0.0363 -2.0819 0.9605
9.8151 0.8440 -2.0824 0.9605
9.6993 1.7174 -2.0821 0.9605
9.5025 2.5759 -2.0811 0.9605
8.0660 4.7597 -1.9797 0.9624
6.8332 5.8975 -1.9080 0.9638
5.6457 6.9838 -1.8983 0.9640
8.3438 -2.7662 -2.0659 0.9645
8.5687 -2.0123 -2.0686 0.9645
8.7230 -1.2400 -2.0707 0.9644
8.7494 1.1189 -2.0731 0.9644
8.1255 3.3932 -2.0695 0.9645
6.3770 4.9900 -1.9031 0.9673
4.7928 6.4583 -1.8902 0.9675
4.1853 6.8422 -1.8851 0.9676
2.8836 7.4336 -1.8739 0.9678
1.5048 7.7777 -1.8618 0.9680
0.8012 7.8546 -1.8556 0.9681
0.0959 7.8679 -1.8493 0.9682
-1.2970 7.7064 -1.8366 0.9684
-2.6301 7.3032 -1.8243 0.9686
-3.2615 7.0161 -1.8184 0.9687
-3.8631 6.6757 -1.8127 0.9688
-7.4958 3.3470 -1.9293 0.9668
-7.7531 2.6598 -1.9264 0.9669
-8.0848 1.2348 -1.9221 0.9670
-8.1134 -0.9523 -1.9199 0.9670
-7.9975 -1.6737 -1.9203 0.9670
-7.5817 -3.0743 -1.9228 0.9669
-6.9303 -4.3852 -1.9275 0.9669
-2.8701 -7.1777 -1.8168 0.9687
-2.2242 -7.4281 -1.8224 0.9686
-1.2854 -6.2938 -1.5097 0.9740
0.5255 -7.8398 -1.8467 0.9682
1.1436 -7.2526 -1.7256 0.9703
5.7051 -5.7366 -1.9015 0.9673
6.6735 -5.6061 -2.0484 0.9648
7.1650 -4.9995 -2.0534 0.9647
7.9731 -3.6595 -2.0618 0.9646
8.5229 -2.1887 -2.0681 0.9645
8.6937 -1.4200 -2.0703 0.9645
8.7925 -0.6381 -2.0719 0.9644
8.8183 0.1501 -2.0728 0.9644
8.6504 1.7171 -2.0727 0.9644
8.4582 2.4818 -2.0717 0.9644
7.8662 3.9399 -2.0677 0.9645
7.4522 4.6081 -2.0592 0.9646
6.0099 5.4080 -1.9001 0.9673
3.6971 7.0979 -1.8809 0.9677
3.0390 7.3776 -1.8752 0.9677
1.6668 7.7509 -1.8633 0.9679
0.2589 7.8705 -1.8508 0.9682
-1.1381 7.7377 -1.8381 0.9684
-1.8187 7.5792 -1.8319 0.9685
-2.4803 7.3617 -1.8257 0.9686
-3.1178 7.0874 -1.8198 0.9687
-3.7268 6.7590 -1.8140 0.9688
-6.6150 4.7183 -1.9096 0.9672
-7.0982 4.1600 -1.9336 0.9668
-7.4278 3.5028 -1.9301 0.9668
-7.6989 2.8207 -1.9270 0.9669
-7.9098 2.1188 -1.9245 0.9669
-8.0591 1.4022 -1.9225 0.9669
-8.1461 0.6760 -1.9211 0.9670
-8.1314 -0.7841 -1.9199 0.9670
-8.0299 -1.5077 -1.9202 0.9670
-7.6421 -2.9161 -1.9224 0.9669
-7.3585 -3.5908 -1.9243 0.9669
-7.0172 -4.2394 -1.9268 0.9669
-6.1715 -5.4389 -1.9333 0.9668
-5.4511 -5.7473 -1.8617 0.9680
-4.7554 -6.0087 -1.8009 0.9690
-3.0160 -7.1119 -1.8155 0.9688
-1.0318 -7.7298 -1.8328 0.9685
2.0419 -6.2746 -1.5508 0.9733
3.1292 -7.3178 -1.8705 0.9678
3.7828 -7.0319 -1.8766 0.9677
4.4098 -6.6869 -1.8825 0.9676
5.0047 -6.2851 -1.8882 0.9675
5.5621 -5.8295 -1.8937 0.9674
7.8923 -3.8222 -2.0609 0.9646
8.2163 -3.1071 -2.0645 0.9645
8.7761 -0.8198 -2.0716 0.9644
8.7884 0.7557 -2.0731 0.9644
8.2627 3.0553 -2.0704 0.9644
7.5582 4.4600 -2.0626 0.9646
6.6390 4.7654 -1.9207 0.9670
5.6147 5.7984 -1.8969 0.9674
5.0620 6.2618 -1.8924 0.9675
2.5189 7.5507 -1.8707 0.9678
7.8898 -1.1215 -2.0633 0.9676
7.9634 -0.4124 -2.0646 0.9676
7.9712 0.3009 -2.0654 0.9676
7.7890 1.7144 -2.0650 0.9676
7.6007 2.4022 -2.0639 0.9676
7.3498 3.0692 -2.0623 0.9676
7.0386 3.7096 -2.0600 0.9677
6.6687 4.3170 -2.0568 0.9677
2.5355 5.1241 -1.4802 0.9767
1.9951 6.9232 -1.8655 0.9707
0.0870 7.1390 -1.8486 0.9709
-0.5495 7.0961 -1.8428 0.9710
-1.1776 6.9968 -1.8371 0.9711
-2.3894 6.6348 -1.8259 0.9713
-2.9639 6.3760 -1.8205 0.9714
-4.0287 5.7146 -1.8104 0.9715
-4.9565 4.8818 -1.8013 0.9717
-5.7370 4.7190 -1.9234 0.9698
-6.1945 4.2277 -1.9418 0.9695
-6.5354 3.6506 -1.9382 0.9695
-7.0595 2.4219 -1.9324 0.9696
-7.3630 1.1245 -1.9285 0.9697
-7.4295 0.4619 -1.9273 0.9697
-7.4384 -0.2037 -1.9267 0.9697
-7.3898 -0.8674 -1.9265 0.9697
-6.9046 -2.7998 -1.9291 0.9697
-6.6334 -3.4088 -1.9310 0.9697
-6.3100 -3.9927 -1.9334 0.9696
-5.5162 -5.0681 -1.9395 0.9695
-4.3570 -5.7459 -1.8671 0.9706
-3.7101 -5.9266 -1.8104 0.9715
-3.1736 -6.2500 -1.8149 0.9715
-2.0216 -6.7516 -1.8248 0.9713
-1.4144 -6.9252 -1.8301 0.9712
-0.7923 -7.0449 -1.8356 0.9711
0.4771 -7.1171 -1.8469 0.9710
1.7469 -6.9618 -1.8584 0.9708
3.5626 -6.3060 -1.8753 0.9705
6.0423 -5.0759 -2.0432 0.9679
7.2145 -3.3113 -2.0553 0.9677
7.8634 -1.2844 -2.0630 0.9676
7.4133 2.9170 -2.0627 0.9676
7.1159 3.5641 -2.0606 0.9677
6.7603 4.1803 -2.0580 0.9677
6.3241 4.7408 -2.0464 0.9679
2.1394 6.8850 -1.8667 0.9706
0.8747 7.1132 -1.8556 0.9708
0.2349 7.1408 -1.8499 0.9709
-0.4028 7.1111 -1.8441 0.9710
-2.2531 6.6875 -1.8272 0.9713
-2.8332 6.4403 -1.8217 0.9713
-4.4030 5.4135 -1.8067 0.9716
-6.1039 4.3537 -1.9412 0.9695
-6.7622 3.1889 -1.9358 0.9696
-7.0100 2.5683 -1.9330 0.9696
-7.2028 1.9294 -1.9307 0.9697
-7.3137 -1.3732 -1.9267 0.9697
-6.7008 -3.2699 -1.9305 0.9697
-6.0275 -4.4217 -1.9355 0.9696
-5.6176 -4.9507 -1.9387 0.9695
-5.1625 -5.4431 -1.9424 0.9695
-4.5433 -5.7407 -1.8955 0.9702
-2.7423 -6.4663 -1.8186 0.9714
-2.0294 -6.3000 -1.7137 0.9730
-1.5564 -6.8898 -1.8288 0.9712
-0.9374 -7.0221 -1.8343 0.9712
-0.3072 -7.0993 -1.8399 0.9711
1.6013 -6.9914 -1.8571 0.9708
3.9962 -6.0596 -1.8794 0.9705
6.3876 -4.6566 -2.0467 0.9679
6.7919 -4.0756 -2.0508 0.9678
7.1417 -3.4587 -2.0545 0.9677
7.4337 -2.8111 -2.0577 0.9677
7.6651 -2.1385 -2.0604 0.9677
7.9758 -0.0294 -2.0651 0.9676
7.9480 0.6835 -2.0655 0.9676
7.6958 2.0861 -2.0645 0.9676
7.1900 3.4169 -2.0611 0.9676
5.5418 4.7829 -1.8954 0.9702
4.5831 5.6694 -1.8876 0.9703
4.0487 6.0419 -1.8831 0.9704
3.4838 6.3633 -1.8783 0.9705
2.2596 5.1784 -1.4629 0.9769
2.2830 6.8438 -1.8680 0.9706
6.8845 -2.2825 -2.0533 0.9703
7.0685 -1.6600 -2.0555 0.9703
7.1945 -1.0227 -2.0572 0.9702
7.2613 -0.3760 -2.0584 0.9702
6.4193 3.3832 -2.0542 0.9703
6.0839 3.9384 -2.0517 0.9703
5.6915 4.4535 -2.0459 0.9704
4.4313 4.9727 -1.8856 0.9727
3.4607 5.6576 -1.8775 0.9728
2.5297 5.1123 -1.6147 0.9766
2.3868 6.1529 -1.8683 0.9729
1.8227 6.3249 -1.8634 0.9730
0.6643 6.5124 -1.8532 0.9732
-1.0773 6.4006 -1.8374 0.9734
-2.7134 5.8371 -1.8223 0.9736
-3.6900 5.2342 -1.8130 0.9737
-4.7980 4.7256 -1.9065 0.9724
-5.3145 4.3714 -1.9481 0.9718
-5.9915 3.3468 -1.9428 0.9719
-6.6393 1.6319 -1.9355 0.9720
-6.7531 1.0314 -1.9339 0.9720
-6.8143 0.4237 -1.9328 0.9720
-6.8227 -0.1868 -1.9322 0.9720
-6.7783 -0.7956 -1.9320 0.9720
-6.5323 -1.9904 -1.9332 0.9720
-6.3325 -2.5678 -1.9345 0.9720
-6.0832 -3.1261 -1.9362 0.9720
-4.6297 -5.0882 -1.9475 0.9718
-2.9212 -5.7528 -1.8265 0.9735
-1.2947 -6.3394 -1.8317 0.9735
-0.7251 -6.4473 -1.8367 0.9734
-0.1466 -6.5044 -1.8418 0.9733
0.4364 -6.5099 -1.8471 0.9732
1.5971 -6.3645 -1.8576 0.9731
5.5146 -4.6326 -2.0389 0.9705
5.9182 -4.1296 -2.0430 0.9704
6.5810 -3.0206 -2.0499 0.9703
7.0310 -1.8056 -2.0550 0.9703
7.2512 -0.5262 -2.0581 0.9702
6.9756 2.0468 -2.0580 0.9702
6.4896 3.2504 -2.0547 0.9703
6.1660 3.8128 -2.0523 0.9703
5.2721 4.7441 -2.0078 0.9709
4.5354 4.8821 -1.8864 0.9727
4.0728 5.2571 -1.8826 0.9727
2.2356 5.4273 -1.6617 0.9759
-0.3683 6.5030 -1.8439 0.9733
-2.0621 6.1205 -1.8284 0.9735
-2.5936 5.8957 -1.8234 0.9736
-3.1018 5.6255 -1.8186 0.9736
-4.0335 4.9591 -1.8096 0.9738
-5.2205 4.4785 -1.9472 0.9718
-5.5990 3.9936 -1.9469 0.9718
-5.9231 3.4714 -1.9435 0.9719
-6.6055 1.7694 -1.9359 0.9720
-6.7314 1.1711 -1.9342 0.9720
-6.8049 0.5647 -1.9330 0.9720
-6.7083 -1.2595 -1.9323 0.9720
-6.5713 -1.8545 -1.9330 0.9720
-6.1452 -2.9988 -1.9357 0.9720
-4.2755 -5.4023 -1.9504 0.9718
-2.5116 -5.9224 -1.8211 0.9736
-1.9774 -6.1386 -1.8257 0.9735
-0.8579 -6.4268 -1.8355 0.9734
-0.2810 -6.4958 -1.8406 0.9733
0.3013 -6.5133 -1.8458 0.9733
3.7780 -5.7288 -1.9427 0.9719
4.4637 -5.6057 -2.0286 0.9706
4.9584 -5.1967 -2.0334 0.9706
6.1967 -3.7184 -2.0458 0.9704
7.2378 -0.6761 -2.0579 0.9702
7.2470 0.6232 -2.0591 0.9702
7.1617 1.2681 -2.0590 0.9702
7.0173 1.9022 -2.0582 0.9702
6.8151 2.5200 -2.0570 0.9702
5.8832 4.2229 -2.0501 0.9703
5.4543 4.7074 -2.0396 0.9705
4.1828 5.1742 -1.8835 0.9727
2.2473 5.1501 -1.5907 0.9769
6.4898 -1.5241 -2.0504 0.9725
6.6721 0.2518 -2.0537 0.9724
6.5198 1.4351 -2.0533 0.9724
6.3627 2.0110 -2.0525 0.9725
5.8940 3.1064 -2.0492 0.9725
4.2326 4.7497 -1.9568 0.9737
3.6394 4.9042 -1.8784 0.9748
3.1802 5.1991 -1.8746 0.9748
1.6760 5.8158 -1.8616 0.9750
1.1468 5.9275 -1.8570 0.9751
0.6111 5.9909 -1.8522 0.9751
0.0732 6.0059 -1.8474 0.9752
-0.9917 5.8921 -1.8378 0.9753
-2.4995 5.3769 -1.8238 0.9755
-3.4004 4.8234 -1.8152 0.9756
-4.0113 4.7284 -1.9072 0.9744
-5.2360 3.5735 -1.9498 0.9738
-5.5257 3.0866 -1.9468 0.9739
-5.7715 2.5770 -1.9441 0.9739
-6.2303 0.9515 -1.9385 0.9740
-6.2950 -0.1724 -1.9369 0.9740
-6.1644 -1.2901 -1.9371 0.9740
-6.0268 -1.8364 -1.9379 0.9740
-5.6118 -2.8838 -1.9406 0.9739
-3.3785 -5.3970 -1.9584 0.9737
0.4017 -5.9922 -1.8472 0.9752
2.0013 -5.7428 -1.8705 0.9749
2.5922 -5.7308 -1.9346 0.9740
3.2262 -5.7106 -2.0174 0.9729
4.6566 -4.6823 -2.0311 0.9727
5.0664 -4.2561 -2.0352 0.9727
5.7631 -3.2979 -2.0423 0.9726
6.0435 -2.7739 -2.0453 0.9726
6.2750 -2.2256 -2.0479 0.9725
6.5831 -1.0753 -2.0517 0.9725
6.6394 0.7097 -2.0538 0.9724
6.5485 1.2999 -2.0535 0.9724
6.2065 2.4421 -2.0514 0.9725
4.4070 4.7439 -1.9916 0.9733
3.2888 5.1346 -1.8755 0.9748
2.8108 5.3962 -1.8714 0.9749
1.7971 5.7832 -1.8627 0.9750
1.2700 5.9059 -1.8581 0.9750
0.7354 5.9805 -1.8533 0.9751
0.1976 6.0067 -1.8485 0.9752
-0.3390 5.9846 -1.8437 0.9752
-0.8700 5.9149 -1.8389 0.9753
-1.3914 5.7984 -1.8341 0.9754
-1.8990 5.6364 -1.8294 0.9754
-2.3890 5.4306 -1.8248 0.9755
-4.4310 4.5487 -1.9532 0.9738
-4.8218 4.1364 -1.9540 0.9738
-5.1629 3.6826 -1.9506 0.9738
-5.4625 3.2014 -1.9474 0.9739
-5.7186 2.6968 -1.9447 0.9739
-5.9295 2.1724 -1.9423 0.9739
-6.0937 1.6323 -1.9404 0.9739
-6.2783 0.5210 -1.9377 0.9740
-6.2976 -0.0420 -1.9370 0.9740
-6.2679 -0.6044 -1.9368 0.9740
-6.1894 -1.1621 -1.9370 0.9740
-6.0629 -1.7110 -1.9376 0.9740
-5.8890 -2.2471 -1.9387 0.9740
-5.4046 -3.2651 -1.9422 0.9739
-4.3635 -4.6006 -1.9503 0.9738
-3.0045 -5.6254 -1.9616 0.9737
-1.3124 -5.8098 -1.8320 0.9754
-0.2588 -5.9808 -1.8413 0.9753
0.2773 -5.9956 -1.8461 0.9752
1.8720 -5.7523 -1.8606 0.9750
2.4519 -5.7339 -1.9181 0.9742
4.5565 -4.7754 -2.0302 0.9728
5.3545 -3.9035 -2.0381 0.9727
5.6915 -3.4153 -2.0416 0.9726
5.9829 -2.8975 -2.0446 0.9726
6.6446 -0.6207 -2.0526 0.9725
6.6761 -0.0246 -2.0534 0.9724
6.4420 1.7462 -2.0529 0.9725
5.7347 3.3840 -2.0481 0.9725
5.4027 3.8780 -2.0455 0.9726
4.5876 4.7377 -2.0284 0.9728
3.8516 4.7645 -1.8844 0.9747
3.3960 5.0679 -1.8764 0.9748
2.9234 5.3396 -1.8724 0.9748
2.2378 5.1285 -1.7211 0.9769
1.9175 5.7480 -1.8637 0.9750
5.8373 -1.9353 -2.0442 0.9744
6.1599 0.2325 -2.0490 0.9744
6.1147 0.7820 -2.0491 0.9743
5.1590 3.3397 -2.0428 0.9744
4.8341 3.7826 -2.0403 0.9745
4.4704 4.1934 -2.0374 0.9745
1.0605 5.4813 -1.8558 0.9767
-0.4279 5.5263 -1.8425 0.9769
-0.9177 5.4528 -1.8380 0.9770
-1.8646 5.1776 -1.8293 0.9771
-4.2001 4.1368 -1.9596 0.9755
-4.5449 3.7384 -1.9562 0.9755
-4.8529 3.3120 -1.9530 0.9755
-5.1220 2.8611 -1.9502 0.9756
-5.5364 1.8993 -1.9456 0.9756
-5.6789 1.3959 -1.9439 0.9757
-5.8372 -0.1598 -1.9411 0.9757
-5.7992 -0.6807 -1.9409 0.9757
-5.7161 -1.1963 -1.9412 0.9757
-5.2030 -2.6737 -1.9445 0.9756
-4.9481 -3.1309 -1.9464 0.9756
-4.3226 -3.9714 -1.9512 0.9756
-3.5581 -4.6922 -1.9574 0.9755
-3.1303 -5.0004 -1.9610 0.9754
-2.6762 -5.2704 -1.9648 0.9754
-2.1992 -5.4998 -1.9689 0.9753
-1.7027 -5.6867 -1.9732 0.9753
-1.1704 -5.7305 -1.9442 0.9756
-0.6450 -5.7350 -1.9184 0.9760
-0.1293 -5.7368 -1.9074 0.9761
0.3845 -5.7360 -1.9110 0.9761
1.9862 -5.6995 -2.0063 0.9749
3.4499 -5.0028 -2.0200 0.9747
4.3027 -4.3265 -2.0283 0.9746
5.0218 -3.5041 -2.0355 0.9745
5.7946 -2.0552 -2.0437 0.9744
5.9607 -1.5307 -2.0457 0.9744
6.0782 -0.9928 -2.0472 0.9744
6.1459 -0.4460 -2.0483 0.9744
6.1631 0.1049 -2.0490 0.9744
6.1297 0.6552 -2.0491 0.9743
6.0459 1.2001 -2.0489 0.9744
5.9124 1.7348 -2.0482 0.9744
5.2284 3.2330 -2.0434 0.9744
4.1599 4.4779 -2.0317 0.9746
3.6728 4.7408 -1.9935 0.9750
2.5977 4.9871 -1.8691 0.9766
2.1372 5.1883 -1.8652 0.9766
1.6614 5.3466 -1.8611 0.9767
1.1744 5.4611 -1.8568 0.9767
0.6801 5.5311 -1.8524 0.9768
0.1828 5.5564 -1.8480 0.9768
-0.3136 5.5371 -1.8435 0.9769
-0.8051 5.4737 -1.8391 0.9769
-1.2878 5.3669 -1.8346 0.9770
-2.2120 5.0283 -1.8260 0.9771
-2.6465 4.7998 -1.8219 0.9772
-3.7190 4.5725 -1.9592 0.9755
-4.1153 4.2247 -1.9604 0.9754
-4.7850 3.4130 -1.9537 0.9755
-5.3012 2.4999 -1.9483 0.9756
-5.8216 0.4831 -1.9418 0.9757
-5.8396 -0.0389 -1.9411 0.9757
-5.8121 -0.5605 -1.9409 0.9757
-5.7393 -1.0776 -1.9411 0.9757
-5.2562 -2.5649 -1.9441 0.9756
-5.0106 -3.0271 -1.9459 0.9756
-4.7254 -3.4665 -1.9481 0.9756
-4.0441 -4.2639 -1.9535 0.9755
-3.2317 -4.9324 -1.9602 0.9754
-2.3114 -5.4504 -1.9679 0.9754
-1.8191 -5.6473 -1.9722 0.9753
0.2654 -5.7364 -1.9089 0.9761
0.7828 -5.7335 -1.9235 0.9759
2.3774 -5.5596 -2.0099 0.9748
2.8712 -5.3372 -2.0145 0.9748
3.7917 -4.7617 -2.0233 0.9747
4.2104 -4.4127 -2.0274 0.9746
5.5254 -2.6759 -2.0407 0.9745
5.9266 -1.6535 -2.0453 0.9744
6.1636 -0.0227 -2.0488 0.9744
6.1419 0.5282 -2.0491 0.9743
5.9476 1.6122 -2.0484 0.9744
5.2955 3.1248 -2.0439 0.9744
4.9895 3.5814 -2.0415 0.9744
4.2563 4.3956 -2.0339 0.9745
3.8283 4.7357 -2.0242 0.9747
3.1869 4.7559 -1.9030 0.9762
2.7016 4.9346 -1.8700 0.9766
1.7726 5.3138 -1.8620 0.9767
5.4162 -1.7957 -2.0405 0.9761
5.5597 -1.3057 -2.0423 0.9760
5.7096 -0.2957 -2.0445 0.9760
5.6727 0.7254 -2.0451 0.9760
5.5843 1.2291 -2.0448 0.9760
5.2714 2.2013 -2.0428 0.9760
5.0497 2.6614 -2.0413 0.9760
4.7871 3.0989 -2.0393 0.9761
4.4860 3.5102 -2.0370 0.9761
4.1489 3.8919 -2.0343 0.9761
1.8837 4.8560 -1.8626 0.9781
1.4393 4.9945 -1.8588 0.9782
0.9852 5.0922 -1.8548 0.9782
0.5251 5.1485 -1.8507 0.9783
0.0629 5.1633 -1.8466 0.9783
-0.3978 5.1367 -1.8424 0.9784
-0.8532 5.0692 -1.8383 0.9784
-2.7342 4.7248 -1.9521 0.9771
-3.1668 4.4921 -1.9655 0.9769
-3.5555 4.1911 -1.9654 0.9769
-3.9088 3.8499 -1.9620 0.9770
-4.9814 2.2242 -1.9509 0.9771
-5.2880 1.2998 -1.9473 0.9771
-5.4289 0.3375 -1.9452 0.9772
-5.4360 -0.1488 -1.9447 0.9772
-5.3231 -1.1140 -1.9448 0.9772
-5.0442 -2.0454 -1.9465 0.9771
-4.6070 -2.9151 -1.9496 0.9771
-4.0240 -3.6971 -1.9542 0.9771
-3.6828 -4.0475 -1.9569 0.9770
-3.3115 -4.3671 -1.9599 0.9770
-2.9130 -4.6534 -1.9633 0.9769
-2.4901 -4.9040 -1.9668 0.9769
-1.1072 -5.4215 -1.9788 0.9768
-0.6198 -5.5106 -1.9831 0.9767
0.3725 -5.5577 -1.9919 0.9766
0.8695 -5.5146 -1.9964 0.9766
1.8454 -5.2954 -2.0054 0.9765
2.3161 -5.1205 -2.0098 0.9764
2.7702 -4.9035 -2.0140 0.9764
3.6131 -4.3495 -2.0221 0.9763
3.9946 -4.0167 -2.0258 0.9762
4.3449 -3.6500 -2.0293 0.9762
4.9399 -2.8269 -2.0353 0.9761
5.1792 -2.3772 -2.0379 0.9761
5.5305 -1.4202 -2.0419 0.9760
5.7018 -0.4138 -2.0443 0.9760
5.7176 0.0973 -2.0450 0.9760
5.6088 1.1133 -2.0449 0.9760
5.4851 1.6095 -2.0442 0.9760
5.3166 2.0920 -2.0431 0.9760
5.1047 2.5568 -2.0417 0.9760
4.8514 2.9999 -2.0398 0.9761
4.5590 3.4176 -2.0375 0.9761
4.2300 3.8063 -2.0349 0.9761
3.8674 4.1630 -2.0320 0.9762
3.4688 4.4774 -2.0255 0.9762
2.4746 4.7509 -1.9156 0.9775
1.9847 4.8182 -1.8635 0.9781
1.5431 4.9661 -1.8597 0.9782
0.6319 5.1392 -1.8516 0.9782
0.1699 5.1636 -1.8475 0.9783
-0.7484 5.0884 -1.8392 0.9784
-1.6348 4.8523 -1.8311 0.9785
-3.4694 4.2656 -1.9663 0.9769
-3.8298 3.9315 -1.9627 0.9770
-4.1588 3.5677 -1.9595 0.9770
-4.4541 3.1770 -1.9565 0.9770
-4.7136 2.7625 -1.9538 0.9771
-5.1183 1.8752 -1.9493 0.9771
-5.2608 1.4092 -1.9476 0.9771
-5.3620 0.9329 -1.9463 0.9771
-5.4212 0.4499 -1.9453 0.9772
-5.0847 -1.9402 -1.9462 0.9771
-4.8943 -2.3883 -1.9475 0.9771
-3.7645 -3.9691 -1.9562 0.9770
-3.4000 -4.2960 -1.9592 0.9770
-1.6922 -5.2533 -1.9737 0.9768
-1.2186 -5.3947 -1.9778 0.9768
-0.7334 -5.4938 -1.9821 0.9767
-0.2401 -5.5496 -1.9864 0.9767
0.2573 -5.5613 -1.9909 0.9766
0.7548 -5.5285 -1.9954 0.9766
2.6668 -4.9574 -2.0130 0.9764
3.1055 -4.7090 -2.0172 0.9763
3.5207 -4.4214 -2.0212 0.9763
4.8788 -2.9276 -2.0347 0.9761
5.3348 -2.0174 -2.0396 0.9761
5.4988 -1.5341 -2.0415 0.9760
5.6181 -1.0375 -2.0430 0.9760
5.6914 -0.5317 -2.0442 0.9760
5.7181 -0.0211 -2.0448 0.9760
5.6309 0.9970 -2.0450 0.9760
5.5178 1.4957 -2.0444 0.9760
5.3595 1.9818 -2.0434 0.9760
4.3092 3.7191 -2.0356 0.9761
3.9541 4.0835 -2.0327 0.9761
3.5642 4.4089 -2.0274 0.9762
3.1431 4.6904 -2.0191 0.9763
2.5993 4.7476 -1.9356 0.9773
2.0850 4.7783 -1.8644 0.9781
5.0463 -1.6730 -2.0373 0.9775
5.3235 0.2009 -2.0415 0.9774
5.2021 1.1450 -2.0413 0.9774
4.7047 2.4796 -2.0380 0.9775
4.4603 2.8874 -2.0362 0.9775
4.1801 3.2709 -2.0340 0.9775
3.5220 3.9523 -2.0287 0.9776
3.1500 4.2447 -2.0256 0.9776
1.8396 4.7423 -1.9493 0.9784
0.4899 4.8028 -1.8501 0.9795
0.0587 4.8173 -1.8462 0.9796
-0.7997 4.7516 -1.8465 0.9796
-1.2427 4.7439 -1.8793 0.9792
-2.1688 4.6656 -1.9717 0.9782
-2.5766 4.4526 -1.9714 0.9782
-2.9632 4.2032 -1.9708 0.9782
-3.3210 3.9147 -1.9673 0.9782
-3.6514 3.5964 -1.9640 0.9783
-3.9521 3.2508 -1.9610 0.9783
-4.4557 2.4889 -1.9558 0.9784
-4.8177 1.6528 -1.9518 0.9784
-2.2961 -0.0629 -0.8802 0.9902
-4.7145 -1.9117 -1.9496 0.9784
-4.5279 -2.3268 -1.9509 0.9784
-4.0489 -3.1012 -1.9545 0.9784
-3.0937 -4.0799 -1.9622 0.9783
-2.7211 -4.3468 -1.9653 0.9783
-1.4789 -4.9393 -1.9759 0.9782
-1.0338 -5.0616 -1.9798 0.9781
-0.1169 -5.1860 -1.9879 0.9780
0.3477 -5.1865 -1.9920 0.9780
0.8114 -5.1455 -1.9962 0.9779
1.2705 -5.0631 -2.0004 0.9779
1.7214 -4.9396 -2.0046 0.9778
2.5833 -4.5727 -2.0126 0.9778
4.0497 -3.4020 -2.0268 0.9776
4.8259 -2.2150 -2.0349 0.9775
5.1525 -1.3232 -2.0386 0.9775
5.2535 -0.8581 -2.0399 0.9775
5.3263 0.0907 -2.0414 0.9774
4.7559 2.3821 -2.0384 0.9775
4.5202 2.7951 -2.0366 0.9775
3.9418 3.5470 -2.0321 0.9775
3.6043 3.8798 -2.0294 0.9776
3.2384 4.1801 -2.0264 0.9776
2.4268 4.6591 -2.0132 0.9777
1.4757 4.7490 -1.9057 0.9789
-0.2720 4.8022 -1.8432 0.9796
-1.1388 4.7459 -1.8703 0.9793
-2.8767 4.2654 -1.9716 0.9782
-3.5775 3.6726 -1.9648 0.9783
-4.1616 2.9683 -1.9589 0.9783
-4.7834 1.7525 -1.9522 0.9784
-4.9168 1.3171 -1.9506 0.9784
-5.0116 0.8719 -1.9494 0.9784
-2.2891 -0.0153 -0.8773 0.9902
-2.3038 -0.2222 -0.8870 0.9901
-4.9957 -0.9380 -1.9479 0.9785
-4.8933 -1.3810 -1.9484 0.9785
-4.7524 -1.8134 -1.9493 0.9784
-4.3600 -2.6341 -1.9521 0.9784
-3.5173 -3.7084 -1.9587 0.9783
-2.8095 -4.2880 -1.9645 0.9783
-2.4192 -4.5294 -1.9678 0.9782
-2.0084 -4.7358 -1.9713 0.9782
-1.5802 -4.9055 -1.9750 0.9782
0.2401 -5.1901 -1.9911 0.9780
1.1648 -5.0858 -1.9995 0.9779
2.0599 -4.8172 -2.0077 0.9778
3.2824 -4.1221 -2.0193 0.9777
3.9770 -3.4838 -2.0261 0.9776
4.9706 -1.8797 -2.0365 0.9775
5.3021 -0.4953 -2.0407 0.9774
5.3079 0.4564 -2.0416 0.9774
5.2456 0.9288 -2.0415 0.9774
5.1403 1.3934 -2.0409 0.9774
4.9930 1.8462 -2.0400 0.9775
4.8050 2.2835 -2.0387 0.9775
4.5781 2.7015 -2.0371 0.9775
4.3141 3.0966 -2.0351 0.9775
3.6850 3.8056 -2.0300 0.9776
3.3254 4.1136 -2.0271 0.9776
2.9375 4.3836 -2.0222 0.9776
4.9728 -0.2575 -2.0380 0.9787
4.9404 0.6318 -2.0385 0.9787
4.8635 1.0705 -2.0382 0.9787
4.7469 1.5003 -2.0375 0.9787
4.5916 1.9174 -2.0365 0.9787
4.3989 2.3184 -2.0351 0.9787
3.9089 3.0587 -2.0314 0.9788
3.6158 3.3918 -2.0291 0.9788
2.5760 4.2113 -2.0205 0.9789
2.1834 4.4125 -2.0149 0.9789
1.3551 4.7022 -2.0028 0.9791
0.4832 4.7373 -1.9489 0.9796
0.0577 4.7375 -1.9391 0.9797
-0.3667 4.7351 -1.9438 0.9797
-0.7961 4.7299 -1.9631 0.9795
-1.2259 4.6797 -1.9799 0.9793
-1.6378 4.5478 -1.9783 0.9793
-2.0366 4.3813 -1.9774 0.9793
-3.1122 3.6685 -1.9689 0.9794
-3.7043 3.0470 -1.9631 0.9795
-4.1771 2.3332 -1.9582 0.9795
-2.0086 0.1249 -0.8236 0.9913
-3.7959 -2.9074 -1.9569 0.9795
-3.5248 -3.2384 -1.9590 0.9795
-2.8997 -3.8240 -1.9641 0.9795
-2.5502 -4.0738 -1.9670 0.9794
-1.3856 -4.6275 -1.9770 0.9793
-0.9684 -4.7415 -1.9806 0.9793
-0.5419 -4.8182 -1.9844 0.9793
-0.1095 -4.8567 -1.9882 0.9792
0.3255 -4.8566 -1.9921 0.9792
0.7596 -4.8175 -1.9961 0.9791
1.1894 -4.7397 -2.0000 0.9791
1.6112 -4.6235 -2.0039 0.9791
2.7950 -4.0531 -2.0150 0.9789
3.4832 -3.5025 -2.0217 0.9789
4.9118 -0.8023 -2.0369 0.9787
4.9660 -0.3604 -2.0378 0.9787
4.9796 0.0848 -2.0383 0.9787
4.8849 0.9696 -2.0383 0.9787
4.7774 1.4018 -2.0377 0.9787
4.6309 1.8222 -2.0367 0.9787
4.4467 2.2272 -2.0355 0.9787
3.9724 2.9778 -2.0319 0.9788
2.6636 4.1586 -2.0212 0.9789
2.2760 4.3696 -2.0164 0.9789
1.0178 4.7332 -1.9815 0.9793
0.5825 4.7369 -1.9533 0.9796
-0.6959 4.7314 -1.9573 0.9795
-3.0367 3.7336 -1.9697 0.9794
-4.1289 2.4198 -1.9587 0.9795
-4.3240 2.0391 -1.9566 0.9795
-4.4848 1.6431 -1.9548 0.9796
-2.0510 0.3568 -0.8520 0.9910
-2.0653 -0.3878 -0.8600 0.9910
-4.5883 -1.2949 -1.9512 0.9796
-4.4562 -1.7004 -1.9521 0.9796
-4.2890 -2.0929 -1.9532 0.9796
-4.0879 -2.4696 -1.9547 0.9796
-3.8544 -2.8275 -1.9565 0.9796
-3.5901 -3.1639 -1.9585 0.9795
-3.2970 -3.4762 -1.9609 0.9795
-1.8819 -4.4375 -1.9727 0.9794
-1.0659 -4.7184 -1.9798 0.9793
-0.2099 -4.8512 -1.9873 0.9792
0.2248 -4.8601 -1.9912 0.9792
0.6594 -4.8300 -1.9952 0.9792
1.0905 -4.7612 -1.9991 0.9791
1.9279 -4.5085 -2.0068 0.9790
2.3273 -4.3262 -2.0106 0.9790
3.0709 -3.8565 -2.0177 0.9789
3.4087 -3.5725 -2.0209 0.9789
3.7199 -3.2587 -2.0240 0.9789
4.0018 -2.9173 -2.0269 0.9788
4.2518 -2.5514 -2.0294 0.9788
4.4678 -2.1637 -2.0317 0.9788
4.6478 -1.7576 -2.0337 0.9788
4.8935 -0.9037 -2.0367 0.9787
4.9570 -0.4631 -2.0376 0.9787
4.9624 0.4267 -2.0385 0.9787
4.9041 0.8683 -2.0383 0.9787
4.4926 2.1350 -2.0358 0.9787
4.0341 2.8956 -2.0324 0.9788
3.7552 3.2410 -2.0302 0.9788
3.4464 3.5592 -2.0277 0.9788
3.1104 3.8476 -2.0249 0.9788
2.7501 4.1040 -2.0219 0.9789
1.9656 4.5046 -2.0115 0.9790
1.5506 4.6482 -2.0054 0.9790
4.6217 -0.6570 -2.0344 0.9798
4.6674 0.1762 -2.0356 0.9798
4.6332 0.5925 -2.0357 0.9798
4.4518 1.4070 -2.0348 0.9798
4.3063 1.7983 -2.0338 0.9798
3.6666 2.8691 -2.0290 0.9799
3.0904 3.4679 -2.0244 0.9799
2.4171 3.9516 -2.0188 0.9800
0.0557 4.5731 -1.9932 0.9802
-0.7567 4.4962 -1.9871 0.9803
-1.1542 4.4059 -1.9850 0.9803
-1.5421 4.2819 -1.9835 0.9803
-2.6092 3.7010 -1.9735 0.9804
-3.2165 3.1680 -1.9676 0.9805
-3.7193 2.5384 -1.9625 0.9805
-3.9269 2.1935 -1.9603 0.9806
-1.4910 0.5115 -0.6870 0.9931
-1.4576 0.0906 -0.6365 0.9936
-1.4404 -0.0394 -0.6280 0.9937
-1.4721 -0.1728 -0.6460 0.9936
-4.1566 -1.6855 -1.9548 0.9806
-3.9917 -2.0513 -1.9559 0.9806
-3.3136 -3.0444 -1.9611 0.9806
-2.0482 -4.0336 -1.9716 0.9805
-1.6823 -4.2072 -1.9747 0.9804
-1.3018 -4.3479 -1.9780 0.9804
-0.9098 -4.4545 -1.9814 0.9804
-0.5090 -4.5260 -1.9849 0.9803
-0.1028 -4.5617 -1.9886 0.9803
0.3057 -4.5610 -1.9922 0.9803
1.1167 -4.4502 -1.9996 0.9802
1.5126 -4.3405 -2.0032 0.9801
1.8977 -4.1955 -2.0068 0.9801
2.2689 -4.0162 -2.0103 0.9801
2.6231 -3.8037 -2.0137 0.9800
2.9571 -3.5598 -2.0169 0.9800
3.2683 -3.2863 -2.0199 0.9800
3.5538 -2.9854 -2.0228 0.9800
3.8112 -2.6593 -2.0254 0.9799
4.2329 -1.9428 -2.0298 0.9799
4.3934 -1.5582 -2.0316 0.9799
4.5183 -1.1603 -2.0331 0.9799
4.6066 -0.7524 -2.0342 0.9798
4.4804 1.3147 -2.0349 0.9798
4.1706 2.0889 -2.0329 0.9799
3.7261 2.7932 -2.0295 0.9799
3.4580 3.1117 -2.0274 0.9799
2.1374 4.1035 -2.0164 0.9800
1.7594 4.2712 -2.0132 0.9800
0.5595 4.5504 -1.9981 0.9802
-0.2583 4.5601 -1.9906 0.9803
-0.6637 4.5123 -1.9877 0.9803
-1.0630 4.4298 -1.9854 0.9803
-1.4533 4.3136 -1.9838 0.9803
-2.8538 3.5088 -1.9711 0.9805
-3.1512 3.2350 -1.9682 0.9805
-3.4230 2.9364 -1.9655 0.9805
-3.6670 2.6156 -1.9630 0.9805
-3.8816 2.2749 -1.9608 0.9806
-1.4928 0.3999 -0.6735 0.9933
-1.4274 -0.0095 -0.6221 0.9938
-1.4685 -0.1416 -0.6430 0.9936
-1.4687 -0.2758 -0.6513 0.9935
-1.4936 -0.4215 -0.6764 0.9933
-1.5301 -0.5838 -0.7137 0.9929
-3.6237 -2.6584 -1.9587 0.9806
-3.0993 -3.2678 -1.9628 0.9805
-2.7985 -3.5360 -1.9653 0.9805
-2.4747 -3.7771 -1.9680 0.9805
-2.1305 -3.9889 -1.9709 0.9805
-1.3910 -4.3183 -1.9772 0.9804
-0.6024 -4.5126 -1.9841 0.9803
-0.1971 -4.5566 -1.9877 0.9803
0.6192 -4.5357 -1.9951 0.9802
1.4218 -4.3691 -2.0024 0.9802
2.1844 -4.0607 -2.0095 0.9801
2.5428 -3.8558 -2.0129 0.9800
2.8818 -3.6190 -2.0162 0.9800
3.4901 -3.0574 -2.0221 0.9800
4.1908 -2.0296 -2.0293 0.9799
4.3594 -1.6485 -2.0312 0.9799
4.4927 -1.2534 -2.0327 0.9799
4.6489 -0.4343 -2.0349 0.9798
4.6704 -0.0172 -2.0355 0.9798
4.5991 0.8143 -2.0356 0.9798
4.5070 1.2217 -2.0351 0.9798
4.0150 2.3692 -2.0317 0.9799
2.9182 3.6098 -2.0230 0.9799
2.5804 3.8508 -2.0202 0.9800
1.8481 4.2354 -2.0140 0.9800
4.1621 -1.3799 -2.0297 0.9809
4.2715 -1.0031 -2.0310 0.9808
4.3462 -0.6178 -2.0320 0.9808
4.3855 -0.2271 -2.0327 0.9808
4.3891 0.1657 -2.0331 0.9808
4.3569 0.5572 -2.0332 0.9808
4.1864 1.3231 -2.0323 0.9808
4.0497 1.6911 -2.0314 0.9808
3.6792 2.3817 -2.0287 0.9809
3.1905 2.9928 -2.0249 0.9809
2.9070 3.2622 -2.0226 0.9809
2.2741 3.7178 -2.0173 0.9810
1.9300 3.9004 -2.0144 0.9810
1.5714 4.0510 -2.0113 0.9810
1.2013 4.1686 -2.0081 0.9811
0.4387 4.3006 -2.0010 0.9811
-0.3326 4.2952 -1.9941 0.9812
-0.7139 4.2416 -1.9910 0.9812
-1.4524 4.0330 -1.9842 0.9813
-2.1400 3.6980 -1.9777 0.9813
-2.7557 3.2483 -1.9718 0.9814
-1.2533 0.5596 -0.6353 0.9940
-1.2700 0.3122 -0.6054 0.9943
-1.2701 0.0790 -0.5890 0.9944
-1.2643 -0.0346 -0.5855 0.9944
-1.2751 -0.1497 -0.5943 0.9944
-1.2695 -0.3868 -0.6143 0.9942
-1.2518 -0.5076 -0.6253 0.9941
-3.7625 -1.9335 -1.9581 0.9815
-3.5772 -2.2635 -1.9594 0.9815
-3.1228 -2.8691 -1.9630 0.9815
-2.8571 -3.1401 -1.9651 0.9815
-2.5682 -3.3869 -1.9675 0.9814
-1.2263 -4.0955 -1.9789 0.9813
-0.8569 -4.1955 -1.9821 0.9813
-0.4794 -4.2624 -1.9854 0.9813
-0.0968 -4.2955 -1.9888 0.9812
1.4237 -4.0855 -2.0027 0.9811
2.7823 -3.3494 -2.0155 0.9810
3.7983 -2.1736 -2.0257 0.9809
4.1319 -1.4655 -2.0293 0.9809
4.3796 -0.3178 -2.0326 0.9808
4.3675 0.4668 -2.0332 0.9808
4.3079 0.8551 -2.0330 0.9808
4.0843 1.6071 -2.0317 0.9808
2.9748 3.2022 -2.0231 0.9809
2.0111 3.8609 -2.0151 0.9810
1.2878 4.1444 -2.0088 0.9811
0.5278 4.2926 -2.0019 0.9811
-0.2437 4.3027 -1.9948 0.9812
-1.0023 4.1769 -1.9883 0.9812
-1.3691 4.0637 -1.9849 0.9813
-2.3861 3.5380 -1.9753 0.9814
-2.6887 3.3058 -1.9724 0.9814
-2.9692 3.0481 -1.9697 0.9814
-3.2255 2.7670 -1.9671 0.9814
-1.2670 0.5975 -0.6484 0.9938
-1.2728 0.1056 -0.5912 0.9944
-1.2599 -0.0084 -0.5832 0.9945
-1.2710 -0.2386 -0.5986 0.9943
-1.2706 -0.3586 -0.6111 0.9942
-1.2579 -0.4800 -0.6232 0.9941
-3.8011 -1.8549 -1.9578 0.9815
-3.6226 -2.1885 -1.9591 0.9815
-3.1808 -2.8032 -1.9625 0.9815
-2.9207 -3.0795 -1.9646 0.9815
-2.6370 -3.3320 -1.9669 0.9814
-1.6659 -3.9283 -1.9751 0.9814
-1.3103 -4.0677 -1.9782 0.9813
-0.9432 -4.1753 -1.9814 0.9813
-0.1856 -4.2909 -1.9881 0.9812
0.9639 -4.2084 -1.9984 0.9812
1.3383 -4.1125 -2.0019 0.9811
2.0557 -3.8214 -2.0086 0.9811
2.3927 -3.6282 -2.0118 0.9810
2.7115 -3.4051 -2.0148 0.9810
3.2833 -2.8762 -2.0204 0.9809
3.7516 -2.2512 -2.0252 0.9809
4.3717 -0.4084 -2.0324 0.9808
4.2383 1.1489 -2.0326 0.9808
3.9626 1.8831 -2.0308 0.9808
3.7759 2.2281 -2.0294 0.9809
3.5589 2.5545 -2.0278 0.9809
3.3132 2.8595 -2.0259 0.9809
2.7452 3.3958 -2.0212 0.9809
3.9235 -1.3008 -2.0276 0.9818
4.0265 -0.9456 -2.0288 0.9817
4.1372 0.1561 -2.0308 0.9817
4.1068 0.5252 -2.0309 0.9817
3.6577 1.9277 -2.0281 0.9817
3.4684 2.2453 -2.0267 0.9818
3.2512 2.5441 -2.0250 0.9818
3.0081 2.8217 -2.0231 0.9818
2.7410 3.0758 -2.0209 0.9818
2.4523 3.3045 -2.0185 0.9818
0.4139 4.0581 -2.0009 0.9820
-1.3709 3.8067 -1.9847 0.9821
-2.6020 3.0672 -1.9730 0.9822
-3.0986 2.5487 -1.9681 0.9823
-3.3103 2.2592 -1.9659 0.9823
-3.4955 1.9525 -1.9640 0.9823
-1.1003 0.4913 -0.5911 0.9946
-1.1254 0.3861 -0.5836 0.9947
-1.1329 0.2785 -0.5723 0.9948
-1.1432 0.1746 -0.5673 0.9949
-1.1426 0.0710 -0.5615 0.9949
-1.1385 -0.0312 -0.5587 0.9949
-1.1365 -0.2378 -0.5695 0.9948
-1.1305 -0.3445 -0.5797 0.9947
-1.1121 -0.4510 -0.5887 0.9947
-1.0917 -0.5610 -0.6021 0.9945
-3.3789 -2.1380 -1.9613 0.9823
-3.1768 -2.4332 -1.9629 0.9823
-2.4253 -3.1984 -1.9689 0.9823
-2.1325 -3.4065 -1.9714 0.9823
-1.8220 -3.5882 -1.9740 0.9822
-1.4963 -3.7419 -1.9768 0.9822
-1.1577 -3.8663 -1.9797 0.9822
-0.8088 -3.9604 -1.9828 0.9822
-0.4525 -4.0232 -1.9859 0.9821
-0.0914 -4.0541 -1.9891 0.9821
0.2716 -4.0526 -1.9924 0.9821
0.6337 -4.0188 -1.9956 0.9820
1.3432 -3.8544 -2.0022 0.9820
1.6848 -3.7248 -2.0053 0.9820
2.6239 -3.1587 -2.0143 0.9819
3.8951 -1.3815 -2.0273 0.9818
4.0835 -0.6670 -2.0296 0.9817
4.1394 0.0705 -2.0308 0.9817
4.1168 0.4400 -2.0309 0.9817
4.0607 0.8060 -2.0307 0.9817
3.8500 1.5149 -2.0295 0.9817
3.6973 1.8519 -2.0284 0.9817
3.5148 2.1734 -2.0271 0.9818
3.0665 2.7594 -2.0236 0.9818
2.8048 3.0192 -2.0214 0.9818
1.8966 3.6412 -2.0139 0.9819
0.8593 3.9959 -2.0049 0.9820
-0.2300 4.0609 -1.9952 0.9820
-0.5909 4.0175 -1.9919 0.9821
-1.2923 3.8357 -1.9854 0.9821
-1.9483 3.5335 -1.9793 0.9822
-2.8038 2.8783 -1.9710 0.9823
-3.0460 2.6131 -1.9686 0.9823
-3.2636 2.3278 -1.9664 0.9823
-3.4550 2.0249 -1.9644 0.9823
-1.0919 0.5149 -0.5922 0.9946
-1.1211 0.4108 -0.5857 0.9947
-1.1328 0.3034 -0.5752 0.9948
-1.1414 0.1986 -0.5683 0.9949
-1.1349 -0.0076 -0.5567 0.9950
-1.1398 -0.2140 -0.5689 0.9948
-1.1322 -0.3195 -0.5771 0.9948
-1.1179 -0.4266 -0.5869 0.9947
-1.8953 -3.5486 -1.9734 0.9822
-0.8903 -3.9414 -1.9820 0.9822
0.1876 -4.0558 -1.9916 0.9821
1.2626 -3.8799 -2.0014 0.9820
1.6068 -3.7576 -2.0046 0.9820
2.2568 -3.4220 -2.0107 0.9819
3.0959 -2.7120 -2.0189 0.9818
3.5370 -2.1224 -2.0234 0.9818
3.7160 -1.7996 -2.0253 0.9818
3.8651 -1.4616 -2.0269 0.9818
3.9829 -1.1112 -2.0283 0.9817
4.0684 -0.7513 -2.0294 0.9817
4.0766 0.7218 -2.0308 0.9817
3.8810 1.4350 -2.0297 0.9817
2.5885 3.2020 -2.0197 0.9818
2.2892 3.4162 -2.0172 0.9818
3.8036 -0.8933 -2.0269 0.9825
3.9048 -0.2022 -2.0284 0.9825
3.7276 1.1781 -2.0281 0.9825
3.4552 1.8210 -2.0262 0.9826
3.2765 2.1211 -2.0249 0.9826
3.0715 2.4034 -2.0233 0.9826
2.8419 2.6658 -2.0215 0.9826
2.5898 2.9061 -2.0194 0.9826
1.7202 3.4763 -2.0121 0.9827
0.3913 3.8363 -2.0005 0.9828
0.0469 3.8500 -1.9974 0.9828
-0.2968 3.8328 -1.9943 0.9828
-0.6371 3.7851 -1.9913 0.9829
-0.9712 3.7073 -1.9882 0.9829
-1.9110 3.3024 -1.9794 0.9830
-2.4617 2.9018 -1.9741 0.9830
-2.9319 2.4116 -1.9694 0.9830
-3.1324 2.1378 -1.9674 0.9831
-1.0209 0.2509 -0.5454 0.9953
-1.0278 -0.2151 -0.5448 0.9953
-0.9986 -0.4049 -0.5590 0.9952
-0.9650 -0.4959 -0.5629 0.9951
-3.0063 -2.3026 -1.9645 0.9831
-2.5532 -2.8061 -1.9681 0.9830
-1.7237 -3.3946 -1.9751 0.9830
-0.4279 -3.8048 -1.9863 0.9829
-0.0864 -3.8337 -1.9894 0.9829
0.2569 -3.8320 -1.9924 0.9828
0.5991 -3.7996 -1.9955 0.9828
0.9377 -3.7367 -1.9986 0.9828
1.2697 -3.6436 -2.0017 0.9828
1.5926 -3.5208 -2.0047 0.9827
2.2000 -3.1903 -2.0104 0.9827
2.4796 -2.9850 -2.0131 0.9827
2.7398 -2.7550 -2.0157 0.9826
3.5457 -1.6274 -2.0239 0.9826
3.8356 0.7614 -2.0287 0.9825
3.6368 1.4310 -2.0275 0.9825
3.4926 1.7493 -2.0265 0.9826
3.3203 2.0531 -2.0252 0.9826
3.1212 2.3398 -2.0237 0.9826
2.8971 2.6070 -2.0219 0.9826
2.6500 2.8526 -2.0199 0.9826
2.3819 3.0746 -2.0177 0.9826
1.7923 3.4410 -2.0127 0.9827
0.4708 3.8287 -2.0012 0.9828
0.1266 3.8496 -1.9982 0.9828
-0.5588 3.7988 -1.9920 0.9828
-2.4018 2.9530 -1.9747 0.9830
-2.8821 2.4724 -1.9699 0.9830
-3.0881 2.2027 -1.9678 0.9831
-0.9576 0.5612 -0.5758 0.9950
-0.9796 0.4620 -0.5619 0.9951
-1.0074 0.3691 -0.5566 0.9952
-1.0197 0.2731 -0.5476 0.9953
-1.0327 0.1797 -0.5438 0.9953
-1.0375 0.0861 -0.5401 0.9953
-1.0305 -0.0069 -0.5346 0.9954
-1.0377 -0.1001 -0.5408 0.9953
-1.0188 -0.2875 -0.5492 0.9952
-0.9742 -0.4754 -0.5623 0.9951
-0.9634 -0.5820 -0.5839 0.9949
-2.8429 -2.5054 -1.9658 0.9831
-2.6101 -2.7520 -1.9677 0.9831
-0.8421 -3.7279 -1.9827 0.9829
-0.5064 -3.7938 -1.9856 0.9829
-0.1657 -3.8297 -1.9886 0.9829
0.5202 -3.8099 -1.9948 0.9828
1.8328 -3.4069 -2.0070 0.9827
2.4165 -3.0347 -2.0125 0.9827
2.9253 -2.5626 -2.0175 0.9826
3.3417 -2.0052 -2.0217 0.9826
3.5106 -1.7001 -2.0235 0.9826
3.7624 -1.0497 -2.0264 0.9826
3.8431 -0.7097 -2.0274 0.9825
3.8925 -0.3636 -2.0282 0.9825
3.9104 -0.0144 -2.0286 0.9825
3.8964 0.3351 -2.0288 0.9825
3.6660 1.3555 -2.0277 0.9825
3.1696 2.2751 -2.0240 0.9826
2.7092 2.7978 -2.0204 0.9826
1.8637 3.4041 -2.0133 0.9827
1.8864 -0.4430 -1.0613 0.9912
1.8884 -0.2684 -1.0447 0.9913
1.8817 0.0710 -1.0314 0.9914
1.8753 0.5927 -1.0772 0.9911
3.4125 1.4250 -2.0255 0.9833
1.9184 3.1362 -2.0136 0.9834
1.6285 3.2911 -2.0111 0.9834
1.3262 3.4190 -2.0085 0.9834
0.6947 3.5906 -2.0030 0.9835
0.0444 3.6463 -1.9972 0.9835
-0.2811 3.6303 -1.9943 0.9835
-0.6035 3.5854 -1.9914 0.9836
-1.2284 3.4109 -1.9856 0.9836
-1.8108 3.1292 -1.9801 0.9836
-2.0804 2.9510 -1.9776 0.9837
-2.3329 2.7499 -1.9751 0.9837
-2.5663 2.5276 -1.9728 0.9837
-2.7788 2.2857 -1.9707 0.9837
-0.8758 0.5977 -0.5807 0.9952
-0.8750 0.4888 -0.5489 0.9954
-0.8998 0.4018 -0.5397 0.9955
-0.9441 -0.0258 -0.5173 0.9957
-0.9372 -0.1961 -0.5244 0.9956
-0.9219 -0.2809 -0.5279 0.9956
-0.8857 -0.4552 -0.5454 0.9955
-2.1749 -2.8682 -1.9715 0.9837
-1.9121 -3.0544 -1.9737 0.9837
-1.6335 -3.2169 -1.9760 0.9837
-1.3412 -3.3542 -1.9785 0.9837
-1.0376 -3.4652 -1.9812 0.9836
-0.7248 -3.5489 -1.9839 0.9836
-0.4054 -3.6046 -1.9867 0.9836
0.5675 -3.5988 -1.9954 0.9835
1.2024 -3.4504 -2.0013 0.9835
1.5080 -3.3339 -2.0041 0.9835
1.8023 -3.1902 -2.0069 0.9834
2.8194 -2.3684 -2.0167 0.9833
3.0228 -2.1092 -2.0188 0.9833
3.3557 -1.5402 -2.0223 0.9833
1.9311 -0.6849 -1.1222 0.9907
1.8872 -0.1370 -1.0364 0.9914
1.8808 0.5519 -1.0735 0.9911
3.3053 1.6555 -2.0247 0.9833
2.9540 2.2144 -2.0221 0.9833
2.5083 2.7001 -2.0185 0.9833
2.2547 2.9104 -2.0164 0.9833
1.6968 3.2576 -2.0117 0.9834
1.0871 3.4984 -2.0065 0.9834
0.4458 3.6258 -2.0008 0.9835
-0.2060 3.6366 -1.9950 0.9835
-0.5293 3.5984 -1.9921 0.9835
-0.8474 3.5315 -1.9891 0.9836
-1.1579 3.4367 -1.9863 0.9836
-1.4582 3.3149 -1.9835 0.9836
-1.7462 3.1670 -1.9807 0.9836
-2.5140 2.5808 -1.9733 0.9837
-2.7316 2.3433 -1.9712 0.9837
-0.8949 0.4220 -0.5419 0.9955
-0.9126 0.3343 -0.5323 0.9956
-0.9473 0.0786 -0.5206 0.9957
-0.9406 -0.1766 -0.5241 0.9956
-0.9105 -0.3474 -0.5338 0.9956
-0.8914 -0.4350 -0.5433 0.9955
-2.6947 -2.3748 -1.9673 0.9838
-2.4740 -2.6084 -1.9690 0.9837
-1.9744 -3.0134 -1.9732 0.9837
-1.6992 -3.1815 -1.9755 0.9837
-1.4100 -3.3247 -1.9779 0.9837
-0.1570 -3.6280 -1.9889 0.9836
0.1680 -3.6328 -1.9918 0.9836
0.8143 -3.5553 -1.9977 0.9835
1.1303 -3.4734 -2.0006 0.9835
1.4382 -3.3633 -2.0035 0.9835
1.7354 -3.2259 -2.0062 0.9834
2.2878 -2.8730 -2.0115 0.9834
2.5384 -2.6604 -2.0140 0.9834
2.7691 -2.4257 -2.0162 0.9834
2.9778 -2.1708 -2.0183 0.9833
3.1628 -1.8979 -2.0202 0.9833
3.4555 -1.3067 -2.0234 0.9833
1.8841 -0.3479 -1.0494 0.9913
1.8884 0.1624 -1.0381 0.9914
3.4692 1.2828 -2.0258 0.9833
2.9998 2.1532 -2.0224 0.9833
2.5643 2.6482 -2.0190 0.9833
2.3151 2.8638 -2.0169 0.9833
2.0477 3.0558 -2.0147 0.9834
1.7644 3.2227 -2.0123 0.9834
1.4675 3.3632 -2.0098 0.9834
1.1596 3.4762 -2.0071 0.9834
1.7144 -0.5684 -1.0428 0.9917
1.7324 -0.4068 -1.0274 0.9918
1.7365 -0.0899 -1.0039 0.9920
1.7343 0.0655 -1.0020 0.9920
1.7189 0.5433 -1.0408 0.9917
1.8258 0.7625 -1.1424 0.9909
2.5500 2.3920 -2.0186 0.9840
1.8189 2.9737 -2.0126 0.9840
1.5442 3.1207 -2.0102 0.9840
0.9617 3.3373 -2.0052 0.9841
0.3515 3.4459 -1.9998 0.9841
-1.1655 3.2364 -1.9860 0.9842
-1.9744 2.8006 -1.9784 0.9843
-2.2141 2.6100 -1.9760 0.9843
-2.4358 2.3991 -1.9739 0.9843
-2.6377 2.1696 -1.9719 0.9843
-0.8216 0.4589 -0.5433 0.9957
-0.8457 0.3776 -0.5347 0.9957
-0.8817 0.0548 -0.5100 0.9959
-0.8800 -0.0241 -0.5083 0.9959
-0.8820 -0.1035 -0.5127 0.9959
-0.8762 -0.1834 -0.5169 0.9959
-0.8528 -0.3458 -0.5313 0.9958
-0.8056 -0.6170 -0.5859 0.9953
-2.5113 -2.3073 -1.9690 0.9844
-2.2972 -2.5247 -1.9707 0.9844
-2.0644 -2.7225 -1.9726 0.9843
-1.5503 -3.0531 -1.9769 0.9843
-0.9846 -3.2883 -1.9818 0.9843
-0.6878 -3.3675 -1.9844 0.9843
0.8423 -3.3568 -1.9981 0.9841
1.1404 -3.2726 -2.0009 0.9841
1.4302 -3.1619 -2.0036 0.9841
1.7092 -3.0254 -2.0062 0.9841
1.9752 -2.8642 -2.0087 0.9841
2.4591 -2.4727 -2.0134 0.9840
2.8657 -1.9996 -2.0175 0.9840
3.1811 -1.4600 -2.0208 0.9840
1.7308 -0.4445 -1.0317 0.9918
1.7395 -0.2841 -1.0176 0.9919
1.7245 0.5060 -1.0376 0.9917
2.9787 1.8419 -2.0219 0.9840
2.8003 2.0992 -2.0206 0.9840
2.5995 2.3392 -2.0190 0.9840
2.3780 2.5598 -2.0172 0.9840
1.8806 2.9361 -2.0131 0.9840
1.6089 3.0889 -2.0108 0.9840
1.3249 3.2164 -2.0083 0.9841
1.0309 3.3177 -2.0058 0.9841
