ply
format ascii 1.0
element vertex 1582
property float32 x
property float32 y
property float32 z
property float32 I
end_header
7.4452 -13.5693 -1.8385 0.9396
10.5320 -13.0144 -1.9887 0.9348
12.6669 -10.9296 -1.9873 0.9348
14.3982 -8.5017 -1.9862 0.9349
15.6725 -5.8072 -1.9854 0.9349
16.1055 4.4573 -1.9850 0.9349
10.4738 13.0600 -1.9886 0.9348
9.2715 13.9471 -1.9894 0.9348
5.6198 12.9956 -1.6818 0.9446
2.1691 15.3523 -1.8418 0.9395
0.7923 15.4920 -1.8426 0.9394
-1.4624 11.4134 -1.3668 0.9547
-2.5007 11.3588 -1.3816 0.9542
-4.6640 11.1800 -1.4390 0.9524
-3.6084 5.5834 -0.7897 0.9736
-13.2843 8.1578 -1.8518 0.9391
-14.5282 5.6716 -1.8526 0.9391
-16.5729 3.2503 -2.0061 0.9342
-16.7979 1.7601 -2.0063 0.9342
-16.8439 -1.2509 -2.0063 0.9342
-15.9080 -5.6617 -2.0058 0.9342
-14.6439 -8.3933 -2.0050 0.9343
-12.7903 -8.9340 -1.8532 0.9391
-10.9837 -11.0464 -1.8504 0.9392
-9.9516 -11.9773 -1.8497 0.9392
-7.6604 -13.5433 -1.8483 0.9392
-6.4198 -14.1662 -1.8475 0.9393
-3.7987 -15.0673 -1.8458 0.9393
-2.4392 -15.3387 -1.8449 0.9394
-1.0616 -15.4876 -1.8440 0.9394
0.3231 -15.5131 -1.8431 0.9394
1.7040 -15.4150 -1.8422 0.9394
3.0699 -15.1944 -1.8414 0.9395
4.4101 -14.8533 -1.8405 0.9395
14.0962 -8.9967 -1.9864 0.9349
15.4628 -6.3476 -1.9855 0.9349
15.9644 -4.9431 -1.9852 0.9349
16.3395 -3.4998 -1.9849 0.9349
-13.6427 -3.7381 -2.0043 0.9445
-13.2536 -4.9388 -2.0040 0.9445
-12.7585 -6.0997 -2.0037 0.9445
-12.1617 -7.2114 -2.0033 0.9445
-10.1099 -8.7560 -1.8950 0.9474
-6.2506 -11.4421 -1.8474 0.9487
-0.6979 -12.9941 -1.8438 0.9488
1.6194 -12.9010 -1.8423 0.9488
4.9694 -11.9986 -1.8401 0.9489
7.5783 -11.7923 -1.9861 0.9449
10.4424 -9.3792 -1.9888 0.9449
11.1843 -8.3716 -1.9795 0.9451
12.5432 -6.2775 -1.9874 0.9449
13.0507 -5.1334 -1.9871 0.9449
13.9397 -1.4967 -1.9865 0.9449
14.0172 -0.2481 -1.9864 0.9449
13.9836 1.0025 -1.9864 0.9449
13.8392 2.2452 -1.9865 0.9449
13.5850 3.4702 -1.9867 0.9449
11.5229 8.0048 -1.9880 0.9449
9.9233 9.9289 -1.9890 0.9449
9.0013 10.7772 -1.9896 0.9449
8.0073 11.5404 -1.9902 0.9448
6.4190 11.2809 -1.8390 0.9489
-1.2333 11.4255 -1.6283 0.9546
-2.2671 11.3710 -1.6429 0.9542
-5.6572 11.2880 -1.7890 0.9503
-3.5526 5.7446 -0.9570 0.9731
-9.5577 8.8888 -1.8494 0.9486
-6.5952 5.1174 -1.1828 0.9668
-10.9899 7.0538 -1.8503 0.9486
-13.8247 2.9982 -2.0044 0.9445
-14.1269 -0.7668 -2.0046 0.9444
-13.4175 -4.4765 -2.0041 0.9445
-12.9632 -5.6540 -2.0038 0.9445
-12.4054 -6.7859 -2.0035 0.9445
-11.7486 -7.8631 -2.0031 0.9445
-10.8662 -8.7705 -1.9786 0.9451
-9.3854 -9.0706 -1.8494 0.9486
-7.6208 -10.5866 -1.8482 0.9487
-6.6444 -11.2200 -1.8476 0.9487
-5.6158 -11.7634 -1.8469 0.9487
-3.5244 -9.4745 -1.4323 0.9600
-2.7850 -10.1871 -1.4964 0.9582
-2.3003 -12.8153 -1.8448 0.9488
0.0120 -13.0096 -1.8433 0.9488
1.1712 -12.9514 -1.8426 0.9488
2.3202 -12.7903 -1.8418 0.9488
3.4498 -12.5276 -1.8411 0.9489
4.5511 -12.1654 -1.8404 0.9489
5.6154 -11.7069 -1.8397 0.9489
11.6743 -7.7822 -1.9880 0.9449
12.3189 -6.7091 -1.9875 0.9449
13.3102 -4.4134 -1.9869 0.9449
13.6491 -3.2089 -1.9867 0.9449
13.8797 -1.9792 -1.9865 0.9449
14.0003 -0.7340 -1.9864 0.9449
14.0099 0.5170 -1.9864 0.9449
13.9084 1.7639 -1.9865 0.9449
13.6967 2.9970 -1.9866 0.9449
13.3763 4.2065 -1.9868 0.9449
12.9498 5.3829 -1.9871 0.9449
12.4205 6.5170 -1.9874 0.9449
8.4016 11.2544 -1.9900 0.9448
6.8033 11.0468 -1.8382 0.9489
5.7953 11.6169 -1.8394 0.9489
4.7383 12.0917 -1.8401 0.9489
2.5177 12.7509 -1.8415 0.9488
1.3715 12.9297 -1.8423 0.9488
-0.8353 11.4464 -1.6261 0.9547
-1.8632 11.3923 -1.6356 0.9544
-2.9115 11.3371 -1.6585 0.9538
-5.1152 11.1563 -1.7390 0.9516
-11.8913 5.4073 -1.8509 0.9486
-12.3280 4.3264 -1.8512 0.9486
-13.7120 3.4756 -2.0043 0.9445
-13.9684 2.2396 -2.0045 0.9445
-14.1131 0.9855 -2.0046 0.9444
-13.5653 -4.0088 -2.0042 0.9445
-13.1522 -5.2014 -2.0040 0.9445
-11.2865 -8.4806 -2.0003 0.9446
-8.8750 -9.5674 -1.8490 0.9486
-7.0304 -10.9844 -1.8479 0.9487
-3.9107 -9.4920 -1.4546 0.9594
6.2443 -11.3806 -1.8393 0.9489
9.7694 -10.0826 -1.9892 0.9449
10.6263 -9.1689 -1.9886 0.9449
11.3985 -8.1831 -1.9881 0.9449
13.1499 -4.8725 -1.9870 0.9449
13.9666 -1.2190 -1.9864 0.9449
13.9610 1.2806 -1.9864 0.9449
13.5135 3.7400 -1.9867 0.9449
8.7857 10.9550 -1.9897 0.9448
7.7766 11.6984 -1.9904 0.9448
6.1937 11.4074 -1.8392 0.9489
0.6574 12.8549 -1.8238 0.9493
-0.1916 5.0179 -0.7115 0.9799
-3.5702 11.3024 -1.6794 0.9532
-8.9167 9.5277 -1.8489 0.9486
-9.7333 8.6974 -1.8495 0.9486
-11.1286 6.8341 -1.8504 0.9486
-14.1461 0.2141 -2.0046 0.9444
-13.9585 -2.3013 -2.0045 0.9444
-13.6967 -3.5362 -2.0043 0.9445
-13.3254 -4.7426 -2.0041 0.9445
-12.2673 -7.0311 -2.0034 0.9445
-11.5892 -8.0950 -2.0030 0.9445
-10.4243 -8.7621 -1.9295 0.9465
-9.2024 -9.2550 -1.8492 0.9486
-8.3383 -10.0355 -1.8487 0.9487
-4.3097 -9.5100 -1.4794 0.9587
-3.3079 -9.4647 -1.4206 0.9603
-0.8899 -12.9832 -1.8439 0.9488
0.2709 -13.0056 -1.8432 0.9488
5.8467 -11.5919 -1.8395 0.9489
7.2583 -11.6700 -1.9472 0.9460
9.4150 -10.4164 -1.9894 0.9449
10.3031 -9.5329 -1.9889 0.9449
13.7100 -2.9366 -1.9866 0.9449
-11.7266 -3.2131 -2.0030 0.9519
-11.3923 -4.2452 -2.0028 0.9519
-9.8581 -7.1049 -2.0019 0.9519
-9.1836 -7.9537 -2.0014 0.9519
-6.2318 -9.3226 -1.8473 0.9556
-5.3743 -9.8381 -1.8468 0.9556
-3.1494 -9.4575 -1.6421 0.9604
-0.6003 -11.1755 -1.8437 0.9556
0.3982 -11.1806 -1.8431 0.9557
1.3929 -11.0968 -1.8424 0.9557
3.3391 -10.6657 -1.8412 0.9557
4.2751 -10.3222 -1.8406 0.9557
7.4133 -9.5430 -1.9907 0.9522
8.9855 -8.0707 -1.9897 0.9522
9.6670 -7.2359 -1.9893 0.9522
10.2715 -6.3440 -1.9889 0.9522
11.2313 -4.4178 -1.9882 0.9523
11.8349 -2.3526 -1.9878 0.9523
12.0347 0.8627 -1.9877 0.9523
10.4885 5.9759 -1.9886 0.9522
9.9158 6.8884 -1.9890 0.9522
7.7451 9.2731 -1.9904 0.9522
4.6369 10.1625 -1.8402 0.9557
3.7137 10.5388 -1.8408 0.9557
2.7603 10.8315 -1.8414 0.9557
0.7935 11.1572 -1.8427 0.9557
-0.2044 11.1874 -1.8433 0.9557
-2.1893 10.9809 -1.8446 0.9556
-7.5008 8.3415 -1.8480 0.9555
-8.2166 7.6416 -1.8485 0.9555
-9.9518 5.1982 -1.8496 0.9555
-10.3772 4.2910 -1.8499 0.9555
-12.1425 -0.6591 -2.0033 0.9519
-12.0350 -1.7389 -2.0032 0.9519
-11.1429 -4.8600 -2.0027 0.9519
-10.6636 -5.8332 -2.0024 0.9519
-10.0993 -6.7593 -2.0020 0.9519
-8.7202 -8.4277 -1.9978 0.9520
-6.5520 -9.1019 -1.8475 0.9556
-3.5244 -9.4745 -1.6653 0.9598
-2.7536 -10.0721 -1.7202 0.9586
-1.9782 -11.0209 -1.8446 0.9556
-0.9875 -11.1495 -1.8440 0.9556
0.0103 -11.1892 -1.8433 0.9557
1.0074 -11.1399 -1.8427 0.9557
2.9676 -10.7765 -1.8414 0.9557
4.8310 -10.0716 -1.8402 0.9557
6.1593 -10.3570 -1.9851 0.9523
7.9216 -9.1228 -1.9904 0.9522
8.7011 -8.3781 -1.9899 0.9522
9.4111 -7.5674 -1.9894 0.9522
10.0461 -6.6969 -1.9890 0.9522
10.6012 -5.7736 -1.9886 0.9522
11.0719 -4.8048 -1.9883 0.9522
11.4547 -3.7982 -1.9881 0.9523
11.9699 1.5181 -1.9877 0.9523
11.7876 2.5792 -1.9878 0.9523
11.5117 3.6201 -1.9880 0.9523
11.1445 4.6324 -1.9882 0.9523
10.6887 5.6083 -1.9885 0.9522
9.5264 7.4201 -1.9893 0.9522
8.0611 8.9981 -1.9902 0.9522
7.2264 9.6802 -1.9900 0.9522
3.1338 10.7279 -1.8412 0.9557
2.1657 10.9682 -1.8418 0.9557
0.1836 11.1862 -1.8431 0.9557
-0.8146 11.1620 -1.8437 0.9556
-4.6708 10.1870 -1.8462 0.9556
-3.8293 5.4972 -1.1037 0.9732
-7.2063 8.5957 -1.8478 0.9555
-7.9460 7.9211 -1.8483 0.9555
-10.2216 4.6480 -1.8498 0.9555
-11.4381 4.0141 -1.9970 0.9520
-12.1307 0.8471 -2.0033 0.9519
-12.1581 -0.2377 -2.0033 0.9519
-11.9218 -2.3928 -2.0032 0.9519
-11.6601 -3.4458 -2.0030 0.9519
-11.3052 -4.4710 -2.0028 0.9519
-10.8601 -5.4602 -2.0025 0.9519
-9.7144 -7.2994 -2.0018 0.9519
-9.0230 -8.1345 -2.0013 0.9519
-8.0373 -8.6643 -1.9469 0.9532
-6.8644 -8.8702 -1.8477 0.9555
-6.0446 -9.4441 -1.8472 0.9556
-5.1771 -9.9424 -1.8466 0.9556
-2.3595 -10.9471 -1.8448 0.9556
-1.3737 -11.1101 -1.8442 0.9556
-0.3777 -11.1844 -1.8436 0.9556
0.6206 -11.1696 -1.8429 0.9557
4.4794 -10.2343 -1.8404 0.9557
5.4273 -9.8915 -1.8587 0.9553
6.7356 -10.0360 -1.9912 0.9522
7.6013 -9.3929 -1.9906 0.9522
9.1439 -7.8898 -1.9896 0.9522
9.8087 -7.0417 -1.9892 0.9522
10.3953 -6.1381 -1.9888 0.9522
11.8792 -2.1166 -1.9878 0.9523
12.0200 -1.0491 -1.9877 0.9523
12.0654 0.0266 -1.9877 0.9523
11.8696 2.1689 -1.9878 0.9523
11.6299 3.2187 -1.9879 0.9523
11.2978 4.2430 -1.9881 0.9523
10.8761 5.2340 -1.9884 0.9522
10.3679 6.1837 -1.9887 0.9522
9.7772 7.0847 -1.9891 0.9522
8.3675 8.7123 -1.9900 0.9522
5.3288 9.8143 -1.8397 0.9557
3.5034 10.6114 -1.8409 0.9557
1.5644 11.0724 -1.8422 0.9557
0.5713 11.1716 -1.8428 0.9557
-2.4076 10.9360 -1.8447 0.9556
-3.3741 10.6815 -1.8454 0.9556
-7.6657 8.1911 -1.8481 0.9555
-8.3675 7.4769 -1.8486 0.9555
-11.9321 2.3402 -2.0031 0.9519
-12.1590 0.1840 -2.0033 0.9519
-11.7730 -3.0395 -2.0031 0.9519
-11.4540 -4.0765 -2.0029 0.9519
-10.5450 -6.0440 -2.0023 0.9519
-9.9624 -6.9587 -2.0019 0.9519
-9.3004 -7.8174 -2.0015 0.9519
-8.5382 -8.5870 -1.9949 0.9521
-7.1874 -8.6504 -1.8528 0.9554
-6.3692 -9.2299 -1.8474 0.9556
-4.3097 -9.5101 -1.7200 0.9586
-3.3079 -9.4647 -1.6517 0.9602
-1.7583 -11.0572 -1.8444 0.9556
-0.7654 -11.1661 -1.8438 0.9556
0.2330 -11.1859 -1.8432 0.9557
1.2288 -11.1168 -1.8425 0.9557
2.2142 -10.9592 -1.8419 0.9557
4.1224 -10.3848 -1.8406 0.9557
5.0301 -9.9728 -1.8401 0.9557
7.2718 -9.6519 -1.9908 0.9522
8.1011 -8.9628 -1.9903 0.9522
9.5594 -7.3782 -1.9893 0.9522
10.1770 -6.4953 -1.9889 0.9522
10.7136 -5.5613 -1.9886 0.9522
11.1650 -4.5833 -1.9883 0.9523
11.5278 -3.5693 -1.9880 0.9523
-10.4837 -1.8879 -2.0022 0.9576
-10.2730 -2.8148 -2.0021 0.9576
-9.9803 -3.7191 -2.0019 0.9576
-9.6079 -4.5934 -2.0017 0.9576
-8.6368 -6.2247 -2.0011 0.9576
-6.6708 -8.2743 -1.9977 0.9577
-5.7317 -8.5745 -1.9386 0.9589
-4.7092 -8.6206 -1.8463 0.9608
-3.1018 -9.3146 -1.8453 0.9608
-1.3976 -9.7116 -1.8442 0.9609
0.3490 -9.7995 -1.8431 0.9609
2.0825 -9.5759 -1.8420 0.9609
3.7477 -9.0486 -1.8409 0.9609
4.8992 -9.3664 -1.9868 0.9579
5.7290 -8.9147 -1.9918 0.9578
6.4993 -8.3664 -1.9913 0.9578
7.2176 -7.7519 -1.9908 0.9578
7.8782 -7.0761 -1.9904 0.9578
9.8481 -3.8737 -1.9891 0.9578
10.1532 -2.9801 -1.9889 0.9578
9.9784 3.5225 -1.9890 0.9578
9.6257 4.3985 -1.9892 0.9578
9.1966 5.2398 -1.9895 0.9578
8.6942 6.0398 -1.9898 0.9578
8.1227 6.7920 -1.9902 0.9578
7.4864 7.4906 -1.9906 0.9578
4.0648 8.9088 -1.8406 0.9609
3.2554 9.2383 -1.8411 0.9609
2.4196 9.4945 -1.8416 0.9609
1.5640 9.6753 -1.8422 0.9609
-0.1791 9.8052 -1.8433 0.9609
-1.0528 9.7532 -1.8439 0.9609
-2.7697 9.4169 -1.8450 0.9608
-3.5992 9.1351 -1.8455 0.9608
-4.1525 5.5411 -1.3015 0.9722
-7.1989 6.6951 -1.8479 0.9608
-6.4866 5.0331 -1.5432 0.9671
-8.2766 5.3123 -1.8486 0.9608
-8.7186 4.5541 -1.8488 0.9608
-10.4100 2.2577 -2.0022 0.9576
-10.5704 1.3207 -2.0023 0.9576
-10.6463 0.3732 -2.0023 0.9576
-10.5431 -1.5233 -2.0023 0.9576
-10.3647 -2.4570 -2.0022 0.9576
-9.3422 -5.1103 -2.0015 0.9576
-8.8480 -5.9219 -2.0012 0.9576
-8.2834 -6.6858 -2.0008 0.9576
-5.0698 -8.5610 -1.8701 0.9603
-2.5885 -9.4683 -1.8450 0.9608
-0.8655 -9.7716 -1.8439 0.9609
0.0091 -9.8068 -1.8433 0.9609
1.7494 -9.6435 -1.8422 0.9609
3.4320 -9.1741 -1.8411 0.9609
4.4465 -9.2702 -1.9325 0.9590
6.2059 -8.5876 -1.9915 0.9578
6.9451 -7.9982 -1.9910 0.9578
7.6287 -7.3456 -1.9906 0.9578
8.8085 -5.8718 -1.9898 0.9578
10.4744 -1.4936 -1.9887 0.9579
10.4961 1.3312 -1.9887 0.9579
10.3362 2.2617 -1.9888 0.9579
9.7720 4.0620 -1.9891 0.9578
8.8978 5.7343 -1.9897 0.9578
7.7410 7.2259 -1.9904 0.9578
6.3206 8.4668 -1.9860 0.9579
4.3708 8.7615 -1.8404 0.9609
3.5733 9.1188 -1.8409 0.9609
2.7470 9.4038 -1.8414 0.9609
1.8983 9.6141 -1.8420 0.9609
0.1610 9.8044 -1.8431 0.9609
-2.4413 9.5062 -1.8448 0.9608
-3.2800 9.2534 -1.8453 0.9608
-4.6961 5.6015 -1.3739 0.9707
-6.9619 6.9401 -1.8477 0.9608
-7.5544 6.2932 -1.8481 0.9608
-8.0869 5.5957 -1.8484 0.9608
-9.2781 4.2190 -1.9158 0.9594
-10.3251 2.6172 -2.0021 0.9576
-10.5180 1.6864 -2.0022 0.9576
-10.6269 0.7421 -2.0023 0.9576
-10.6508 -0.2082 -2.0023 0.9576
-10.4440 -2.0962 -2.0022 0.9576
-10.2148 -3.0187 -2.0021 0.9576
-9.9040 -3.9168 -2.0019 0.9576
-9.5143 -4.7836 -2.0016 0.9576
-9.0486 -5.6119 -2.0013 0.9576
-7.2370 -7.8016 -2.0002 0.9576
-4.5365 -8.7121 -1.8462 0.9608
-3.7407 -9.0793 -1.8457 0.9608
-2.9156 -9.3739 -1.8452 0.9608
-2.0678 -9.5937 -1.8446 0.9608
-1.2039 -9.7369 -1.8441 0.9609
-0.3310 -9.8024 -1.8435 0.9609
0.5440 -9.7899 -1.8430 0.9609
2.2725 -9.5319 -1.8418 0.9609
3.1122 -9.2886 -1.8413 0.9609
5.9050 -8.7984 -1.9917 0.9578
6.6642 -8.2350 -1.9912 0.9578
8.0171 -6.9176 -1.9903 0.9578
8.6002 -6.1742 -1.9899 0.9578
10.4165 -1.8559 -1.9887 0.9579
10.5400 -0.9199 -1.9886 0.9579
10.1978 2.8223 -1.9888 0.9578
9.9065 3.7205 -1.9890 0.9578
9.5366 4.5894 -1.9893 0.9578
8.5726 6.2119 -1.9899 0.9578
7.3362 7.6385 -1.9907 0.9578
6.6275 8.2640 -1.9911 0.9578
5.4185 8.1510 -1.8397 0.9609
3.8870 8.9885 -1.8407 0.9609
3.0711 9.3018 -1.8412 0.9609
0.5008 9.7917 -1.8429 0.9609
-2.1100 9.5840 -1.8446 0.9608
-4.5747 8.6916 -1.8461 0.9608
-6.0486 7.7451 -1.8471 0.9608
-6.7165 7.1767 -1.8475 0.9608
-7.3311 6.5508 -1.8479 0.9608
-7.8875 5.8724 -1.8483 0.9608
-8.3810 5.1468 -1.8486 0.9608
-10.2279 2.9735 -2.0020 0.9576
-10.4530 2.0501 -2.0022 0.9576
-10.6517 0.1612 -2.0023 0.9576
-10.3136 -2.6627 -2.0021 0.9576
-10.0343 -3.5713 -2.0019 0.9576
-7.5038 -7.5467 -2.0003 0.9576
-6.7982 -8.1819 -1.9995 0.9576
-5.9194 -8.5782 -1.9590 0.9585
-4.0537 -8.9451 -1.8459 0.9608
-2.3994 -9.5173 -1.8449 0.9608
-0.6708 -9.7862 -1.8437 0.9609
0.2042 -9.8040 -1.8432 0.9609
1.0771 -9.7438 -1.8426 0.9609
1.9408 -9.6061 -1.8421 0.9609
2.7886 -9.3920 -1.8415 0.9609
3.6137 -9.1034 -1.8410 0.9609
4.7555 -9.4283 -1.9848 0.9579
5.5969 -8.9988 -1.9919 0.9578
7.7730 -7.1920 -1.9905 0.9578
8.3816 -6.4691 -1.9901 0.9578
8.9233 -5.6951 -1.9897 0.9578
9.3940 -4.8763 -1.9894 0.9578
10.1082 -3.1298 -1.9889 0.9578
-9.1315 -2.5020 -2.0014 0.9620
-8.8714 -3.3058 -2.0012 0.9620
-8.5405 -4.0831 -2.0010 0.9620
-8.1414 -4.8276 -2.0007 0.9620
-7.6775 -5.5333 -2.0004 0.9620
-7.1525 -6.1947 -2.0001 0.9621
-6.5706 -6.8063 -1.9997 0.9621
-5.9364 -7.3635 -1.9993 0.9621
-5.2552 -7.8617 -1.9989 0.9621
-4.5242 -8.2818 -1.9948 0.9622
-1.2427 -8.6352 -1.8441 0.9650
-0.4678 -8.7092 -1.8436 0.9650
0.3104 -8.7138 -1.8431 0.9650
1.8519 -8.5156 -1.8421 0.9650
2.6938 -8.6046 -1.9059 0.9638
3.5997 -8.6914 -1.9885 0.9623
6.4196 -6.8948 -1.9913 0.9622
7.5392 -5.6432 -1.9906 0.9622
8.0110 -4.9478 -1.9903 0.9622
8.7601 -3.4457 -1.9898 0.9622
9.2313 -1.8351 -1.9895 0.9623
9.2902 1.5072 -1.9894 0.9623
8.5622 3.9126 -1.9899 0.9622
7.7334 5.3723 -1.9904 0.9622
7.2249 6.0413 -1.9907 0.9622
6.6588 6.6625 -1.9911 0.9622
4.9623 7.1518 -1.8400 0.9650
2.1517 8.4434 -1.8418 0.9650
1.3908 8.6039 -1.8423 0.9650
0.6185 8.6960 -1.8428 0.9650
-0.9361 8.6723 -1.8438 0.9650
-1.7060 8.5566 -1.8443 0.9650
-2.4626 8.3727 -1.8448 0.9649
-3.2000 8.1219 -1.8453 0.9649
-3.1607 6.3066 -1.4911 0.9716
-3.5729 5.7775 -1.4359 0.9726
-4.1473 5.5342 -1.4619 0.9721
-4.5825 5.0962 -1.4487 0.9724
-9.0368 2.8235 -2.0013 0.9620
-9.2532 2.0068 -2.0014 0.9620
-9.3957 1.1740 -2.0015 0.9620
-9.4632 0.3317 -2.0016 0.9620
-9.3714 -1.3540 -2.0015 0.9620
-7.3635 -5.9433 -2.0002 0.9621
-5.5251 -7.6754 -1.9991 0.9621
-4.8156 -8.1318 -1.9977 0.9621
-4.0569 -8.4980 -1.9905 0.9622
-3.1535 -8.4773 -1.9119 0.9637
-0.7696 -8.6887 -1.8438 0.9650
0.0081 -8.7203 -1.8433 0.9650
0.7852 -8.6825 -1.8428 0.9650
1.5556 -8.5756 -1.8423 0.9650
4.0774 -8.5006 -1.9929 0.9622
6.7854 -6.5335 -1.9911 0.9622
7.3394 -5.9016 -1.9907 0.9622
7.8350 -5.2229 -1.9904 0.9622
8.2683 -4.5030 -1.9901 0.9622
8.6357 -3.7476 -1.9899 0.9622
9.3985 -0.4927 -1.9894 0.9623
9.3918 0.3466 -1.9866 0.9623
9.3368 1.1841 -1.9894 0.9623
8.9791 2.8237 -1.9896 0.9622
8.6924 3.6132 -1.9898 0.9622
7.9146 5.1006 -1.9903 0.9622
5.6205 7.5290 -1.9860 0.9623
4.5653 7.4129 -1.8403 0.9650
2.4429 8.3629 -1.8416 0.9650
1.6881 8.5496 -1.8421 0.9650
0.9195 8.6684 -1.8426 0.9650
0.1431 8.7182 -1.8431 0.9650
-1.4081 8.6097 -1.8441 0.9650
-2.1706 8.4522 -1.8446 0.9650
-2.9162 8.2272 -1.8451 0.9649
-4.3330 7.5823 -1.8460 0.9649
-6.1889 6.1696 -1.8472 0.9649
-6.7155 5.5943 -1.8475 0.9649
-7.1887 4.9742 -1.8479 0.9649
-8.6075 3.9140 -1.9987 0.9621
-8.9332 3.1350 -2.0012 0.9620
-9.1778 2.3264 -2.0014 0.9620
-9.3492 1.4990 -2.0015 0.9620
-9.4459 0.6596 -2.0015 0.9620
-9.4129 -1.0283 -2.0015 0.9620
-8.8036 -3.4817 -2.0012 0.9620
-8.4573 -4.2521 -2.0009 0.9620
-7.5656 -5.6848 -2.0004 0.9620
-5.7884 -7.4798 -1.9992 0.9621
-4.3549 -8.3634 -1.9932 0.9622
-3.4961 -8.4857 -1.9400 0.9632
-2.6325 -8.4638 -1.8736 0.9644
-0.2943 -8.7162 -1.8435 0.9650
2.8996 -8.6541 -1.9292 0.9634
5.2519 -7.8253 -1.9921 0.9622
5.9273 -7.3243 -1.9917 0.9622
6.5552 -6.7654 -1.9913 0.9622
7.1309 -6.1529 -1.9909 0.9622
8.5010 -4.0449 -1.9900 0.9622
8.8268 -3.2706 -1.9898 0.9622
9.0824 -2.4705 -1.9896 0.9622
9.4113 0.0208 -1.9894 0.9623
8.8121 3.3095 -1.9897 0.9622
7.6252 5.5253 -1.9905 0.9622
4.8192 7.2495 -1.8401 0.9650
4.1547 7.6520 -1.8405 0.9650
3.4568 7.9939 -1.8410 0.9650
1.2194 8.6304 -1.8424 0.9650
0.4453 8.7071 -1.8429 0.9650
-3.9962 5.1171 -1.3724 0.9738
-5.9708 6.3800 -1.8471 0.9649
-6.5171 5.8234 -1.8474 0.9649
-7.4501 4.5751 -1.8480 0.9649
-8.8188 3.4427 -2.0011 0.9620
-9.0914 2.6431 -2.0013 0.9620
-9.2914 1.8223 -2.0014 0.9620
-9.4173 0.9868 -2.0015 0.9620
-9.3426 -1.5403 -2.0015 0.9620
-9.1676 -2.3669 -2.0014 0.9620
-8.9194 -3.1744 -2.0012 0.9620
-8.2121 -4.7068 -2.0008 0.9620
-7.2435 -6.0885 -2.0002 0.9621
-6.6706 -6.7087 -1.9998 0.9621
-6.0448 -7.2752 -1.9994 0.9621
-4.6489 -8.2191 -1.9960 0.9621
-2.9611 -8.4724 -1.8971 0.9640
-0.5965 -8.7017 -1.8437 0.9650
0.9578 -8.6646 -1.8427 0.9650
3.4684 -8.7375 -1.9871 0.9623
4.2455 -8.4173 -1.9928 0.9622
7.4552 -5.7541 -1.9907 0.9622
8.3560 -4.3375 -1.9901 0.9622
8.7084 -3.5749 -1.9898 0.9622
8.9916 -2.7841 -1.9897 0.9622
-8.3787 -1.5088 -2.0009 0.9656
-7.9766 -2.9724 -2.0006 0.9656
-7.3205 -4.3408 -2.0002 0.9656
-6.4315 -5.5702 -1.9996 0.9656
-5.9083 -6.1203 -1.9993 0.9656
-4.7257 -7.0696 -1.9985 0.9657
-4.0759 -7.4611 -1.9981 0.9657
-2.6835 -8.0583 -1.9961 0.9657
-1.9503 -8.2482 -1.9920 0.9658
-0.4490 -8.3598 -1.9676 0.9662
0.2968 -8.3318 -1.9594 0.9663
1.7984 -8.2697 -1.9890 0.9658
3.9303 -7.5140 -1.9930 0.9658
6.3038 -5.6620 -1.9914 0.9658
7.5741 -3.7906 -1.9906 0.9658
7.8811 -3.1000 -1.9904 0.9658
8.3052 -1.6509 -1.9901 0.9658
8.2044 2.0958 -1.9901 0.9658
7.9855 2.8190 -1.9903 0.9658
7.7031 3.5200 -1.9905 0.9658
7.3594 4.1931 -1.9907 0.9658
6.9572 4.8331 -1.9909 0.9658
5.9902 5.9936 -1.9915 0.9658
4.6815 6.7471 -1.9301 0.9668
3.8734 6.8072 -1.8407 0.9683
3.2518 7.1269 -1.8411 0.9683
1.9354 7.5946 -1.8420 0.9683
0.5562 7.8214 -1.8428 0.9683
-0.8419 7.7996 -1.8437 0.9683
-1.5343 7.6954 -1.8442 0.9683
-2.2147 7.5298 -1.8446 0.9683
-2.8778 7.3041 -1.8451 0.9683
-3.1745 6.3341 -1.6652 0.9713
-3.1947 5.1659 -1.4275 0.9754
-6.2097 4.8183 -1.8472 0.9682
-8.5086 0.2982 -2.0009 0.9656
-8.5013 -0.4615 -2.0009 0.9656
-8.4261 -1.2174 -2.0009 0.9656
-8.0751 -2.6941 -2.0007 0.9656
-7.4669 -4.0845 -2.0003 0.9656
-7.0722 -4.7333 -2.0000 0.9656
-5.5650 -6.4328 -1.9991 0.9657
-4.9684 -6.9020 -1.9987 0.9657
-2.2368 -8.1818 -1.9935 0.9657
-0.7413 -8.3701 -1.9749 0.9661
0.0077 -8.3430 -1.9608 0.9663
0.7534 -8.3313 -1.9660 0.9662
1.5096 -8.3219 -1.9878 0.9658
2.2499 -8.1703 -1.9917 0.9658
2.9721 -7.9447 -1.9936 0.9657
3.6677 -7.6464 -1.9931 0.9658
5.5568 -6.3995 -1.9919 0.9658
7.0486 -4.6987 -1.9909 0.9658
7.4385 -4.0511 -1.9907 0.9658
7.7692 -3.3715 -1.9905 0.9658
8.0381 -2.6653 -1.9903 0.9658
8.4556 -0.4433 -1.9900 0.9658
8.4614 0.3123 -1.9900 0.9658
8.2720 1.8100 -1.9901 0.9658
8.0782 2.5404 -1.9902 0.9658
7.5000 3.9352 -1.9906 0.9658
7.1202 4.5887 -1.9908 0.9658
5.0605 6.7789 -1.9882 0.9658
2.8585 7.2947 -1.8414 0.9683
2.1974 7.5222 -1.8418 0.9683
1.5184 7.6900 -1.8422 0.9683
0.8270 7.7966 -1.8427 0.9683
0.1287 7.8412 -1.8431 0.9683
-1.2664 7.7432 -1.8440 0.9683
-2.6226 7.3988 -1.8449 0.9683
-3.2725 7.1372 -1.8453 0.9683
-4.2850 5.1111 -1.5675 0.9730
-6.0385 5.0304 -1.8471 0.9682
-6.4639 4.4727 -1.8474 0.9682
-8.0322 2.8188 -2.0006 0.9656
-8.4931 0.5931 -2.0009 0.9656
-8.5122 -0.1664 -2.0009 0.9656
-8.1639 -2.4126 -2.0007 0.9656
-7.6044 -3.8233 -2.0004 0.9656
-7.2324 -4.4855 -2.0001 0.9656
-6.8028 -5.1117 -1.9999 0.9656
-6.3191 -5.6969 -1.9996 0.9656
-5.2051 -6.7261 -1.9988 0.9657
-3.2378 -7.8587 -1.9976 0.9657
-1.7851 -8.2821 -1.9912 0.9658
-1.0361 -8.3800 -1.9845 0.9659
-0.2821 -8.3538 -1.9645 0.9662
1.2170 -8.3476 -1.9826 0.9659
4.0789 -7.4339 -1.9929 0.9658
5.8970 -6.0861 -1.9917 0.9658
6.4150 -5.5352 -1.9913 0.9658
6.8819 -4.9405 -1.9910 0.9658
7.2939 -4.3068 -1.9908 0.9658
8.3363 -1.4853 -1.9901 0.9658
8.4352 -0.7362 -1.9900 0.9658
8.4672 0.0187 -1.9900 0.9658
8.4319 0.7734 -1.9900 0.9658
7.9279 2.9774 -1.9903 0.9658
7.6317 3.6726 -1.9905 0.9658
6.3904 5.5633 -1.9913 0.9658
5.8700 6.1119 -1.9916 0.9658
5.3027 6.6120 -1.9920 0.9658
3.7373 6.8833 -1.8408 0.9683
3.1095 7.1906 -1.8412 0.9683
0.4005 7.8313 -1.8429 0.9683
-0.1916 5.0182 -1.1803 0.9796
-1.6872 7.6638 -1.8443 0.9683
-2.3642 7.4846 -1.8447 0.9683
-3.0227 7.2457 -1.8452 0.9683
-4.0026 5.1253 -1.5284 0.9736
-6.3046 4.6939 -1.8473 0.9682
-8.1744 2.3765 -2.0007 0.9656
-8.4904 -0.6305 -2.0009 0.9656
-8.2428 -2.1281 -2.0008 0.9656
-8.0198 -2.8543 -2.0006 0.9656
-5.4356 -6.5420 -1.9990 0.9657
-4.1858 -7.4004 -1.9982 0.9657
-3.5087 -7.7424 -1.9978 0.9657
-2.0726 -8.2210 -1.9926 0.9658
0.1737 -8.3366 -1.9597 0.9663
0.9209 -8.3311 -1.9699 0.9661
1.6755 -8.2928 -1.9884 0.9658
2.4134 -8.1282 -1.9928 0.9658
5.1007 -6.7702 -1.9922 0.9658
8.0894 -2.5047 -1.9902 0.9658
-7.2387 -2.6974 -2.0001 0.9686
-6.6434 -3.9393 -1.9998 0.9686
-3.0802 -7.0731 -1.9975 0.9686
-1.7745 -7.5045 -1.9966 0.9686
0.2743 -7.7015 -1.9953 0.9687
0.9596 -7.6447 -1.9949 0.9687
3.5680 -6.8214 -1.9932 0.9687
4.1611 -6.4749 -1.9928 0.9687
4.7208 -6.0770 -1.9924 0.9687
5.2429 -5.6310 -1.9921 0.9687
5.7231 -5.1404 -1.9918 0.9687
6.8767 -3.4415 -1.9910 0.9687
7.1555 -2.8146 -1.9908 0.9687
7.3773 -2.1653 -1.9907 0.9687
7.6439 -0.8207 -1.9905 0.9687
7.4491 1.9028 -1.9906 0.9687
6.6817 3.8070 -1.9911 0.9687
5.9009 4.9342 -1.9916 0.9687
5.4384 5.4414 -1.9919 0.9687
3.5163 6.1797 -1.8409 0.9710
2.3640 6.7087 -1.8417 0.9710
1.1356 7.0249 -1.8425 0.9710
-0.7642 7.0797 -1.8437 0.9710
-3.0906 6.1666 -1.7859 0.9719
-3.1947 5.1659 -1.5726 0.9752
-3.8467 5.1331 -1.6608 0.9738
-6.4830 4.1611 -1.9946 0.9687
-6.8462 3.5760 -1.9998 0.9686
-7.1384 2.9518 -2.0000 0.9686
-7.3737 2.3038 -2.0002 0.9686
-7.5502 1.6374 -2.0003 0.9686
-7.6664 0.9579 -2.0004 0.9686
-7.7148 -0.4188 -2.0004 0.9686
-7.6466 -1.1048 -2.0004 0.9686
-7.3281 -2.4449 -2.0002 0.9686
-6.4181 -4.2956 -1.9996 0.9686
-5.5518 -5.3655 -1.9991 0.9686
-5.0506 -5.8382 -1.9987 0.9686
-3.9321 -6.6399 -1.9980 0.9686
-3.3239 -6.9626 -1.9976 0.9686
-2.6894 -7.2297 -1.9972 0.9686
-2.0338 -7.4391 -1.9968 0.9686
-1.3622 -7.5892 -1.9964 0.9686
-0.6801 -7.6787 -1.9959 0.9687
0.0071 -7.7070 -1.9955 0.9687
1.3750 -7.5799 -1.9946 0.9687
2.6981 -7.2122 -1.9937 0.9687
4.5076 -6.2375 -1.9926 0.9687
5.0448 -5.8098 -1.9922 0.9687
6.3995 -4.2660 -1.9913 0.9687
6.7535 -3.6781 -1.9911 0.9687
7.0538 -3.0611 -1.9909 0.9687
7.6109 -1.0853 -1.9905 0.9687
7.6772 -0.4025 -1.9905 0.9687
7.6825 0.2835 -1.9905 0.9687
7.6267 0.9673 -1.9905 0.9687
7.5104 1.6434 -1.9906 0.9687
7.3344 2.3065 -1.9907 0.9687
6.8094 3.5729 -1.9910 0.9687
6.0681 4.7264 -1.9915 0.9687
5.6234 5.2493 -1.9918 0.9687
5.1339 5.7306 -1.9921 0.9687
4.6004 6.1626 -1.9912 0.9687
-1.1495 7.0284 -1.8439 0.9710
-2.3804 6.7154 -1.8447 0.9710
-2.9701 6.4778 -1.8451 0.9710
-3.1317 5.4801 -1.6342 0.9743
-3.5849 5.1463 -1.6239 0.9744
-5.4802 4.5653 -1.8468 0.9710
-6.2549 4.3281 -1.9694 0.9691
-7.4887 1.8982 -2.0003 0.9686
-7.6284 1.2231 -2.0004 0.9686
-7.7073 0.5382 -2.0004 0.9686
-7.4087 -2.1894 -2.0002 0.9686
-7.1835 -2.8409 -2.0001 0.9686
-6.9010 -3.4697 -1.9999 0.9686
-6.5635 -4.0706 -1.9997 0.9686
-6.1738 -4.6390 -1.9995 0.9686
-5.7348 -5.1701 -1.9992 0.9686
-5.2503 -5.6599 -1.9989 0.9686
-4.7240 -6.1044 -1.9985 0.9686
-4.1603 -6.5000 -1.9982 0.9686
-3.5636 -6.8437 -1.9978 0.9686
-2.9387 -7.1327 -1.9974 0.9686
-2.2907 -7.3647 -1.9970 0.9686
1.1115 -7.6237 -1.9948 0.9687
1.7863 -7.4926 -1.9943 0.9687
2.4466 -7.3020 -1.9939 0.9687
3.0871 -7.0533 -1.9935 0.9687
3.7029 -6.7487 -1.9931 0.9687
4.8407 -5.9816 -1.9924 0.9687
5.8241 -5.0253 -1.9917 0.9687
6.6222 -3.9102 -1.9912 0.9687
7.4188 -2.0180 -1.9907 0.9687
7.6587 -0.6684 -1.9905 0.9687
7.6877 0.0170 -1.9905 0.9687
7.6556 0.7022 -1.9905 0.9687
7.4098 2.0507 -1.9907 0.9687
6.6048 3.9393 -1.9912 0.9687
6.2280 4.5129 -1.9914 0.9687
5.8017 5.0509 -1.9917 0.9687
4.8141 6.0028 -1.9923 0.9687
4.2203 6.3487 -1.9738 0.9690
3.3928 6.2488 -1.8410 0.9710
2.2301 6.7547 -1.8418 0.9710
1.6194 6.9281 -1.8422 0.9710
-0.1916 5.0183 -1.3003 0.9795
-0.9050 7.0634 -1.8438 0.9710
-1.5314 6.9561 -1.8442 0.9710
-2.7435 6.5764 -1.8450 0.9710
-3.0919 5.8743 -1.7188 0.9729
-3.3341 5.1589 -1.5904 0.9749
-4.0026 5.1253 -1.6837 0.9735
-5.3183 4.7522 -1.8467 0.9710
-5.8543 4.3586 -1.8898 0.9703
-6.9162 3.4391 -1.9999 0.9686
-7.1959 2.8092 -2.0001 0.9686
-7.5813 1.4869 -2.0003 0.9686
-7.7049 -0.5722 -2.0004 0.9686
-7.0174 -3.2284 -2.0000 0.9686
-5.9110 -4.9684 -1.9993 0.9686
-5.4437 -5.4748 -1.9990 0.9686
-4.9332 -5.9373 -1.9987 0.9686
-4.3835 -6.3523 -1.9983 0.9686
-3.7990 -6.7165 -1.9979 0.9686
-1.8852 -7.4778 -1.9967 0.9686
-1.2109 -7.6144 -1.9963 0.9686
3.4669 -6.8736 -1.9933 0.9687
4.0651 -6.5359 -1.9929 0.9687
6.0891 -4.6997 -1.9915 0.9687
6.4829 -4.1376 -1.9913 0.9687
6.8252 -3.5429 -1.9911 0.9687
7.1132 -2.9200 -1.9909 0.9687
7.3446 -2.2741 -1.9907 0.9687
-6.6192 -2.4666 -1.9997 0.9711
-6.0750 -3.6022 -1.9994 0.9711
-4.9034 -5.0794 -1.9986 0.9711
-3.3830 -6.1928 -1.9977 0.9711
-2.8170 -6.4686 -1.9973 0.9711
-2.2287 -6.6926 -1.9969 0.9711
1.4972 -6.8846 -1.9945 0.9711
2.6949 -6.5067 -1.9937 0.9711
3.2636 -6.2394 -1.9934 0.9712
6.2906 -3.1482 -1.9914 0.9712
6.8981 -1.3712 -1.9910 0.9712
6.9926 -0.7508 -1.9909 0.9712
5.3979 4.5136 -1.9919 0.9712
4.9747 4.9775 -1.9922 0.9712
1.6070 6.3058 -1.8422 0.9733
0.4618 6.4935 -1.8429 0.9733
-0.6989 6.4749 -1.8437 0.9733
-1.2736 6.3881 -1.8440 0.9733
-1.8384 6.2504 -1.8444 0.9733
-4.3602 4.8489 -1.8460 0.9733
-4.7758 4.4415 -1.8463 0.9733
-6.5275 2.6992 -1.9996 0.9711
-6.7426 2.1067 -1.9998 0.9711
-7.0102 0.8759 -2.0000 0.9711
-7.0605 0.2475 -2.0000 0.9711
-6.9921 -1.0102 -2.0000 0.9711
-6.8740 -1.6295 -1.9999 0.9711
-6.4745 -2.8239 -1.9996 0.9711
-5.8690 -3.9280 -1.9993 0.9711
-5.0769 -4.9066 -1.9988 0.9711
-4.1236 -5.7284 -1.9981 0.9711
-3.5959 -6.0722 -1.9978 0.9711
-3.0398 -6.3674 -1.9974 0.9711
-1.8600 -6.8034 -1.9967 0.9711
-1.2459 -6.9408 -1.9963 0.9711
0.6347 -7.0188 -1.9951 0.9711
1.2576 -6.9329 -1.9947 0.9711
1.8703 -6.7918 -1.9943 0.9711
2.4678 -6.5968 -1.9939 0.9711
3.0455 -6.3493 -1.9935 0.9711
5.0693 -4.8811 -1.9922 0.9712
5.4835 -4.4092 -1.9919 0.9712
5.8540 -3.9024 -1.9917 0.9712
6.4527 -2.8002 -1.9913 0.9712
6.8465 -1.6096 -1.9910 0.9712
7.0231 -0.3682 -1.9909 0.9712
7.0279 0.2593 -1.9909 0.9712
6.9769 0.8848 -1.9909 0.9712
6.4951 2.6998 -1.9912 0.9712
5.9135 3.8110 -1.9916 0.9712
5.1440 4.8018 -1.9921 0.9712
4.2108 5.6406 -1.9927 0.9712
1.2607 6.3848 -1.8424 0.9733
0.6866 6.4731 -1.8428 0.9733
0.1069 6.5098 -1.8431 0.9733
-3.5341 5.0733 -1.7503 0.9746
-4.1892 4.9968 -1.8459 0.9733
-4.6186 4.6042 -1.8462 0.9733
-6.1430 3.4850 -1.9994 0.9711
-6.8478 1.7357 -1.9999 0.9711
-6.9755 1.1184 -1.9999 0.9711
-7.0476 0.4921 -2.0000 0.9711
-7.0635 -0.1381 -2.0000 0.9711
-7.0230 -0.7672 -2.0000 0.9711
-6.9264 -1.3902 -1.9999 0.9711
-6.7746 -2.0020 -1.9998 0.9711
-6.5687 -2.5978 -1.9997 0.9711
-6.0019 -3.7223 -1.9993 0.9711
-5.6456 -4.2421 -1.9991 0.9711
-5.2443 -4.7279 -1.9989 0.9711
-3.2589 -6.2586 -1.9976 0.9711
-2.6875 -6.5231 -1.9972 0.9711
-2.0949 -6.7354 -1.9968 0.9711
-0.8652 -6.9976 -1.9960 0.9711
-0.2379 -7.0454 -1.9956 0.9711
0.3910 -7.0371 -1.9952 0.9711
2.2378 -6.6789 -1.9940 0.9711
4.4279 -5.4716 -1.9926 0.9712
4.8973 -5.0543 -1.9923 0.9712
5.3276 -4.5969 -1.9920 0.9712
6.0578 -3.5769 -1.9916 0.9712
6.3519 -3.0224 -1.9914 0.9712
6.7867 -1.8461 -1.9911 0.9712
7.0061 -0.6115 -1.9909 0.9712
7.0327 0.0155 -1.9909 0.9712
7.0034 0.6424 -1.9909 0.9712
6.9184 1.2642 -1.9910 0.9712
6.0418 3.6036 -1.9915 0.9712
5.6972 4.1283 -1.9917 0.9712
5.3071 4.6203 -1.9920 0.9712
4.8748 5.0757 -1.9923 0.9712
3.8891 5.8504 -1.9888 0.9712
1.4812 6.3368 -1.8423 0.9733
0.9106 6.4449 -1.8426 0.9733
0.3325 6.5017 -1.8430 0.9733
-0.8277 6.4600 -1.8437 0.9733
-1.9625 6.2128 -1.8445 0.9733
-3.0358 5.7678 -1.8452 0.9733
-5.6493 4.2060 -1.9939 0.9711
-6.3243 3.1449 -1.9995 0.9711
-6.5801 2.5687 -1.9997 0.9711
-6.9325 1.3596 -1.9999 0.9711
-7.0263 0.7362 -2.0000 0.9711
-7.0640 0.1069 -2.0000 0.9711
-7.0454 -0.5232 -2.0000 0.9711
-6.9706 -1.1492 -2.0000 0.9711
-5.7895 -4.0440 -1.9992 0.9711
-5.4053 -4.5434 -1.9990 0.9711
-4.0087 -5.8091 -1.9981 0.9711
-3.4742 -6.1423 -1.9977 0.9711
-2.3274 -6.6592 -1.9970 0.9711
-1.7242 -6.8388 -1.9966 0.9711
0.1468 -7.0470 -1.9954 0.9711
1.3953 -6.9061 -1.9946 0.9711
2.0050 -6.7529 -1.9942 0.9711
3.1711 -6.2872 -1.9934 0.9712
3.7183 -5.9784 -1.9931 0.9712
4.2358 -5.6221 -1.9927 0.9712
5.1653 -4.7791 -1.9921 0.9712
5.5700 -4.2991 -1.9919 0.9712
5.9304 -3.7850 -1.9916 0.9712
6.2435 -3.2409 -1.9914 0.9712
6.5070 -2.6712 -1.9913 0.9712
6.7188 -2.0803 -1.9911 0.9712
6.8771 -1.4730 -1.9910 0.9712
-6.3981 -1.1522 -1.9996 0.9732
-6.2697 -1.7179 -1.9995 0.9732
-6.0913 -2.2699 -1.9994 0.9732
-5.8642 -2.8036 -1.9992 0.9732
-5.5905 -3.3149 -1.9991 0.9732
-5.2722 -3.7997 -1.9989 0.9732
-4.9119 -4.2541 -1.9986 0.9732
-4.5125 -4.6744 -1.9984 0.9732
-4.0773 -5.0574 -1.9981 0.9732
-3.6097 -5.3999 -1.9978 0.9732
-2.5925 -5.9532 -1.9972 0.9732
-2.0511 -6.1595 -1.9968 0.9732
-1.4936 -6.3167 -1.9964 0.9732
-0.3480 -6.4791 -1.9957 0.9732
1.9371 -6.1875 -1.9942 0.9732
3.0040 -5.7432 -1.9935 0.9732
3.5035 -5.4517 -1.9932 0.9732
3.9749 -5.1168 -1.9929 0.9732
4.4146 -4.7414 -1.9926 0.9733
6.2125 -1.8234 -1.9914 0.9733
6.4371 -0.6912 -1.9913 0.9733
6.4575 0.4629 -1.9913 0.9733
6.1055 2.1553 -1.9915 0.9733
5.6266 3.2058 -1.9918 0.9733
4.5793 4.5819 -1.9925 0.9733
3.1939 5.6131 -1.9864 0.9733
2.4854 5.4472 -1.8416 0.9753
1.9903 5.6481 -1.8419 0.9753
0.9560 5.9139 -1.8426 0.9752
-0.1095 5.9919 -1.8433 0.9752
-0.6433 5.9594 -1.8436 0.9752
-1.1722 5.8794 -1.8440 0.9752
-1.6920 5.7525 -1.8443 0.9752
-2.1984 5.5798 -1.8446 0.9752
-3.1494 5.0927 -1.8417 0.9753
-3.5983 4.8016 -1.8455 0.9752
-5.4693 3.5105 -1.9990 0.9732
-6.3532 1.3778 -1.9995 0.9732
-6.4917 -0.3524 -1.9996 0.9732
-6.3256 -1.4995 -1.9995 0.9732
-6.1664 -2.0573 -1.9994 0.9732
-5.9581 -2.5987 -1.9993 0.9732
-5.7023 -3.1192 -1.9991 0.9732
-5.4010 -3.6148 -1.9990 0.9732
-4.6721 -4.5154 -1.9985 0.9732
-3.7950 -5.2718 -1.9979 0.9732
-3.3094 -5.5883 -1.9976 0.9732
-1.7119 -6.2615 -1.9966 0.9732
-0.5725 -6.4636 -1.9959 0.9732
0.5842 -6.4601 -1.9951 0.9732
2.8033 -5.8443 -1.9937 0.9732
4.2478 -4.8919 -1.9927 0.9733
4.6663 -4.4932 -1.9925 0.9733
5.0477 -4.0588 -1.9922 0.9733
5.6870 -3.0972 -1.9918 0.9733
6.4227 0.8146 -1.9913 0.9733
6.3247 1.3839 -1.9914 0.9733
5.9790 2.4853 -1.9916 0.9733
5.7341 3.0087 -1.9917 0.9733
5.4436 3.5082 -1.9919 0.9733
4.3228 4.8253 -1.9926 0.9733
3.8760 5.1922 -1.9929 0.9732
3.3920 5.5077 -1.9895 0.9733
1.6793 5.7489 -1.8421 0.9752
0.6320 5.9579 -1.8428 0.9752
-0.4362 5.9777 -1.8435 0.9752
-2.0035 5.6523 -1.8445 0.9752
-2.4998 5.4521 -1.8448 0.9752
-2.9764 5.2084 -1.8451 0.9752
-3.4294 4.9232 -1.8454 0.9752
-4.4231 4.4092 -1.9209 0.9742
-5.6531 3.2071 -1.9991 0.9732
-5.9170 2.6906 -1.9993 0.9732
-6.3015 1.5973 -1.9995 0.9732
-6.4191 1.0292 -1.9996 0.9732
-6.5000 -0.1271 -1.9996 0.9732
-6.4627 -0.7060 -1.9996 0.9732
-6.3739 -1.2793 -1.9996 0.9732
-6.2342 -1.8423 -1.9995 0.9732
-6.0448 -2.3906 -1.9994 0.9732
-5.5233 -3.4255 -1.9990 0.9732
-4.8261 -4.3509 -1.9986 0.9732
-3.9757 -5.1374 -1.9980 0.9732
-3.5014 -5.4705 -1.9977 0.9732
-1.9281 -6.1988 -1.9967 0.9732
-0.7963 -6.4404 -1.9960 0.9732
-0.2190 -6.4845 -1.9956 0.9732
0.3599 -6.4770 -1.9953 0.9732
0.9357 -6.4179 -1.9949 0.9732
1.5038 -6.3078 -1.9945 0.9732
2.5991 -5.9384 -1.9938 0.9732
3.1176 -5.6821 -1.9935 0.9732
4.0759 -5.0366 -1.9928 0.9732
4.9041 -4.2315 -1.9923 0.9733
5.2612 -3.7771 -1.9921 0.9733
5.5764 -3.2927 -1.9919 0.9733
5.8472 -2.7822 -1.9917 0.9733
6.0715 -2.2497 -1.9915 0.9733
6.2475 -1.6994 -1.9914 0.9733
6.3739 -1.1357 -1.9913 0.9733
6.4496 -0.5629 -1.9913 0.9733
6.3688 1.1638 -1.9913 0.9733
6.2399 1.7269 -1.9914 0.9733
5.2444 3.8002 -1.9920 0.9733
4.8853 4.2531 -1.9923 0.9733
4.4873 4.6722 -1.9925 0.9733
4.0535 5.0544 -1.9928 0.9733
3.0288 5.5784 -1.9524 0.9738
0.8381 5.9320 -1.8427 0.9752
-0.1916 5.0184 -1.5447 0.9792
-0.7618 5.9456 -1.8437 0.9752
-1.2890 5.8551 -1.8440 0.9752
-1.8062 5.7180 -1.8444 0.9752
-2.3091 5.5352 -1.8447 0.9752
-3.6933 4.7292 -1.8456 0.9752
-4.8293 4.3153 -1.9920 0.9733
-5.2125 3.8808 -1.9988 0.9732
-5.8199 2.8940 -1.9992 0.9732
-6.2422 1.8148 -1.9995 0.9732
-6.3795 1.2512 -1.9996 0.9732
-6.4834 -0.4815 -1.9996 0.9732
-6.4145 -1.0575 -1.9996 0.9732
-6.1242 -2.1796 -1.9994 0.9732
-5.6389 -3.2320 -1.9991 0.9732
-4.9743 -4.1811 -1.9987 0.9732
-4.5812 -4.6074 -1.9984 0.9732
-4.1517 -4.9967 -1.9982 0.9732
-2.6803 -5.9144 -1.9972 0.9732
-2.1420 -6.1287 -1.9969 0.9732
-1.5868 -6.2941 -1.9965 0.9732
-0.4437 -6.4735 -1.9958 0.9732
0.1351 -6.4860 -1.9954 0.9732
1.2843 -6.3566 -1.9947 0.9732
2.3918 -6.0253 -1.9939 0.9732
2.9189 -5.7871 -1.9936 0.9732
5.1273 -3.9574 -1.9922 0.9733
5.4591 -3.4842 -1.9919 0.9733
5.7474 -2.9834 -1.9918 0.9733
5.9900 -2.4589 -1.9916 0.9733
6.1850 -1.9150 -1.9915 0.9733
-5.9194 -1.0660 -1.9993 0.9750
-5.6355 -2.1000 -1.9991 0.9750
-5.4255 -2.5939 -1.9990 0.9750
-2.8807 -5.2732 -1.9973 0.9750
-1.3820 -5.8447 -1.9964 0.9750
-0.8553 -5.9436 -1.9960 0.9750
-0.3220 -5.9951 -1.9957 0.9750
0.2137 -5.9989 -1.9953 0.9750
0.7475 -5.9550 -1.9950 0.9750
1.2751 -5.8636 -1.9947 0.9750
2.2954 -5.5421 -1.9940 0.9750
2.7799 -5.3146 -1.9937 0.9750
3.2421 -5.0449 -1.9934 0.9750
4.0853 -4.3878 -1.9928 0.9750
4.7985 -3.5917 -1.9924 0.9751
5.0990 -3.1493 -1.9922 0.9751
5.7494 -1.6875 -1.9917 0.9751
5.9905 -0.1060 -1.9916 0.9751
5.8053 1.4829 -1.9917 0.9751
5.6503 1.9947 -1.9918 0.9751
5.4503 2.4906 -1.9919 0.9751
5.2070 2.9668 -1.9921 0.9751
4.9223 3.4194 -1.9922 0.9751
4.5983 3.8450 -1.9925 0.9751
4.2377 4.2401 -1.9927 0.9750
3.4183 4.9266 -1.9932 0.9750
2.9620 5.2056 -1.9909 0.9751
2.4103 5.2827 -1.9301 0.9758
1.8461 5.2390 -1.8464 0.9769
0.8846 5.4723 -1.8426 0.9769
0.3933 5.5303 -1.8430 0.9769
-0.5952 5.5142 -1.8436 0.9769
-1.5655 5.3227 -1.8442 0.9769
-2.0341 5.1628 -1.8445 0.9769
-2.4867 4.9617 -1.8448 0.9769
-3.9719 4.4171 -1.9746 0.9753
-5.0602 3.2479 -1.9987 0.9750
-5.5574 2.2980 -1.9990 0.9750
-5.7405 1.7936 -1.9991 0.9750
-5.9682 0.7457 -1.9993 0.9750
-6.0059 -0.3260 -1.9993 0.9750
-5.9528 -0.8601 -1.9993 0.9750
-5.8523 -1.3873 -1.9992 0.9750
-5.7050 -1.9034 -1.9991 0.9750
-5.5123 -2.4042 -1.9990 0.9750
-4.9969 -3.3444 -1.9987 0.9750
-4.6784 -3.7761 -1.9985 0.9750
-3.5112 -4.8776 -1.9977 0.9750
-3.0619 -5.1705 -1.9975 0.9750
-0.5297 -5.9808 -1.9958 0.9750
1.0711 -5.9047 -1.9948 0.9750
1.5930 -5.7847 -1.9945 0.9750
2.1020 -5.6188 -1.9941 0.9750
3.5122 -4.8601 -1.9932 0.9750
3.9309 -4.5270 -1.9929 0.9750
4.6712 -3.7561 -1.9925 0.9751
4.9870 -3.3244 -1.9922 0.9751
5.4971 -2.3855 -1.9919 0.9751
5.6875 -1.8859 -1.9918 0.9751
5.9315 -0.8458 -1.9916 0.9751
5.9832 -0.3137 -1.9916 0.9751
5.9439 0.7538 -1.9916 0.9751
5.8532 1.2807 -1.9917 0.9751
5.7159 1.7975 -1.9917 0.9751
5.3066 2.7843 -1.9920 0.9751
4.7287 3.6831 -1.9924 0.9751
4.0004 4.4653 -1.9928 0.9750
3.1447 5.1062 -1.9934 0.9750
2.0217 5.1592 -1.8419 0.9769
1.0737 5.4380 -1.8425 0.9769
0.5848 5.5130 -1.8428 0.9769
-0.4037 5.5312 -1.8435 0.9769
-1.3800 5.3734 -1.8441 0.9769
-1.8538 5.2299 -1.8444 0.9769
-2.7539 4.8191 -1.8450 0.9769
-3.1730 4.5550 -1.8453 0.9769
-4.6192 3.8480 -1.9984 0.9750
-4.9443 3.4212 -1.9986 0.9750
-5.2301 2.9671 -1.9988 0.9750
-5.4742 2.4893 -1.9990 0.9750
-5.6747 1.9915 -1.9991 0.9750
-6.0001 0.4190 -1.9993 0.9750
-6.0136 -0.1176 -1.9993 0.9750
-5.8969 -1.1836 -1.9993 0.9750
-5.7677 -1.7045 -1.9992 0.9750
-4.4651 -4.0255 -1.9984 0.9750
-4.0880 -4.4069 -1.9981 0.9750
-3.6784 -4.7532 -1.9979 0.9750
-3.2396 -5.0615 -1.9976 0.9750
-2.7750 -5.3293 -1.9973 0.9750
-1.7840 -5.7356 -1.9966 0.9750
-0.7368 -5.9592 -1.9960 0.9750
-0.2026 -6.0001 -1.9956 0.9750
0.3330 -5.9933 -1.9953 0.9750
0.8658 -5.9387 -1.9949 0.9750
2.8850 -5.2581 -1.9936 0.9750
3.7718 -4.6608 -1.9930 0.9750
4.5384 -3.9160 -1.9925 0.9750
4.8689 -3.4954 -1.9923 0.9751
5.1606 -3.0472 -1.9921 0.9751
5.4113 -2.5748 -1.9920 0.9751
5.7818 -1.5727 -1.9917 0.9751
5.8987 -1.0510 -1.9916 0.9751
5.9914 0.0132 -1.9916 0.9751
5.9664 0.5473 -1.9916 0.9751
5.8940 1.0770 -1.9916 0.9751
5.3998 2.5986 -1.9919 0.9751
5.1470 3.0699 -1.9921 0.9751
4.8533 3.5168 -1.9923 0.9751
4.1526 4.3237 -1.9927 0.9750
3.7511 4.6773 -1.9930 0.9750
2.8556 5.2594 -1.9893 0.9751
1.7374 5.2623 -1.8421 0.9769
0.7755 5.4891 -1.8427 0.9769
-0.7049 5.5015 -1.8437 0.9769
-1.1927 5.4177 -1.8440 0.9769
-2.1366 5.1214 -1.8446 0.9769
-3.0130 4.6621 -1.8452 0.9769
-3.4786 4.4543 -1.8786 0.9765
-4.0929 4.3734 -1.9911 0.9751
-4.8225 3.5905 -1.9985 0.9750
-5.1239 3.1466 -1.9987 0.9750
-5.6021 2.1870 -1.9991 0.9750
-5.9819 0.6268 -1.9993 0.9750
-5.6659 -2.0165 -1.9991 0.9750
-5.4633 -2.5134 -1.9990 0.9750
-5.2171 -2.9902 -1.9988 0.9750
-4.2386 -4.2628 -1.9982 0.9750
-3.8412 -4.6231 -1.9980 0.9750
-2.9583 -5.2302 -1.9974 0.9750
-2.4799 -5.4723 -1.9971 0.9750
-1.9819 -5.6706 -1.9968 0.9750
-0.4106 -5.9899 -1.9957 0.9750
0.1250 -6.0016 -1.9954 0.9750
0.6594 -5.9655 -1.9951 0.9750
2.2133 -5.5756 -1.9941 0.9750
3.1673 -5.0924 -1.9934 0.9750
3.6081 -4.7891 -1.9931 0.9750
4.0201 -4.4477 -1.9929 0.9750
5.5434 -2.2756 -1.9919 0.9751
5.7239 -1.7723 -1.9918 0.9751
-5.2377 -1.9518 -1.9988 0.9765
-5.0425 -2.4107 -1.9987 0.9765
-4.5335 -3.2674 -1.9984 0.9765
-3.1042 -4.6437 -1.9975 0.9766
-2.2296 -5.1197 -1.9969 0.9766
-1.2846 -5.4326 -1.9963 0.9766
-0.2993 -5.5726 -1.9957 0.9766
0.1986 -5.5762 -1.9954 0.9766
0.6948 -5.5354 -1.9950 0.9766
1.1853 -5.4506 -1.9947 0.9766
1.6662 -5.3224 -1.9944 0.9766
2.1337 -5.1518 -1.9941 0.9766
4.1458 -3.7237 -1.9928 0.9766
4.4608 -3.3390 -1.9926 0.9766
5.1841 -2.0391 -1.9921 0.9766
5.4632 -1.0860 -1.9919 0.9766
5.5382 -0.5946 -1.9919 0.9766
5.5691 -0.0986 -1.9919 0.9766
5.2528 1.8543 -1.9920 0.9766
3.9395 3.9417 -1.9929 0.9766
3.1776 4.5797 -1.9934 0.9766
2.3087 5.0599 -1.9889 0.9767
-0.0941 5.1536 -1.8433 0.9783
-0.5533 5.1255 -1.8436 0.9783
-1.0082 5.0566 -1.8439 0.9783
-1.4552 4.9474 -1.8442 0.9783
-2.3113 4.6117 -1.8447 0.9783
-2.7712 4.4811 -1.8841 0.9779
-3.3278 4.4406 -1.9844 0.9767
-4.0914 3.8051 -1.9981 0.9765
-4.4148 3.4255 -1.9983 0.9765
-4.7030 3.0186 -1.9985 0.9765
-4.9538 2.5876 -1.9986 0.9765
-5.3353 1.6669 -1.9989 0.9765
-5.4629 1.1847 -1.9990 0.9765
-5.5469 0.6931 -1.9990 0.9765
-5.5867 0.1958 -1.9991 0.9765
-5.4391 -1.2894 -1.9990 0.9765
-4.0176 -3.8829 -1.9981 0.9765
-3.2635 -4.5335 -1.9976 0.9765
-2.8460 -4.8057 -1.9973 0.9766
-2.4059 -5.0396 -1.9970 0.9766
-1.4722 -5.3851 -1.9964 0.9766
-0.9862 -5.4941 -1.9961 0.9766
-0.4924 -5.5592 -1.9958 0.9766
0.0052 -5.5801 -1.9955 0.9766
1.9539 -5.2230 -1.9942 0.9766
2.4114 -5.0273 -1.9939 0.9766
4.0144 -3.8654 -1.9929 0.9766
4.3425 -3.4918 -1.9927 0.9766
5.1104 -2.2177 -1.9922 0.9766
5.5257 0.7008 -1.9919 0.9766
5.4414 1.1906 -1.9919 0.9766
4.6832 3.0181 -1.9924 0.9766
4.3959 3.4239 -1.9926 0.9766
4.0736 3.8026 -1.9928 0.9766
3.3344 4.4666 -1.9933 0.9766
2.9233 4.7467 -1.9935 0.9766
2.4856 4.9825 -1.9912 0.9766
1.4449 4.9463 -1.8428 0.9783
0.5436 5.1246 -1.8429 0.9783
0.0846 5.1535 -1.8432 0.9783
-2.1499 4.6888 -1.8446 0.9783
-3.1048 4.4571 -1.9425 0.9772
-3.9568 3.9445 -1.9980 0.9765
-4.2932 3.5764 -1.9982 0.9765
-4.5954 3.1798 -1.9984 0.9765
-5.2741 1.8509 -1.9988 0.9765
-5.5195 0.8850 -1.9990 0.9765
-5.5765 0.3894 -1.9990 0.9765
-5.4806 -1.1000 -1.9990 0.9765
-5.3605 -1.5841 -1.9989 0.9765
-5.1977 -2.0556 -1.9988 0.9765
-4.7494 -2.9455 -1.9985 0.9765
-4.4675 -3.3569 -1.9984 0.9765
-4.1500 -3.7414 -1.9981 0.9765
-3.0110 -4.7044 -1.9974 0.9766
-1.6582 -5.3312 -1.9966 0.9766
-0.1883 -5.5772 -1.9956 0.9766
0.8048 -5.5203 -1.9950 0.9766
1.2935 -5.4257 -1.9946 0.9766
1.7718 -5.2880 -1.9943 0.9766
2.2358 -5.1082 -1.9940 0.9766
2.6819 -4.8878 -1.9937 0.9766
3.5063 -4.3327 -1.9932 0.9766
3.8781 -4.0024 -1.9930 0.9766
4.5263 -3.2494 -1.9925 0.9766
4.7975 -2.8328 -1.9924 0.9766
5.0305 -2.3936 -1.9922 0.9766
5.4837 -0.9771 -1.9919 0.9766
5.5489 -0.4843 -1.9919 0.9766
5.3685 1.4858 -1.9920 0.9766
5.2149 1.9585 -1.9921 0.9766
3.0860 4.6422 -1.9934 0.9766
2.6600 4.8991 -1.9936 0.9766
1.6500 4.9978 -1.8821 0.9779
0.2632 5.1471 -1.8430 0.9783
-0.1916 5.0186 -1.7960 0.9789
-1.1086 5.0357 -1.8439 0.9783
-1.5534 4.9176 -1.8442 0.9783
-1.9859 4.7603 -1.8445 0.9783
-3.8141 4.0755 -1.9961 0.9766
-4.1664 3.7230 -1.9981 0.9765
-4.7623 2.9245 -1.9985 0.9765
-5.0044 2.4885 -1.9987 0.9765
-5.2067 2.0326 -1.9988 0.9765
-5.3675 1.5604 -1.9989 0.9765
-5.4854 1.0758 -1.9990 0.9765
-5.5596 0.5825 -1.9990 0.9765
-5.5895 0.0846 -1.9991 0.9765
-5.5155 -0.9093 -1.9990 0.9765
-5.4123 -1.3973 -1.9989 0.9765
-5.2660 -1.8742 -1.9989 0.9765
-5.0776 -2.3360 -1.9987 0.9765
-4.8488 -2.7791 -1.9986 0.9765
-4.5814 -3.2001 -1.9984 0.9765
-4.2774 -3.5954 -1.9982 0.9765
-1.3647 -5.4132 -1.9964 0.9766
-0.8766 -5.5124 -1.9960 0.9766
-0.3816 -5.5677 -1.9957 0.9766
2.0574 -5.1829 -1.9942 0.9766
3.3541 -4.4519 -1.9933 0.9766
3.7372 -4.1347 -1.9931 0.9766
4.4110 -3.4046 -1.9926 0.9766
4.9446 -2.5667 -1.9923 0.9766
5.4466 -1.1666 -1.9919 0.9766
-5.0302 -1.3783 -1.9987 0.9779
-4.7050 -2.2494 -1.9985 0.9779
-4.2301 -3.0487 -1.9982 0.9779
-3.2716 -4.0581 -1.9976 0.9779
-2.8965 -4.3331 -1.9973 0.9779
-2.4984 -4.5734 -1.9971 0.9779
-2.0805 -4.7773 -1.9968 0.9779
-1.6461 -4.9431 -1.9965 0.9779
-1.1987 -5.0694 -1.9963 0.9779
-0.7419 -5.1553 -1.9960 0.9779
-0.2793 -5.2001 -1.9957 0.9779
1.5549 -4.9668 -1.9945 0.9780
4.6495 -2.3269 -1.9925 0.9780
5.0987 -1.0136 -1.9922 0.9780
5.1687 -0.5550 -1.9921 0.9780
5.1850 0.3717 -1.9921 0.9780
5.1313 0.8325 -1.9921 0.9780
4.9023 1.7306 -1.9923 0.9780
4.7288 2.1608 -1.9924 0.9780
4.5176 2.5740 -1.9925 0.9780
3.9894 3.3359 -1.9929 0.9780
3.6765 3.6786 -1.9931 0.9780
2.5730 4.5219 -1.9938 0.9780
2.1591 4.7320 -1.9932 0.9780
0.3412 4.7971 -1.8430 0.9796
-1.7824 4.5239 -1.8633 0.9794
-2.7317 4.4173 -1.9903 0.9780
-3.4855 3.8762 -1.9977 0.9779
-3.8176 3.5505 -1.9979 0.9779
-4.1194 3.1963 -1.9981 0.9779
-4.3883 2.8166 -1.9983 0.9779
-4.8194 1.9928 -1.9985 0.9779
-4.9781 1.5554 -1.9987 0.9779
-5.0972 1.1054 -1.9987 0.9779
-2.3015 0.2876 -0.8888 0.9901
-2.2981 0.0806 -0.8812 0.9902
-4.9474 -1.6506 -1.9987 0.9779
-4.7803 -2.0850 -1.9985 0.9779
-4.5751 -2.5026 -1.9984 0.9779
-4.0573 -3.2748 -1.9981 0.9779
-3.7488 -3.6231 -1.9979 0.9779
-3.4105 -3.9424 -1.9977 0.9779
-3.0452 -4.2302 -1.9974 0.9779
-1.8166 -4.8833 -1.9966 0.9779
-0.9202 -5.1268 -1.9961 0.9779
-0.4595 -5.1876 -1.9958 0.9779
0.4689 -5.1852 -1.9952 0.9779
0.9292 -5.1220 -1.9949 0.9779
1.3818 -5.0180 -1.9946 0.9780
2.2504 -4.6916 -1.9940 0.9780
3.4103 -3.9274 -1.9933 0.9780
3.7464 -3.6074 -1.9931 0.9780
4.0527 -3.2587 -1.9929 0.9780
4.3266 -2.8842 -1.9927 0.9780
4.5662 -2.4868 -1.9925 0.9780
4.7694 -2.0697 -1.9924 0.9780
5.1464 -0.7339 -1.9921 0.9780
5.1948 0.1917 -1.9921 0.9780
4.9593 1.5595 -1.9922 0.9780
4.8007 1.9955 -1.9923 0.9780
4.6040 2.4157 -1.9925 0.9780
4.3707 2.8167 -1.9926 0.9780
4.1025 3.1954 -1.9928 0.9780
3.4706 3.8739 -1.9932 0.9780
2.3227 4.6559 -1.9939 0.9780
0.5073 4.7822 -1.8429 0.9796
0.0789 4.8091 -1.8432 0.9796
-0.3501 4.7977 -1.8434 0.9796
-1.1969 4.6606 -1.8440 0.9796
-1.6090 4.5392 -1.8455 0.9796
-2.0660 4.5060 -1.8996 0.9790
-2.5561 4.4729 -1.9742 0.9782
-3.3487 3.9944 -1.9975 0.9779
-3.6921 3.6805 -1.9978 0.9779
-4.0059 3.3371 -1.9980 0.9779
-4.2878 2.9670 -1.9982 0.9779
-4.9211 1.7270 -1.9986 0.9779
-5.0557 1.2815 -1.9987 0.9779
-2.3037 0.1609 -0.8850 0.9902
-2.2937 -0.0448 -0.8792 0.9902
-5.1137 -1.0264 -1.9988 0.9779
-5.0017 -1.4781 -1.9987 0.9779
-4.8498 -1.9180 -1.9986 0.9779
-4.4315 -2.7484 -1.9983 0.9779
-4.1685 -3.1322 -1.9982 0.9779
-3.5453 -3.8219 -1.9978 0.9779
-3.1902 -4.1223 -1.9975 0.9779
-1.9849 -4.8176 -1.9968 0.9779
-1.5473 -4.9747 -1.9965 0.9779
-1.0975 -5.0921 -1.9962 0.9779
-0.6391 -5.1689 -1.9959 0.9779
-0.1758 -5.2045 -1.9956 0.9779
0.7510 -5.1514 -1.9950 0.9779
1.2071 -5.0632 -1.9947 0.9779
1.6534 -4.9347 -1.9944 0.9780
3.2722 -4.0435 -1.9934 0.9780
4.6948 -2.2339 -1.9924 0.9780
5.1787 -0.4520 -1.9921 0.9780
5.1983 0.0115 -1.9921 0.9780
5.1138 0.9344 -1.9921 0.9780
5.0103 1.3866 -1.9922 0.9780
4.4656 2.6634 -1.9925 0.9780
3.9223 3.4147 -1.9929 0.9780
3.6026 3.7511 -1.9931 0.9780
3.2543 4.0578 -1.9933 0.9780
2.4826 4.5723 -1.9938 0.9780
1.6259 4.9247 -1.9874 0.9780
0.2456 4.8031 -1.8431 0.9796
-0.1835 4.8066 -1.8433 0.9796
-0.6114 4.7719 -1.8436 0.9796
-1.0345 4.6991 -1.8439 0.9796
-1.8846 4.5176 -1.8758 0.9793
-2.3613 4.4864 -1.9428 0.9785
-3.5621 3.8062 -1.9977 0.9779
-3.8876 3.4739 -1.9979 0.9779
-4.1822 3.1138 -1.9981 0.9779
-4.6695 2.3219 -1.9984 0.9779
-5.0082 1.4560 -1.9987 0.9779
-2.3031 0.2413 -0.8874 0.9901
-2.2922 0.0347 -0.8785 0.9902
-2.3039 -0.1711 -0.8853 0.9902
-5.0500 -1.3038 -1.9987 0.9779
-4.7377 -2.1797 -1.9985 0.9779
-4.5243 -2.5931 -1.9984 0.9779
-4.2748 -2.9859 -1.9982 0.9779
-3.9912 -3.3548 -1.9980 0.9779
-3.3313 -4.0094 -1.9976 0.9779
-2.1509 -4.7462 -1.9969 0.9779
-1.7190 -4.9183 -1.9966 0.9779
-1.2735 -5.0512 -1.9963 0.9779
-0.8180 -5.1439 -1.9960 0.9779
-0.3561 -5.1956 -1.9957 0.9779
3.1302 -4.1547 -1.9935 0.9780
3.8174 -3.5320 -1.9930 0.9780
4.1166 -3.1773 -1.9928 0.9780
4.3831 -2.7974 -1.9926 0.9780
4.6147 -2.3954 -1.9925 0.9780
4.8095 -1.9744 -1.9924 0.9780
-4.7094 -1.2904 -1.9985 0.9791
-4.5755 -1.7050 -1.9984 0.9791
-4.1995 -2.4901 -1.9982 0.9791
-3.9604 -2.8544 -1.9980 0.9791
-3.6899 -3.1958 -1.9978 0.9791
-3.3900 -3.5117 -1.9977 0.9791
-1.5412 -4.6282 -1.9965 0.9791
-1.1223 -4.7465 -1.9962 0.9791
-0.2615 -4.8690 -1.9956 0.9791
0.1735 -4.8723 -1.9954 0.9791
1.4560 -4.6508 -1.9945 0.9792
1.8645 -4.5018 -1.9943 0.9792
3.3188 -3.5645 -1.9933 0.9792
3.8983 -2.9180 -1.9929 0.9792
4.3539 -2.1790 -1.9926 0.9792
4.5306 -1.7821 -1.9925 0.9792
4.7746 -0.9491 -1.9924 0.9792
4.8401 -0.5197 -1.9923 0.9792
4.8671 -0.0861 -1.9923 0.9792
4.8554 0.3481 -1.9923 0.9792
4.5906 1.6206 -1.9925 0.9792
4.4281 2.0235 -1.9926 0.9792
3.9990 2.7780 -1.9928 0.9792
3.4427 3.4446 -1.9932 0.9792
3.1222 3.7382 -1.9934 0.9792
0.7665 4.7418 -1.9659 0.9795
0.3319 4.6664 -1.9147 0.9800
-0.0843 4.6127 -1.8882 0.9803
-1.7740 4.5025 -1.9806 0.9793
-2.9266 3.9052 -1.9973 0.9791
-3.8568 2.9926 -1.9979 0.9791
-4.1085 2.6370 -1.9981 0.9791
-4.3276 2.2605 -1.9982 0.9791
-4.5121 1.8658 -1.9983 0.9791
-4.6607 1.4562 -1.9984 0.9791
-2.0201 0.2524 -0.8332 0.9912
-2.0207 -0.2920 -0.8356 0.9912
-2.0976 -0.4972 -0.8823 0.9907
-4.4755 -1.9520 -1.9983 0.9791
-4.2834 -2.3431 -1.9982 0.9791
-4.0572 -2.7154 -1.9981 0.9791
-3.5099 -3.3921 -1.9977 0.9791
-3.1932 -3.6911 -1.9975 0.9791
-2.8511 -3.9607 -1.9973 0.9791
-2.4864 -4.1986 -1.9971 0.9791
-1.7008 -4.5722 -1.9966 0.9791
-0.4302 -4.8573 -1.9958 0.9791
0.0045 -4.8756 -1.9955 0.9791
0.4391 -4.8551 -1.9952 0.9792
1.2939 -4.6987 -1.9946 0.9792
1.7074 -4.5640 -1.9944 0.9792
2.1072 -4.3931 -1.9941 0.9792
2.4901 -4.1872 -1.9939 0.9792
2.8531 -3.9481 -1.9936 0.9792
3.1934 -3.6776 -1.9934 0.9792
3.5082 -3.3779 -1.9932 0.9792
3.7950 -3.0515 -1.9930 0.9792
4.2758 -2.3287 -1.9927 0.9792
4.4661 -1.9381 -1.9926 0.9792
4.7389 -1.1141 -1.9924 0.9792
4.8646 0.1795 -1.9923 0.9792
4.8293 0.6125 -1.9923 0.9792
4.7555 1.0406 -1.9924 0.9792
4.6440 1.4604 -1.9924 0.9792
4.3113 2.2621 -1.9927 0.9792
3.5599 3.3231 -1.9931 0.9792
3.2498 3.6276 -1.9933 0.9792
2.9138 3.9032 -1.9935 0.9792
2.5546 4.1479 -1.9938 0.9792
-0.7457 4.5596 -1.8909 0.9802
-1.1654 4.5381 -1.9176 0.9800
-1.5998 4.5132 -1.9598 0.9795
-2.7893 4.0042 -1.9972 0.9791
-3.4568 3.4460 -1.9977 0.9791
-4.2465 2.4091 -1.9982 0.9791
-4.4446 2.0211 -1.9983 0.9791
-2.1226 0.5380 -0.8962 0.9906
-2.0363 0.3265 -0.8440 0.9911
-1.9953 -0.0390 -0.8168 0.9914
-2.0186 -0.2205 -0.8311 0.9913
-4.5406 -1.7957 -1.9984 0.9791
-4.3622 -2.1932 -1.9983 0.9791
