ply
format ascii 1.0
element vertex 1593
property float32 x
property float32 y
property float32 z
property float32 I
end_header
3.8573 10.1733 -1.7924 0.9569
2.9552 10.5490 -1.8047 0.9566
2.0174 10.8473 -1.8176 0.9563
0.5317 5.6031 -0.9272 0.9774
0.0296 5.5300 -0.9110 0.9778
-0.9363 11.1311 -1.8402 0.9557
-1.9543 11.1713 -1.8683 0.9551
-6.8354 9.5845 -1.9394 0.9534
-7.7103 8.9926 -1.9514 0.9531
-8.5304 8.3173 -1.9627 0.9528
-9.2870 7.5638 -1.9732 0.9526
-9.9719 6.7379 -1.9826 0.9524
-10.5774 5.8467 -1.9910 0.9522
-13.2266 -0.4054 -2.1800 0.9478
-13.1302 -1.5820 -2.1787 0.9478
-12.1705 -4.9701 -2.1657 0.9481
-11.0136 -7.0009 -2.1499 0.9485
-10.2985 -7.9187 -2.1401 0.9487
-7.1191 -9.4134 -1.9443 0.9533
-6.2115 -9.9465 -1.9319 0.9536
-5.2645 -10.3903 -1.9189 0.9539
1.4792 -9.4115 -1.5695 0.9621
3.5809 -10.3055 -1.7973 0.9567
6.7861 -8.1974 -1.7531 0.9578
8.0364 -8.1114 -1.8810 0.9548
9.2978 -6.5194 -1.8707 0.9550
10.2361 -4.7315 -1.8577 0.9553
10.5892 -3.7901 -1.8528 0.9554
10.8625 -2.8252 -1.8490 0.9555
11.0549 -1.8429 -1.8463 0.9556
11.1657 -0.8494 -1.8447 0.9556
11.1942 0.1494 -1.8443 0.9556
10.7874 3.1153 -1.8497 0.9555
10.1126 5.0061 -1.8589 0.9553
9.6581 5.9073 -1.8651 0.9551
9.1283 6.7710 -1.8723 0.9550
7.2550 7.7246 -1.7458 0.9579
3.3094 10.4124 -1.7999 0.9567
2.3846 10.7411 -1.8126 0.9564
1.4279 10.9900 -1.8257 0.9561
-0.5546 11.2340 -1.8529 0.9554
-2.5734 11.0977 -1.8767 0.9549
-3.5864 10.9273 -1.8946 0.9544
-4.5789 10.6403 -1.9083 0.9541
-6.4836 9.7907 -1.9345 0.9535
-7.3773 9.2321 -1.9468 0.9532
-9.0019 7.8647 -1.9692 0.9527
-10.3526 6.1993 -1.9879 0.9523
-12.7039 3.5398 -2.1726 0.9479
-13.2330 0.0523 -2.1800 0.9478
-13.0149 -2.2955 -2.1772 0.9478
-12.7363 -3.4406 -2.1734 0.9479
-12.3489 -4.5513 -2.1681 0.9480
-10.5856 -7.5717 -2.1441 0.9486
-8.9798 -9.2355 -2.1221 0.9491
-7.6821 -9.4593 -2.0075 0.9518
-6.5684 -9.7504 -1.9367 0.9535
-5.6356 -10.2291 -1.9240 0.9538
-3.6774 -10.9127 -1.8971 0.9544
-2.6703 -11.1154 -1.8832 0.9547
0.3580 -11.1733 -1.8416 0.9557
3.2310 -10.4511 -1.8021 0.9566
4.1216 -10.0526 -1.7898 0.9569
4.9687 -9.5823 -1.7782 0.9572
5.7672 -9.0449 -1.7672 0.9574
9.0813 -6.8480 -1.8737 0.9549
9.6174 -5.9874 -1.8663 0.9551
10.4617 -4.1581 -1.8546 0.9554
10.7661 -3.2015 -1.8504 0.9555
10.9900 -2.2252 -1.8472 0.9556
11.1325 -1.2353 -1.8452 0.9556
11.0670 1.7552 -1.8460 0.9556
10.8812 2.7384 -1.8485 0.9555
10.2679 4.6481 -1.8568 0.9553
9.3424 6.4411 -1.8694 0.9550
8.1609 6.7751 -1.7473 0.9579
6.8440 8.1356 -1.7514 0.9578
6.1257 8.7623 -1.7613 0.9576
4.5279 9.8316 -1.7832 0.9571
3.6577 10.2644 -1.7951 0.9568
1.8021 10.9033 -1.8206 0.9562
-1.1591 11.1046 -1.8393 0.9557
-2.1811 11.1443 -1.8707 0.9550
-3.8040 9.3522 -1.8977 0.9597
-9.3634 4.7606 -1.9744 0.9581
-9.7790 3.9183 -1.9801 0.9580
-10.9422 3.2871 -2.1475 0.9546
-11.2160 2.3036 -2.1522 0.9545
-11.3896 1.2960 -2.1546 0.9544
-11.3226 -1.7633 -2.1539 0.9544
-10.7935 -3.7336 -2.1467 0.9546
-9.9026 -5.5594 -2.1346 0.9548
-8.6899 -7.1734 -2.1180 0.9552
-7.9790 -7.8831 -2.1082 0.9554
-7.2082 -8.5202 -2.0977 0.9556
-5.2759 -9.1371 -1.9832 0.9580
-4.2655 -9.1942 -1.9051 0.9596
-3.4077 -9.4789 -1.8933 0.9598
-2.5329 -9.6831 -1.8813 0.9601
-0.7631 -9.8500 -1.8570 0.9606
0.9542 -9.3954 -1.7750 0.9623
5.8961 -7.9720 -1.8637 0.9604
7.3490 -6.9216 -1.8975 0.9597
7.9047 -6.2136 -1.8899 0.9599
8.8228 -4.6795 -1.8771 0.9602
9.1805 -3.8641 -1.8722 0.9603
9.4681 -3.0238 -1.8682 0.9604
9.8986 -0.4093 -1.8621 0.9605
9.8956 0.4747 -1.8621 0.9605
9.8191 1.3557 -1.8631 0.9605
5.5472 7.6048 -1.7693 0.9624
0.0296 5.5340 -1.0402 0.9777
-0.8280 9.8438 -1.8568 0.9606
-2.5965 9.6652 -1.8811 0.9601
-3.4698 9.4552 -1.8931 0.9598
-7.4185 7.2332 -1.9475 0.9587
-9.1815 5.0751 -1.9718 0.9582
-9.6274 4.2496 -1.9780 0.9581
-10.7775 3.6485 -2.1387 0.9547
-11.1229 2.6885 -2.1509 0.9545
-11.3338 1.6885 -2.1538 0.9544
-11.4479 0.6719 -2.1555 0.9544
-11.2008 -2.3777 -2.1522 0.9545
-10.9253 -3.3609 -2.1485 0.9545
-10.5575 -4.3114 -2.1435 0.9546
-10.1018 -5.2202 -2.1373 0.9548
-8.9477 -6.8800 -2.1215 0.9551
-8.2620 -7.6164 -2.1121 0.9553
-7.5135 -8.2823 -2.1019 0.9555
-6.7072 -8.8688 -2.0900 0.9558
-4.6007 -9.0803 -1.9133 0.9594
-2.8734 -9.6136 -1.8860 0.9600
-0.2228 -9.8375 -1.8495 0.9607
3.1487 -9.0618 -1.8032 0.9617
4.6538 -8.2625 -1.7824 0.9621
6.4620 -7.8059 -1.9047 0.9596
7.6967 -6.4932 -1.8927 0.9598
8.2138 -5.7593 -1.8856 0.9600
9.0501 -4.1833 -1.8740 0.9602
9.7810 -1.6306 -1.8638 0.9604
9.8799 -0.7515 -1.8624 0.9605
9.9055 0.1322 -1.8620 0.9605
9.7362 1.8914 -1.8642 0.9604
8.9402 4.4258 -1.8750 0.9602
8.5351 5.2204 -1.8806 0.9601
5.7957 7.3942 -1.7659 0.9625
5.1395 7.9215 -1.7749 0.9623
2.9095 9.1542 -1.8054 0.9617
2.0947 9.4352 -1.8166 0.9614
0.2199 5.5025 -1.0351 0.9778
-0.4859 9.8415 -1.8521 0.9607
-4.8379 8.9479 -1.9119 0.9594
-5.6491 8.5305 -1.9231 0.9592
-6.4225 8.0372 -1.9338 0.9590
-7.8252 6.8367 -1.9531 0.9586
-9.4638 4.5748 -1.9758 0.9581
-9.8614 3.7233 -1.9813 0.9580
-11.0156 3.0694 -2.1494 0.9545
-11.2635 2.0785 -2.1528 0.9545
-11.4153 1.0672 -2.1550 0.9544
-11.4692 0.0453 -2.1558 0.9544
-7.8105 -8.0330 -2.1059 0.9554
-7.0273 -8.6530 -2.0952 0.9556
-6.1731 -9.1636 -2.0768 0.9560
-5.0216 -9.1147 -1.9560 0.9585
-4.0743 -9.2652 -1.9024 0.9596
-3.2121 -9.5319 -1.8906 0.9599
-2.3346 -9.7179 -1.8786 0.9601
0.3139 -9.7958 -1.8422 0.9609
6.8765 -7.4385 -1.9041 0.9596
8.0210 -6.0485 -1.8882 0.9599
8.4985 -5.2908 -1.8816 0.9601
9.2513 -3.6770 -1.8712 0.9603
9.5230 -2.8319 -1.8674 0.9604
9.8503 -1.0930 -1.8628 0.9605
9.7919 1.5529 -1.8635 0.9605
9.6260 2.4226 -1.8657 0.9604
9.3879 3.2767 -1.8689 0.9603
9.0787 4.1098 -1.8731 0.9603
8.7001 4.9162 -1.8783 0.9601
8.2539 5.6907 -1.8844 0.9600
7.6229 6.3284 -1.8622 0.9605
6.6221 6.5791 -1.7546 0.9627
3.9853 8.6533 -1.7907 0.9620
1.5821 9.5725 -1.8237 0.9613
0.4122 5.5204 -1.0405 0.9777
-1.0271 9.8396 -1.8595 0.9605
-1.9126 9.7724 -1.8717 0.9603
-4.1200 8.0000 -1.9021 0.9639
-4.8419 7.6406 -1.9121 0.9637
-5.5311 7.2142 -1.9216 0.9635
-6.1809 6.7236 -1.9305 0.9633
-6.7849 6.1723 -1.9388 0.9632
-7.3368 5.5647 -1.9465 0.9631
-9.8889 2.0310 -2.1340 0.9596
-10.1071 0.2430 -2.1370 0.9595
-9.9820 -1.5546 -2.1354 0.9595
-9.5193 -3.2928 -2.1292 0.9597
-8.7393 -4.9063 -2.1185 0.9599
-7.6761 -6.3366 -2.1040 0.9601
-7.0519 -6.9672 -2.0955 0.9603
-6.3744 -7.5346 -2.0862 0.9605
-4.8868 -8.4633 -2.0658 0.9608
-4.0823 -8.7994 -2.0504 0.9611
-2.3088 -8.8265 -1.9285 0.9634
-1.4705 -8.7458 -1.8746 0.9644
1.6337 -8.4727 -1.8239 0.9653
2.3947 -8.3357 -1.8333 0.9652
3.1880 -8.2435 -1.8683 0.9645
4.0176 -8.1443 -1.9196 0.9636
4.7536 -7.7962 -1.9301 0.9634
8.2208 -3.4601 -1.8854 0.9642
8.4802 -2.7083 -1.8817 0.9643
8.6753 -1.9387 -1.8790 0.9643
8.8687 -0.3668 -1.8763 0.9644
8.8661 0.4253 -1.8763 0.9644
8.4620 2.7642 -1.8817 0.9643
8.1975 3.5142 -1.8853 0.9642
7.4816 4.9395 -1.8951 0.9640
7.0246 5.5973 -1.8986 0.9639
6.0326 5.7574 -1.7627 0.9665
5.5173 6.2973 -1.7698 0.9663
4.9554 6.7935 -1.7775 0.9662
1.5776 8.4826 -1.8238 0.9653
0.5380 5.6698 -1.2039 0.9770
0.0297 5.5486 -1.1729 0.9776
-0.7358 8.7475 -1.8556 0.9647
-1.5215 8.6974 -1.8664 0.9645
-2.3040 8.5763 -1.8771 0.9643
-4.5657 7.7880 -1.9083 0.9638
-5.2684 7.3872 -1.9179 0.9636
-5.9342 6.9211 -1.9271 0.9634
-9.5267 3.2251 -2.1260 0.9597
-9.8075 2.3705 -2.1328 0.9596
-9.9919 1.4886 -2.1354 0.9595
-10.0330 -1.2088 -2.1361 0.9595
-8.9138 -4.6063 -2.1209 0.9598
-8.4420 -5.3663 -2.1145 0.9599
-7.9023 -6.0762 -2.1071 0.9601
-5.9360 -7.8490 -2.0802 0.9606
-4.3989 -8.6820 -2.0573 0.9610
-3.5689 -8.9430 -2.0353 0.9614
-2.6477 -8.8584 -1.9543 0.9629
-1.7899 -8.7769 -1.8934 0.9640
-0.9826 -8.7439 -1.8599 0.9647
0.5790 -8.6781 -1.8385 0.9651
1.3426 -8.5429 -1.8280 0.9653
2.0943 -8.3709 -1.8240 0.9653
2.8770 -8.2799 -1.8529 0.9648
3.6909 -8.1837 -1.8977 0.9640
5.1656 -7.5148 -1.9276 0.9634
7.7567 -4.4644 -1.8918 0.9641
8.6074 -2.2387 -1.8800 0.9643
8.7626 -1.4608 -1.8778 0.9643
8.8519 -0.6733 -1.8765 0.9644
8.8750 0.1184 -1.8762 0.9644
8.8317 0.9094 -1.8767 0.9644
8.5472 2.4684 -1.8805 0.9643
7.6393 4.6725 -1.8929 0.9641
5.7227 6.0931 -1.7669 0.9664
5.1785 6.6067 -1.7744 0.9663
4.5896 7.0741 -1.7825 0.9661
3.2930 7.8543 -1.8002 0.9658
2.5934 8.1598 -1.8098 0.9656
-0.4319 8.7479 -1.8514 0.9648
-1.2171 8.7252 -1.8622 0.9646
-2.7789 8.4669 -1.8837 0.9642
-4.2849 7.9251 -1.9044 0.9638
-6.3210 6.6047 -1.9324 0.9633
-8.3502 4.0365 -1.9605 0.9628
-9.2743 3.5016 -2.0955 0.9603
-9.7137 2.7066 -2.1315 0.9596
-10.0631 0.9408 -2.1364 0.9595
-10.0712 -0.8613 -2.1366 0.9595
-9.7377 -2.6306 -2.1321 0.9596
-9.4468 -3.4817 -2.1282 0.9597
-8.1191 -5.8074 -2.1101 0.9600
-7.5407 -6.4837 -2.1021 0.9602
-3.8973 -8.8626 -2.0465 0.9612
-2.9960 -8.8907 -1.9831 0.9624
-2.1160 -8.8082 -1.9148 0.9636
-0.5015 -8.7533 -1.8533 0.9648
1.0487 -8.6032 -1.8320 0.9652
1.8012 -8.4275 -1.8216 0.9654
2.5707 -8.3154 -1.8398 0.9650
3.3709 -8.2218 -1.8783 0.9643
4.2098 -8.1188 -1.9332 0.9633
4.9074 -7.6963 -1.9294 0.9634
6.1467 -6.6491 -1.9140 0.9637
7.1761 -5.4113 -1.8998 0.9639
7.6061 -4.7352 -1.8939 0.9640
8.2847 -3.2928 -1.8845 0.9642
8.8564 0.6033 -1.8764 0.9644
8.7725 1.3913 -1.8775 0.9643
8.6228 2.1701 -1.8795 0.9643
7.7880 4.4008 -1.8909 0.9641
7.3860 5.0923 -1.8964 0.9640
6.9057 5.7330 -1.8972 0.9640
5.9209 5.8825 -1.7642 0.9665
3.5555 7.7202 -1.7966 0.9658
2.8681 8.0484 -1.8061 0.9657
1.4087 8.5233 -1.8261 0.9653
-0.0843 5.7176 -1.2087 0.9769
-1.6981 8.6763 -1.8688 0.9645
-3.6942 7.1733 -1.8963 0.9674
-4.9543 6.4618 -1.9137 0.9671
-5.5336 6.0195 -1.9217 0.9670
-7.0023 4.3864 -1.9419 0.9666
-7.3856 3.7550 -1.9472 0.9665
-9.0272 0.2170 -2.1222 0.9636
-9.0097 -0.5885 -2.1220 0.9636
-8.9162 -1.3886 -2.1208 0.9636
-8.7475 -2.1756 -2.1185 0.9636
-8.5055 -2.9422 -2.1152 0.9637
-8.1929 -3.6813 -2.1110 0.9638
-7.3694 -5.0506 -2.0997 0.9640
-6.3116 -6.2358 -2.0852 0.9642
-5.7078 -6.7467 -2.0770 0.9643
-5.0620 -7.1979 -2.0681 0.9645
-4.3803 -7.5861 -2.0588 0.9646
-2.9349 -8.1639 -2.0389 0.9650
-2.1843 -8.3502 -2.0285 0.9652
-0.6581 -8.4946 -2.0024 0.9656
0.8516 -8.3850 -1.9808 0.9660
2.3075 -8.0323 -1.9641 0.9662
3.6672 -7.4339 -1.9482 0.9665
4.2961 -7.0459 -1.9395 0.9667
5.4347 -6.1210 -1.9238 0.9669
5.9373 -5.5920 -1.9169 0.9670
6.7937 -4.4212 -1.9050 0.9672
7.1427 -3.7884 -1.9002 0.9673
7.4360 -3.1298 -1.8961 0.9674
7.8497 -1.7542 -1.8904 0.9675
8.0258 -0.3319 -1.8879 0.9675
8.0234 0.3849 -1.8879 0.9675
7.9606 1.0991 -1.8887 0.9675
7.8378 1.8060 -1.8903 0.9675
7.6556 2.5008 -1.8928 0.9674
5.5053 5.2541 -1.7886 0.9692
4.9830 5.6875 -1.7771 0.9694
4.4736 6.1330 -1.7841 0.9693
3.9255 6.5348 -1.7916 0.9692
2.7274 7.1934 -1.8081 0.9689
1.0551 5.6731 -1.3562 0.9766
0.0297 5.5590 -1.3065 0.9774
-0.6614 7.8634 -1.8546 0.9681
-1.3669 7.8137 -1.8643 0.9679
-2.0687 7.7004 -1.8739 0.9678
-2.7609 7.5234 -1.8835 0.9676
-2.3467 4.9721 -1.2922 0.9777
-6.3783 5.1948 -1.9333 0.9668
-6.8384 4.6206 -1.9397 0.9667
-8.0645 3.5598 -2.0718 0.9644
-8.5245 2.8858 -2.1152 0.9637
-8.7615 2.1177 -2.1185 0.9636
-8.9250 1.3296 -2.1207 0.9636
-9.0134 0.5290 -2.1220 0.9636
-8.8217 -1.8726 -2.1195 0.9636
-8.6078 -2.6480 -2.1166 0.9637
-8.3222 -3.3985 -2.1127 0.9637
-5.9471 -6.5556 -2.0802 0.9643
-5.3169 -7.0304 -2.0716 0.9644
-4.6483 -7.4433 -2.0624 0.9646
-3.2217 -8.0731 -2.0429 0.9649
-0.1922 -8.4876 -1.9953 0.9657
2.7373 -7.8778 -1.9601 0.9663
3.4140 -7.5698 -1.9516 0.9665
4.0567 -7.2025 -1.9428 0.9666
5.2275 -6.3147 -1.9267 0.9669
6.6440 -4.6586 -1.9071 0.9672
7.0139 -4.0369 -1.9020 0.9673
7.3290 -3.3878 -1.8976 0.9674
7.7879 -2.0256 -1.8912 0.9675
7.2393 3.5837 -1.8985 0.9674
4.1423 6.3845 -1.7887 0.9692
2.9691 7.0818 -1.8047 0.9689
2.3371 7.3534 -1.8134 0.9688
1.0042 7.7288 -1.8317 0.9685
-0.3883 7.8656 -1.8508 0.9682
-1.0937 7.8405 -1.8605 0.9680
-1.7976 7.7519 -1.8702 0.9678
-3.1776 7.3837 -1.8892 0.9675
-4.4804 6.7657 -1.9071 0.9672
-5.0880 6.3671 -1.9155 0.9671
-5.6584 5.9124 -1.9234 0.9669
-6.1863 5.4048 -1.9307 0.9668
-6.6663 4.8484 -1.9373 0.9667
-7.0936 4.2477 -1.9432 0.9666
-7.5217 3.6360 -1.9635 0.9663
-8.4063 3.1739 -2.1118 0.9638
-8.6783 2.4181 -2.1173 0.9637
-9.0299 0.0357 -2.1223 0.9636
-8.8847 -1.5670 -2.1203 0.9636
-8.6994 -2.3501 -2.1178 0.9637
-8.4412 -3.1111 -2.1143 0.9637
-8.1131 -3.8431 -2.1099 0.9638
-7.7184 -4.5394 -2.1045 0.9639
-6.7468 -5.8011 -2.0912 0.9641
-6.1797 -6.3557 -2.0834 0.9642
-5.5660 -6.8536 -2.0750 0.9644
-4.2226 -7.6644 -2.0566 0.9647
-3.5057 -7.9721 -2.0468 0.9648
-0.4867 -8.4948 -1.9997 0.9656
1.0187 -8.3572 -1.9787 0.9660
3.8118 -7.3512 -1.9462 0.9665
5.0137 -6.5017 -1.9296 0.9668
6.0437 -5.4674 -1.9154 0.9671
6.4863 -4.8912 -1.9093 0.9672
6.8770 -4.2813 -1.9039 0.9673
7.8815 -1.5958 -1.8899 0.9675
7.9861 -0.8862 -1.8884 0.9675
7.0425 3.9796 -1.9011 0.9673
6.2516 5.1900 -1.9096 0.9672
4.3535 6.2274 -1.7858 0.9693
3.7972 6.6188 -1.7934 0.9691
3.2065 6.9623 -1.8015 0.9690
2.5852 7.2545 -1.8100 0.9689
1.9376 7.4927 -1.8189 0.9687
1.2684 7.6742 -1.8281 0.9685
0.4175 5.5911 -1.3177 0.9772
-0.0836 5.6711 -1.3330 0.9770
-0.8202 7.8577 -1.8568 0.9681
-1.5253 7.7938 -1.8665 0.9679
-2.7404 6.7375 -1.8832 0.9704
-3.9271 6.1970 -1.8996 0.9701
-4.4819 5.8457 -1.9072 0.9700
-5.4884 4.9929 -1.9211 0.9698
-5.9304 4.4980 -1.9272 0.9697
-6.3257 3.9626 -1.9327 0.9696
-7.5343 3.0189 -2.1015 0.9670
-7.9738 1.6377 -2.1077 0.9669
-8.0946 0.9211 -2.1093 0.9669
-8.1474 0.1959 -2.1101 0.9669
-8.1317 -0.5312 -2.1099 0.9669
-8.0478 -1.2533 -2.1088 0.9669
-7.6790 -2.6563 -2.1038 0.9670
-7.3982 -3.3242 -2.1000 0.9670
-6.2064 -5.1233 -2.0837 0.9673
-5.7062 -5.6376 -2.0769 0.9674
-5.1623 -6.1019 -2.0694 0.9675
-3.9649 -6.8667 -2.0530 0.9678
-3.3227 -7.1620 -2.0442 0.9679
-0.5987 -7.7276 -2.0068 0.9685
1.4469 -7.5039 -1.9787 0.9689
2.7318 -7.0640 -1.9610 0.9692
4.9502 -5.5753 -1.9304 0.9697
5.4096 -5.0950 -1.9241 0.9698
5.8249 -4.5788 -1.9183 0.9699
6.1934 -4.0305 -1.9133 0.9699
6.5129 -3.4544 -1.9088 0.9700
6.7817 -2.8544 -1.9051 0.9701
6.9981 -2.2349 -1.9021 0.9701
7.1609 -1.6003 -1.8998 0.9701
7.2692 -0.9548 -1.8983 0.9702
7.3224 -0.3028 -1.8975 0.9702
7.3203 0.3512 -1.8975 0.9702
7.1501 1.6475 -1.8998 0.9701
6.7625 2.8991 -1.9050 0.9701
6.1664 4.0712 -1.9132 0.9699
3.5729 5.9479 -1.7965 0.9717
0.9732 5.2329 -1.3781 0.9782
0.5417 5.7083 -1.4846 0.9766
0.0297 5.5570 -1.4388 0.9773
-0.5590 6.6459 -1.7268 0.9728
-2.3200 4.9154 -1.4073 0.9778
-4.2705 5.9880 -1.9043 0.9701
-5.3055 5.1729 -1.9186 0.9698
-5.7645 4.6948 -1.9249 0.9697
-6.1783 4.1746 -1.9306 0.9697
-6.7192 3.7141 -1.9878 0.9688
-7.4134 3.2724 -2.0981 0.9671
-7.6962 2.6054 -2.1038 0.9670
-7.9090 1.9117 -2.1067 0.9669
-8.0558 1.2001 -2.1088 0.9669
-8.1459 -0.2497 -2.1101 0.9669
-7.9629 -1.6903 -2.1077 0.9669
-7.5144 -3.0687 -2.1016 0.9670
-6.8191 -4.3347 -2.0921 0.9672
-6.3875 -4.9114 -2.0862 0.9673
-5.9055 -5.4440 -2.0796 0.9674
-5.3779 -5.9281 -2.0724 0.9675
-4.8099 -6.3600 -2.0646 0.9676
-4.2068 -6.7364 -2.0563 0.9677
-2.9184 -7.3130 -2.0387 0.9680
-2.2446 -7.5098 -2.0294 0.9681
-0.8671 -7.7164 -2.0105 0.9684
0.5121 -7.6747 -1.9915 0.9687
1.1886 -7.5630 -1.9822 0.9689
1.8496 -7.3928 -1.9731 0.9690
5.2367 -5.2856 -1.9265 0.9697
6.0563 -4.2465 -1.9151 0.9699
6.3950 -3.6807 -1.9105 0.9700
7.2337 -1.2059 -1.8988 0.9702
7.3084 -0.5559 -1.8977 0.9702
7.3277 0.0978 -1.8974 0.9702
7.2916 0.7508 -1.8979 0.9702
7.2002 1.3988 -1.8991 0.9701
6.6016 3.2680 -1.9072 0.9700
5.5358 4.9290 -1.9191 0.9698
4.2580 5.4324 -1.7871 0.9719
3.7708 5.8119 -1.7938 0.9718
2.7006 6.4415 -1.8085 0.9716
0.2213 5.5389 -1.4353 0.9774
-0.9920 7.1117 -1.8592 0.9708
-5.1164 5.3461 -1.9160 0.9699
-5.5917 4.8853 -1.9225 0.9698
-6.4078 3.8370 -1.9338 0.9696
-8.0068 1.4776 -2.1081 0.9669
-8.1499 0.0322 -2.1102 0.9669
-8.1188 -0.6943 -2.1098 0.9669
-7.3266 -3.4705 -2.0990 0.9671
-5.5874 -5.7466 -2.0753 0.9674
-4.4443 -6.5973 -2.0596 0.9677
-2.5074 -7.4409 -2.0330 0.9681
-0.4429 -7.7298 -2.0047 0.9685
0.9280 -7.6133 -1.9858 0.9688
1.5956 -7.4656 -1.9766 0.9689
2.2446 -7.2607 -1.9677 0.9691
4.0346 -6.3276 -1.9430 0.9695
5.0572 -5.4706 -1.9289 0.9697
5.5070 -4.9819 -1.9227 0.9698
6.5779 -3.3213 -1.9079 0.9700
7.0394 -2.0933 -1.9015 0.9701
7.3268 -0.1557 -1.8975 0.9702
7.1172 1.7912 -1.9002 0.9701
6.7057 3.0355 -1.9058 0.9700
5.7040 4.7354 -1.9195 0.9698
5.1512 5.1178 -1.8801 0.9704
3.4558 6.0238 -1.7981 0.9717
1.7612 6.8105 -1.8214 0.9714
0.8600 5.2033 -1.3655 0.9784
-0.0834 5.6557 -1.4645 0.9769
-3.0528 5.9278 -1.8876 0.9727
-4.0876 5.3314 -1.9018 0.9725
-5.4037 4.0985 -1.9200 0.9722
-6.0334 3.7795 -2.0155 0.9708
-6.5713 3.3410 -2.0869 0.9698
-7.0891 2.1296 -2.0955 0.9697
-7.4162 0.1783 -2.1001 0.9696
-6.9917 -2.4185 -2.0944 0.9697
-6.4274 -3.6084 -2.0867 0.9698
-6.0658 -4.1571 -2.0817 0.9699
-5.6557 -4.6687 -2.0761 0.9700
-4.7071 -5.5639 -2.0632 0.9702
-3.0330 -6.5375 -2.0402 0.9705
-1.1801 -7.0184 -2.0148 0.9708
-0.5473 -7.0651 -2.0061 0.9710
0.7098 -6.9892 -1.9888 0.9712
1.9235 -6.6954 -1.9721 0.9715
2.5025 -6.4710 -1.9641 0.9716
3.5845 -5.8788 -1.9492 0.9718
4.0799 -5.5164 -1.9424 0.9719
4.5406 -5.1140 -1.9360 0.9720
5.3457 -4.2021 -1.9249 0.9721
5.6851 -3.6998 -1.9202 0.9722
5.9796 -3.1715 -1.9161 0.9723
6.2273 -2.6211 -1.9127 0.9723
6.4269 -2.0525 -1.9099 0.9723
6.7260 -0.2781 -1.9057 0.9724
6.6710 0.9210 -1.9064 0.9724
6.2097 2.6621 -1.9127 0.9723
5.6604 3.7371 -1.9201 0.9722
4.9273 4.7025 -1.9282 0.9721
4.3067 4.9156 -1.8501 0.9732
3.2753 5.4524 -1.8006 0.9739
2.7865 5.7440 -1.8073 0.9738
-0.4265 5.0700 -1.4403 0.9791
-1.7130 6.3764 -1.8691 0.9729
-2.2842 6.2244 -1.8770 0.9728
-2.3141 4.9029 -1.5348 0.9777
-5.6706 3.8315 -1.9374 0.9720
-7.0074 2.3722 -2.0943 0.9697
-7.4050 0.4346 -2.0999 0.9696
-7.3627 -0.8871 -2.0994 0.9696
-6.8425 -2.7943 -2.0923 0.9697
-5.8201 -4.4752 -2.0784 0.9699
-4.3867 -5.8004 -2.0588 0.9702
-3.8380 -6.1458 -2.0512 0.9703
-3.2623 -6.4386 -2.0433 0.9704
-2.6646 -6.6769 -2.0351 0.9706
-2.0502 -6.8593 -2.0267 0.9707
-0.1600 -7.0656 -2.0007 0.9710
0.4685 -7.0213 -1.9921 0.9712
1.6935 -6.7688 -1.9752 0.9714
3.3838 -6.0078 -1.9520 0.9717
3.8919 -5.6618 -1.9450 0.9718
4.3664 -5.2745 -1.9384 0.9719
4.8042 -4.8491 -1.9324 0.9720
5.2025 -4.3890 -1.9269 0.9721
5.8709 -3.3790 -1.9176 0.9722
6.3553 -2.2747 -1.9109 0.9723
6.5248 -1.6970 -1.9086 0.9724
6.7131 -0.5106 -1.9059 0.9724
6.6976 0.6897 -1.9061 0.9724
6.4786 1.8710 -1.9090 0.9724
5.7812 3.5361 -1.9185 0.9722
3.9050 4.9820 -1.7920 0.9740
3.4571 5.3285 -1.7981 0.9739
2.4743 5.9016 -1.8116 0.9737
1.9461 6.1231 -1.8189 0.9736
0.6746 5.1922 -1.4822 0.9785
-0.9068 6.5004 -1.8580 0.9731
-1.4890 6.4213 -1.8660 0.9730
-3.1740 5.8704 -1.8892 0.9726
-3.6988 5.5854 -1.8965 0.9725
-4.6644 4.8737 -1.9098 0.9723
-5.4883 3.9916 -1.9211 0.9722
-6.6446 3.2120 -2.0893 0.9698
-7.1325 1.9874 -2.0961 0.9697
-7.3845 0.6904 -2.0996 0.9696
-6.9394 -2.5576 -2.0937 0.9697
-6.6721 -3.1605 -2.0900 0.9698
-6.3505 -3.7349 -2.0856 0.9698
-5.9776 -4.2756 -2.0805 0.9699
-5.5572 -4.7783 -2.0748 0.9700
-5.0935 -5.2386 -2.0684 0.9701
-4.0541 -6.0181 -2.0542 0.9703
-3.4883 -6.3315 -2.0464 0.9704
-2.2899 -6.7953 -2.0300 0.9706
-1.6680 -6.9431 -2.0215 0.9708
-0.4050 -7.0677 -2.0041 0.9710
0.8493 -6.9668 -1.9869 0.9712
3.1786 -6.1301 -1.9548 0.9717
3.6988 -5.8009 -1.9476 0.9718
4.1867 -5.4293 -1.9409 0.9719
5.7554 -3.5830 -1.9192 0.9722
6.0395 -3.0495 -1.9153 0.9723
6.6924 -0.7426 -1.9062 0.9724
6.5368 1.6451 -1.9082 0.9724
6.1573 2.7873 -1.9134 0.9723
5.5871 3.8520 -1.9212 0.9722
4.1078 4.8830 -1.8064 0.9738
2.6729 5.8038 -1.8089 0.9738
2.1533 6.0427 -1.8160 0.9737
0.3856 5.1644 -1.4661 0.9787
-0.0753 5.1108 -1.4470 0.9790
-0.6802 6.5170 -1.8549 0.9731
-2.2995 5.6535 -1.8772 0.9748
-2.5043 4.8627 -1.6823 0.9774
-4.1878 4.5554 -1.9032 0.9744
-5.1174 3.8813 -1.9755 0.9735
-5.7106 3.5773 -2.0726 0.9722
-6.4995 1.9525 -2.0874 0.9720
-6.6546 1.3667 -2.0895 0.9720
-6.7545 0.7686 -2.0909 0.9720
-6.7982 0.1634 -2.0916 0.9719
-6.7157 -1.0459 -2.0905 0.9720
-6.5904 -1.6391 -2.0888 0.9720
-6.4105 -2.2175 -2.0864 0.9720
-6.1780 -2.7759 -2.0832 0.9721
-5.8949 -3.3095 -2.0794 0.9721
-5.1894 -4.2838 -2.0697 0.9722
-4.7737 -4.7163 -2.0640 0.9723
-3.8362 -5.4549 -2.0512 0.9725
-3.3232 -5.7554 -2.0441 0.9726
-1.6631 -6.3579 -2.0214 0.9729
0.0776 -6.4936 -1.9974 0.9732
1.2199 -6.3265 -1.9817 0.9734
1.7722 -6.1688 -1.9741 0.9735
2.3064 -5.9640 -1.9668 0.9736
2.8188 -5.7140 -1.9597 0.9737
4.1895 -4.7186 -1.9408 0.9739
4.5807 -4.3143 -1.9354 0.9740
5.7512 -2.4207 -1.9192 0.9742
6.0753 -1.3577 -1.9147 0.9743
6.2135 -0.2570 -1.9128 0.9743
6.1624 0.8508 -1.9134 0.9743
6.0661 1.3978 -1.9147 0.9743
5.9233 1.9349 -1.9166 0.9743
3.0205 5.0282 -1.8041 0.9758
2.5690 5.2955 -1.8103 0.9757
2.0942 5.5233 -1.8168 0.9756
1.5994 5.7092 -1.8236 0.9755
0.4912 5.1765 -1.5993 0.9785
-0.4265 5.0698 -1.5649 0.9789
-1.0420 5.9566 -1.8599 0.9750
-1.5751 5.8630 -1.8673 0.9749
-3.1049 5.2963 -1.8883 0.9746
-3.5770 5.0156 -1.8948 0.9745
-4.0229 4.6919 -1.9010 0.9745
-4.8234 3.9284 -1.9134 0.9743
-5.5704 3.7638 -2.0678 0.9723
-6.6010 1.5955 -2.0888 0.9720
-6.7880 0.3984 -2.0914 0.9719
-6.7970 -0.2083 -2.0916 0.9719
-6.6455 -1.4107 -2.0896 0.9720
-6.4866 -1.9954 -2.0874 0.9720
-6.2742 -2.5622 -2.0845 0.9720
-6.0104 -3.1060 -2.0809 0.9721
-4.9393 -4.5534 -2.0663 0.9723
-4.5006 -4.9611 -2.0603 0.9724
-4.0277 -5.3258 -2.0538 0.9724
-3.5250 -5.6446 -2.0469 0.9725
-1.8848 -6.3061 -2.0244 0.9728
-1.3100 -6.4239 -2.0165 0.9729
-0.7292 -6.4893 -2.0085 0.9730
-0.1473 -6.5025 -2.0005 0.9731
2.1018 -6.0488 -1.9696 0.9736
2.6231 -5.8161 -1.9624 0.9737
3.1202 -5.5397 -1.9556 0.9737
3.5897 -5.2221 -1.9491 0.9738
4.4334 -4.4748 -1.9375 0.9740
4.8020 -4.0511 -1.9324 0.9741
5.1319 -3.5984 -1.9278 0.9741
5.4210 -3.1200 -1.9238 0.9742
5.8698 -2.1009 -1.9176 0.9742
6.0268 -1.5675 -1.9154 0.9743
6.1376 -1.0232 -1.9139 0.9743
6.2015 -0.4717 -1.9129 0.9743
5.9842 1.7282 -1.9158 0.9743
5.5975 2.7710 -1.9211 0.9742
5.3380 3.2649 -1.9246 0.9742
4.6947 4.1800 -1.9334 0.9740
2.7469 5.1965 -1.8079 0.9757
1.7933 5.6423 -1.8210 0.9755
1.2880 5.8017 -1.8279 0.9754
-0.2513 5.0902 -1.5675 0.9789
-1.3693 5.9050 -1.8644 0.9750
-1.8976 5.7818 -1.8717 0.9749
-4.6857 4.0938 -1.9138 0.9743
-5.7891 3.4666 -2.0754 0.9722
-6.0935 2.9456 -2.0817 0.9721
-6.3424 2.3946 -2.0852 0.9720
-6.5392 1.8221 -2.0879 0.9720
-6.7692 0.6328 -2.0912 0.9719
-6.8002 0.0269 -2.0916 0.9719
-6.7745 -0.5794 -2.0913 0.9719
-6.5546 -1.7707 -2.0883 0.9720
-6.3627 -2.3451 -2.0857 0.9720
-5.8246 -3.4256 -2.0784 0.9721
-5.4837 -3.9224 -2.0737 0.9722
-5.0992 -4.3845 -2.0685 0.9722
-4.6749 -4.8081 -2.0627 0.9723
-4.2148 -5.1898 -2.0564 0.9724
-3.7231 -5.5267 -2.0496 0.9725
-3.2044 -5.8163 -2.0425 0.9726
-1.5337 -6.3844 -2.0196 0.9729
-0.9547 -6.4702 -2.0116 0.9730
-0.3726 -6.5035 -2.0036 0.9731
0.2078 -6.4849 -1.9957 0.9732
1.8941 -6.1268 -1.9725 0.9735
2.4237 -5.9116 -1.9652 0.9736
2.9306 -5.6518 -1.9582 0.9737
3.8622 -5.0085 -1.9453 0.9739
4.2806 -4.6305 -1.9396 0.9740
5.5771 -2.8160 -1.9217 0.9742
5.7967 -2.3039 -1.9186 0.9742
5.9714 -1.7757 -1.9162 0.9743
6.1002 -1.2352 -1.9144 0.9743
6.1823 -0.6860 -1.9132 0.9743
6.2172 -0.1321 -1.9127 0.9743
6.2047 0.4227 -1.9129 0.9743
6.1448 0.9745 -1.9136 0.9743
6.0380 1.5196 -1.9151 0.9743
5.8849 2.0540 -1.9172 0.9743
5.4436 3.0761 -1.9232 0.9742
4.4664 4.4374 -1.9365 0.9740
4.0503 4.8147 -1.9352 0.9740
3.3523 4.7952 -1.7996 0.9758
2.9211 5.0917 -1.8055 0.9757
2.4641 5.3503 -1.8118 0.9757
1.4857 5.7451 -1.8252 0.9755
-0.0753 5.1106 -1.5721 0.9788
-2.1251 5.2246 -1.8749 0.9765
-3.0394 4.7962 -1.8874 0.9763
-3.8660 4.2054 -1.8988 0.9762
-4.3563 3.9630 -1.9576 0.9755
-4.9390 3.7460 -2.0605 0.9742
-5.8023 2.3249 -2.0778 0.9740
-6.1366 1.2604 -2.0824 0.9739
-6.2284 0.7087 -2.0837 0.9739
-6.2685 0.1507 -2.0843 0.9739
-6.2566 -0.4087 -2.0842 0.9739
-6.0776 -1.5115 -2.0818 0.9739
-5.9122 -2.0451 -2.0795 0.9740
-5.6984 -2.5604 -2.0766 0.9740
-5.4382 -3.0530 -2.0731 0.9741
-5.1340 -3.5186 -2.0689 0.9741
-4.7890 -3.9532 -2.0642 0.9742
-3.9896 -4.7157 -2.0532 0.9743
-2.5750 -5.5503 -2.0338 0.9745
-1.0038 -5.9699 -2.0123 0.9748
-0.4659 -6.0134 -2.0049 0.9749
0.0718 -6.0088 -1.9975 0.9750
0.6050 -5.9565 -1.9902 0.9751
1.1294 -5.8576 -1.9830 0.9752
1.6413 -5.7132 -1.9759 0.9753
2.6120 -5.2949 -1.9625 0.9754
4.2485 -4.0014 -1.9400 0.9757
4.8699 -3.1693 -1.9314 0.9758
5.5095 -1.7596 -1.9225 0.9759
5.6391 -1.2602 -1.9207 0.9759
5.7254 -0.7520 -1.9195 0.9760
5.7661 0.2766 -1.9189 0.9760
5.7203 0.7898 -1.9195 0.9760
5.6306 1.2974 -1.9207 0.9759
5.4977 1.7959 -1.9225 0.9759
5.3223 2.2816 -1.9249 0.9759
4.8487 3.2012 -1.9313 0.9758
3.8548 4.3998 -1.9444 0.9756
3.4459 4.7241 -1.9437 0.9757
2.8398 4.7274 -1.8331 0.9770
1.4813 5.2876 -1.8253 0.9771
0.4867 5.1289 -1.7125 0.9785
0.0274 5.1224 -1.7027 0.9786
-0.4264 5.0696 -1.6911 0.9788
-1.4562 5.4204 -1.8657 0.9766
-1.9405 5.2878 -1.8723 0.9765
-2.8681 4.8923 -1.8851 0.9764
-3.3033 4.6318 -1.8911 0.9763
-3.7142 4.3318 -1.8967 0.9762
-4.1046 4.0021 -1.9056 0.9761
-4.7892 3.9005 -2.0531 0.9743
-5.1538 3.4823 -2.0676 0.9741
-5.4580 3.0169 -2.0730 0.9741
-5.7151 2.5227 -2.0766 0.9740
-6.0873 1.4713 -2.0817 0.9739
-6.2592 0.3674 -2.0842 0.9739
-5.9822 -1.8403 -2.0805 0.9740
-5.7869 -2.3632 -2.0778 0.9740
-5.5444 -2.8651 -2.0745 0.9740
-5.2569 -3.3416 -2.0706 0.9741
-4.5588 -4.2026 -2.0610 0.9742
-4.1548 -4.5799 -2.0555 0.9743
-3.2558 -5.2136 -2.0432 0.9744
-2.2631 -5.6708 -2.0296 0.9746
-1.7423 -5.8294 -2.0224 0.9747
-1.2114 -5.9400 -2.0151 0.9748
-0.6745 -6.0023 -2.0078 0.9749
-0.1362 -6.0163 -2.0004 0.9750
1.9469 -5.6030 -1.9717 0.9753
2.4304 -5.3889 -1.9650 0.9754
3.3277 -4.8410 -1.9527 0.9755
3.7352 -4.5120 -1.9471 0.9756
4.1116 -4.1500 -1.9419 0.9757
4.4543 -3.7577 -1.9371 0.9757
5.6972 -0.9498 -1.9199 0.9759
5.7566 -0.4379 -1.9191 0.9760
5.7720 0.0770 -1.9188 0.9760
5.7433 0.5914 -1.9192 0.9760
5.6705 1.1016 -1.9202 0.9759
5.3952 2.0951 -1.9239 0.9759
5.1944 2.5714 -1.9266 0.9759
4.9529 3.0294 -1.9299 0.9758
4.6724 3.4658 -1.9337 0.9758
4.3546 3.8772 -1.9381 0.9757
4.0015 4.2605 -1.9429 0.9757
3.6075 4.6024 -1.9438 0.9757
2.1131 5.0400 -1.8166 0.9772
1.1493 5.1770 -1.7627 0.9779
0.2055 5.1431 -1.7110 0.9785
-1.2661 5.4598 -1.8630 0.9767
-2.6938 4.9822 -1.8827 0.9764
-3.1373 4.7376 -1.8888 0.9763
-3.5581 4.4526 -1.8946 0.9763
-3.9522 4.1295 -1.9000 0.9762
-4.5107 3.9409 -1.9910 0.9751
-5.8496 2.2086 -2.0784 0.9740
-6.0305 1.6804 -2.0809 0.9740
-6.1617 1.1371 -2.0828 0.9739
-6.2419 0.5836 -2.0839 0.9739
-6.2467 -0.5342 -2.0840 0.9739
-6.1713 -1.0885 -2.0830 0.9739
-6.0447 -1.6329 -2.0813 0.9740
-5.8683 -2.1628 -2.0789 0.9740
-5.6438 -2.6734 -2.0759 0.9740
-3.8915 -4.7917 -2.0519 0.9743
-3.4384 -5.1041 -2.0457 0.9744
-0.8830 -5.9839 -2.0106 0.9748
-0.3447 -6.0166 -2.0032 0.9749
0.1923 -6.0011 -1.9958 0.9750
0.7239 -5.9383 -1.9885 0.9751
1.7543 -5.6746 -1.9744 0.9753
3.5808 -4.6436 -1.9492 0.9756
3.9696 -4.2940 -1.9438 0.9757
4.3256 -3.9131 -1.9389 0.9757
4.6466 -3.5039 -1.9345 0.9758
5.5424 -1.6482 -1.9221 0.9759
5.7713 -0.1227 -1.9188 0.9760
5.7596 0.3924 -1.9190 0.9760
5.7039 0.9046 -1.9197 0.9760
5.6045 1.4105 -1.9210 0.9759
5.4619 1.9064 -1.9230 0.9759
5.2771 2.3888 -1.9255 0.9759
5.0512 2.8543 -1.9286 0.9758
4.7856 3.2994 -1.9322 0.9758
4.4820 3.7209 -1.9363 0.9757
1.3759 5.3205 -1.8267 0.9771
0.8499 5.1422 -1.7325 0.9783
0.3839 5.1418 -1.7139 0.9785
-0.5789 5.5462 -1.8536 0.9768
-2.8207 4.4511 -1.8845 0.9779
-3.2156 4.1940 -1.8899 0.9778
-3.7049 4.0301 -1.9576 0.9770
-4.2410 3.8581 -2.0503 0.9759
-4.8942 3.0659 -2.0652 0.9758
-5.3783 2.1550 -2.0719 0.9757
-5.6872 1.1681 -2.0763 0.9756
-5.7720 0.6568 -2.0774 0.9756
-5.8091 0.1397 -2.0780 0.9756
-5.7981 -0.3787 -2.0779 0.9756
-5.4799 -1.8955 -2.0736 0.9757
-5.0416 -2.8304 -2.0676 0.9757
-4.0870 -4.0379 -2.0545 0.9759
-3.7012 -4.3749 -2.0493 0.9760
-3.2873 -4.6744 -2.0436 0.9760
-1.9155 -5.3281 -2.0248 0.9762
-0.4329 -5.5883 -2.0044 0.9765
0.0668 -5.5855 -1.9975 0.9766
1.0504 -5.4477 -1.9840 0.9767
2.8521 -4.6777 -1.9592 0.9770
3.9572 -3.7271 -1.9440 0.9772
4.5374 -2.9529 -1.9360 0.9773
4.7745 -2.5323 -1.9327 0.9773
5.1349 -1.6399 -1.9277 0.9774
5.2561 -1.1746 -1.9260 0.9774
5.3764 -0.2223 -1.9243 0.9774
5.3319 0.7362 -1.9248 0.9774
5.2482 1.2093 -1.9260 0.9774
4.9600 2.1263 -1.9299 0.9773
4.2420 3.3801 -1.9397 0.9772
3.5908 4.0984 -1.9486 0.9771
2.8108 4.6792 -1.9520 0.9771
2.2626 4.6641 -1.8538 0.9782
1.8052 4.7611 -1.8209 0.9786
1.3780 4.9188 -1.8267 0.9785
0.9371 5.0387 -1.8328 0.9785
0.4839 5.0994 -1.8318 0.9785
-0.4201 4.9943 -1.7923 0.9789
-2.6620 4.5407 -1.8823 0.9779
-4.0786 3.9767 -2.0371 0.9761
-4.4595 3.6320 -2.0567 0.9759
-5.0600 2.7969 -2.0675 0.9757
-5.4922 1.8593 -2.0735 0.9757
-5.7448 0.8559 -2.0771 0.9756
-5.8004 0.3404 -2.0779 0.9756
-5.5445 -1.7056 -2.0744 0.9757
-5.3640 -2.1905 -2.0720 0.9757
-5.1398 -2.6560 -2.0689 0.9757
-4.8740 -3.0982 -2.0653 0.9758
-4.5691 -3.5133 -2.0611 0.9758
-4.2282 -3.8978 -2.0565 0.9759
-3.0216 -4.8384 -2.0399 0.9761
-0.1266 -5.5919 -2.0002 0.9765
0.8625 -5.4879 -1.9866 0.9767
1.3438 -5.3712 -1.9800 0.9768
3.0981 -4.5071 -1.9558 0.9770
3.4782 -4.2016 -1.9506 0.9771
3.8294 -3.8652 -1.9457 0.9772
4.1493 -3.5005 -1.9413 0.9772
4.4358 -3.1103 -1.9374 0.9772
5.3659 -0.4082 -1.9244 0.9774
5.3534 0.5512 -1.9245 0.9774
5.2855 1.0268 -1.9255 0.9774
5.0282 1.9526 -1.9289 0.9773
4.8405 2.3963 -1.9315 0.9773
4.6150 2.8227 -1.9346 0.9773
4.3530 3.2288 -1.9381 0.9772
4.0563 3.6116 -1.9422 0.9772
3.3667 4.2953 -1.9516 0.9771
2.4731 4.6785 -1.8924 0.9778
1.9664 4.6901 -1.8187 0.9786
1.5453 4.8621 -1.8244 0.9786
1.1094 4.9968 -1.8304 0.9785
0.6617 5.0929 -1.8366 0.9784
0.2025 5.0667 -1.8133 0.9787
-2.5004 4.6246 -1.8800 0.9779
-3.3012 4.1312 -1.8911 0.9778
-4.3226 3.7765 -2.0526 0.9759
-4.6633 3.3916 -2.0621 0.9758
-4.9569 2.9682 -2.0661 0.9758
-5.2106 2.5188 -2.0696 0.9757
-5.5892 1.5574 -2.0749 0.9757
-5.8108 0.0230 -2.0780 0.9756
-5.7890 -0.4951 -2.0777 0.9756
-5.6023 -1.5134 -2.0752 0.9756
-5.4393 -2.0047 -2.0730 0.9757
-5.2317 -2.4782 -2.0702 0.9757
-4.6917 -3.3559 -2.0628 0.9758
-2.7476 -4.9871 -2.0362 0.9761
-2.2849 -5.1960 -2.0298 0.9762
-1.8067 -5.3616 -2.0233 0.9763
-0.8204 -5.5597 -2.0097 0.9764
-0.3204 -5.5916 -2.0029 0.9765
1.6320 -5.2791 -1.9760 0.9768
2.5277 -4.8748 -1.9637 0.9769
2.9436 -4.6165 -1.9579 0.9770
4.3289 -3.2643 -1.9388 0.9772
5.0137 -1.9927 -1.9294 0.9773
5.1657 -1.5361 -1.9272 0.9774
5.3166 0.8432 -1.9250 0.9774
5.2237 1.3146 -1.9263 0.9774
5.0905 1.7768 -1.9281 0.9774
4.4587 3.0741 -1.9367 0.9773
3.5097 4.1721 -1.9497 0.9771
3.1271 4.4730 -1.9517 0.9771
1.7104 4.7998 -1.8222 0.9786
1.2799 4.9492 -1.8281 0.9785
0.8364 5.0603 -1.8342 0.9784
-0.0742 5.0345 -1.8006 0.9788
-0.5380 5.1538 -1.8530 0.9782
-3.1328 4.0861 -1.9731 0.9782
-3.9594 3.6020 -2.0512 0.9773
-4.2762 3.2433 -2.0567 0.9773
-4.8011 2.4410 -2.0640 0.9772
-5.2933 1.0872 -2.0708 0.9771
-2.3019 0.2619 -0.8878 0.9901
-2.2951 0.0552 -0.8798 0.9902
-2.3033 -0.1505 -0.8845 0.9902
-5.1008 -1.7644 -2.0684 0.9771
-4.1358 -3.4141 -2.0552 0.9773
-3.8067 -3.7609 -2.0507 0.9773
-3.4479 -4.0755 -2.0458 0.9774
-3.0630 -4.3554 -2.0405 0.9774
-2.2283 -4.8030 -2.0290 0.9776
-1.7859 -4.9676 -2.0230 0.9776
0.0623 -5.2123 -1.9976 0.9779
0.5250 -5.1695 -1.9912 0.9780
0.9807 -5.0860 -1.9850 0.9781
1.4258 -4.9630 -1.9788 0.9781
2.2710 -4.6037 -1.9672 0.9783
2.6650 -4.3708 -1.9618 0.9783
3.3817 -3.8088 -1.9519 0.9784
3.6995 -3.4843 -1.9475 0.9785
3.9872 -3.1342 -1.9435 0.9785
4.2430 -2.7613 -1.9400 0.9785
4.9167 -1.0988 -1.9306 0.9787
4.9923 -0.6557 -1.9296 0.9787
5.0280 0.2412 -1.9290 0.9787
4.9878 0.6887 -1.9296 0.9787
4.9093 1.1312 -1.9306 0.9787
4.7928 1.5656 -1.9322 0.9786
3.9663 3.1604 -1.9435 0.9785
3.6762 3.5085 -1.9474 0.9785
3.3564 3.8309 -1.9518 0.9784
3.0088 4.1249 -1.9566 0.9784
2.6326 4.3825 -1.9592 0.9783
1.7459 4.6046 -1.8872 0.9791
0.8749 4.7042 -1.8337 0.9797
-0.4049 4.8138 -1.8512 0.9795
-2.0877 4.4232 -1.8744 0.9793
-2.4808 4.2317 -1.8798 0.9792
-3.4615 4.0371 -2.0379 0.9775
-3.8254 3.7299 -2.0475 0.9774
-4.4523 3.0084 -2.0592 0.9772
-4.7109 2.6040 -2.0628 0.9772
-4.9932 -2.0391 -2.0669 0.9772
-4.2548 -3.2716 -2.0568 0.9773
-3.2151 -4.2512 -2.0426 0.9774
-2.8157 -4.5088 -2.0371 0.9775
-1.9589 -4.9087 -2.0253 0.9776
-1.5089 -5.0483 -2.0192 0.9777
-1.0495 -5.1466 -2.0129 0.9778
0.3463 -5.1909 -1.9937 0.9780
1.6917 -4.8686 -1.9752 0.9782
2.1128 -4.6846 -1.9694 0.9782
2.5149 -4.4650 -1.9638 0.9783
2.8952 -4.2118 -1.9586 0.9783
3.5798 -3.6132 -1.9491 0.9784
3.8794 -3.2727 -1.9450 0.9785
4.3832 -2.5227 -1.9380 0.9786
4.5840 -2.1189 -1.9353 0.9786
4.7030 1.8263 -1.9334 0.9786
4.0702 3.0191 -1.9420 0.9785
3.7923 3.3765 -1.9458 0.9785
2.3899 4.5211 -1.9597 0.9783
1.9362 4.6182 -1.9190 0.9788
0.1920 4.8055 -1.8430 0.9796
-0.6687 4.7938 -1.8549 0.9795
-1.0969 4.7301 -1.8608 0.9794
-1.5189 4.6279 -1.8666 0.9794
-2.3304 4.3102 -1.8777 0.9792
-2.7414 4.1396 -1.9027 0.9790
-3.2519 4.0695 -1.9963 0.9779
-3.6874 3.8529 -2.0438 0.9774
-4.0352 3.5255 -2.0534 0.9773
-4.3424 3.1582 -2.0577 0.9773
-4.6151 2.7636 -2.0614 0.9772
-5.0471 1.9056 -2.0674 0.9772
-5.2023 1.4496 -2.0696 0.9771
-5.3149 0.9808 -2.0711 0.9771
-2.3040 0.2154 -0.8868 0.9901
-2.2881 0.0090 -0.8768 0.9902
-2.3042 -0.1971 -0.8862 0.9901
-5.3230 -0.9389 -2.0714 0.9771
-5.0631 -1.8660 -2.0678 0.9772
-4.0645 -3.4948 -2.0542 0.9773
-3.7284 -3.8346 -2.0496 0.9773
-3.3635 -4.1416 -2.0446 0.9774
-1.6846 -4.9991 -2.0216 0.9777
-0.7652 -5.1862 -2.0090 0.9778
-0.2989 -5.2171 -2.0025 0.9779
0.6283 -5.1542 -1.9898 0.9780
1.0819 -5.0617 -1.9836 0.9781
1.5241 -4.9300 -1.9775 0.9781
1.9517 -4.7603 -1.9716 0.9782
2.7506 -4.3138 -1.9606 0.9783
3.4557 -3.7381 -1.9509 0.9784
4.0476 -3.0522 -1.9427 0.9785
4.2960 -2.6745 -1.9393 0.9786
4.6894 -1.8638 -1.9338 0.9786
5.0223 0.3421 -1.9291 0.9787
4.9735 0.7888 -1.9298 0.9787
4.4017 2.4873 -1.9375 0.9786
3.9037 3.2408 -1.9443 0.9785
3.2805 3.8996 -1.9528 0.9784
2.9270 4.1869 -1.9577 0.9784
2.5443 4.4349 -1.9593 0.9783
1.1951 4.6214 -1.8293 0.9798
0.7808 4.7242 -1.8349 0.9797
-0.5019 4.8081 -1.8526 0.9795
-1.7282 4.2487 -1.8772 0.9804
-3.3784 3.6750 -2.0431 0.9787
-3.7030 3.3687 -2.0489 0.9786
-4.2583 2.6675 -2.0565 0.9785
-4.4860 2.2808 -2.0597 0.9785
-4.6775 1.8742 -2.0623 0.9785
-4.8309 1.4512 -2.0645 0.9784
-2.0787 0.4269 -0.8685 0.9909
-1.9963 0.0480 -0.8173 0.9914
-2.0095 -0.1313 -0.8242 0.9913
-2.0312 -0.3163 -0.8413 0.9912
-3.5584 -3.5156 -2.0472 0.9786
-3.2235 -3.8103 -2.0427 0.9787
-1.6708 -4.6477 -2.0214 0.9789
-1.2463 -4.7643 -2.0155 0.9789
-0.8142 -4.8422 -2.0096 0.9790
0.4917 -4.8414 -1.9917 0.9792
0.9186 -4.7642 -1.9858 0.9792
1.3358 -4.6499 -1.9800 0.9793
1.7401 -4.4996 -1.9745 0.9794
2.1285 -4.3148 -1.9691 0.9794
2.4982 -4.0973 -1.9640 0.9795
3.7398 -2.9398 -1.9469 0.9797
4.3649 -1.8372 -1.9383 0.9797
4.7183 0.2263 -1.9333 0.9798
4.6805 0.6462 -1.9338 0.9798
4.6066 1.0615 -1.9348 0.9798
4.3526 1.8660 -1.9382 0.9797
4.1742 2.2494 -1.9407 0.9797
3.7203 2.9643 -1.9469 0.9797
3.4478 3.2905 -1.9506 0.9796
3.1473 3.5923 -1.9547 0.9796
2.8210 3.8674 -1.9592 0.9795
2.4710 4.1135 -1.9640 0.9795
1.7050 4.4969 -1.9683 0.9794
1.2739 4.5475 -1.9328 0.9798
0.8393 4.5129 -1.8787 0.9804
0.4252 4.4813 -1.8423 0.9807
0.0241 4.5088 -1.8454 0.9807
-1.5718 4.2832 -1.8673 0.9805
-1.9899 4.2160 -1.9080 0.9801
-2.4375 4.1578 -1.9726 0.9794
-2.8813 4.0401 -2.0309 0.9788
-3.8864 3.1652 -2.0514 0.9786
-4.6077 2.0339 -2.0614 0.9785
-2.1001 0.5076 -0.8843 0.9907
-2.0237 0.3015 -0.8374 0.9912
-4.4709 -2.3104 -2.0597 0.9785
-3.9765 -3.0576 -2.0530 0.9786
-3.6808 -3.3932 -2.0489 0.9786
-3.0061 -3.9749 -2.0397 0.9787
-1.4119 -4.7237 -2.0178 0.9789
-0.9823 -4.8167 -2.0119 0.9790
-0.1106 -4.8853 -1.9999 0.9791
0.3243 -4.8611 -1.9940 0.9792
0.7542 -4.7986 -1.9880 0.9792
2.7143 -3.9486 -1.9611 0.9795
3.0483 -3.6823 -1.9565 0.9796
4.5764 -1.1903 -1.9353 0.9798
4.7104 -0.3583 -1.9334 0.9798
4.7231 0.0630 -1.9332 0.9798
4.6994 0.4839 -1.9335 0.9798
4.6395 0.9013 -1.9343 0.9798
4.5437 1.3122 -1.9356 0.9798
4.4127 1.7136 -1.9374 0.9797
4.2473 2.1026 -1.9397 0.9797
3.5568 3.1668 -1.9491 0.9796
3.2669 3.4784 -1.9531 0.9796
2.9504 3.7641 -1.9574 0.9795
2.6093 4.0217 -1.9621 0.9795
2.2450 4.2470 -1.9661 0.9795
0.1798 4.5000 -1.8432 0.9807
-0.2227 4.5116 -1.8487 0.9807
-1.0265 4.4267 -1.8598 0.9806
-1.4212 4.3302 -1.8652 0.9805
-1.8234 4.2370 -1.8878 0.9803
-2.2606 4.1811 -1.9453 0.9797
-3.4549 3.6100 -2.0451 0.9786
-4.5323 2.1909 -2.0603 0.9785
-4.7154 1.7803 -2.0629 0.9785
-2.0162 0.1885 -0.8288 0.9913
-1.9910 0.0079 -0.8149 0.9914
-2.0146 -0.1723 -0.8275 0.9913
-4.8713 -1.3159 -2.0652 0.9784
-4.5506 -2.1555 -2.0608 0.9785
-4.3340 -2.5490 -2.0579 0.9785
-4.0827 -2.9203 -2.0544 0.9785
-3.1447 -3.8722 -2.0416 0.9787
-2.3950 -4.3471 -2.0313 0.9788
-1.1496 -4.7853 -2.0142 0.9790
0.1562 -4.8751 -1.9963 0.9791
0.5884 -4.8273 -1.9903 0.9792
1.8290 -4.4610 -1.9733 0.9794
2.2134 -4.2687 -1.9680 0.9794
3.2406 -3.5054 -1.9538 0.9796
4.0300 -2.5089 -1.9429 0.9797
4.3999 -1.7487 -1.9378 0.9797
4.6327 -0.9380 -1.9345 0.9798
4.6957 -0.5211 -1.9336 0.9798
3.3825 3.3606 -1.9515 0.9796
2.3893 4.1647 -1.9651 0.9795
2.0104 4.3652 -1.9669 0.9794
1.6148 4.5314 -1.9688 0.9794
0.7446 4.5050 -1.8688 0.9805
0.3349 4.4859 -1.8411 0.9807
-0.0665 4.5114 -1.8466 0.9807
-0.4698 4.5010 -1.8521 0.9806
-1.7200 4.2285 -1.9895 0.9803
-2.4910 3.9308 -2.0281 0.9799
-3.1703 3.4486 -2.0415 0.9798
-3.9918 2.5006 -2.0529 0.9797
-4.3840 1.7566 -2.0583 0.9796
-1.4938 0.4488 -0.6798 0.9932
-1.4385 0.0346 -0.6271 0.9937
-1.4905 -0.5156 -0.6873 0.9931
-4.3062 -1.9349 -2.0574 0.9796
-4.1112 -2.3081 -2.0548 0.9796
-3.8832 -2.6613 -2.0517 0.9797
-3.6242 -2.9917 -2.0481 0.9797
-3.0231 -3.5734 -2.0399 0.9798
-1.5680 -4.3616 -2.0199 0.9800
-1.1697 -4.4718 -2.0145 0.9800
-0.7643 -4.5457 -2.0089 0.9801
0.4618 -4.5475 -1.9921 0.9803
1.6353 -4.2286 -1.9759 0.9804
2.3485 -3.8518 -1.9661 0.9805
3.5176 -2.7651 -1.9500 0.9807
3.7441 -2.4366 -1.9468 0.9807
4.1066 -1.7285 -1.9418 0.9807
4.2403 -1.3542 -1.9399 0.9808
4.3410 -0.9701 -1.9385 0.9808
4.4080 -0.5790 -1.9376 0.9808
4.4410 -0.1837 -1.9371 0.9808
4.4397 0.2130 -1.9371 0.9808
4.3344 0.9987 -1.9385 0.9808
4.2312 1.3822 -1.9399 0.9808
3.9269 2.1161 -1.9441 0.9807
3.4991 2.7882 -1.9499 0.9807
2.9596 3.3780 -1.9573 0.9806
2.6523 3.6362 -1.9615 0.9806
1.9738 4.0686 -1.9708 0.9805
1.2233 4.3666 -1.9763 0.9804
-0.3686 4.3814 -1.9162 0.9810
-0.7593 4.3404 -1.9204 0.9810
-1.1542 4.2963 -1.9388 0.9808
-1.5590 4.2483 -1.9722 0.9804
-2.3501 4.0086 -2.0251 0.9799
-3.3583 3.2744 -2.0441 0.9797
-3.6438 2.9677 -2.0481 0.9797
-4.3188 1.9064 -2.0574 0.9796
-1.4737 0.2195 -0.6493 0.9935
-1.4562 0.0855 -0.6357 0.9937
-1.4423 -0.0442 -0.6289 0.9937
-4.3724 -1.7856 -2.0583 0.9796
-4.1908 -2.1656 -2.0559 0.9796
-3.9753 -2.5270 -2.0529 0.9797
-3.4513 -3.1816 -2.0458 0.9797
-2.4701 -3.9553 -2.0323 0.9799
-1.7196 -4.3092 -2.0220 0.9800
-1.3251 -4.4334 -2.0166 0.9800
-0.9221 -4.5214 -2.0111 0.9801
-0.5139 -4.5728 -2.0055 0.9801
0.7085 -4.5077 -1.9887 0.9803
1.1044 -4.4145 -1.9832 0.9803
1.4896 -4.2870 -1.9779 0.9804
1.8610 -4.1264 -1.9728 0.9804
2.2160 -3.9343 -1.9679 0.9805
2.5519 -3.7124 -1.9633 0.9805
3.1571 -3.1866 -1.9549 0.9806
3.8682 -2.2263 -1.9451 0.9807
4.1924 -1.5006 -1.9406 0.9808
4.3655 0.8481 -1.9381 0.9808
4.2752 1.2346 -1.9393 0.9808
4.1517 1.6122 -1.9410 0.9808
3.9958 1.9781 -1.9431 0.9807
3.8085 2.3295 -1.9457 0.9807
3.5912 2.6638 -1.9486 0.9807
3.0722 3.2710 -1.9557 0.9806
2.4531 3.7809 -1.9642 0.9805
2.1113 3.9941 -1.9689 0.9805
1.3729 4.3195 -1.9753 0.9804
0.9837 4.4309 -1.9781 0.9804
0.5808 4.4701 -1.9645 0.9805
0.1772 4.4343 -1.9341 0.9808
-0.2171 4.3966 -1.9185 0.9810
-2.2068 4.0816 -2.0222 0.9800
-2.5717 3.8833 -2.0299 0.9799
-2.9192 3.6531 -2.0379 0.9798
-3.5364 3.0897 -2.0466 0.9797
-4.0426 2.4208 -2.0536 0.9796
-4.2482 2.0536 -2.0564 0.9796
-1.4694 0.2712 -0.6512 0.9935
-1.4678 0.1372 -0.6425 0.9936
-1.4255 0.0056 -0.6213 0.9938
-1.4657 -0.1254 -0.6411 0.9936
-1.4710 -0.2594 -0.6510 0.9935
-1.4949 -0.5510 -0.6943 0.9931
-4.2653 -2.0204 -2.0569 0.9796
-3.8275 -2.7378 -2.0509 0.9797
-3.2683 -3.3614 -2.0433 0.9798
-1.8695 -4.2514 -2.0241 0.9799
-1.4792 -4.3895 -2.0187 0.9800
-1.0790 -4.4916 -2.0132 0.9800
-0.6725 -4.5573 -2.0076 0.9801
0.5527 -4.5344 -1.9908 0.9803
1.3418 -4.3404 -1.9799 0.9804
1.7189 -4.1925 -1.9748 0.9804
2.4241 -3.8018 -1.9650 0.9805
2.7472 -3.5625 -1.9606 0.9806
3.3226 -3.0058 -1.9527 0.9806
3.5710 -2.6928 -1.9492 0.9807
3.9809 -2.0100 -1.9435 0.9807
4.2658 -1.2685 -1.9396 0.9808
4.3141 1.0857 -1.9388 0.9808
4.2034 1.4671 -1.9403 0.9808
4.0600 1.8379 -1.9422 0.9807
3.8847 2.1952 -1.9446 0.9807
3.6789 2.5364 -1.9474 0.9807
3.4438 2.8590 -1.9507 0.9807
3.1811 3.1604 -1.9543 0.9806
2.8925 3.4384 -1.9582 0.9806
1.8927 4.1097 -1.9719 0.9805
1.5208 4.2675 -1.9744 0.9804
1.1357 4.3917 -1.9769 0.9804
0.7409 4.4826 -1.9801 0.9804
-0.0650 4.4115 -1.9228 0.9809
-0.8476 4.3308 -1.9232 0.9809
-1.6411 4.0347 -2.0162 0.9810
-2.0010 3.8855 -2.0230 0.9809
-2.3477 3.7047 -2.0302 0.9809
-2.6746 3.4884 -2.0347 0.9808
-2.9811 3.2428 -2.0389 0.9808
-3.2646 2.9698 -2.0429 0.9807
-3.7524 2.3506 -2.0496 0.9807
-3.9523 2.0095 -2.0524 0.9806
-1.2531 0.5021 -0.6249 0.9941
-1.2698 0.3815 -0.6137 0.9942
-1.2743 -0.1985 -0.5970 0.9943
-1.2702 -0.3159 -0.6058 0.9942
-1.2648 -0.4375 -0.6195 0.9941
-1.2549 -0.5638 -0.6368 0.9940
-3.4073 -2.8127 -2.0451 0.9807
-1.4753 -4.1039 -2.0187 0.9810
-1.1008 -4.2083 -2.0135 0.9810
-0.3342 -4.3142 -2.0030 0.9811
0.0516 -4.3154 -1.9977 0.9812
0.4349 -4.2823 -1.9924 0.9812
0.8128 -4.2154 -1.9872 0.9813
1.1823 -4.1157 -1.9821 0.9813
1.5407 -3.9839 -1.9772 0.9813
2.5226 -3.4108 -1.9637 0.9815
3.5304 -2.2975 -1.9498 0.9816
3.7163 -1.9710 -1.9472 0.9816
3.9991 -1.2772 -1.9433 0.9817
4.1576 -0.5461 -1.9410 0.9817
4.1888 -0.1732 -1.9406 0.9817
4.1875 0.2009 -1.9406 0.9817
3.9906 1.3036 -1.9432 0.9817
3.5151 2.3207 -1.9497 0.9816
2.1892 3.6443 -1.9679 0.9814
1.8598 3.8337 -1.9724 0.9814
1.1546 4.1216 -1.9813 0.9813
0.7837 4.2142 -1.9841 0.9813
0.0230 4.3028 -1.9917 0.9812
-0.3615 4.2978 -1.9964 0.9812
-0.7452 4.2596 -2.0017 0.9811
-1.1252 4.1883 -2.0074 0.9811
-1.4987 4.0839 -2.0137 0.9810
-2.2151 3.7785 -2.0274 0.9809
-2.5502 3.5758 -2.0330 0.9808
-2.8649 3.3414 -2.0373 0.9808
-3.1576 3.0787 -2.0414 0.9807
-1.2698 0.3069 -0.6047 0.9943
-1.2695 0.0745 -0.5886 0.9944
-1.2649 -0.0388 -0.5858 0.9944
-1.2669 -0.2689 -0.5995 0.9943
-1.2693 -0.3905 -0.6147 0.9942
-1.2510 -0.5109 -0.6255 0.9941
-3.9391 -2.0356 -2.0524 0.9806
-3.5048 -2.6949 -2.0465 0.9807
-2.9597 -3.2625 -2.0390 0.9808
-2.6516 -3.5061 -2.0348 0.9808
-2.3233 -3.7203 -2.0303 0.9809
-1.9778 -3.9035 -2.0255 0.9809
-0.4837 -4.3045 -2.0050 0.9811
-0.0978 -4.3190 -1.9997 0.9811
0.2868 -4.2992 -1.9944 0.9812
0.6672 -4.2453 -1.9892 0.9812
1.4033 -4.0387 -1.9791 0.9813
2.0882 -3.7075 -1.9697 0.9814
2.4051 -3.4988 -1.9653 0.9815
2.9762 -3.0040 -1.9574 0.9815
3.2265 -2.7219 -1.9540 0.9816
3.9539 -1.4152 -1.9439 0.9817
4.0612 -1.0563 -1.9424 0.9817
4.0321 1.1644 -1.9427 0.9817
3.9154 1.5205 -1.9443 0.9817
3.7682 1.8654 -1.9463 0.9816
3.5913 2.1966 -1.9487 0.9816
2.8961 3.0836 -1.9582 0.9815
2.3119 3.5634 -1.9662 0.9815
1.9895 3.7637 -1.9706 0.9814
1.6500 3.9354 -1.9753 0.9814
1.2957 4.0768 -1.9801 0.9813
0.9285 4.1821 -1.9830 0.9813
0.1717 4.2959 -1.9901 0.9812
-1.3549 4.1282 -2.0112 0.9810
-1.7231 4.0039 -2.0177 0.9810
-3.0470 3.1837 -2.0399 0.9808
-3.5767 2.6013 -2.0472 0.9807
-3.8001 2.2755 -2.0503 0.9807
-1.2760 0.6168 -0.6560 0.9938
-1.2588 0.4753 -0.6228 0.9941
-1.2706 0.3541 -0.6106 0.9942
-1.2592 0.0050 -0.5829 0.9945
-1.2731 -0.1089 -0.5914 0.9944
-1.2725 -0.2244 -0.5981 0.9943
-1.2707 -0.3433 -0.6093 0.9942
-1.2607 -0.4646 -0.6219 0.9941
-3.8189 -2.2460 -2.0508 0.9807
-3.5982 -2.5737 -2.0477 0.9807
-2.7735 -3.4151 -2.0365 0.9808
-2.1135 -3.8363 -2.0274 0.9809
-1.3918 -4.1303 -2.0175 0.9810
-1.0155 -4.2271 -2.0123 0.9810
-0.6329 -4.2896 -2.0071 0.9811
-0.2474 -4.3175 -2.0018 0.9811
0.1381 -4.3109 -1.9965 0.9812
0.5205 -4.2702 -1.9912 0.9812
0.8968 -4.1958 -1.9861 0.9813
1.2640 -4.0888 -1.9810 0.9813
1.6195 -3.9500 -1.9761 0.9814
1.9605 -3.7809 -1.9714 0.9814
3.1325 -2.8338 -1.9553 0.9816
3.5747 -2.2255 -1.9491 0.9816
4.1113 -0.8325 -1.9417 0.9817
4.1675 -0.4624 -1.9409 0.9817
4.1913 -0.0891 -1.9406 0.9817
4.1419 0.6569 -1.9412 0.9817
4.0689 1.0240 -1.9422 0.9817
3.9643 1.3837 -1.9436 0.9817
3.8288 1.7332 -1.9454 0.9816
3.6633 2.0701 -1.9477 0.9816
3.2469 2.6955 -1.9534 0.9816
2.4317 3.4784 -1.9645 0.9815
2.1166 3.6894 -1.9689 0.9814
0.6992 4.2307 -1.9849 0.9813
-0.0634 4.3046 -1.9928 0.9812
-0.8311 4.2465 -2.0029 0.9811
-1.5507 3.8124 -2.0189 0.9818
-2.5213 3.2885 -2.0326 0.9817
-2.8099 3.0566 -2.0366 0.9817
-3.0767 2.7990 -2.0403 0.9816
-3.3195 2.5177 -2.0436 0.9816
-1.1134 0.4461 -0.5883 0.9947
-1.1309 0.3397 -0.5792 0.9948
-1.1371 0.2335 -0.5694 0.9948
-1.1442 0.1302 -0.5649 0.9949
-1.1428 -0.0746 -0.5618 0.9949
-1.1250 -0.3891 -0.5839 0.9947
-3.6412 -2.0442 -2.0483 0.9816
-3.4398 -2.3575 -2.0456 0.9816
-2.9569 -2.9214 -2.0390 0.9817
-2.3819 -3.3869 -2.0311 0.9817
-2.0660 -3.5781 -2.0267 0.9818
-1.7350 -3.7397 -2.0222 0.9818
-0.6787 -4.0363 -2.0077 0.9819
-0.3154 -4.0706 -2.0027 0.9820
0.0487 -4.0723 -1.9977 0.9820
0.4105 -4.0417 -1.9927 0.9821
1.4547 -3.7617 -1.9784 0.9822
2.9063 -2.7373 -1.9584 0.9824
3.3360 -2.1710 -1.9524 0.9824
3.7797 -1.2071 -1.9463 0.9825
3.9297 -0.5161 -1.9442 0.9825
3.9580 0.1899 -1.9437 0.9825
3.9262 0.5421 -1.9442 0.9825
3.8639 0.8903 -1.9450 0.9825
3.6498 1.5647 -1.9479 0.9825
3.1173 2.4839 -1.9552 0.9824
2.6355 3.0081 -1.9618 0.9823
2.3614 3.2373 -1.9655 0.9823
2.0676 3.4419 -1.9695 0.9823
1.7563 3.6204 -1.9738 0.9822
1.4298 3.7711 -1.9783 0.9822
1.0905 3.8927 -1.9829 0.9822
0.3836 4.0425 -1.9918 0.9821
-0.7044 4.0266 -2.0051 0.9820
-1.0634 3.9585 -2.0106 0.9819
-1.7596 3.7280 -2.0221 0.9818
-2.0896 3.5643 -2.0267 0.9818
-2.9761 2.9017 -2.0389 0.9817
-1.1140 0.6158 -0.6244 0.9943
-1.1019 0.4864 -0.5908 0.9946
-1.1329 0.2738 -0.5717 0.9948
-1.1423 0.0670 -0.5613 0.9949
-1.1390 -0.0349 -0.5590 0.9949
-1.1443 -0.1379 -0.5654 0.9949
-1.1359 -0.2411 -0.5696 0.9948
-1.0924 -0.5645 -0.6032 0.9945
-3.5212 -2.2383 -2.0467 0.9816
-3.3028 -2.5396 -2.0437 0.9816
-3.0583 -2.8193 -2.0403 0.9816
-2.7897 -3.0752 -2.0367 0.9817
-2.4996 -3.3052 -2.0327 0.9817
-1.5258 -3.8235 -2.0193 0.9818
-1.1761 -3.9349 -2.0145 0.9819
-0.8186 -4.0143 -2.0096 0.9819
-0.0923 -4.0755 -1.9996 0.9820
0.9821 -3.9254 -1.9849 0.9821
1.9722 -3.5014 -1.9712 0.9823
2.8118 -2.8380 -1.9597 0.9824
3.0485 -2.5718 -1.9564 0.9824
3.2607 -2.2863 -1.9535 0.9824
3.4470 -1.9839 -1.9509 0.9824
3.6060 -1.6669 -1.9487 0.9825
3.7368 -1.3375 -1.9469 0.9825
3.9621 0.0529 -1.9437 0.9825
3.8916 0.7560 -1.9446 0.9825
3.8109 1.1005 -1.9457 0.9825
3.5611 1.7629 -1.9491 0.9825
3.3937 2.0757 -1.9514 0.9824
3.1995 2.3732 -1.9540 0.9824
2.9798 2.6531 -1.9571 0.9824
2.7360 2.9131 -1.9604 0.9824
1.8789 3.5544 -1.9721 0.9822
1.5580 3.7160 -1.9765 0.9822
1.2234 3.8491 -1.9811 0.9822
0.8775 3.9522 -1.9859 0.9821
0.1623 4.0621 -1.9942 0.9821
-1.6281 3.7832 -2.0203 0.9818
-1.9634 3.6313 -2.0249 0.9818
-2.5880 3.2386 -2.0335 0.9817
-3.1335 2.7377 -2.0411 0.9816
-3.5807 2.1442 -2.0472 0.9816
-1.0876 0.5258 -0.5926 0.9946
-1.1188 0.4224 -0.5866 0.9947
-1.1324 0.3155 -0.5766 0.9948
-1.1402 0.2104 -0.5687 0.9948
-1.1344 0.0045 -0.5565 0.9950
-1.1327 -0.3060 -0.5755 0.9948
-1.1207 -0.4130 -0.5859 0.9947
-2.8965 -2.9790 -2.0381 0.9817
-2.6144 -3.2192 -2.0343 0.9817
-2.3123 -3.4325 -2.0301 0.9817
-1.9928 -3.6171 -2.0257 0.9818
-1.6586 -3.7718 -2.0212 0.9818
-1.3127 -3.8955 -2.0164 0.9819
-0.9579 -3.9874 -2.0115 0.9819
-0.5971 -4.0469 -2.0066 0.9819
0.4913 -4.0304 -1.9916 0.9821
1.1934 -3.8602 -1.9820 0.9822
1.5292 -3.7298 -1.9773 0.9822
1.8514 -3.5706 -1.9729 0.9822
2.1577 -3.3840 -1.9687 0.9823
2.4459 -3.1718 -1.9647 0.9823
3.1815 -2.3991 -1.9546 0.9824
3.3780 -2.1030 -1.9518 0.9824
3.6896 -1.4664 -1.9475 0.9825
3.8025 -1.1308 -1.9460 0.9825
3.9390 -0.4371 -1.9440 0.9825
3.9148 0.6209 -1.9443 0.9825
3.8457 0.9678 -1.9452 0.9825
2.8332 2.8148 -1.9591 0.9824
2.5756 3.0617 -1.9626 0.9823
1.6841 3.6567 -1.9748 0.9822
0.6611 4.0003 -1.9888 0.9821
0.3025 4.0510 -1.9927 0.9821
-0.7856 4.0140 -2.0063 0.9819
-1.4657 3.6034 -2.0181 0.9826
-2.3817 3.1064 -2.0307 0.9825
-2.6541 2.8871 -2.0345 0.9825
-3.1348 2.3776 -2.0411 0.9824
-1.0173 0.3056 -0.5510 0.9952
-1.0329 0.0248 -0.5360 0.9954
-1.0368 -0.0677 -0.5390 0.9953
-1.0203 -0.2538 -0.5454 0.9953
-0.9866 -0.4433 -0.5611 0.9951
-0.9496 -0.5331 -0.5650 0.9951
-3.0325 -2.5033 -2.0400 0.9824
-2.5312 -2.9919 -2.0331 0.9825
-2.2501 -3.1996 -2.0293 0.9825
