ply
format ascii 1.0
element vertex 1593
property float32 x
property float32 y
property float32 z
property float32 I
end_header
10.6497 5.8279 -1.9999 0.9520
10.0866 6.7548 -1.9998 0.9520
7.9199 9.1656 -1.9955 0.9521
4.8189 10.1169 -1.8461 0.9556
3.8961 10.5048 -1.8458 0.9556
2.9426 10.8087 -1.8454 0.9556
0.8944 5.0166 -0.8395 0.9796
0.9738 11.1554 -1.8447 0.9556
-1.0245 11.1463 -1.8440 0.9556
-2.9885 10.7820 -1.8432 0.9557
-2.6397 5.4770 -1.0016 0.9757
-5.7341 9.5990 -1.8420 0.9557
-7.3463 8.4233 -1.8412 0.9557
-5.4113 5.1869 -1.2348 0.9701
-8.7234 6.9805 -1.8406 0.9557
-9.3100 6.1730 -1.8402 0.9557
-11.4670 3.7670 -1.9884 0.9522
-12.0694 0.5957 -1.9907 0.9522
-12.0736 -0.4838 -1.9906 0.9522
-11.9817 -1.5593 -1.9905 0.9522
-11.7943 -2.6223 -1.9904 0.9522
-11.1402 -4.6773 -1.9904 0.9522
-10.6787 -5.6531 -1.9905 0.9522
-10.1320 -6.5838 -1.9906 0.9522
-7.7525 -8.7247 -1.9227 0.9538
-6.6421 -8.9752 -1.8394 0.9557
-5.8154 -9.5334 -1.8397 0.9557
-4.9421 -10.0159 -1.8399 0.9557
-4.0291 -10.4186 -1.8402 0.9557
-0.1292 -11.1782 -1.8416 0.9557
2.8383 -10.8200 -1.8428 0.9557
3.7934 -10.5258 -1.8432 0.9557
5.6066 -9.6878 -1.8440 0.9556
6.9674 -9.8844 -1.9922 0.9522
7.8407 -9.2456 -1.9971 0.9520
9.3630 -7.7073 -1.9978 0.9520
11.0756 -4.9542 -1.9988 0.9520
11.4751 -3.9465 -1.9991 0.9520
11.7830 -2.9071 -1.9993 0.9520
12.1353 0.3181 -1.9998 0.9520
12.0591 1.3999 -1.9999 0.9520
9.6507 7.3632 -1.9998 0.9520
8.9543 8.1945 -1.9996 0.9520
8.1864 8.9600 -1.9994 0.9520
6.7924 8.9173 -1.8467 0.9556
5.0974 9.9800 -1.8461 0.9556
-0.7155 11.1711 -1.8441 0.9556
-2.6890 10.8613 -1.8433 0.9557
-3.6468 10.5757 -1.8429 0.9557
-5.4665 9.7548 -1.8421 0.9557
-10.1301 4.7007 -1.8397 0.9557
-11.2687 4.0509 -1.9727 0.9526
-11.9186 2.0014 -1.9909 0.9522
-12.0485 0.9296 -1.9908 0.9522
-12.0826 -0.1493 -1.9906 0.9522
-12.0204 -1.2270 -1.9905 0.9522
-11.8625 -2.2948 -1.9904 0.9522
-11.2654 -4.3671 -1.9904 0.9522
-10.3102 -6.3010 -1.9906 0.9522
-9.0272 -8.0344 -1.9908 0.9522
-6.0769 -9.3684 -1.8396 0.9557
-2.0976 -9.4701 -1.5979 0.9614
-1.4334 -11.0838 -1.8411 0.9557
-0.4386 -11.1697 -1.8415 0.9557
0.5601 -11.1665 -1.8419 0.9557
3.5003 -10.6261 -1.8431 0.9557
8.3968 -8.7459 -1.9973 0.9520
9.1455 -7.9632 -1.9977 0.9520
10.9337 -5.2588 -1.9987 0.9520
11.3610 -4.2626 -1.9990 0.9520
12.0882 -1.1013 -1.9997 0.9520
12.0931 1.0655 -1.9999 0.9520
11.3795 4.2310 -2.0000 0.9520
10.9562 5.2296 -2.0000 0.9520
9.8510 7.0934 -1.9998 0.9520
9.1780 7.9436 -1.9996 0.9520
7.0369 8.7262 -1.8467 0.9556
4.4721 10.2741 -1.8459 0.9556
1.5900 11.0858 -1.8449 0.9556
0.5942 11.1812 -1.8446 0.9556
-0.4060 11.1873 -1.8442 0.9556
-1.4025 11.1041 -1.8438 0.9556
-2.4115 5.8050 -1.0356 0.9748
-6.0564 9.3980 -1.8419 0.9557
-7.6276 8.1682 -1.8411 0.9557
-8.3246 7.4535 -1.8408 0.9557
-9.5137 5.8528 -1.8401 0.9557
-9.9965 4.9796 -1.8398 0.9557
-10.4968 4.1050 -1.8568 0.9553
-11.8589 2.3307 -1.9910 0.9522
-12.0185 1.2629 -1.9908 0.9522
-12.0823 0.1853 -1.9907 0.9522
-11.9216 -1.9655 -1.9905 0.9522
-11.6984 -3.0215 -1.9904 0.9522
-10.9750 -5.0531 -1.9905 0.9522
-10.4806 -6.0127 -1.9905 0.9522
-9.9027 -6.9244 -1.9906 0.9522
-8.4964 -8.5569 -1.9865 0.9523
-7.2279 -8.7132 -1.8650 0.9551
-6.3337 -9.1961 -1.8395 0.9557
-1.6199 -10.2794 -1.7143 0.9587
-0.7476 -11.1526 -1.8414 0.9557
0.2507 -11.1770 -1.8418 0.9557
1.2475 -11.1124 -1.8421 0.9557
3.2045 -10.7182 -1.8429 0.9557
4.1492 -10.3917 -1.8433 0.9557
5.0611 -9.9820 -1.8437 0.9556
5.9330 -9.4925 -1.8441 0.9556
7.3160 -9.6642 -1.9968 0.9520
8.9210 -8.2129 -1.9976 0.9520
11.6031 -3.5546 -1.9992 0.9520
11.8754 -2.5052 -1.9994 0.9520
12.1338 -0.3542 -1.9998 0.9520
12.0047 1.8088 -2.0000 0.9520
11.7957 2.8730 -2.0000 0.9520
11.4923 3.9143 -2.0000 0.9520
11.0969 4.9242 -2.0000 0.9520
10.6128 5.8947 -1.9999 0.9520
10.0439 6.8180 -1.9998 0.9520
5.6426 9.6834 -1.8463 0.9556
4.7552 10.1468 -1.8460 0.9556
3.8300 10.5290 -1.8457 0.9556
2.8745 10.8269 -1.8454 0.9556
1.8965 11.0381 -1.8451 0.9556
0.9036 11.1612 -1.8447 0.9556
-2.0839 10.9950 -1.8435 0.9556
-4.0036 10.4449 -1.8428 0.9557
-2.6755 5.4631 -1.0021 0.9756
-6.6232 9.0055 -1.8416 0.9557
-7.3990 8.3768 -1.8412 0.9557
-8.7670 6.9254 -1.8405 0.9557
-9.3485 6.1143 -1.8402 0.9557
-9.8553 5.2548 -1.8399 0.9557
-10.2834 4.3536 -1.8396 0.9557
-11.4971 3.6970 -1.9895 0.9522
-11.9792 1.5953 -1.9909 0.9522
-12.0728 0.5198 -1.9907 0.9522
-11.9716 -1.6346 -1.9905 0.9522
-1.5857 -9.6667 -1.8412 0.9609
-0.7168 -9.7713 -1.8416 0.9609
0.1581 -9.7981 -1.8419 0.9609
3.5791 -9.1302 -1.8433 0.9609
6.3580 -8.5094 -1.9966 0.9577
7.0933 -7.9095 -1.9969 0.9577
8.9394 -5.7507 -1.9979 0.9577
10.1473 -3.1785 -1.9987 0.9576
10.3915 -2.2605 -1.9989 0.9576
10.5527 -1.3242 -1.9990 0.9576
10.5282 1.5187 -1.9994 0.9576
9.3313 5.1064 -1.9994 0.9576
5.7329 7.9753 -1.8461 0.9608
4.9977 8.4541 -1.8459 0.9608
4.2227 8.8652 -1.8457 0.9608
3.4142 9.2053 -1.8454 0.9608
2.5786 9.4718 -1.8451 0.9608
-1.7658 9.6477 -1.8435 0.9609
-2.6548 5.5083 -1.1493 0.9754
-5.0260 8.4137 -1.8421 0.9609
-6.4394 7.3835 -1.8415 0.9609
-10.4932 1.4646 -1.9914 0.9578
-10.5812 0.5222 -1.9913 0.9578
-10.3403 -2.2990 -1.9910 0.9578
-9.3621 -4.9561 -1.9911 0.9578
-8.8828 -5.7721 -1.9912 0.9578
-7.7162 -7.2603 -1.9914 0.9578
-7.0381 -7.9206 -1.9916 0.9578
-6.2880 -8.4967 -1.9868 0.9579
-5.2606 -8.6240 -1.8988 0.9597
-4.3324 -8.7803 -1.8403 0.9609
-3.5320 -9.1332 -1.8406 0.9609
-2.7033 -9.4134 -1.8409 0.9609
-1.8070 -9.3816 -1.7958 0.9619
-0.9870 -9.7472 -1.8415 0.9609
-0.1132 -9.7981 -1.8418 0.9609
0.7618 -9.7709 -1.8421 0.9609
1.6311 -9.6657 -1.8425 0.9609
2.4877 -9.4834 -1.8428 0.9609
3.3247 -9.2253 -1.8432 0.9609
6.1196 -8.6818 -1.9965 0.9577
6.8712 -8.1024 -1.9968 0.9577
8.7763 -5.9957 -1.9978 0.9577
10.0550 -3.4581 -1.9986 0.9576
10.5117 -1.6158 -1.9990 0.9576
10.6330 0.2787 -1.9993 0.9576
10.5661 1.2266 -1.9994 0.9576
9.4692 4.8461 -1.9994 0.9576
8.4560 6.4517 -1.9992 0.9576
7.8459 7.1801 -1.9990 0.9576
5.2300 8.3128 -1.8460 0.9608
4.4667 8.7452 -1.8458 0.9608
3.6679 9.1077 -1.8455 0.9608
2.8400 9.3973 -1.8452 0.9608
-2.3567 9.5193 -1.8433 0.9609
-2.5144 5.6090 -1.1554 0.9753
-4.7914 8.5501 -1.8422 0.9609
-7.4750 6.3288 -1.8409 0.9609
-8.4785 4.8976 -1.8404 0.9609
-8.9827 4.1682 -1.8613 0.9605
-10.2515 2.6803 -1.9917 0.9578
-10.5629 0.8150 -1.9913 0.9578
-9.8766 -3.8287 -1.9910 0.9578
-8.5105 -6.3088 -1.9912 0.9578
-6.5304 -8.3315 -1.9897 0.9578
-5.5991 -8.6318 -1.9339 0.9590
-4.5737 -8.6566 -1.8402 0.9609
-3.7834 -9.0315 -1.8405 0.9609
-2.9627 -9.3345 -1.8408 0.9609
-1.2565 -9.7156 -1.8414 0.9609
0.4910 -9.7877 -1.8420 0.9609
2.2240 -9.5481 -1.8427 0.9609
3.8875 -9.0040 -1.8434 0.9609
4.8283 -8.9027 -1.9036 0.9596
5.8766 -8.8474 -1.9964 0.9577
6.6439 -8.2891 -1.9967 0.9577
7.3584 -7.6644 -1.9971 0.9577
8.0144 -6.9783 -1.9974 0.9577
8.6065 -6.2362 -1.9977 0.9577
9.9551 -3.7351 -1.9985 0.9576
10.2498 -2.8321 -1.9987 0.9576
10.4627 -1.9062 -1.9989 0.9576
10.5919 -0.9649 -1.9991 0.9576
9.9706 3.7072 -1.9994 0.9576
9.5998 4.5821 -1.9994 0.9576
8.6315 6.2152 -1.9992 0.9576
8.0419 6.9603 -1.9991 0.9576
7.3880 7.6496 -1.9989 0.9576
6.1660 7.6462 -1.8463 0.9608
3.9189 9.0030 -1.8456 0.9608
3.0993 9.3155 -1.8453 0.9608
0.5207 9.7988 -1.8444 0.9608
-0.3558 9.8044 -1.8441 0.9609
-1.2291 9.7317 -1.8437 0.9609
-2.0924 9.5814 -1.8434 0.9609
-2.4200 5.8255 -1.1857 0.9747
-2.8792 5.4888 -1.1650 0.9751
-6.0215 7.7295 -1.8417 0.9609
-6.6861 7.1600 -1.8413 0.9609
-7.2972 6.5336 -1.8410 0.9609
-7.8500 5.8554 -1.8407 0.9609
-9.8534 3.8534 -1.9886 0.9579
-10.5926 0.1624 -1.9912 0.9578
-10.5643 -0.7835 -1.9911 0.9578
-10.4518 -1.7232 -1.9911 0.9578
-9.9788 -3.5537 -1.9910 0.9578
-9.6220 -4.4302 -1.9910 0.9578
-8.6818 -6.0707 -1.9912 0.9578
-7.4653 -7.5185 -1.9915 0.9578
-4.0318 -8.9228 -1.8404 0.9609
-3.2199 -9.2484 -1.8407 0.9609
-2.3589 -9.4081 -1.8231 0.9613
0.2197 -9.7970 -1.8419 0.9609
1.0934 -9.7401 -1.8423 0.9609
2.8086 -9.3941 -1.8429 0.9609
3.6365 -9.1076 -1.8433 0.9609
4.4524 -8.7815 -1.8506 0.9607
7.8177 -7.1971 -1.9973 0.9577
9.8475 -4.0092 -1.9985 0.9576
10.1671 -3.1147 -1.9987 0.9576
10.4056 -2.1951 -1.9989 0.9576
10.5608 -1.2578 -1.9991 0.9576
10.6317 -0.3103 -1.9992 0.9576
10.5834 0.6377 -1.9929 0.9578
10.0695 3.4297 -1.9994 0.9576
8.8005 5.9740 -1.9993 0.9576
5.6826 8.0111 -1.8461 0.9608
3.3562 9.2265 -1.8454 0.9608
2.5190 9.4877 -1.8451 0.9608
-1.8264 9.6363 -1.8435 0.9609
-2.6786 9.4330 -1.8431 0.9609
-3.5091 9.1546 -1.8428 0.9609
-5.0787 8.3818 -1.8421 0.9609
-5.8055 7.8937 -1.8418 0.9609
-6.4856 7.3428 -1.8414 0.9609
-7.6852 6.0708 -1.8408 0.9609
-8.1951 5.3599 -1.8406 0.9609
-10.3363 2.3304 -1.9916 0.9578
-10.5021 1.3985 -1.9914 0.9578
-10.5821 -0.4907 -1.9911 0.9578
-1.4102 -8.5966 -1.8414 0.9650
0.9178 -8.6672 -1.8423 0.9650
4.2088 -8.4321 -1.9921 0.9622
5.6532 -7.5661 -1.9964 0.9621
6.9103 -6.4425 -1.9971 0.9621
7.4588 -5.8009 -1.9973 0.9621
8.3734 -4.3837 -1.9979 0.9621
9.0213 -2.8258 -1.9983 0.9621
9.2383 -2.0096 -1.9985 0.9621
8.6678 3.7813 -1.9989 0.9621
4.4432 7.5161 -1.8456 0.9649
3.7543 7.8817 -1.8454 0.9649
2.2926 8.4214 -1.8449 0.9649
0.8944 5.0168 -1.0772 0.9794
0.7588 8.6922 -1.8443 0.9650
-0.0200 8.7239 -1.8441 0.9650
-3.0691 8.1600 -1.8428 0.9650
-2.6667 5.5329 -1.2983 0.9752
-3.6107 6.0444 -1.4883 0.9716
-5.7265 6.5661 -1.8416 0.9650
-7.7900 4.2167 -1.8724 0.9644
-9.3326 1.3026 -1.9918 0.9622
-9.4110 0.4645 -1.9917 0.9622
-9.4144 -0.3773 -1.9916 0.9622
-8.9775 -2.8574 -1.9915 0.9622
-8.6868 -3.6472 -1.9915 0.9622
-7.9004 -5.1337 -1.9916 0.9622
-6.8627 -6.4573 -1.9918 0.9622
-6.2596 -7.0445 -1.9920 0.9622
-4.9085 -8.0467 -1.9924 0.9622
-4.1599 -8.4307 -1.9872 0.9623
-3.3006 -8.5348 -1.9343 0.9633
-1.6476 -8.5539 -1.8414 0.9650
-0.1007 -8.7132 -1.8419 0.9650
2.2121 -8.4328 -1.8428 0.9650
3.9681 -8.5334 -1.9893 0.9623
7.2950 -6.0050 -1.9972 0.9621
7.8028 -5.3307 -1.9975 0.9621
8.2485 -4.6137 -1.9978 0.9621
8.9393 -3.0744 -1.9982 0.9621
9.3451 -1.4365 -1.9986 0.9621
9.4367 -0.5968 -1.9987 0.9621
9.2588 1.9245 -1.9989 0.9621
9.0502 2.7431 -1.9990 0.9621
8.7692 3.5398 -1.9990 0.9621
4.6498 7.3904 -1.8457 0.9649
3.2611 8.0974 -1.8452 0.9649
0.2216 8.7215 -1.8441 0.9650
-0.5576 8.7051 -1.8438 0.9650
-2.3122 6.7054 -1.4993 0.9714
-2.5293 5.6422 -1.3070 0.9750
-4.9215 7.1914 -1.8420 0.9650
-5.5428 6.7225 -1.8417 0.9650
-7.1224 5.0119 -1.8409 0.9650
-8.5325 3.9593 -1.9883 0.9623
-8.8693 3.1883 -1.9922 0.9622
-9.1175 2.3839 -1.9920 0.9622
-9.2931 1.5605 -1.9919 0.9622
-6.4521 -6.8683 -1.9919 0.9622
-5.1292 -7.9074 -1.9923 0.9622
-4.3961 -8.3205 -1.9892 0.9623
-1.8837 -8.5046 -1.8413 0.9650
-1.1174 -8.6401 -1.8415 0.9650
1.9776 -8.4904 -1.8427 0.9650
2.7657 -8.3961 -1.8686 0.9645
5.9073 -7.3701 -1.9966 0.9621
6.5425 -6.8146 -1.9969 0.9621
7.1256 -6.2044 -1.9972 0.9621
7.6519 -5.5445 -1.9974 0.9621
8.5179 -4.0968 -1.9979 0.9621
8.8505 -3.3207 -1.9982 0.9621
9.4163 -0.8578 -1.9987 0.9621
9.4198 0.8299 -1.9989 0.9621
9.3085 1.6673 -1.9989 0.9621
6.5681 6.8007 -1.9985 0.9621
2.0051 8.4939 -1.8448 0.9649
1.2389 8.6377 -1.8445 0.9650
-1.0929 8.6532 -1.8436 0.9650
-1.8605 8.5197 -1.8433 0.9650
-2.0582 6.5521 -1.4517 0.9723
-4.7207 7.3253 -1.8421 0.9650
-5.3548 6.8737 -1.8418 0.9650
-6.9812 5.2074 -1.8410 0.9650
-7.4171 4.5630 -1.8408 0.9650
-8.3759 4.1723 -1.9780 0.9625
-8.7779 3.4328 -1.9923 0.9622
-9.4211 0.1445 -1.9917 0.9622
-9.2960 -1.5326 -1.9915 0.9622
-8.8753 -3.1608 -1.9915 0.9622
-8.5579 -3.9402 -1.9915 0.9622
-8.1723 -4.6884 -1.9916 0.9622
-6.0168 -7.2533 -1.9921 0.9622
-5.3460 -7.7621 -1.9923 0.9622
-2.1314 -8.5006 -1.8525 0.9648
0.9723 -8.6614 -1.8423 0.9650
1.7417 -8.5414 -1.8426 0.9650
6.3510 -6.9928 -1.9968 0.9621
7.4952 -5.7540 -1.9974 0.9621
7.9798 -5.0628 -1.9976 0.9621
9.0389 -2.7691 -1.9983 0.9621
9.4517 -0.2759 -1.9988 0.9621
9.4391 0.5688 -1.9989 0.9621
9.3510 1.4090 -1.9989 0.9621
8.9517 3.0490 -1.9990 0.9621
8.6438 3.8357 -1.9989 0.9621
8.2668 4.5917 -1.9989 0.9621
7.8237 5.3109 -1.9988 0.9621
7.3181 5.9876 -1.9987 0.9621
6.7541 6.6164 -1.9986 0.9621
5.7122 6.6953 -1.8603 0.9647
5.0521 7.1222 -1.8458 0.9649
4.3958 7.5438 -1.8456 0.9649
2.9839 8.2031 -1.8451 0.9649
1.4776 8.6005 -1.8446 0.9650
0.7041 8.6967 -1.8443 0.9650
-0.0748 8.7235 -1.8440 0.9650
-0.8529 8.6806 -1.8437 0.9650
-1.6240 8.5684 -1.8434 0.9650
-2.3818 8.3879 -1.8431 0.9650
-3.1203 8.1405 -1.8428 0.9650
-4.5163 7.4536 -1.8422 0.9650
-5.1627 7.0197 -1.8419 0.9650
-5.7676 6.5299 -1.8416 0.9650
-5.3197 5.0353 -1.5483 0.9705
-7.2882 4.7668 -1.8408 0.9650
-7.8937 4.2088 -1.8909 0.9641
-8.9721 2.8851 -1.9922 0.9622
-9.3405 1.2439 -1.9918 0.9622
-9.1837 -2.1026 -1.9915 0.9622
0.1353 -8.3832 -1.9705 0.9661
0.8843 -8.3510 -1.9737 0.9661
1.6376 -8.2972 -1.9877 0.9658
2.3756 -8.1318 -1.9910 0.9658
3.0987 -7.9047 -1.9954 0.9657
3.7923 -7.5978 -1.9957 0.9657
4.4560 -7.2301 -1.9960 0.9657
5.0842 -6.8045 -1.9963 0.9657
5.6719 -6.3245 -1.9966 0.9657
7.1474 -4.5979 -1.9974 0.9657
7.5300 -3.9421 -1.9976 0.9657
8.1125 -2.5412 -1.9980 0.9657
8.3076 -1.8072 -1.9981 0.9657
8.4363 -1.0586 -1.9983 0.9657
8.4976 -0.3015 -1.9984 0.9657
8.4165 1.2141 -1.9985 0.9657
8.0668 2.6911 -1.9986 0.9657
7.7943 3.4002 -1.9986 0.9657
7.4596 4.0822 -1.9985 0.9657
7.0653 4.7315 -1.9985 0.9657
6.1109 5.9115 -1.9982 0.9657
3.9957 6.7590 -1.8453 0.9683
3.3761 7.0879 -1.8451 0.9683
2.7298 7.3601 -1.8449 0.9683
2.0618 7.5734 -1.8447 0.9683
0.6824 7.8172 -1.8442 0.9683
-0.7180 7.8118 -1.8437 0.9683
-2.7604 7.3392 -1.8429 0.9683
-3.0505 5.1065 -1.3980 0.9759
-4.6038 6.3430 -1.8420 0.9683
-5.2852 5.0660 -1.7206 0.9704
-6.1171 4.8949 -1.8413 0.9683
-7.4402 4.0273 -1.9884 0.9658
-8.0543 2.6459 -1.9925 0.9658
-8.2577 1.9164 -1.9923 0.9658
-8.3951 1.1717 -1.9922 0.9658
-8.4657 0.4178 -1.9921 0.9658
-8.4688 -0.3394 -1.9920 0.9658
-8.4045 -1.0938 -1.9919 0.9658
-8.2732 -1.8394 -1.9919 0.9658
-8.0759 -2.5704 -1.9918 0.9658
-7.8144 -3.2809 -1.9919 0.9658
-7.4905 -3.9653 -1.9919 0.9658
-7.1070 -4.6181 -1.9920 0.9658
-6.6668 -5.2342 -1.9921 0.9658
-6.1734 -5.8087 -1.9922 0.9658
-3.7521 -7.6042 -1.9929 0.9658
-1.6002 -8.3080 -1.9885 0.9658
-0.8515 -8.4092 -1.9865 0.9659
-0.0970 -8.3926 -1.9726 0.9661
0.6519 -8.3613 -1.9711 0.9661
3.5804 -7.6995 -1.9956 0.9657
4.2538 -7.3503 -1.9959 0.9657
5.4944 -6.4789 -1.9965 0.9657
7.4178 -4.1490 -1.9975 0.9657
7.7592 -3.4708 -1.9977 0.9657
8.0388 -2.7647 -1.9979 0.9657
8.2542 -2.0364 -1.9981 0.9657
8.4859 -0.5367 -1.9984 0.9657
8.5003 0.2228 -1.9985 0.9657
8.4468 0.9806 -1.9985 0.9657
8.3258 1.7305 -1.9986 0.9657
7.5699 3.8741 -1.9985 0.9657
5.7276 6.2688 -1.9957 0.9657
4.7583 6.2469 -1.8456 0.9682
3.5712 6.9919 -1.8452 0.9683
2.2708 7.5137 -1.8448 0.9683
0.8986 7.7957 -1.8443 0.9683
0.1993 7.8436 -1.8440 0.9683
-0.5015 7.8290 -1.8438 0.9683
-1.8847 7.6129 -1.8432 0.9683
-2.0217 5.8630 -1.4576 0.9748
-2.5317 5.6477 -1.4546 0.9749
-2.8582 5.1004 -1.3741 0.9763
-3.4792 5.0838 -1.4478 0.9750
-4.9855 6.0466 -1.8419 0.9683
-5.9795 5.0626 -1.8414 0.9683
-6.4066 4.5082 -1.8411 0.9683
-7.3005 4.2172 -1.9815 0.9660
-7.9782 2.8680 -1.9925 0.9658
-8.2016 2.1444 -1.9924 0.9658
-8.4751 -0.1048 -1.9920 0.9658
-8.4316 -0.8607 -1.9919 0.9658
-8.1440 -2.3458 -1.9918 0.9658
-7.9022 -3.0633 -1.9919 0.9658
-7.5974 -3.7563 -1.9919 0.9658
-6.8090 -5.0475 -1.9920 0.9658
-6.3318 -5.6354 -1.9921 0.9658
-3.9611 -7.4971 -1.9928 0.9658
-3.2766 -7.8216 -1.9930 0.9658
-1.8304 -8.2639 -1.9893 0.9658
-1.0843 -8.3845 -1.9870 0.9659
0.4199 -8.3713 -1.9699 0.9661
1.9196 -8.2412 -1.9887 0.9658
3.3656 -7.7953 -1.9955 0.9657
4.6993 -7.0749 -1.9961 0.9657
5.3127 -6.6282 -1.9964 0.9657
6.4081 -5.5797 -1.9970 0.9657
7.9590 -2.9862 -1.9979 0.9657
8.1944 -2.2642 -1.9980 0.9657
6.4291 5.5644 -1.9983 0.9657
5.9064 6.1155 -1.9982 0.9657
4.9296 6.1129 -1.8456 0.9682
4.3639 6.5279 -1.8454 0.9683
1.1142 7.7681 -1.8444 0.9683
-0.2845 7.8402 -1.8438 0.9683
-1.6733 7.6625 -1.8433 0.9683
-3.2829 5.0942 -1.4243 0.9754
-4.8164 6.1826 -1.8419 0.9683
-5.3482 5.7273 -1.8417 0.9683
-5.5651 4.9828 -1.7556 0.9698
-6.2796 4.6840 -1.8412 0.9683
-6.9051 4.2480 -1.9054 0.9672
-7.5880 3.7798 -1.9924 0.9658
-7.8960 3.0879 -1.9926 0.9658
-8.1393 2.3707 -1.9924 0.9658
-8.3178 1.6347 -1.9923 0.9658
-8.4299 0.8858 -1.9921 0.9658
-8.4523 -0.6269 -1.9919 0.9658
-8.2058 -2.1194 -1.9919 0.9658
-7.3515 -4.2175 -1.9919 0.9658
-6.9461 -4.8570 -1.9920 0.9658
-6.4852 -5.4578 -1.9921 0.9658
-4.8089 -6.9823 -1.9926 0.9658
-3.4917 -7.7276 -1.9930 0.9658
-2.0595 -8.2139 -1.9902 0.9658
-1.3165 -8.3538 -1.9876 0.9658
-0.5638 -8.4107 -1.9811 0.9660
0.9372 -8.3487 -1.9745 0.9661
1.6899 -8.2875 -1.9878 0.9658
2.4271 -8.1180 -1.9914 0.9658
3.1484 -7.8852 -1.9955 0.9657
3.8401 -7.5739 -1.9958 0.9657
5.7116 -6.2888 -1.9966 0.9657
6.2509 -5.7547 -1.9969 0.9657
8.3188 -1.7549 -1.9981 0.9657
8.4428 -1.0055 -1.9983 0.9657
8.4994 -0.2481 -1.9984 0.9657
8.4880 0.5115 -1.9985 0.9657
8.2622 2.0124 -1.9986 0.9657
7.7728 3.4492 -1.9986 0.9657
7.4338 4.1290 -1.9985 0.9657
7.0354 4.7758 -1.9984 0.9657
6.5808 5.3843 -1.9984 0.9657
6.0736 5.9498 -1.9982 0.9657
5.4979 6.4441 -1.9908 0.9658
4.5431 6.4047 -1.8455 0.9682
3.9530 6.7840 -1.8453 0.9683
3.3315 7.1089 -1.8451 0.9683
-1.4606 7.7062 -1.8434 0.9683
-2.8065 7.3216 -1.8428 0.9683
-5.1878 5.8734 -1.8418 0.9683
-5.3016 5.0182 -1.7156 0.9704
-7.4682 3.9820 -1.9891 0.9658
-8.4681 0.3646 -1.9921 0.9658
-8.4665 -0.3926 -1.9920 0.9658
-8.2614 -1.8914 -1.9919 0.9658
-1.2465 -7.5991 -1.9938 0.9687
-0.5634 -7.6809 -1.9941 0.9687
0.1243 -7.7016 -1.9943 0.9687
0.8112 -7.6607 -1.9946 0.9687
1.4919 -7.5588 -1.9949 0.9687
3.4423 -6.8964 -1.9957 0.9687
4.0446 -6.5626 -1.9960 0.9686
5.1481 -5.7405 -1.9965 0.9686
5.6406 -5.2588 -1.9967 0.9686
6.0881 -4.7349 -1.9969 0.9686
6.4871 -4.1732 -1.9972 0.9686
7.3629 -2.3063 -1.9977 0.9686
7.6567 -0.9608 -1.9980 0.9686
7.7123 -0.2736 -1.9981 0.9686
7.7062 0.4158 -1.9982 0.9686
7.5099 1.7792 -1.9983 0.9686
6.7701 3.7049 -1.9982 0.9686
6.4123 4.2942 -1.9982 0.9686
6.0032 4.8491 -1.9981 0.9686
5.0361 5.8281 -1.9943 0.9687
3.6265 6.1346 -1.8451 0.9710
3.0642 6.4331 -1.8449 0.9710
2.4776 6.6802 -1.8448 0.9710
1.8714 6.8739 -1.8445 0.9710
-0.0163 7.1214 -1.8439 0.9710
-0.6517 7.0906 -1.8436 0.9710
-5.5531 4.4436 -1.8414 0.9710
-6.3927 4.2387 -1.9860 0.9688
-6.7697 3.6644 -1.9931 0.9687
-7.0690 3.0453 -1.9929 0.9687
-7.3120 2.4021 -1.9927 0.9687
-7.6214 1.0637 -1.9925 0.9687
-7.6884 -0.3081 -1.9923 0.9687
-7.3318 -2.3336 -1.9922 0.9687
-7.0943 -2.9786 -1.9922 0.9687
-4.5784 -6.1865 -1.9927 0.9687
-4.0083 -6.5710 -1.9929 0.9687
-3.4062 -6.9032 -1.9931 0.9687
-2.7768 -7.1803 -1.9933 0.9687
-2.1252 -7.4003 -1.9935 0.9687
-0.7759 -7.6621 -1.9940 0.9687
-0.0890 -7.7017 -1.9943 0.9687
0.5988 -7.6800 -1.9945 0.9687
1.9551 -7.4532 -1.9951 0.9687
2.6128 -7.2500 -1.9953 0.9687
4.9870 -5.8806 -1.9964 0.9686
5.9545 -4.9015 -1.9969 0.9686
6.3689 -4.3510 -1.9971 0.9686
6.7325 -3.7657 -1.9973 0.9686
7.2960 -2.5093 -1.9977 0.9686
7.4914 -1.8483 -1.9978 0.9686
7.7147 0.2022 -1.9982 0.9686
7.5562 1.5706 -1.9983 0.9686
7.3860 2.2387 -1.9983 0.9686
7.1567 2.8889 -1.9983 0.9686
6.8702 3.5160 -1.9982 0.9686
6.5288 4.1150 -1.9982 0.9686
6.1353 4.6811 -1.9981 0.9686
5.6927 5.2097 -1.9980 0.9686
4.3546 5.7170 -1.8607 0.9707
2.0610 6.8197 -1.8446 0.9710
1.4440 6.9756 -1.8444 0.9710
0.1809 7.1194 -1.8439 0.9710
-1.7108 6.9102 -1.8432 0.9710
-2.0218 5.8632 -1.6058 0.9747
-3.4792 5.0838 -1.5950 0.9749
-4.9969 5.0625 -1.8417 0.9710
-6.0812 4.2792 -1.9253 0.9697
-6.9822 3.2400 -1.9930 0.9687
-7.2428 2.6037 -1.9928 0.9687
-7.4457 1.9467 -1.9926 0.9687
-7.5542 -1.4614 -1.9922 0.9687
-7.1740 -2.7810 -1.9922 0.9687
-6.1816 -4.5824 -1.9923 0.9687
-5.7482 -5.1160 -1.9924 0.9687
-4.1886 -6.4573 -1.9929 0.9687
-3.5959 -6.8060 -1.9930 0.9687
-2.9745 -7.1005 -1.9932 0.9687
-0.9877 -7.6374 -1.9939 0.9687
1.0711 -7.6292 -1.9947 0.9687
2.4110 -7.3192 -1.9952 0.9687
4.2654 -6.4217 -1.9961 0.9686
4.8221 -6.0162 -1.9963 0.9686
6.6254 -3.9505 -1.9972 0.9686
7.4372 -2.0549 -1.9978 0.9686
7.5914 -1.3831 -1.9979 0.9686
7.6850 -0.7001 -1.9980 0.9686
7.7172 -0.0115 -1.9981 0.9686
7.6877 0.6773 -1.9982 0.9686
7.5968 1.3608 -1.9983 0.9686
7.4451 2.0333 -1.9983 0.9686
6.9650 3.3245 -1.9982 0.9686
6.2626 4.5095 -1.9981 0.9686
5.8349 5.0501 -1.9980 0.9686
4.8186 5.9753 -1.9875 0.9688
3.9607 5.9247 -1.8452 0.9710
1.0113 7.0507 -1.8442 0.9710
0.3780 7.1120 -1.8440 0.9710
-0.2582 7.1164 -1.8438 0.9710
-0.8922 7.0640 -1.8435 0.9710
-1.9869 6.3252 -1.7166 0.9730
-2.1414 5.1547 -1.4452 0.9772
-2.6823 5.1134 -1.4951 0.9764
-5.2990 4.7445 -1.8416 0.9710
-5.7698 4.3038 -1.8637 0.9707
-6.5442 4.0259 -1.9894 0.9688
-7.1681 2.8033 -1.9928 0.9687
-7.3891 2.1522 -1.9927 0.9687
-7.6530 0.8042 -1.9924 0.9687
-7.6939 0.1180 -1.9923 0.9687
-7.6734 -0.5691 -1.9922 0.9687
-7.5918 -1.2516 -1.9922 0.9687
-7.2483 -2.5813 -1.9922 0.9687
-6.9890 -3.2179 -1.9922 0.9687
-5.4222 -5.4608 -1.9925 0.9687
-4.9136 -5.9233 -1.9926 0.9687
-4.3657 -6.3387 -1.9928 0.9687
-3.7829 -6.7036 -1.9930 0.9687
-2.5314 -7.2708 -1.9934 0.9687
-1.8726 -7.4686 -1.9936 0.9687
-1.1987 -7.6068 -1.9938 0.9687
-0.5152 -7.6844 -1.9941 0.9687
3.4856 -6.8747 -1.9957 0.9687
4.0858 -6.5371 -1.9960 0.9686
4.6535 -6.1472 -1.9962 0.9686
5.6736 -5.2232 -1.9967 0.9686
6.1178 -4.6966 -1.9970 0.9686
7.3773 -2.2600 -1.9977 0.9686
7.5501 -1.5927 -1.9979 0.9686
7.7035 0.4642 -1.9982 0.9686
7.6315 1.1499 -1.9982 0.9686
7.3057 2.4883 -1.9983 0.9686
6.7467 3.7474 -1.9982 0.9686
6.3851 4.3344 -1.9982 0.9686
5.5123 5.3999 -1.9979 0.9686
4.9973 5.8573 -1.9935 0.9687
4.1234 5.8129 -1.8453 0.9710
2.4356 6.6956 -1.8447 0.9710
0.5747 7.0990 -1.8441 0.9710
-0.0611 7.1211 -1.8438 0.9710
-0.6963 7.0863 -1.8436 0.9710
-1.9445 6.8478 -1.8431 0.9710
-1.9721 5.1448 -1.4266 0.9775
-2.5147 5.1349 -1.4804 0.9767
-4.2153 5.7315 -1.8421 0.9710
-4.7093 5.3317 -1.8419 0.9710
-5.1658 4.8896 -1.8416 0.9710
-6.4212 4.1997 -1.9866 0.9688
-7.3269 2.3560 -1.9927 0.9687
-7.5073 1.6926 -1.9926 0.9687
-7.6878 0.3310 -1.9923 0.9687
-7.6236 -1.0410 -1.9922 0.9687
-1.1402 -6.9505 -1.9939 0.9711
0.1137 -7.0441 -1.9944 0.9711
0.7420 -7.0067 -1.9946 0.9711
1.3645 -6.9134 -1.9949 0.9711
1.9763 -6.7649 -1.9951 0.9711
2.5725 -6.5623 -1.9954 0.9711
3.1483 -6.3074 -1.9956 0.9711
5.1586 -4.8094 -1.9966 0.9711
6.5178 -2.7015 -1.9974 0.9711
6.7334 -2.1092 -1.9975 0.9711
7.0020 -0.8786 -1.9978 0.9711
7.0472 0.3802 -1.9979 0.9711
6.8677 1.6271 -1.9980 0.9711
6.4690 2.8221 -1.9980 0.9711
6.1912 3.3881 -1.9980 0.9711
5.4899 4.4344 -1.9978 0.9711
5.0720 4.9065 -1.9977 0.9711
3.9432 5.4855 -1.9125 0.9723
2.8023 5.8832 -1.8448 0.9733
2.2659 6.1092 -1.8446 0.9733
1.7114 6.2864 -1.8444 0.9733
0.5664 6.4891 -1.8440 0.9733
-1.1723 6.4050 -1.8433 0.9733
-1.7390 6.2741 -1.8431 0.9733
-1.9917 5.2954 -1.6016 0.9768
-2.4758 5.1369 -1.6143 0.9766
-3.8224 5.2664 -1.8422 0.9733
-5.8657 3.8893 -1.9924 0.9712
-6.1921 3.3517 -1.9933 0.9712
-6.6883 2.1972 -1.9929 0.9712
-6.8572 1.5914 -1.9928 0.9712
-6.9714 0.9730 -1.9927 0.9712
-7.0327 -0.2818 -1.9925 0.9712
-6.4893 -2.7246 -1.9924 0.9712
-6.2204 -3.2929 -1.9925 0.9712
-5.5362 -4.3466 -1.9926 0.9712
-5.1265 -4.8236 -1.9927 0.9712
-4.6758 -5.2621 -1.9928 0.9712
-4.1878 -5.6588 -1.9929 0.9712
-3.6664 -6.0105 -1.9931 0.9712
-2.5399 -6.5677 -1.9935 0.9712
0.5477 -7.0243 -1.9946 0.9711
2.3897 -6.6308 -1.9953 0.9711
2.9723 -6.3919 -1.9956 0.9711
4.5609 -5.3781 -1.9963 0.9711
5.4456 -4.4826 -1.9967 0.9711
5.8245 -3.9792 -1.9969 0.9711
6.6723 -2.2947 -1.9975 0.9711
6.7544 2.0473 -1.9980 0.9711
6.5447 2.6419 -1.9980 0.9711
6.2827 3.2154 -1.9980 0.9711
5.9705 3.7631 -1.9979 0.9711
5.6106 4.2808 -1.9979 0.9711
4.2605 5.5934 -1.9905 0.9712
1.8849 6.2368 -1.8445 0.9733
0.1654 6.5112 -1.8439 0.9733
-0.4163 6.4992 -1.8436 0.9733
-1.5647 6.3201 -1.8432 0.9733
-2.8671 5.1162 -1.6603 0.9759
-3.4340 5.0179 -1.7213 0.9750
-4.1394 5.0204 -1.8421 0.9733
-5.7486 4.0451 -1.9899 0.9712
-6.3865 2.9636 -1.9932 0.9712
-6.6250 2.3816 -1.9930 0.9712
-6.8106 1.7807 -1.9928 0.9712
-7.0019 -0.7147 -1.9925 0.9712
-6.9100 -1.3367 -1.9924 0.9712
-6.7631 -1.9481 -1.9924 0.9712
-6.5622 -2.5439 -1.9924 0.9712
-6.3091 -3.1194 -1.9924 0.9712
-6.0057 -3.6701 -1.9925 0.9712
-5.2580 -4.6797 -1.9927 0.9712
-4.8196 -5.1306 -1.9928 0.9712
-4.3428 -5.5406 -1.9929 0.9712
-3.2891 -6.2254 -1.9932 0.9712
-2.7207 -6.4947 -1.9934 0.9712
-2.1304 -6.7122 -1.9936 0.9711
-0.2764 -7.0391 -1.9943 0.9711
0.3529 -7.0365 -1.9945 0.9711
1.5987 -6.8634 -1.9950 0.9711
2.2051 -6.6942 -1.9952 0.9711
4.4101 -5.5022 -1.9962 0.9711
4.8841 -5.0872 -1.9964 0.9711
5.3192 -4.6315 -1.9967 0.9711
5.7119 -4.1388 -1.9969 0.9711
6.0591 -3.6129 -1.9971 0.9711
6.6060 -2.4785 -1.9974 0.9711
6.8013 -1.8792 -1.9976 0.9711
7.0279 -0.6403 -1.9978 0.9711
7.0303 0.6194 -1.9979 0.9711
6.8085 1.8594 -1.9980 0.9711
6.6153 2.4596 -1.9980 0.9711
6.3693 3.0402 -1.9980 0.9711
5.7271 4.1239 -1.9979 0.9711
4.4204 5.4816 -1.9935 0.9711
3.1239 5.7194 -1.8449 0.9733
2.0569 6.1825 -1.8445 0.9733
-0.2362 6.5084 -1.8437 0.9733
-2.1414 5.1547 -1.5802 0.9771
-2.6887 5.1257 -1.6386 0.9762
-3.2829 5.0942 -1.7157 0.9751
-3.9990 5.1333 -1.8421 0.9733
-4.4406 4.7554 -1.8419 0.9733
-4.8570 4.3488 -1.8456 0.9733
-5.6275 4.1976 -1.9875 0.9712
-6.3022 3.1393 -1.9932 0.9712
-6.5567 2.5642 -1.9930 0.9712
-6.7588 1.9686 -1.9929 0.9712
-6.9071 1.3575 -1.9928 0.9712
-7.0003 0.7356 -1.9927 0.9712
-7.0377 0.1079 -1.9926 0.9712
-7.0190 -0.5206 -1.9925 0.9712
-6.9444 -1.1449 -1.9924 0.9712
-6.8144 -1.7601 -1.9924 0.9712
-6.6301 -2.3612 -1.9924 0.9712
-5.7682 -4.0334 -1.9925 0.9712
-5.3855 -4.5322 -1.9926 0.9712
-3.9933 -5.7980 -1.9930 0.9712
-3.4602 -6.1318 -1.9932 0.9712
-2.8994 -6.4167 -1.9933 0.9712
-2.3154 -6.6505 -1.9935 0.9711
-1.0964 -6.9576 -1.9940 0.9711
-0.4712 -7.0285 -1.9942 0.9711
1.4080 -6.9048 -1.9949 0.9711
2.0188 -6.7524 -1.9952 0.9711
2.6137 -6.5461 -1.9954 0.9711
3.7368 -5.9786 -1.9959 0.9711
4.2559 -5.6220 -1.9961 0.9711
4.7412 -5.2203 -1.9964 0.9711
5.1888 -4.7769 -1.9966 0.9711
5.5950 -4.2952 -1.9968 0.9711
6.5347 -2.6604 -1.9974 0.9711
6.7466 -2.0668 -1.9975 0.9711
6.9045 -1.4566 -1.9976 0.9711
7.0074 -0.8346 -1.9978 0.9711
7.0447 0.4245 -1.9979 0.9711
6.6809 2.2755 -1.9980 0.9711
6.4511 2.8627 -1.9980 0.9711
5.4619 4.4689 -1.9978 0.9711
5.0410 4.9382 -1.9977 0.9711
4.5777 5.3655 -1.9966 0.9711
3.8657 5.4497 -1.8915 0.9726
2.7653 5.9007 -1.8448 0.9733
1.6719 6.2970 -1.8444 0.9733
1.1031 6.4204 -1.8442 0.9733
0.5256 6.4925 -1.8440 0.9733
-0.0559 6.5127 -1.8438 0.9733
-1.7784 6.2630 -1.8431 0.9733
-2.5147 5.1349 -1.6186 0.9765
-3.0928 5.1043 -1.6895 0.9755
-3.8554 5.2422 -1.8422 0.9733
-4.3074 4.8767 -1.8420 0.9733
-4.7249 4.4723 -1.8418 0.9733
-5.4424 4.2991 -1.9634 0.9716
-6.4833 2.7448 -1.9931 0.9712
-6.7019 2.1551 -1.9929 0.9712
-6.8670 1.5482 -1.9928 0.9712
-6.9774 0.9292 -1.9927 0.9712
-7.0321 0.3028 -1.9926 0.9712
-7.0308 -0.3260 -1.9925 0.9712
1.2559 -6.3631 -1.9949 0.9732
1.8190 -6.2264 -1.9952 0.9732
2.3677 -6.0399 -1.9954 0.9732
2.8976 -5.8052 -1.9956 0.9732
3.4045 -5.5240 -1.9958 0.9732
4.3333 -4.8318 -1.9963 0.9732
4.7477 -4.4263 -1.9965 0.9732
5.4600 -3.5124 -1.9969 0.9732
5.9984 -2.4862 -1.9972 0.9732
6.3457 -1.3804 -1.9974 0.9732
6.4439 -0.8086 -1.9976 0.9732
6.4906 -0.2303 -1.9976 0.9732
6.1614 2.0555 -1.9978 0.9732
5.9534 2.5971 -1.9978 0.9732
5.6977 3.1180 -1.9977 0.9732
4.2459 4.9137 -1.9974 0.9732
3.7794 5.2577 -1.9916 0.9733
1.5751 5.7856 -1.8443 0.9752
0.8945 5.0171 -1.5675 0.9789
-0.0137 5.9943 -1.8437 0.9752
-1.0789 5.8951 -1.8433 0.9752
-1.6006 5.7746 -1.8431 0.9752
-1.9646 5.2233 -1.7165 0.9769
-3.0067 5.0333 -1.8033 0.9758
-5.0534 4.0437 -1.9907 0.9733
-5.4020 3.5818 -1.9936 0.9732
-5.9517 2.5640 -1.9933 0.9732
-6.4711 0.3194 -1.9928 0.9733
-6.4736 -0.2594 -1.9927 0.9733
-6.4244 -0.8361 -1.9927 0.9733
-6.3241 -1.4061 -1.9927 0.9733
-6.1733 -1.9649 -1.9926 0.9733
-5.9734 -2.5080 -1.9927 0.9733
-5.7258 -3.0311 -1.9927 0.9733
-5.4326 -3.5301 -1.9927 0.9733
-5.0960 -4.0010 -1.9928 0.9733
-3.3748 -5.5324 -1.9933 0.9732
-2.8678 -5.8120 -1.9934 0.9732
-2.3379 -6.0453 -1.9936 0.9732
-1.7892 -6.2304 -1.9938 0.9732
-1.2261 -6.3658 -1.9940 0.9732
-0.0749 -6.4838 -1.9944 0.9732
2.1994 -6.1029 -1.9953 0.9732
2.7356 -5.8829 -1.9955 0.9732
3.7388 -5.3041 -1.9960 0.9732
4.1977 -4.9498 -1.9962 0.9732
5.0118 -4.1255 -1.9966 0.9732
5.3605 -3.6621 -1.9968 0.9732
6.1405 -2.1119 -1.9973 0.9732
6.3049 -1.5555 -1.9974 0.9732
6.4817 -0.4099 -1.9976 0.9732
6.4927 0.1702 -1.9977 0.9732
6.4517 0.7490 -1.9977 0.9732
6.3593 1.3218 -1.9978 0.9732
6.2160 1.8841 -1.9978 0.9732
6.0230 2.4313 -1.9978 0.9732
5.7819 2.9591 -1.9978 0.9732
5.4946 3.4632 -1.9977 0.9732
5.1634 3.9396 -1.9976 0.9732
4.7910 4.3845 -1.9976 0.9732
4.3804 4.7943 -1.9974 0.9732
3.9288 5.1579 -1.9943 0.9732
3.2575 5.1776 -1.8815 0.9747
2.2403 5.5628 -1.8445 0.9752
1.2154 5.8713 -1.8442 0.9752
0.1522 5.9926 -1.8438 0.9752
-0.3831 5.9816 -1.8436 0.9752
-1.9327 5.6049 -1.8235 0.9755
-2.2826 5.0919 -1.7163 0.9769
-2.8260 5.0429 -1.7780 0.9761
-4.3053 4.3618 -1.8850 0.9747
-4.9343 4.1777 -1.9886 0.9733
-5.6122 3.2419 -1.9935 0.9732
-6.0981 2.1922 -1.9932 0.9732
-6.3899 1.0730 -1.9929 0.9732
-6.4452 -0.6579 -1.9927 0.9733
-6.0405 -2.3416 -1.9926 0.9733
-5.5282 -3.3783 -1.9927 0.9733
-4.4364 -4.7226 -1.9930 0.9732
-3.9975 -5.1000 -1.9931 0.9732
-3.0276 -5.7302 -1.9934 0.9732
-2.5043 -5.9781 -1.9935 0.9732
-1.9610 -6.1783 -1.9937 0.9732
-1.4019 -6.3292 -1.9939 0.9732
0.3248 -6.4766 -1.9946 0.9732
1.4714 -6.3171 -1.9950 0.9732
2.0296 -6.1613 -1.9952 0.9732
2.5716 -5.9562 -1.9955 0.9732
3.0933 -5.7036 -1.9957 0.9732
3.5904 -5.4054 -1.9959 0.9732
4.0589 -5.0640 -1.9961 0.9732
4.4951 -4.6820 -1.9963 0.9732
5.2569 -3.8091 -1.9967 0.9732
5.5763 -3.3250 -1.9969 0.9732
5.8513 -2.8143 -1.9971 0.9732
6.0796 -2.2810 -1.9972 0.9732
6.2593 -1.7295 -1.9974 0.9732
6.3891 -1.1640 -1.9975 0.9732
6.4948 -0.0097 -1.9977 0.9732
6.3934 1.1452 -1.9978 0.9732
6.2657 1.7112 -1.9978 0.9732
6.0880 2.2636 -1.9978 0.9732
5.5885 3.3097 -1.9977 0.9732
5.2706 3.7952 -1.9977 0.9732
4.9107 4.2502 -1.9976 0.9732
4.5115 4.6713 -1.9975 0.9732
4.0757 5.0541 -1.9970 0.9732
3.5314 5.2825 -1.9544 0.9738
2.8750 5.2636 -1.8447 0.9752
0.8512 5.9346 -1.8440 0.9752
0.3181 5.9863 -1.8439 0.9752
-0.2174 5.9901 -1.8437 0.9752
-1.7957 5.7166 -1.8430 0.9752
-2.1408 5.1534 -1.7164 0.9769
-2.6501 5.0522 -1.7548 0.9764
-3.6808 4.7248 -1.8422 0.9752
-5.5204 3.3961 -1.9935 0.9732
-6.0352 2.3602 -1.9932 0.9732
-6.4437 0.6771 -1.9929 0.9732
-6.2727 -1.6201 -1.9926 0.9733
-6.1030 -2.1735 -1.9926 0.9733
-5.8848 -2.7095 -1.9927 0.9733
-4.5654 -4.5979 -1.9929 0.9732
-1.5766 -6.2878 -1.9939 0.9732
-1.0092 -6.4041 -1.9941 0.9732
0.1454 -6.4828 -1.9945 0.9732
1.2959 -6.3552 -1.9949 0.9732
2.9340 -5.7869 -1.9956 0.9732
3.4392 -5.5025 -1.9959 0.9732
3.9169 -5.1742 -1.9961 0.9732
5.1492 -3.9530 -1.9967 0.9732
6.2089 -1.9021 -1.9973 0.9732
6.3543 -1.3405 -1.9975 0.9732
6.4832 0.3907 -1.9977 0.9732
6.4226 0.9677 -1.9978 0.9732
6.3107 1.5371 -1.9978 0.9732
5.6780 3.1538 -1.9977 0.9732
5.3737 3.6478 -1.9977 0.9732
4.6392 4.5446 -1.9975 0.9732
4.2149 4.9403 -1.9974 0.9732
3.7452 5.2798 -1.9910 0.9733
3.0196 5.1821 -1.8448 0.9752
0.4838 5.9754 -1.8439 0.9752
-0.0514 5.9941 -1.8437 0.9752
-0.5861 5.9649 -1.8435 0.9752
-1.9721 5.1448 -1.6947 0.9772
-3.0485 5.0311 -1.8094 0.9757
-5.0800 4.0129 -1.9912 0.9733
-5.7189 3.0493 -1.9934 0.9732
-6.4226 0.8553 -1.9929 0.9732
-6.4730 0.2787 -1.9928 0.9733
-6.4718 -0.3001 -1.9927 0.9733
-6.4190 -0.8765 -1.9927 0.9733
-0.9711 -5.9200 -1.9941 0.9750
0.6319 -5.9675 -1.9947 0.9750
1.6831 -5.7613 -1.9952 0.9750
2.1908 -5.5887 -1.9954 0.9750
2.6811 -5.3715 -1.9956 0.9750
3.5941 -4.8103 -1.9960 0.9750
4.3929 -4.0955 -1.9964 0.9750
4.7413 -3.6874 -1.9966 0.9750
5.0519 -3.2499 -1.9967 0.9750
5.3222 -2.7863 -1.9969 0.9750
5.5500 -2.3003 -1.9970 0.9750
5.8713 -1.2772 -1.9973 0.9750
5.9621 -0.7481 -1.9974 0.9750
6.0053 -0.2131 -1.9975 0.9750
6.0006 0.3237 -1.9975 0.9750
5.9479 0.8580 -1.9976 0.9750
5.7007 1.9018 -1.9976 0.9750
5.2717 2.8849 -1.9976 0.9750
4.9930 3.3437 -1.9975 0.9750
4.3187 4.1778 -1.9973 0.9750
3.9284 4.5463 -1.9972 0.9750
3.5041 4.8746 -1.9955 0.9750
2.3862 5.0097 -1.8445 0.9769
1.9295 5.2023 -1.8444 0.9769
0.8945 5.0172 -1.6940 0.9787
0.4824 5.5260 -1.8439 0.9769
-0.5076 5.5226 -1.8435 0.9769
-1.9149 5.0912 -1.8081 0.9773
-2.4068 4.9938 -1.8427 0.9769
-5.6970 1.8715 -1.9933 0.9750
-5.8410 1.3556 -1.9932 0.9750
-5.9383 0.8288 -1.9931 0.9750
-5.9883 0.2955 -1.9930 0.9750
-5.9906 -0.2401 -1.9929 0.9750
-5.9452 -0.7737 -1.9929 0.9750
-5.8523 -1.3012 -1.9928 0.9750
-5.7128 -1.8183 -1.9928 0.9750
-5.2986 -2.8050 -1.9929 0.9750
-5.0273 -3.2667 -1.9929 0.9750
-4.3668 -4.1088 -1.9931 0.9750
-3.9829 -4.4823 -1.9932 0.9750
-3.5672 -4.8202 -1.9933 0.9750
-3.1230 -5.1196 -1.9934 0.9750
-1.6556 -5.7654 -1.9939 0.9750
-1.1346 -5.8906 -1.9941 0.9750
-0.6044 -5.9690 -1.9943 0.9750
-0.0693 -5.9997 -1.9945 0.9750
0.9986 -5.9177 -1.9949 0.9750
2.0352 -5.6471 -1.9953 0.9750
2.5313 -5.4435 -1.9955 0.9750
3.0073 -5.1964 -1.9957 0.9750
3.4594 -4.9078 -1.9959 0.9750
5.6815 -1.9540 -1.9971 0.9750
5.9390 -0.9129 -1.9973 0.9750
6.0072 0.1575 -1.9975 0.9750
5.9693 0.6930 -1.9976 0.9750
5.0838 3.2042 -1.9975 0.9750
4.7774 3.6450 -1.9975 0.9750
4.4328 4.0567 -1.9974 0.9750
3.6406 4.7796 -1.9972 0.9750
3.1887 5.0682 -1.9904 0.9751
2.5241 4.9418 -1.8446 0.9769
2.0728 5.1470 -1.8444 0.9769
1.1246 5.4325 -1.8441 0.9769
0.6352 5.5107 -1.8439 0.9769
0.1409 5.5448 -1.8437 0.9769
-0.8470 5.4804 -1.8434 0.9769
-2.7098 4.8356 -1.8426 0.9769
-3.6193 4.3897 -1.8912 0.9763
-4.5780 3.8761 -1.9939 0.9750
-5.4399 2.5243 -1.9935 0.9750
-5.8013 1.5168 -1.9932 0.9750
-5.9950 -0.0741 -1.9929 0.9750
-5.5899 -2.1669 -1.9928 0.9750
-4.8165 -3.5705 -1.9930 0.9750
-4.1054 -4.3702 -1.9931 0.9750
-2.8016 -5.3026 -1.9935 0.9750
-2.3174 -5.5319 -1.9937 0.9750
-1.8146 -5.7171 -1.9938 0.9750
-1.2972 -5.8568 -1.9940 0.9750
-0.7694 -5.9498 -1.9942 0.9750
-0.2354 -5.9953 -1.9944 0.9750
1.3615 -5.8453 -1.9950 0.9750
1.8780 -5.7011 -1.9952 0.9750
3.7556 -4.6856 -1.9961 0.9750
4.1592 -4.3321 -1.9963 0.9750
4.5296 -3.9440 -1.9965 0.9750
4.8640 -3.5244 -1.9966 0.9750
5.4139 -2.6039 -1.9969 0.9750
5.9153 1.0596 -1.9976 0.9750
2.7210 4.9818 -1.8869 0.9764
2.2146 5.0877 -1.8445 0.9769
1.7516 5.2646 -1.8443 0.9769
1.2746 5.3995 -1.8441 0.9769
0.7876 5.4912 -1.8440 0.9769
0.2944 5.5390 -1.8438 0.9769
-0.2011 5.5426 -1.8436 0.9769
-0.6949 5.5020 -1.8434 0.9769
-1.1830 5.4174 -1.8432 0.9769
-1.6616 5.2897 -1.8430 0.9769
-2.1107 5.0808 -1.8288 0.9771
-3.4310 4.4042 -1.8558 0.9767
-4.0660 4.3542 -1.9803 0.9752
-4.4649 3.9977 -1.9921 0.9751
-5.1084 3.1427 -1.9937 0.9750
-5.9790 -0.4434 -1.9929 0.9750
-5.9154 -0.9753 -1.9929 0.9750
-5.6477 -2.0113 -1.9928 0.9750
-5.2003 -2.9834 -1.9929 0.9750
-4.9135 -3.4357 -1.9929 0.9750
-4.5874 -3.8606 -1.9930 0.9750
-3.8284 -4.6151 -1.9932 0.9750
-3.4014 -4.9387 -1.9933 0.9750
-1.9721 -5.6646 -1.9938 0.9750
-1.4589 -5.8185 -1.9940 0.9750
-0.9339 -5.9260 -1.9941 0.9750
0.1346 -5.9988 -1.9945 0.9750
0.6694 -5.9635 -1.9947 0.9750
1.1991 -5.8806 -1.9950 0.9750
2.2259 -5.5749 -1.9954 0.9750
4.0375 -4.4455 -1.9962 0.9750
4.4186 -4.0678 -1.9964 0.9750
5.0722 -3.2181 -1.9967 0.9750
5.3396 -2.7528 -1.9969 0.9750
5.6886 1.9376 -1.9976 0.9750
5.4929 2.4375 -1.9976 0.9750
5.2534 2.9179 -1.9976 0.9750
4.6507 3.8052 -1.9974 0.9750
4.2924 4.2049 -1.9973 0.9750
2.9429 5.0504 -1.9430 0.9757
2.3547 5.0246 -1.8445 0.9769
0.9394 5.4674 -1.8440 0.9769
0.4476 5.5289 -1.8438 0.9769
-1.0326 5.4483 -1.8433 0.9769
-1.5146 5.3338 -1.8431 0.9769
-1.9508 5.0893 -1.8117 0.9773
-2.4381 4.9785 -1.8427 0.9769
-3.2837 4.4649 -1.8423 0.9769
-3.8605 4.3707 -1.9384 0.9757
-4.3484 4.1159 -1.9903 0.9751
-5.2921 2.8217 -1.9935 0.9750
-5.7086 1.8357 -1.9933 0.9750
-5.9434 0.7915 -1.9931 0.9750
-5.9402 -0.8111 -1.9929 0.9750
-5.8440 -1.3380 -1.9928 0.9750
-0.9027 -5.5030 -1.9942 0.9766
-0.4080 -5.5621 -1.9944 0.9766
0.5874 -5.5471 -1.9948 0.9766
1.5645 -5.3553 -1.9952 0.9766
2.0364 -5.1949 -1.9954 0.9766
2.4921 -4.9929 -1.9956 0.9766
2.9281 -4.7510 -1.9957 0.9766
3.7268 -4.1556 -1.9961 0.9766
4.0831 -3.8067 -1.9963 0.9766
5.3291 -1.6693 -1.9970 0.9766
5.4571 -1.1871 -1.9971 0.9766
5.5415 -0.6954 -1.9972 0.9766
5.5817 -0.1980 -1.9973 0.9766
5.5772 0.3009 -1.9974 0.9766
5.1196 2.2334 -1.9974 0.9766
4.8998 2.6813 -1.9974 0.9766
4.6408 3.1078 -1.9973 0.9766
3.2595 4.5344 -1.9970 0.9766
2.8354 4.7964 -1.9925 0.9766
2.3129 4.8557 -1.9234 0.9774
0.8945 5.0172 -1.8225 0.9786
0.4484 5.1364 -1.8438 0.9783
-0.4718 5.1333 -1.8435 0.9783
-0.9280 5.0702 -1.8433 0.9783
-1.3766 4.9667 -1.8431 0.9783
-2.6518 4.4392 -1.8492 0.9783
-4.0257 3.8587 -1.9942 0.9766
-4.6468 3.0811 -1.9938 0.9766
-4.9029 2.6539 -1.9937 0.9766
-5.2959 1.7398 -1.9934 0.9766
-5.4297 1.2601 -1.9933 0.9766
-5.4403 -1.2096 -1.9930 0.9766
-5.1386 -2.1575 -1.9930 0.9766
-4.6734 -3.0368 -1.9931 0.9766
-3.7024 -4.1667 -1.9933 0.9766
-3.3160 -4.4808 -1.9934 0.9766
-2.4669 -4.9996 -1.9937 0.9766
-2.0110 -5.2002 -1.9938 0.9766
-1.5390 -5.3593 -1.9940 0.9766
-1.0547 -5.4757 -1.9942 0.9766
-0.0644 -5.5770 -1.9945 0.9766
0.4336 -5.5610 -1.9947 0.9766
0.9282 -5.5007 -1.9949 0.9766
1.4156 -5.3964 -1.9951 0.9766
1.8917 -5.2491 -1.9953 0.9766
2.3529 -5.0598 -1.9955 0.9766
2.7953 -4.8301 -1.9957 0.9766
3.2156 -4.5618 -1.9959 0.9766
3.6102 -4.2570 -1.9961 0.9766
3.9760 -3.9182 -1.9962 0.9766
4.3102 -3.5480 -1.9964 0.9766
4.6100 -3.1495 -1.9966 0.9766
4.8731 -2.7257 -1.9967 0.9766
5.2807 -1.8162 -1.9970 0.9766
5.5201 -0.8485 -1.9972 0.9766
5.5740 -0.3525 -1.9973 0.9766
5.5482 0.6441 -1.9974 0.9766
4.9721 2.5446 -1.9974 0.9766
4.1201 3.7705 -1.9972 0.9766
3.7670 4.1230 -1.9971 0.9766
3.3838 4.4425 -1.9970 0.9766
2.9702 4.7209 -1.9946 0.9766
1.9267 4.7840 -1.8443 0.9783
1.0453 5.0495 -1.8440 0.9783
0.1309 5.1539 -1.8437 0.9783
-1.6800 4.8721 -1.8430 0.9783
-2.5189 4.4949 -1.8426 0.9783
-3.0189 4.4113 -1.9115 0.9775
-5.2458 1.8858 -1.9935 0.9766
-5.4969 0.9230 -1.9932 0.9766
-5.5571 0.4288 -1.9932 0.9766
-5.5445 -0.5660 -1.9930 0.9766
-5.4718 -1.0585 -1.9930 0.9766
-5.3554 -1.5426 -1.9930 0.9766
-4.7556 -2.9062 -1.9931 0.9766
-4.4774 -3.3191 -1.9931 0.9766
-4.1635 -3.7056 -1.9932 0.9766
-3.8163 -4.0625 -1.9933 0.9766
-2.6043 -4.9292 -1.9936 0.9766
-2.1542 -5.1423 -1.9938 0.9766
-1.6868 -5.3145 -1.9939 0.9766
-1.2059 -5.4443 -1.9941 0.9766
-0.7152 -5.5307 -1.9943 0.9766
-0.2188 -5.5729 -1.9945 0.9766
1.2656 -5.4334 -1.9950 0.9766
2.2118 -5.1229 -1.9954 0.9766
2.6604 -4.9055 -1.9956 0.9766
3.0879 -4.6490 -1.9958 0.9766
3.4908 -4.3552 -1.9960 0.9766
4.2102 -3.6659 -1.9964 0.9766
4.7956 -2.8595 -1.9967 0.9766
5.0321 -2.4203 -1.9968 0.9766
5.3828 -1.4873 -1.9971 0.9766
5.5852 -0.0083 -1.9973 0.9766
5.3882 1.4716 -1.9974 0.9766
4.8058 2.8462 -1.9974 0.9766
4.5325 3.2637 -1.9973 0.9766
3.8798 4.0171 -1.9972 0.9766
3.5056 4.3471 -1.9971 0.9766
3.1030 4.6416 -1.9966 0.9766
2.0913 4.8044 -1.8738 0.9780
-0.1870 5.1519 -1.8436 0.9783
-0.6459 5.1141 -1.8434 0.9783
-1.5445 4.9169 -1.8430 0.9783
-2.3935 4.5631 -1.8427 0.9783
-3.4128 4.3808 -1.9859 0.9767
-3.8011 4.0705 -1.9916 0.9766
-5.1916 2.0303 -1.9935 0.9766
-5.3518 1.5588 -1.9934 0.9766
-5.4693 1.0749 -1.9933 0.9766
-5.4990 -0.9066 -1.9930 0.9766
-5.3961 -1.3937 -1.9930 0.9766
-5.2502 -1.8697 -1.9930 0.9766
-4.8343 -2.7734 -1.9930 0.9766
-4.5676 -3.1938 -1.9931 0.9766
-3.1619 -4.5909 -1.9935 0.9766
-2.7398 -4.8551 -1.9936 0.9766
-0.8681 -5.5086 -1.9942 0.9766
-0.3730 -5.5646 -1.9944 0.9766
0.6223 -5.5433 -1.9948 0.9766
1.1146 -5.4662 -1.9950 0.9766
2.0691 -5.1820 -1.9954 0.9766
2.5235 -4.9771 -1.9956 0.9766
3.3688 -4.4501 -1.9960 0.9766
4.1070 -3.7810 -1.9963 0.9766
4.9630 -2.5586 -1.9968 0.9766
5.4645 -1.1528 -1.9971 0.9766
5.4269 1.3218 -1.9974 0.9766
5.2873 1.8009 -1.9974 0.9766
4.8828 2.7121 -1.9974 0.9766
4.6212 3.1369 -1.9973 0.9766
4.3226 3.5367 -1.9973 0.9766
3.6247 4.2485 -1.9971 0.9766
3.2309 4.5548 -1.9970 0.9766
2.2708 4.8456 -1.9137 0.9775
1.7629 4.8465 -1.8443 0.9783
1.3233 4.9841 -1.8441 0.9783
-0.0442 5.1552 -1.8436 0.9783
-0.9598 5.0643 -1.8433 0.9783
-1.4078 4.9579 -1.8431 0.9783
-1.8445 4.8120 -1.8429 0.9783
-2.6878 4.4358 -1.8548 0.9782
-3.2323 4.3949 -1.9509 0.9771
-3.6840 4.1709 -1.9901 0.9766
-4.9194 2.6230 -1.9937 0.9766
-5.1335 2.1733 -1.9935 0.9766
-5.3067 1.7064 -1.9934 0.9766
-5.5674 -0.2582 -1.9931 0.9766
-5.5220 -0.7540 -1.9930 0.9766
-0.3808 -5.1905 -1.9944 0.9780
0.0840 -5.2042 -1.9946 0.9780
0.5482 -5.1764 -1.9948 0.9779
1.9003 -4.8476 -1.9953 0.9779
2.3256 -4.6592 -1.9955 0.9779
2.7323 -4.4334 -1.9957 0.9779
3.1174 -4.1722 -1.9959 0.9779
3.8101 -3.5522 -1.9962 0.9779
4.3816 -2.8187 -1.9965 0.9779
4.6160 -2.4165 -1.9967 0.9779
4.9726 -1.5576 -1.9969 0.9779
5.0921 -1.1077 -1.9970 0.9779
5.1584 0.7441 -1.9973 0.9779
4.9440 1.6493 -1.9973 0.9779
4.7771 2.0840 -1.9973 0.9779
4.5720 2.5019 -1.9972 0.9779
4.0541 3.2747 -1.9971 0.9779
3.0415 4.2311 -1.9969 0.9779
2.6513 4.4849 -1.9965 0.9779
2.2343 4.6908 -1.9911 0.9780
1.2674 4.6554 -1.8490 0.9795
0.8445 4.7369 -1.8439 0.9796
0.4184 4.7930 -1.8437 0.9796
-0.0110 4.8108 -1.8436 0.9796
-0.4403 4.7902 -1.8434 0.9796
-1.2846 4.6348 -1.8431 0.9796
-1.6930 4.5012 -1.8429 0.9796
-2.6381 4.4163 -1.9714 0.9782
-3.7568 3.6010 -1.9942 0.9780
-4.7956 -2.0135 -1.9932 0.9780
-3.7883 -3.5645 -1.9934 0.9780
-2.7092 -4.4413 -1.9937 0.9780
-2.3022 -4.6657 -1.9938 0.9780
-1.4362 -5.0013 -1.9941 0.9780
-0.5243 -5.1778 -1.9944 0.9780
-0.0601 -5.2044 -1.9946 0.9780
1.3210 -5.0358 -1.9951 0.9779
1.7653 -4.8983 -1.9953 0.9779
2.6085 -4.5072 -1.9957 0.9779
3.0006 -4.2568 -1.9958 0.9779
3.7102 -3.6562 -1.9962 0.9779
4.5472 -2.5434 -1.9966 0.9779
4.7563 -2.1276 -1.9968 0.9779
4.9275 -1.6947 -1.9969 0.9779
5.0594 -1.2482 -1.9970 0.9779
5.1508 -0.7918 -1.9971 0.9779
5.2011 -0.3289 -1.9971 0.9779
5.2099 0.1366 -1.9972 0.9779
5.1028 1.0606 -1.9973 0.9779
4.8329 1.9509 -1.9973 0.9779
4.4090 2.7789 -1.9972 0.9779
3.8445 3.5183 -1.9971 0.9779
2.7748 4.4103 -1.9968 0.9779
1.9128 4.7496 -1.9622 0.9783
1.4114 4.6700 -1.8696 0.9793
0.9754 4.7119 -1.8439 0.9796
0.5510 4.7797 -1.8438 0.9796
-0.7346 4.7536 -1.8433 0.9796
-1.5677 4.5465 -1.8430 0.9796
-2.0000 4.4614 -1.8736 0.9793
-3.9714 3.3624 -1.9941 0.9780
-4.7192 2.1898 -1.9937 0.9780
-4.8955 1.7598 -1.9936 0.9780
-5.0327 1.3158 -1.9935 0.9780
-5.1298 0.8614 -1.9934 0.9780
-2.3033 -0.2351 -0.8873 0.9901
-5.1064 -0.9878 -1.9932 0.9780
-4.8495 -1.8799 -1.9932 0.9780
-4.6624 -2.3052 -1.9932 0.9780
-4.1785 -3.0975 -1.9933 0.9780
-3.5615 -3.7913 -1.9934 0.9780
-2.0103 -4.7989 -1.9939 0.9780
-0.6675 -5.1612 -1.9943 0.9780
0.2608 -5.1985 -1.9947 0.9779
2.8815 -4.3382 -1.9958 0.9779
3.2574 -4.0641 -1.9960 0.9779
4.4749 -2.6683 -1.9966 0.9779
5.0228 -1.3878 -1.9969 0.9779
5.1268 -0.9341 -1.9970 0.9779
5.2116 -0.0077 -1.9972 0.9779
5.1916 0.4574 -1.9972 0.9779
5.1302 0.9189 -1.9973 0.9779
5.0277 1.3731 -1.9973 0.9779
4.8851 1.8163 -1.9973 0.9779
4.7035 2.2450 -1.9973 0.9779
2.8959 4.3319 -1.9968 0.9779
2.4947 4.5675 -1.9944 0.9780
1.5595 4.6873 -1.8930 0.9791
1.1055 4.6831 -1.8440 0.9796
0.2553 4.8043 -1.8437 0.9796
-1.0262 4.6990 -1.8432 0.9796
-3.8768 3.4712 -1.9942 0.9780
-4.1708 3.1111 -1.9940 0.9780
-4.4315 2.7262 -1.9939 0.9780
-4.6568 2.3197 -1.9937 0.9780
-4.9945 1.4547 -1.9935 0.9780
-5.1319 -0.8461 -1.9932 0.9780
-5.0358 -1.3007 -1.9932 0.9780
-4.2626 -2.9806 -1.9932 0.9780
-3.6651 -3.6912 -1.9934 0.9780
-2.9508 -4.2844 -1.9936 0.9780
-2.1424 -4.7413 -1.9938 0.9780
-1.7108 -4.9139 -1.9940 0.9780
-0.8101 -5.1406 -1.9943 0.9780
1.4914 -4.9882 -1.9952 0.9779
1.9308 -4.8356 -1.9954 0.9779
2.3548 -4.6445 -1.9955 0.9779
2.7602 -4.4162 -1.9957 0.9779
3.8324 -3.5282 -1.9962 0.9779
4.3992 -2.7911 -1.9965 0.9779
4.8260 -1.9648 -1.9968 0.9779
4.9824 -1.5263 -1.9969 0.9779
5.1748 -0.6163 -1.9971 0.9779
5.2023 0.3135 -1.9972 0.9779
5.1536 0.7765 -1.9973 0.9779
5.0638 1.2334 -1.9973 0.9779
4.5561 2.5306 -1.9972 0.9779
4.3120 2.9271 -1.9972 0.9779
4.0335 3.3001 -1.9971 0.9779
3.7227 3.6468 -1.9971 0.9779
3.3822 3.9643 -1.9970 0.9779
3.0148 4.2501 -1.9969 0.9779
1.2357 4.6544 -1.8454 0.9796
-0.0413 4.8106 -1.8436 0.9796
-0.8957 4.7258 -1.8432 0.9796
-1.3137 4.6266 -1.8431 0.9796
-2.1789 4.4492 -1.8985 0.9790
-2.6743 4.4136 -1.9776 0.9781
-3.7793 3.5773 -1.9942 0.9780
-5.0744 1.1441 -1.9934 0.9780
-2.3097 0.3076 -0.8929 0.9901
-2.3006 -0.1067 -0.8826 0.9902
-2.3150 -0.3161 -0.8954 0.9900
-0.3565 -4.8602 -1.9945 0.9792
0.9439 -4.7822 -1.9950 0.9792
2.1775 -4.3625 -1.9955 0.9791
2.9188 -3.9065 -1.9958 0.9791
3.2561 -3.6307 -1.9960 0.9791
3.5674 -3.3259 -1.9962 0.9791
4.1024 -2.6391 -1.9964 0.9791
4.3219 -2.2626 -1.9966 0.9791
4.6558 -1.4584 -1.9968 0.9791
4.8413 -0.6075 -1.9970 0.9791
4.8725 0.2629 -1.9971 0.9791
4.6290 1.5442 -1.9971 0.9791
4.4726 1.9512 -1.9971 0.9791
4.2806 2.3425 -1.9971 0.9791
3.5069 3.3924 -1.9969 0.9791
2.8477 3.9615 -1.9968 0.9791
2.0965 4.4013 -1.9953 0.9791
1.6917 4.5612 -1.9910 0.9792
-0.4164 4.5306 -1.8621 0.9805
-0.8255 4.5105 -1.8767 0.9804
-2.1093 4.3764 -1.9883 0.9792
-2.4951 4.1768 -1.9913 0.9792
-3.5177 3.3718 -1.9943 0.9792
-3.8043 3.0442 -1.9941 0.9792
-4.0605 2.6924 -1.9940 0.9792
-2.0949 0.4862 -0.8802 0.9907
-2.0010 -0.0802 -0.8196 0.9914
-2.0893 -0.4645 -0.8760 0.9908
-4.6409 -1.4771 -1.9933 0.9792
-4.4905 -1.8854 -1.9933 0.9792
-3.5473 -3.3377 -1.9935 0.9792
-3.2354 -3.6411 -1.9935 0.9792
-2.8977 -3.9155 -1.9936 0.9792
-1.3449 -4.6831 -1.9941 0.9792
-0.9216 -4.7848 -1.9943 0.9792
0.3789 -4.8592 -1.9948 0.9792
1.2369 -4.7152 -1.9951 0.9792
2.0558 -4.4210 -1.9955 0.9791
2.8095 -3.9857 -1.9958 0.9791
3.1542 -3.7194 -1.9960 0.9791
3.4739 -3.4233 -1.9961 0.9791
3.7658 -3.0999 -1.9963 0.9791
4.2575 -2.3813 -1.9965 0.9791
4.4533 -1.9920 -1.9967 0.9791
4.6136 -1.5867 -1.9968 0.9791
4.8697 -0.3080 -1.9970 0.9791
4.8471 0.5627 -1.9971 0.9791
4.7776 0.9930 -1.9971 0.9791
4.3438 2.2231 -1.9971 0.9791
4.1280 2.6018 -1.9971 0.9791
3.8793 2.9598 -1.9970 0.9791
3.5995 3.2941 -1.9970 0.9791
2.9563 3.8812 -1.9968 0.9791
2.5980 4.1293 -1.9967 0.9791
2.2190 4.3444 -1.9966 0.9791
1.4044 4.6471 -1.9869 0.9792
0.9514 4.5961 -1.9210 0.9799
0.1157 4.5527 -1.8639 0.9805
-1.5412 4.4695 -1.9349 0.9798
-1.9865 4.4314 -1.9875 0.9792
-2.7510 4.0199 -1.9936 0.9792
-3.1002 3.7600 -1.9945 0.9792
-3.9845 2.8038 -1.9940 0.9792
-4.2186 2.4369 -1.9939 0.9792
-4.4189 2.0505 -1.9938 0.9792
-4.7126 1.2321 -1.9936 0.9792
-2.0445 0.3433 -0.8485 0.9911
-1.9934 -0.0246 -0.8159 0.9914
-4.3658 -2.1586 -1.9933 0.9792
-4.1558 -2.5397 -1.9933 0.9792
-3.3350 -3.5501 -1.9935 0.9792
-0.6250 -4.8327 -1.9944 0.9792
-0.1912 -4.8696 -1.9946 0.9792
0.6777 -4.8269 -1.9949 0.9792
1.1058 -4.7475 -1.9951 0.9792
2.6980 -4.0619 -1.9957 0.9791
3.3777 -3.5181 -1.9961 0.9791
3.6785 -3.2029 -1.9962 0.9791
3.9499 -2.8620 -1.9964 0.9791
4.1898 -2.4983 -1.9965 0.9791
4.3964 -2.1145 -1.9966 0.9791
4.5678 -1.7138 -1.9967 0.9791
4.8592 -0.4427 -1.9970 0.9791
4.8795 -0.0073 -1.9971 0.9791
4.8608 0.4283 -1.9971 0.9791
4.7073 1.2856 -1.9971 0.9791
4.5738 1.7006 -1.9971 0.9791
4.1985 2.4866 -1.9971 0.9791
3.9598 2.8513 -1.9971 0.9791
3.6894 3.1932 -1.9970 0.9791
3.0627 3.7979 -1.9968 0.9791
2.3385 4.2814 -1.9966 0.9791
1.0884 4.6105 -1.9388 0.9797
0.6567 4.5788 -1.8932 0.9802
-0.1648 4.5416 -1.8600 0.9805
-0.9832 4.5021 -1.8860 0.9803
-2.2579 4.3045 -1.9894 0.9792
-2.6372 4.0923 -1.9925 0.9792
-2.9950 3.8445 -1.9945 0.9792
-3.3258 3.5616 -1.9944 0.9792
-3.6301 3.2503 -1.9942 0.9792
-4.3605 2.1721 -1.9938 0.9792
-4.6767 1.3622 -1.9936 0.9792
-2.0727 0.4074 -0.8645 0.9909
-1.9942 0.0306 -0.8163 0.9914
-2.0412 -0.3365 -0.8467 0.9911
-4.5880 -1.6339 -1.9933 0.9792
-4.4239 -2.0369 -1.9933 0.9792
-4.2245 -2.4236 -1.9933 0.9792
-3.9915 -2.7910 -1.9934 0.9792
-3.4319 -3.4564 -1.9935 0.9792
-2.3941 -4.2426 -1.9938 0.9792
-2.0061 -4.4396 -1.9939 0.9792
-0.3260 -4.8623 -1.9945 0.9792
1.8078 -4.5278 -1.9954 0.9791
2.5844 -4.1349 -1.9957 0.9791
2.9434 -3.8881 -1.9959 0.9791
3.2789 -3.6102 -1.9960 0.9791
3.8690 -2.9702 -1.9963 0.9791
4.1190 -2.6133 -1.9965 0.9791
4.8451 -0.5770 -1.9970 0.9791
4.8252 0.7270 -1.9971 0.9791
4.7411 1.1548 -1.9971 0.9791
4.0372 2.7406 -1.9971 0.9791
3.7764 3.0898 -1.9970 0.9791
2.8227 3.9793 -1.9968 0.9791
2.0684 4.4137 -1.9949 0.9792
1.2284 4.6269 -1.9593 0.9795
0.7880 4.5867 -1.9047 0.9801
-1.2737 4.4857 -1.9085 0.9800
-1.7091 4.4588 -1.9543 0.9796
-2.1369 4.3635 -1.9885 0.9792
-2.5216 4.1615 -1.9915 0.9792
-2.8874 3.9260 -1.9946 0.9792
-3.5388 3.3496 -1.9943 0.9792
-4.2988 2.2921 -1.9939 0.9792
-4.4859 1.8992 -1.9937 0.9792
