ply
format ascii 1.0
element vertex 1362
property float32 x
property float32 y
property float32 z
property float32 I
end_header
2.8224 11.5941 2.1041 0.9527
1.7254 11.4922 2.0491 0.9539
-2.4067 11.2896 2.0354 0.9542
-5.7062 10.9787 2.1817 0.9510
-6.9480 10.8617 2.2735 0.9490
-8.3105 10.7334 2.3936 0.9464
-9.4072 10.1261 2.4371 0.9454
-11.4027 10.2542 2.7040 0.9396
-6.1807 -18.1384 3.3789 0.9251
-2.6260 -17.5075 3.1216 0.9306
2.0648 -17.0655 3.0310 0.9326
3.6713 -17.2101 3.1029 0.9310
5.2757 -17.0588 3.1485 0.9300
1.7221 11.4919 2.0490 0.9539
0.6728 11.3940 2.0126 0.9547
-0.1631 5.2953 0.9342 0.9787
-1.3492 11.1381 1.9783 0.9555
-2.4099 11.2893 2.0354 0.9542
-3.4624 11.1901 2.0654 0.9535
-6.9521 10.8614 2.2739 0.9490
-11.4056 10.2511 2.7040 0.9396
3.3314 4.8921 0.9067 0.9763
2.8241 11.6009 1.8291 0.9528
0.6763 11.3995 1.7494 0.9548
-0.1616 5.2965 0.8118 0.9788
-1.3461 11.1382 1.7187 0.9556
-2.4066 11.2894 1.7683 0.9544
-3.4590 11.1902 1.7943 0.9537
-9.7354 10.4793 2.1912 0.9438
-11.2787 10.1427 2.3237 0.9405
-6.0749 -17.8280 2.8854 0.9266
-4.2965 -17.6605 2.7844 0.9291
-1.0271 -17.3524 2.6629 0.9321
0.2977 -9.7111 1.4884 0.9614
3.6084 -16.9156 2.6497 0.9324
11.5980 -14.9751 2.9017 0.9262
13.0162 -14.0070 2.9292 0.9255
14.4321 -12.9749 2.9730 0.9245
3.3312 4.8947 0.9070 0.9763
2.8205 11.6006 1.8289 0.9528
0.6731 11.3992 1.7493 0.9548
-1.3492 11.1379 1.7187 0.9556
-9.7404 10.4789 2.1917 0.9437
-11.2838 10.1416 2.3242 0.9405
3.3308 4.8912 0.7706 0.9764
-0.1618 5.3028 0.6909 0.9788
-1.3460 11.1381 1.4610 0.9558
-3.4985 11.3179 1.5426 0.9533
-8.3102 10.7331 1.7676 0.9467
-8.0034 -18.0099 2.5664 0.9236
-2.6254 -17.5033 2.3048 0.9311
0.2978 -9.7161 1.2658 0.9615
5.1855 -16.7672 2.2855 0.9317
6.8229 -16.6128 2.3387 0.9301
3.3305 4.8938 0.7709 0.9764
2.8378 11.6716 1.5642 0.9527
-3.5019 11.3176 1.5427 0.9533
-4.6072 11.2135 1.5787 0.9523
-6.9556 10.8668 1.6801 0.9493
-9.8426 10.5887 1.8826 0.9434
1.7637 11.7472 1.2756 0.9533
0.6910 11.6461 1.2528 0.9541
-1.3460 11.1379 1.2047 0.9559
-4.6036 11.2136 1.3017 0.9524
-5.7711 11.1036 1.3438 0.9509
-7.0271 10.9853 1.4003 0.9489
-8.4050 10.8555 1.4742 0.9463
-9.8373 10.5890 1.5520 0.9435
-6.0044 -17.6210 1.9990 0.9278
-4.2697 -17.5503 1.9395 0.9299
-2.6223 -17.4826 1.8983 0.9314
3.6085 -16.9160 1.8573 0.9328
5.1634 -16.6958 1.8766 0.9321
3.3299 4.8929 0.6355 0.9765
2.8818 11.8525 1.3098 0.9521
-1.3492 11.1376 1.2047 0.9559
-2.4373 11.4178 1.2537 0.9541
-3.5018 11.3174 1.2721 0.9535
-5.7749 11.1033 1.3439 0.9509
-7.0312 10.9849 1.4005 0.9489
-9.8424 10.5885 1.5524 0.9435
3.3295 4.8893 0.5008 0.9765
2.8853 11.8527 1.0327 0.9522
1.7637 11.7470 1.0056 0.9534
-0.1623 5.3195 0.4505 0.9789
-1.3460 11.1378 0.9497 0.9560
-4.6036 11.2135 1.0261 0.9525
-5.7710 11.1035 1.0593 0.9510
-7.0270 10.9852 1.1039 0.9490
-6.0752 -17.8288 1.5945 0.9272
3.6086 -16.9163 1.4642 0.9329
5.1856 -16.7676 1.4858 0.9320
11.5973 -14.9741 1.6033 0.9268
3.3293 4.8919 0.5009 0.9765
3.2417 5.8254 0.5643 0.9736
1.7602 11.7467 1.0055 0.9534
0.6877 11.6456 0.9875 0.9542
-0.1638 5.3195 0.4505 0.9789
-2.4793 11.6145 1.0054 0.9534
-4.6071 11.2131 1.0262 0.9525
-5.7748 11.1031 1.0594 0.9510
-7.0311 10.9848 1.1041 0.9490
-8.4094 10.8549 1.1624 0.9464
3.3289 4.8884 0.3667 0.9766
3.2413 5.8208 0.4131 0.9737
2.8853 11.8526 0.7564 0.9523
1.7637 11.7468 0.7366 0.9535
-0.1624 5.3235 0.3303 0.9789
-1.3460 11.1376 0.6957 0.9560
-3.4984 11.3175 0.7346 0.9536
-7.0269 10.9850 0.8086 0.9491
-8.4048 10.8552 0.8513 0.9465
-12.0933 10.8753 1.0085 0.9369
-4.3240 -17.7736 1.1343 0.9293
-1.0352 -17.4897 1.0864 0.9322
2.0806 -17.1961 1.0741 0.9329
3.6370 -17.0494 1.0810 0.9325
3.3287 4.8910 0.3669 0.9766
1.7602 11.7465 0.7365 0.9535
0.6877 11.6454 0.7234 0.9543
-0.1639 5.3237 0.3303 0.9789
-1.3491 11.1373 0.6957 0.9560
-2.4793 11.6144 0.7364 0.9535
-4.6071 11.2130 0.7517 0.9526
-5.7747 11.1030 0.7761 0.9511
-7.0310 10.9846 0.8087 0.9491
-8.4093 10.8547 0.8515 0.9465
3.2406 5.8196 0.2627 0.9737
0.6871 11.5802 0.4574 0.9546
-0.1626 5.3301 0.2103 0.9789
-1.3460 11.1375 0.4424 0.9561
-2.4759 11.6145 0.4683 0.9536
-3.4983 11.3173 0.4671 0.9537
-4.6034 11.2132 0.4780 0.9526
-7.0268 10.9848 0.5142 0.9491
-12.0930 10.8751 0.6413 0.9370
-10.2628 -10.4318 0.5770 0.9431
-2.6511 -17.6743 0.7047 0.9310
-1.0372 -17.5222 0.6921 0.9321
5.8613 -18.9524 0.7822 0.9237
11.6003 -14.9780 0.7470 0.9270
3.3280 4.8901 0.2332 0.9766
2.8817 11.8520 0.4810 0.9523
1.7602 11.7464 0.4683 0.9536
0.6838 11.5799 0.4574 0.9546
-1.3491 11.1372 0.4424 0.9561
-2.4793 11.6142 0.4683 0.9536
-3.5017 11.3170 0.4671 0.9537
-4.6070 11.2128 0.4780 0.9526
-10.0565 10.8189 0.5824 0.9426
3.3277 4.8866 0.0999 0.9766
0.6871 11.5800 0.1960 0.9547
-0.1630 5.3412 0.0903 0.9788
-1.3459 11.1373 0.1895 0.9561
-2.4759 11.6144 0.2006 0.9536
-3.4983 11.3172 0.2001 0.9537
-5.7708 11.1030 0.2114 0.9512
-7.0267 10.9847 0.2203 0.9492
-8.4045 10.8548 0.2319 0.9466
-10.0082 10.7730 0.2484 0.9429
-10.2644 -10.4335 0.2472 0.9431
-6.0755 -17.8296 0.3182 0.9274
-4.3322 -17.8069 0.3096 0.9293
-1.0372 -17.5224 0.2965 0.9322
0.3002 -9.7920 0.1655 0.9616
5.8389 -18.8800 0.3338 0.9240
2.8816 11.8519 0.2060 0.9524
1.7602 11.7462 0.2006 0.9536
0.6838 11.5797 0.1959 0.9547
-5.7746 11.1026 0.2114 0.9512
-8.4091 10.8544 0.2319 0.9466
-10.0563 10.8187 0.2495 0.9426
2.8852 11.8520 -0.0687 0.9524
-1.3459 11.1372 -0.0632 0.9561
-2.4339 11.4173 -0.0657 0.9544
-7.0265 10.9845 -0.0734 0.9492
-8.0029 -18.0089 -0.1110 0.9242
-4.3322 -17.8071 -0.1032 0.9293
-2.6511 -17.6748 -0.1006 0.9310
-1.0372 -17.5227 -0.0988 0.9322
2.0845 -17.2285 -0.0977 0.9329
5.8486 -18.9115 -0.1114 0.9239
11.5347 -14.8933 -0.1061 0.9274
3.3268 4.8883 -0.0333 0.9766
1.7602 11.7460 -0.0669 0.9536
0.6838 11.5795 -0.0653 0.9547
-0.1648 5.3501 -0.0301 0.9788
-1.3491 11.1369 -0.0632 0.9561
-3.5016 11.3167 -0.0667 0.9537
-5.7745 11.1025 -0.0705 0.9512
3.3264 4.8848 -0.1664 0.9766
2.8851 11.8519 -0.3435 0.9524
0.6870 11.5797 -0.3266 0.9546
-4.5155 10.9991 -0.3348 0.9535
-5.6607 10.8911 -0.3456 0.9521
0.3015 -9.8366 -0.2771 0.9614
5.8487 -18.9117 -0.5574 0.9238
11.5071 -14.8577 -0.5292 0.9276
3.3262 4.8874 -0.1665 0.9766
2.8815 11.8515 -0.3434 0.9524
0.6837 11.5794 -0.3266 0.9546
-0.1651 5.3604 -0.1510 0.9788
-2.4371 11.4168 -0.3287 0.9544
-4.5190 10.9987 -0.3348 0.9535
-5.6644 10.8908 -0.3457 0.9521
-8.2486 10.6472 -0.3792 0.9475
1.7635 11.7460 -0.6024 0.9535
-8.2440 10.6475 -0.6829 0.9475
-6.0757 -17.8304 -0.9553 0.9273
-2.6463 -17.6427 -0.9047 0.9310
0.3030 -9.8844 -0.5015 0.9612
2.0807 -17.1972 -0.8785 0.9330
5.8488 -18.9120 -1.0039 0.9238
11.4803 -14.8231 -0.9508 0.9277
2.8815 11.8514 -0.6185 0.9523
0.6837 11.5792 -0.5883 0.9546
-6.8965 10.7745 -0.6488 0.9501
-8.2484 10.6471 -0.6830 0.9475
-0.1657 5.4314 -0.3984 0.9784
-0.6883 5.6959 -0.4207 0.9773
-2.3874 11.1993 -0.8396 0.9551
-4.5154 10.9988 -0.8718 0.9534
-8.2438 10.6473 -0.9873 0.9474
-9.8360 10.5876 -1.0596 0.9437
-10.2785 -10.4477 -1.0746 0.9429
-8.0028 -18.0085 -1.4449 0.9240
-6.0758 -17.8306 -1.3812 0.9272
0.3040 -9.9162 -0.7274 0.9610
2.0645 -17.0634 -1.2602 0.9334
5.8489 -18.9122 -1.4515 0.9237
11.4676 -14.8067 -1.3732 0.9276
0.6876 11.6445 -0.8553 0.9543
-0.1672 5.4302 -0.3983 0.9784
-0.6909 5.7035 -0.4213 0.9772
-2.3906 11.1990 -0.8396 0.9551
-9.8411 10.5871 -1.0598 0.9437
8.0646 14.4829 -1.5915 0.9356
6.3709 18.6880 -1.8955 0.9237
0.6759 11.3921 -1.0956 0.9552
-0.1666 5.4598 -0.5244 0.9783
-2.3874 11.1992 -1.0993 0.9550
-3.4314 11.1008 -1.1155 0.9544
-5.6604 10.8907 -1.1783 0.9519
-13.8126 12.4215 -1.7834 0.9281
-14.8149 11.0916 -1.7768 0.9283
-15.6953 9.6854 -1.7706 0.9286
-16.4488 8.2137 -1.7651 0.9288
-18.4819 7.2401 -1.9056 0.9233
-19.0105 5.5408 -1.9010 0.9235
-19.7024 0.2820 -1.8917 0.9239
-19.6323 -1.4842 -1.8902 0.9239
-17.0819 -9.8776 -1.8944 0.9238
-12.8620 -13.0738 -1.7607 0.9290
-11.6711 -14.2142 -1.7657 0.9288
-10.3827 -15.2514 -1.7713 0.9285
-9.0051 -16.1770 -1.7775 0.9283
-6.0186 -17.6627 -1.7915 0.9278
-4.2972 -17.6632 -1.7452 0.9296
-1.0273 -17.3550 -1.6691 0.9325
5.4313 -17.5621 -1.7648 0.9288
7.3643 -17.9309 -1.8610 0.9251
8.9860 -17.2832 -1.8701 0.9247
10.5498 -16.4873 -1.8792 0.9244
11.2165 -14.4825 -1.7586 0.9290
9.1173 13.3967 -1.5557 0.9370
8.0499 18.1214 -1.9037 0.9234
2.8189 11.5941 -1.1455 0.9532
-0.6882 5.6811 -0.5494 0.9773
-4.5188 10.9983 -1.1415 0.9533
-5.6641 10.8903 -1.1785 0.9519
-13.8160 12.4174 -1.7834 0.9281
-14.8178 11.0873 -1.7767 0.9283
-18.4838 7.2348 -1.9056 0.9233
-19.0120 5.5354 -1.9010 0.9235
-19.3921 3.8011 -1.8972 0.9237
-19.0432 -4.9694 -1.8895 0.9240
-18.5294 -6.6595 -1.8903 0.9239
17.0082 4.4307 -2.0878 0.9317
15.1813 8.7757 -2.0829 0.9318
14.3121 10.0862 -2.0798 0.9319
13.3258 11.3078 -2.0760 0.9320
12.2320 12.4299 -2.0715 0.9322
10.1984 12.4171 -1.9087 0.9373
6.4687 14.5510 -1.8916 0.9379
5.1205 15.0203 -1.8850 0.9381
2.8224 11.5942 -1.4175 0.9531
1.7252 11.4909 -1.3803 0.9543
0.6759 11.3920 -1.3556 0.9551
-0.6646 5.4992 -0.6580 0.9779
-3.4313 11.1006 -1.3802 0.9543
-5.6603 10.8905 -1.4579 0.9518
-8.2436 10.6470 -1.5995 0.9472
-9.8356 10.5872 -1.7166 0.9435
-12.0556 9.0258 -1.7889 0.9411
-13.4015 6.6921 -1.7794 0.9414
-13.9159 5.4514 -1.7753 0.9416
-15.8199 3.1055 -1.9150 0.9371
-16.0131 1.6726 -1.9125 0.9372
-16.0276 -1.2117 -1.9093 0.9373
-10.4840 -10.6566 -1.7758 0.9416
-9.5083 -11.5802 -1.7798 0.9414
-8.4537 -12.4179 -1.7844 0.9413
-7.3273 -13.1630 -1.7895 0.9411
-4.8901 -14.3509 -1.8009 0.9408
-3.5964 -14.7828 -1.8072 0.9406
1.8556 -15.3366 -1.8351 0.9397
3.2359 -15.1693 -1.8424 0.9394
4.6012 -14.8780 -1.8499 0.9392
7.2415 -13.9278 -1.8647 0.9387
8.4937 -13.2740 -1.8719 0.9385
13.8519 -10.3676 -2.0552 0.9327
15.5692 -7.7718 -2.0670 0.9323
16.7832 -4.8890 -2.0765 0.9320
17.4432 -1.8195 -2.0833 0.9318
17.5198 1.3269 -2.0871 0.9317
16.5343 5.9399 -2.0869 0.9317
15.1788 8.7800 -2.0829 0.9318
13.3225 11.3115 -2.0760 0.9320
12.2284 12.4332 -2.0715 0.9322
9.0156 13.2472 -1.9034 0.9375
6.4646 14.5526 -1.8915 0.9379
5.1163 15.0215 -1.8850 0.9381
2.8189 11.5939 -1.4173 0.9531
0.6727 11.3917 -1.3555 0.9551
-2.3906 11.1987 -1.3602 0.9549
-5.6640 10.8902 -1.4581 0.9518
-8.2480 10.6466 -1.5998 0.9472
-9.8407 10.5868 -1.7169 0.9434
-12.7823 7.8829 -1.7839 0.9413
-13.4033 6.6882 -1.7793 0.9414
-15.5047 4.5142 -1.9182 0.9370
-16.0272 -1.2161 -1.9093 0.9373
-15.5477 -4.0573 -1.9087 0.9373
14.1516 3.6866 -2.0721 0.9426
13.7596 4.9387 -2.0714 0.9426
13.2530 6.1483 -2.0700 0.9427
12.6365 7.3047 -2.0681 0.9427
11.9159 8.3976 -2.0655 0.9428
9.4131 9.5654 -1.9015 0.9472
8.5002 10.3494 -1.8976 0.9473
7.5209 11.0443 -1.8932 0.9474
5.3996 12.1461 -1.8834 0.9477
4.2767 12.5450 -1.8779 0.9479
1.7252 11.4907 -1.6464 0.9541
0.6759 11.3918 -1.6169 0.9549
-0.1666 5.4590 -0.7738 0.9782
-0.6694 5.5388 -0.7905 0.9777
-2.3873 11.1988 -1.6224 0.9548
-3.4313 11.1005 -1.6462 0.9541
-4.5152 10.9983 -1.6846 0.9531
-5.6602 10.8904 -1.7390 0.9516
-8.6795 9.3428 -1.8069 0.9498
-9.4561 8.5037 -1.8019 0.9499
-10.1542 7.6022 -1.7973 0.9500
-11.2974 5.6414 -1.7892 0.9503
-11.7352 4.5971 -1.7858 0.9504
-13.0781 3.8117 -1.9301 0.9465
-13.5748 0.1943 -1.9236 0.9466
-13.5299 -1.0228 -1.9225 0.9467
-13.1264 -3.4215 -1.9220 0.9467
-12.3157 -5.7156 -1.9238 0.9466
-11.7641 -6.8026 -1.9255 0.9466
-11.1198 -7.8389 -1.9277 0.9465
-10.3872 -8.8167 -1.9305 0.9464
-8.0151 -9.7615 -1.7896 0.9503
-7.1232 -10.4635 -1.7935 0.9501
-5.1660 -11.6250 -1.8024 0.9499
-4.1145 -12.0747 -1.8074 0.9498
-3.0243 -12.4312 -1.8127 0.9496
0.3075 -10.0322 -1.4221 0.9603
1.5566 -12.8654 -1.8362 0.9490
3.8548 -12.4644 -1.8486 0.9487
7.1021 -11.0992 -1.8670 0.9482
8.0939 -10.4506 -1.8729 0.9480
9.0253 -9.7122 -1.8786 0.9478
11.5556 -8.6489 -2.0451 0.9434
12.9760 -6.4773 -2.0549 0.9431
13.5318 -5.2988 -2.0591 0.9430
14.3073 -2.8065 -2.0658 0.9428
14.5781 1.1041 -2.0715 0.9426
14.4247 2.4072 -2.0721 0.9426
13.7582 4.9426 -2.0714 0.9426
11.9135 8.4009 -2.0655 0.9428
9.4104 9.5680 -1.9015 0.9472
8.4972 10.3517 -1.8976 0.9473
6.4809 11.6464 -1.8885 0.9476
5.3961 12.1475 -1.8833 0.9477
4.2731 12.5461 -1.8779 0.9479
2.8189 11.5937 -1.6906 0.9529
1.7218 11.4904 -1.6462 0.9541
0.6727 11.3915 -1.6169 0.9549
-0.1681 5.4577 -0.7737 0.9782
-2.3905 11.1986 -1.6225 0.9548
-5.6639 10.8900 -1.7392 0.9516
-6.8961 10.7738 -1.8125 0.9496
-7.8326 10.1103 -1.8121 0.9496
-10.1562 7.5993 -1.7973 0.9500
-10.7711 6.6426 -1.7930 0.9502
-11.7364 4.5938 -1.7858 0.9504
-13.5748 0.1904 -1.9236 0.9466
-13.1255 -3.4252 -1.9220 0.9467
-12.7696 -4.5894 -1.9226 0.9467
11.7707 4.2248 -2.0602 0.9506
11.3383 5.2601 -2.0591 0.9506
10.8124 6.2502 -2.0574 0.9506
6.4435 9.4622 -1.8859 0.9547
5.5574 9.9802 -1.8818 0.9547
3.6683 10.7603 -1.8728 0.9550
2.6820 11.0172 -1.8680 0.9551
0.6679 11.2569 -1.8577 0.9553
-0.6707 5.5500 -0.9209 0.9776
-2.3308 10.9339 -1.8417 0.9557
-3.2921 10.6501 -1.8364 0.9558
-4.2214 10.2826 -1.8311 0.9559
-5.9566 9.3119 -1.8210 0.9562
-6.7496 8.7175 -1.8163 0.9563
-8.1578 7.3362 -1.8074 0.9565
-8.7632 6.5608 -1.8034 0.9566
-9.2971 5.7371 -1.7997 0.9567
-10.1365 3.9708 -1.7934 0.9568
-11.2990 3.2932 -1.9388 0.9534
-11.5348 2.2643 -1.9365 0.9535
-11.6799 1.2200 -1.9346 0.9535
-11.6957 -0.8842 -1.9322 0.9536
-11.5666 -1.9286 -1.9318 0.9536
-10.6451 -4.9403 -1.9333 0.9535
-10.1672 -5.8791 -1.9348 0.9535
-8.2671 -8.4033 -1.9420 0.9533
-7.4656 -9.0924 -1.9381 0.9534
-4.4566 -10.0286 -1.8079 0.9565
-3.5481 -10.4125 -1.8122 0.9564
-1.6402 -10.9351 -1.8216 0.9562
-0.6551 -11.0684 -1.8266 0.9560
1.1386 -9.4107 -1.5616 0.9623
3.3138 -10.7151 -1.8477 0.9556
4.2733 -10.4049 -1.8530 0.9554
8.0826 -8.6978 -1.9560 0.9530
9.9034 -7.4123 -2.0378 0.9511
10.5505 -6.5086 -2.0422 0.9510
11.5858 -4.5367 -2.0497 0.9508
12.4228 -1.2958 -2.0576 0.9506
12.4987 -0.1771 -2.0592 0.9506
12.4708 0.9445 -2.0603 0.9506
12.1046 3.1569 -2.0608 0.9506
11.7695 4.2281 -2.0602 0.9506
10.8106 6.2532 -2.0574 0.9506
8.0573 8.1923 -1.8929 0.9545
6.4408 9.4640 -1.8859 0.9547
5.5545 9.9816 -1.8818 0.9547
4.6266 10.4152 -1.8775 0.9549
2.6788 11.0178 -1.8679 0.9551
-3.2950 10.6491 -1.8364 0.9558
-4.2243 10.2813 -1.8311 0.9559
-5.1145 9.8337 -1.8260 0.9561
-8.1599 7.3339 -1.8074 0.9565
-8.7650 6.5583 -1.8034 0.9566
-10.1376 3.9680 -1.7934 0.9568
-11.2999 3.2900 -1.9388 0.9534
-11.5354 2.2611 -1.9365 0.9535
-11.6802 1.2167 -1.9346 0.9535
10.2745 3.6878 -2.0518 0.9565
6.3604 7.7441 -1.8836 0.9600
4.8578 8.7239 -1.8768 0.9602
4.0480 9.1057 -1.8730 0.9603
2.3465 9.6393 -1.8647 0.9604
1.4695 9.7876 -1.8603 0.9605
-0.1686 5.5254 -1.0390 0.9778
-0.6708 5.5508 -1.0509 0.9775
-2.0429 9.5833 -1.8418 0.9609
-2.8864 9.3378 -1.8371 0.9610
-3.7026 9.0188 -1.8325 0.9611
-7.1666 6.4448 -1.8116 0.9615
-8.1716 5.0426 -1.8049 0.9617
-9.9372 2.8963 -1.9455 0.9587
-10.2903 -0.7779 -1.9397 0.9589
-9.3653 -4.3463 -1.9406 0.9588
-7.2693 -7.3890 -1.9483 0.9587
-6.5873 -8.0227 -1.9511 0.9586
-5.8482 -8.5906 -1.9533 0.9586
2.0448 -9.5858 -1.8423 0.9609
2.9033 -9.3877 -1.8470 0.9608
4.5557 -8.7623 -1.8563 0.9606
7.3298 -7.8877 -2.0239 0.9571
8.6565 -6.4791 -2.0324 0.9569
10.6907 -2.0970 -2.0477 0.9566
10.9106 -0.1546 -2.0510 0.9566
10.8855 0.8245 -2.0519 0.9565
10.7701 1.7974 -2.0524 0.9565
8.9024 6.2776 -2.0475 0.9566
7.0378 7.1557 -1.8865 0.9600
6.3582 7.7458 -1.8836 0.9600
5.6285 8.2704 -1.8804 0.9601
4.0454 9.1068 -1.8730 0.9603
-0.1701 5.5242 -1.0388 0.9778
-0.6725 5.5518 -1.0511 0.9775
-2.0456 9.5826 -1.8417 0.9609
-2.8890 9.3370 -1.8371 0.9610
-4.4875 8.6280 -1.8280 0.9612
-5.2303 8.1714 -1.8236 0.9613
-5.9281 7.6520 -1.8194 0.9614
-6.5756 7.0742 -1.8154 0.9615
-7.1684 6.4428 -1.8116 0.9615
-7.7021 5.7630 -1.8081 0.9616
-10.1465 1.9888 -1.9434 0.9588
-10.2751 1.0703 -1.9418 0.9588
-10.2900 -0.7808 -1.9397 0.9589
-10.1765 -1.6997 -1.9393 0.9589
-9.9833 -2.6052 -1.9393 0.9589
8.7736 4.0702 -2.0444 0.9612
7.8943 5.5634 -2.0414 0.9613
6.2432 6.3442 -1.8815 0.9643
4.9955 7.3358 -1.8760 0.9644
4.3106 7.7411 -1.8729 0.9644
3.5928 8.0818 -1.8695 0.9645
-0.1697 5.5619 -1.1762 0.9775
-1.8166 8.5217 -1.8418 0.9650
-2.5674 8.3058 -1.8376 0.9651
-3.2943 8.0242 -1.8335 0.9652
-3.9915 7.6798 -1.8295 0.9652
-5.2766 6.8150 -1.8219 0.9654
-7.6850 3.8375 -1.8157 0.9655
-8.5969 3.3677 -1.9517 0.9630
-9.1632 0.9571 -1.9474 0.9630
-9.2068 0.1318 -1.9463 0.9631
-9.1780 -0.6938 -1.9456 0.9631
-8.9050 -2.3211 -1.9452 0.9631
-7.5366 -5.3129 -1.9491 0.9630
-7.0368 -5.9729 -1.9510 0.9630
-6.4804 -6.5872 -1.9533 0.9629
-5.8716 -7.1510 -1.9558 0.9629
-5.2146 -7.6598 -1.9587 0.9628
-4.5142 -8.1095 -1.9619 0.9628
-2.9814 -8.7495 -1.9539 0.9629
-2.1146 -8.6918 -1.8909 0.9641
-1.2952 -8.6346 -1.8456 0.9649
-0.5115 -8.6421 -1.8300 0.9652
0.2658 -8.6722 -1.8340 0.9651
1.0445 -8.6328 -1.8381 0.9651
1.8183 -8.5236 -1.8423 0.9650
3.3892 -8.2522 -1.8857 0.9642
5.1168 -7.9965 -2.0067 0.9619
8.1791 -5.0457 -2.0314 0.9615
8.6115 -4.2986 -2.0345 0.9614
8.9743 -3.5141 -2.0372 0.9614
9.6143 -1.0029 -2.0433 0.9613
9.6713 -0.1370 -2.0445 0.9612
9.6486 0.7308 -2.0454 0.9612
9.3647 2.4424 -2.0457 0.9612
8.7724 4.0727 -2.0444 0.9612
7.8927 5.5656 -2.0414 0.9613
7.3326 6.2258 -2.0333 0.9614
5.6396 6.8705 -1.8789 0.9643
4.9934 7.3372 -1.8760 0.9644
4.3084 7.7423 -1.8729 0.9644
3.5905 8.0827 -1.8695 0.9645
2.0813 8.5602 -1.8622 0.9646
0.5171 8.7567 -1.8542 0.9648
-1.8190 8.5211 -1.8418 0.9650
-2.5697 8.3050 -1.8376 0.9651
-3.9937 7.6786 -1.8295 0.9652
-4.6560 7.2742 -1.8256 0.9653
-5.2785 6.8135 -1.8219 0.9654
-6.8628 5.1350 -1.8118 0.9656
-7.6894 3.8370 -1.8165 0.9655
-8.5979 3.3654 -1.9517 0.9630
-8.8609 2.5799 -1.9508 0.9630
-9.0767 -1.5161 -1.9452 0.9631
-8.6621 -3.1132 -1.9456 0.9631
8.4014 2.1886 -2.0404 0.9650
7.8710 3.6515 -2.0392 0.9650
7.0833 4.9918 -2.0366 0.9650
5.6030 5.6937 -1.8774 0.9677
4.4846 6.5856 -1.8726 0.9678
3.8704 6.9506 -1.8698 0.9678
1.8720 7.6901 -1.8601 0.9680
1.1729 7.8121 -1.8566 0.9681
0.4670 7.8705 -1.8530 0.9681
-0.1708 5.5974 -1.3161 0.9773
-0.6732 5.5703 -1.3187 0.9772
-2.9642 7.2203 -1.8344 0.9684
-3.5925 6.9119 -1.8308 0.9685
-4.7510 6.1362 -1.8239 0.9686
-5.7505 5.1714 -1.8176 0.9687
-6.1813 4.6278 -1.8148 0.9688
-6.5618 4.0492 -1.8122 0.9688
-7.9864 2.3277 -1.9551 0.9664
-8.2750 -0.6256 -1.9504 0.9665
-6.3427 -5.3837 -1.9553 0.9664
-5.2911 -6.4441 -1.9596 0.9663
-3.4008 -7.6528 -1.9682 0.9662
-2.7056 -7.9402 -1.9715 0.9661
-1.2472 -8.3147 -1.9760 0.9660
0.2581 -8.4204 -1.9799 0.9660
1.0138 -8.3788 -1.9836 0.9659
3.2348 -7.8763 -2.0011 0.9656
5.2478 -6.7759 -2.0142 0.9654
5.8446 -6.2895 -2.0179 0.9653
6.3959 -5.7501 -2.0213 0.9653
7.3425 -4.5296 -2.0276 0.9652
7.7295 -3.8584 -2.0304 0.9651
8.0540 -3.1538 -2.0328 0.9651
8.6764 -0.1229 -2.0394 0.9650
8.6556 0.6556 -2.0401 0.9650
8.4008 2.1910 -2.0404 0.9650
8.1690 2.9347 -2.0400 0.9650
7.8700 3.6537 -2.0392 0.9650
7.5065 4.3421 -2.0381 0.9650
6.5872 5.5929 -2.0309 0.9651
4.4828 6.5868 -1.8726 0.9678
3.2245 7.2587 -1.8667 0.9679
2.5564 7.5056 -1.8635 0.9679
1.8699 7.6906 -1.8601 0.9680
1.1707 7.8124 -1.8566 0.9681
-0.1723 5.5960 -1.3158 0.9773
-1.6360 7.6640 -1.8418 0.9683
-2.9662 7.2195 -1.8344 0.9684
-4.7527 6.1348 -1.8239 0.9686
-5.2742 5.6740 -1.8207 0.9687
-6.5629 4.0474 -1.8122 0.9688
-7.4387 3.7119 -1.9538 0.9664
-7.9870 2.3254 -1.9551 0.9664
-8.1839 -1.3669 -1.9500 0.9665
-8.0284 -2.0951 -1.9501 0.9665
-7.8098 -2.8069 -1.9504 0.9665
7.6098 1.9824 -2.0361 0.9680
7.4001 2.6561 -2.0357 0.9680
6.4170 4.5223 -2.0326 0.9681
5.0954 5.1779 -1.8809 0.9704
4.5889 5.5872 -1.8720 0.9706
4.0645 5.9687 -1.8697 0.9706
2.9251 6.5799 -1.8644 0.9707
2.3199 6.8050 -1.8615 0.9707
1.0639 7.0860 -1.8553 0.9708
0.4236 7.1402 -1.8520 0.9709
-2.0969 6.7838 -1.8384 0.9711
-2.6917 6.5565 -1.8351 0.9711
-3.2628 6.2776 -1.8318 0.9712
-3.1388 4.9069 -1.5082 0.9762
-5.6185 4.2065 -1.8173 0.9714
-6.3590 3.9241 -1.9347 0.9696
-6.7812 3.3862 -1.9625 0.9692
-7.5497 0.1080 -1.9549 0.9693
-7.3030 -1.9036 -1.9540 0.9693
-7.1042 -2.5510 -1.9544 0.9693
-6.8492 -3.1786 -1.9550 0.9693
-6.5398 -3.7817 -1.9560 0.9693
-6.1785 -4.3555 -1.9573 0.9692
-5.7678 -4.8957 -1.9588 0.9692
-4.2711 -6.2739 -1.9651 0.9691
-3.6964 -6.6403 -1.9677 0.9691
-1.8048 -7.4183 -1.9768 0.9689
-0.4527 -7.6476 -1.9836 0.9688
0.2351 -7.6711 -1.9871 0.9688
0.9235 -7.6331 -1.9908 0.9687
5.2995 -5.7028 -2.0157 0.9683
5.7984 -5.2129 -2.0188 0.9683
6.2514 -4.6789 -2.0218 0.9683
7.7042 -1.5112 -2.0328 0.9681
7.8138 -0.8150 -2.0341 0.9681
7.8592 -0.1114 -2.0351 0.9680
7.8401 0.5938 -2.0358 0.9680
7.1288 3.3097 -2.0350 0.9680
5.9772 5.0750 -2.0302 0.9681
4.5873 5.5885 -1.8720 0.9706
2.9233 6.5807 -1.8644 0.9707
2.3179 6.8056 -1.8615 0.9707
1.6958 6.9745 -1.8584 0.9708
-0.1724 5.5990 -1.4504 0.9771
-2.6935 6.5557 -1.8351 0.9711
-4.7926 5.1559 -1.8226 0.9713
-5.6197 4.2049 -1.8173 0.9714
-6.3623 3.9237 -1.9354 0.9696
-6.7821 3.3843 -1.9625 0.9692
-7.4176 1.4539 -1.9571 0.9693
-7.5497 0.1059 -1.9549 0.9693
6.9475 1.8099 -2.0324 0.9706
5.4615 4.6344 -2.0277 0.9707
3.7127 5.4520 -1.8673 0.9730
2.6726 6.0118 -1.8625 0.9730
1.5516 6.3736 -1.8570 0.9731
0.9724 6.4769 -1.8541 0.9731
-0.6160 5.0975 -1.4536 0.9789
-1.0776 5.0551 -1.4632 0.9787
-1.9182 6.2055 -1.8387 0.9734
-2.4626 5.9985 -1.8357 0.9734
-2.9855 5.7442 -1.8327 0.9734
-3.1250 4.8853 -1.6417 0.9762
-4.3859 4.7211 -1.8243 0.9736
-4.7848 4.3029 -1.8217 0.9736
-5.3604 4.0132 -1.8957 0.9725
-6.4573 2.5296 -1.9633 0.9716
-6.6524 1.9389 -1.9616 0.9716
-6.8829 0.7189 -1.9591 0.9716
-6.5086 -2.3371 -1.9577 0.9717
-5.9912 -3.4644 -1.9592 0.9716
-5.2832 -4.4844 -1.9618 0.9716
-4.8641 -4.9442 -1.9635 0.9716
-3.3846 -6.0802 -1.9700 0.9715
-2.8296 -6.3674 -1.9725 0.9714
-2.2506 -6.6047 -1.9753 0.9714
-1.6519 -6.7899 -1.9782 0.9714
-0.4142 -6.9977 -1.9845 0.9713
0.8448 -6.9823 -1.9911 0.9712
1.4698 -6.8901 -1.9944 0.9711
2.0850 -6.7419 -1.9978 0.9711
3.2662 -6.2821 -2.0044 0.9710
3.8224 -5.9737 -2.0077 0.9709
4.3493 -5.6157 -2.0108 0.9709
4.8424 -5.2110 -2.0138 0.9709
6.3973 -3.1934 -2.0241 0.9707
6.6645 -2.6097 -2.0262 0.9707
7.1343 -0.7442 -2.0306 0.9706
7.1755 -0.1017 -2.0315 0.9706
7.0815 1.1818 -2.0324 0.9706
6.9470 1.8118 -2.0324 0.9706
6.2087 3.5914 -2.0305 0.9706
5.8582 4.1309 -2.0293 0.9706
4.1898 5.1042 -1.8694 0.9729
3.7111 5.4530 -1.8673 0.9730
3.2034 5.7566 -1.8650 0.9730
1.5498 6.3740 -1.8570 0.9731
-0.6175 5.0974 -1.4536 0.9789
-1.0791 5.0550 -1.4633 0.9787
-2.9871 5.7433 -1.8327 0.9734
-3.1270 4.8854 -1.6421 0.9762
-3.9523 5.1016 -1.8269 0.9735
-4.7860 4.3016 -1.8217 0.9736
-5.9081 3.6435 -1.9650 0.9716
-6.6530 1.9370 -1.9616 0.9716
-6.7950 1.3319 -1.9602 0.9716
-6.8955 -0.5232 -1.9577 0.9717
6.3847 1.6632 -2.0293 0.9728
6.2089 2.2286 -2.0290 0.9728
5.9824 2.7754 -2.0284 0.9728
2.9469 5.2922 -1.8631 0.9750
2.4576 5.5283 -1.8608 0.9750
1.9496 5.7188 -1.8584 0.9750
0.3075 5.1822 -1.5967 0.9785
-0.1568 5.1396 -1.5816 0.9787
-0.6160 5.0974 -1.5793 0.9787
-3.6387 4.6996 -1.8281 0.9754
-4.5410 4.0837 -1.8784 0.9748
-5.7228 2.8577 -1.9675 0.9736
-6.1308 1.7869 -1.9642 0.9736
-6.3438 0.6626 -1.9618 0.9737
-6.3751 0.0912 -1.9611 0.9737
-6.2865 -1.0482 -1.9603 0.9737
-6.1673 -1.6075 -1.9603 0.9737
-5.9992 -2.1542 -1.9606 0.9737
-5.7836 -2.6841 -1.9611 0.9737
-5.5219 -3.1931 -1.9619 0.9737
-4.4824 -4.5562 -1.9659 0.9736
-4.0596 -4.9442 -1.9677 0.9736
-2.0730 -6.0835 -1.9768 0.9735
-1.5213 -6.2533 -1.9795 0.9734
0.1980 -6.4612 -1.9882 0.9733
1.3528 -6.3415 -1.9944 0.9732
1.9188 -6.2043 -1.9975 0.9732
3.0050 -5.7797 -2.0036 0.9731
4.0004 -5.1653 -2.0095 0.9730
4.8715 -4.3796 -2.0149 0.9730
5.2509 -3.9301 -2.0174 0.9729
5.5884 -3.4475 -2.0196 0.9729
5.8810 -2.9357 -2.0217 0.9729
6.1262 -2.3989 -2.0236 0.9728
6.3216 -1.8415 -2.0252 0.9728
6.5945 -0.0934 -2.0285 0.9728
6.5781 0.4982 -2.0291 0.9728
6.5078 1.0860 -2.0294 0.9728
6.2083 2.2303 -2.0290 0.9728
5.3843 3.7968 -2.0264 0.9728
4.6068 4.6840 -2.0207 0.9729
3.4120 5.0134 -1.8653 0.9749
2.9454 5.2930 -1.8631 0.9750
1.4255 5.8628 -1.8558 0.9751
0.3060 5.1821 -1.5967 0.9785
-0.1583 5.1395 -1.5815 0.9787
-1.7673 5.7118 -1.8390 0.9753
-2.2687 5.5219 -1.8362 0.9753
-2.7504 5.2883 -1.8334 0.9754
-4.0411 4.3475 -1.8256 0.9755
-5.1210 3.8317 -1.9672 0.9736
-5.7236 2.8561 -1.9675 0.9736
-6.3440 0.6608 -1.9618 0.9737
-5.9986 -2.1559 -1.9606 0.9737
5.9001 1.5370 -2.0267 0.9746
5.2743 3.0489 -2.0250 0.9746
4.2649 4.3339 -2.0212 0.9747
1.8028 5.2882 -1.8572 0.9767
1.3198 5.4216 -1.8548 0.9768
0.8274 5.5107 -1.8523 0.9768
-2.9691 4.6416 -1.8316 0.9770
-3.3688 4.3510 -1.8292 0.9771
-4.4064 3.9626 -1.9699 0.9753
-4.7521 3.5578 -1.9733 0.9753
-5.0467 3.1143 -1.9713 0.9753
-5.3007 2.6469 -1.9694 0.9753
-5.5121 2.1593 -1.9678 0.9754
-5.6793 1.6553 -1.9664 0.9754
-5.8013 1.1388 -1.9652 0.9754
-5.8887 -0.4452 -1.9630 0.9754
-5.8244 -0.9711 -1.9628 0.9754
-5.7139 -1.4894 -1.9628 0.9754
-5.3582 -2.4867 -1.9636 0.9754
-4.5103 -3.8284 -1.9665 0.9754
-4.1520 -4.2204 -1.9680 0.9754
-3.7602 -4.5795 -1.9696 0.9753
-3.3376 -4.9027 -1.9715 0.9753
-2.8877 -5.1875 -1.9735 0.9753
-0.8850 -5.9002 -1.9832 0.9752
-0.3530 -5.9639 -1.9859 0.9751
1.2517 -5.8678 -1.9944 0.9750
2.2859 -5.5659 -2.0001 0.9750
5.1661 -3.1870 -2.0177 0.9747
5.4362 -2.7136 -2.0196 0.9747
5.8426 -1.7020 -2.0229 0.9747
5.9754 -1.1721 -2.0241 0.9747
6.0789 0.4604 -2.0264 0.9746
6.0138 1.0036 -2.0267 0.9746
5.2734 3.0503 -2.0250 0.9746
4.9761 3.5090 -2.0240 0.9747
2.7231 4.8935 -1.8615 0.9767
2.2709 5.1121 -1.8594 0.9767
1.8013 5.2887 -1.8572 0.9767
0.3055 5.1738 -1.7228 0.9784
-0.1583 5.1394 -1.7092 0.9786
-1.0774 5.0470 -1.7154 0.9785
-1.6355 5.2858 -1.8392 0.9769
-2.0998 5.1106 -1.8366 0.9770
-3.3701 4.3501 -1.8292 0.9771
-4.4075 3.9614 -1.9699 0.9753
-5.0476 3.1129 -1.9713 0.9753
-5.3014 2.6454 -1.9694 0.9753
-5.8016 1.1372 -1.9652 0.9754
-5.8773 0.6122 -1.9642 0.9754
-5.9063 0.0829 -1.9635 0.9754
-5.7135 -1.4910 -1.9628 0.9754
-5.5576 -1.9974 -1.9631 0.9754
5.4780 1.4270 -2.0243 0.9762
4.3084 3.6560 -2.0207 0.9763
3.9605 4.0246 -2.0192 0.9763
3.5793 4.3579 -2.0167 0.9763
3.1623 4.6437 -2.0091 0.9764
2.5968 4.6634 -1.9088 0.9776
2.1108 4.7481 -1.8582 0.9782
1.6748 4.9127 -1.8561 0.9782
0.7688 5.1203 -1.8516 0.9782
-1.0618 4.9807 -1.8212 0.9786
-2.3659 4.5521 -1.8346 0.9784
-2.7610 4.3162 -1.8323 0.9785
-3.7550 4.0419 -1.9729 0.9768
-4.1087 3.6949 -1.9760 0.9768
-4.6949 2.8972 -1.9729 0.9768
-4.9314 2.4625 -1.9712 0.9769
-5.1284 2.0090 -1.9696 0.9769
-5.4688 0.5712 -1.9663 0.9769
-5.4961 0.0787 -1.9656 0.9769
-5.4797 -0.4143 -1.9652 0.9769
-4.7602 -2.7526 -1.9664 0.9769
-4.4964 -3.1697 -1.9673 0.9769
-4.1966 -3.5621 -1.9685 0.9769
-3.1049 -4.5609 -1.9731 0.9768
-1.7851 -5.2388 -1.9792 0.9768
-1.3099 -5.3841 -1.9815 0.9767
-0.8230 -5.4865 -1.9840 0.9767
-0.3282 -5.5452 -1.9865 0.9767
0.1704 -5.5596 -1.9891 0.9766
0.6690 -5.5292 -1.9917 0.9766
4.5090 -3.3748 -2.0141 0.9764
4.7980 -2.9599 -2.0160 0.9763
5.2583 -2.0590 -2.0194 0.9763
5.4254 -1.5804 -2.0208 0.9763
5.3268 1.9136 -2.0241 0.9762
5.1325 2.3828 -2.0236 0.9762
4.8964 2.8323 -2.0228 0.9763
4.3074 3.6571 -2.0207 0.9763
3.9594 4.0257 -2.0192 0.9763
3.1609 4.6446 -2.0091 0.9764
2.5950 4.6633 -1.9084 0.9776
1.6734 4.9131 -1.8561 0.9782
1.2248 5.0373 -1.8539 0.9782
0.3015 5.1058 -1.8291 0.9785
-0.1559 5.0639 -1.8117 0.9787
-0.6084 5.0223 -1.8091 0.9787
-1.9522 4.7515 -1.8370 0.9784
-2.3672 4.5514 -1.8346 0.9784
-3.2438 4.1871 -1.8941 0.9778
-3.7561 4.0408 -1.9729 0.9768
-4.9321 2.4611 -1.9712 0.9769
-5.1289 2.0075 -1.9696 0.9769
-5.4689 0.5697 -1.9663 0.9769
-5.4197 -0.9052 -1.9650 0.9769
4.9663 1.7825 -2.0221 0.9777
4.7854 2.2201 -2.0216 0.9777
4.0169 3.4086 -2.0189 0.9777
3.6928 3.7525 -2.0176 0.9777
3.3390 4.0654 -2.0160 0.9777
2.5466 4.5734 -2.0060 0.9778
2.0511 4.6138 -1.9349 0.9786
1.5652 4.5913 -1.8589 0.9794
1.1437 4.6984 -1.8531 0.9795
0.7171 4.7765 -1.8509 0.9795
0.2857 4.8158 -1.8487 0.9795
-0.1469 4.8161 -1.8465 0.9796
-0.5774 4.7776 -1.8442 0.9796
-1.8208 4.4353 -1.8373 0.9797
-2.2242 4.2793 -1.8482 0.9796
-2.7034 4.2261 -1.9225 0.9787
-3.1572 4.0776 -1.9763 0.9782
-3.5141 3.7826 -1.9786 0.9781
-3.8378 3.4513 -1.9779 0.9781
-4.3843 2.7055 -1.9743 0.9782
-4.6054 2.2997 -1.9727 0.9782
-4.9354 1.4385 -1.9700 0.9782
-5.0418 0.9897 -1.9690 0.9782
-5.0627 -0.8441 -1.9669 0.9783
-4.8312 -1.7348 -1.9671 0.9783
-4.1997 -2.9606 -1.9691 0.9782
-3.9195 -3.3269 -1.9702 0.9782
-3.6078 -3.6672 -1.9714 0.9782
-3.2669 -3.9788 -1.9729 0.9782
-2.5082 -4.5059 -1.9762 0.9782
-2.0963 -4.7172 -1.9782 0.9781
-1.6667 -4.8912 -1.9802 0.9781
-0.3064 -5.1760 -1.9870 0.9780
1.9820 -4.8260 -1.9993 0.9779
3.5681 -3.8397 -2.0087 0.9778
4.2049 -3.1472 -2.0127 0.9778
4.9027 -1.9198 -2.0177 0.9777
5.0583 -1.4735 -2.0190 0.9777
5.1728 -1.0147 -2.0201 0.9777
5.2453 -0.5471 -2.0210 0.9777
5.2750 -0.0747 -2.0217 0.9777
5.2616 0.3985 -2.0221 0.9777
5.2052 0.8687 -2.0223 0.9776
5.1064 1.3318 -2.0223 0.9776
4.7848 2.2214 -2.0216 0.9777
3.3378 4.0663 -2.0160 0.9777
2.9545 4.3413 -2.0124 0.9778
1.5638 4.5913 -1.8587 0.9794
-0.1483 4.8160 -1.8465 0.9796
-0.5787 4.7774 -1.8442 0.9796
-1.4189 4.5859 -1.8396 0.9796
-2.7049 4.2260 -1.9228 0.9787
-3.1583 4.0768 -1.9763 0.9782
-3.8388 3.4502 -1.9779 0.9781
-4.1286 3.0892 -1.9760 0.9782
-4.3850 2.7043 -1.9743 0.9782
-4.6061 2.2984 -1.9727 0.9782
-4.7901 1.8749 -1.9713 0.9782
-2.2919 0.0322 -0.8784 0.9902
4.7773 1.2445 -2.0205 0.9789
4.4768 2.0769 -2.0198 0.9789
4.2713 2.4691 -2.0192 0.9789
3.7582 3.1891 -2.0173 0.9789
3.4551 3.5110 -2.0161 0.9789
3.1242 3.8039 -2.0146 0.9789
1.5565 4.5659 -1.9743 0.9794
1.1053 4.5404 -1.9125 0.9800
0.6777 4.5136 -1.8680 0.9805
0.2675 4.5081 -1.8483 0.9807
-0.1376 4.5088 -1.8462 0.9807
-1.7678 4.3061 -1.9051 0.9801
-2.2134 4.2585 -1.9643 0.9795
-2.9640 3.8281 -1.9815 0.9793
-3.5953 3.2332 -1.9790 0.9793
-3.8672 2.8953 -1.9772 0.9793
-4.1078 2.5349 -1.9755 0.9794
-4.4879 1.7581 -1.9727 0.9794
-4.6248 1.3479 -1.9716 0.9794
-1.9940 0.0285 -0.8162 0.9914
-2.0123 -0.1521 -0.8259 0.9913
-4.6545 -1.2132 -1.9686 0.9794
-4.5275 -1.6258 -1.9688 0.9794
-4.3645 -2.0255 -1.9692 0.9794
-3.6728 -3.1175 -1.9717 0.9794
-3.3806 -3.4362 -1.9729 0.9794
-3.0610 -3.7280 -1.9742 0.9794
-2.7166 -3.9904 -1.9757 0.9794
-2.3499 -4.2214 -1.9774 0.9793
-1.9638 -4.4191 -1.9792 0.9793
-1.5613 -4.5818 -1.9811 0.9793
-1.1454 -4.7082 -1.9831 0.9793
1.0166 -4.7657 -1.9944 0.9792
1.4414 -4.6608 -1.9967 0.9791
1.8556 -4.5180 -1.9990 0.9791
3.3394 -3.5936 -2.0077 0.9790
3.6516 -3.2829 -2.0097 0.9790
3.9348 -2.9451 -2.0116 0.9790
4.7325 -1.3786 -2.0174 0.9789
4.8395 -0.9493 -2.0184 0.9789
4.9071 -0.5119 -2.0193 0.9789
4.9348 -0.0699 -2.0199 0.9789
4.9222 0.3728 -2.0203 0.9789
4.8694 0.8126 -2.0205 0.9789
4.7770 1.2459 -2.0205 0.9789
4.6455 1.6689 -2.0203 0.9789
3.4541 3.5120 -2.0160 0.9789
3.1232 3.8048 -2.0146 0.9789
2.7673 4.0663 -2.0131 0.9790
1.1039 4.5403 -1.9124 0.9800
0.6764 4.5135 -1.8679 0.9805
0.2662 4.5082 -1.8483 0.9807
-1.3455 4.3486 -1.8630 0.9805
-2.6080 4.0745 -1.9799 0.9793
-3.8680 2.8942 -1.9772 0.9793
-4.1085 2.5337 -1.9755 0.9794
-4.6251 1.3466 -1.9715 0.9794
-2.0179 0.2102 -0.8304 0.9913
-1.9939 0.0280 -0.8161 0.9914
-2.0123 -0.1527 -0.8260 0.9913
4.4828 1.1678 -2.0189 0.9800
4.3596 1.5648 -2.0187 0.9800
4.2009 1.9489 -2.0183 0.9800
4.0081 2.3169 -2.0176 0.9800
2.5984 3.8157 -2.0119 0.9801
1.8710 4.2087 -2.0073 0.9801
-0.1353 4.4347 -1.9336 0.9808
-1.3380 4.3284 -1.9745 0.9804
-1.7285 4.2104 -1.9836 0.9803
-2.7864 3.5988 -1.9836 0.9803
-3.6336 2.7204 -1.9782 0.9804
-3.8598 2.3818 -1.9767 0.9804
-4.0549 2.0248 -1.9753 0.9804
-4.2174 1.6521 -1.9740 0.9804
-1.4626 -0.1106 -0.6393 0.9936
-1.4724 -0.2455 -0.6505 0.9935
-1.4920 -0.3889 -0.6720 0.9933
-1.4877 -0.5342 -0.6889 0.9931
-3.6985 -2.6072 -1.9721 0.9804
-2.5526 -3.7495 -1.9768 0.9804
-1.8451 -4.1519 -1.9801 0.9804
-1.4668 -4.3045 -1.9819 0.9804
0.9547 -4.4754 -1.9943 0.9802
1.3535 -4.3766 -1.9965 0.9802
1.7423 -4.2423 -1.9987 0.9802
2.8170 -3.6372 -2.0050 0.9801
3.1347 -3.3733 -2.0069 0.9801
3.6932 -2.7643 -2.0105 0.9801
4.3049 -1.6857 -2.0148 0.9800
4.4412 -1.2937 -2.0160 0.9800
4.5414 -0.8908 -2.0169 0.9800
4.6048 -0.4803 -2.0177 0.9800
4.6306 -0.0656 -2.0183 0.9800
4.5692 0.7625 -2.0189 0.9800
4.4825 1.1690 -2.0189 0.9800
4.3591 1.5660 -2.0187 0.9800
3.5260 2.9937 -2.0159 0.9800
3.2416 3.2959 -2.0147 0.9800
2.2429 4.0307 -2.0103 0.9801
1.0832 4.4552 -1.9982 0.9802
0.6732 4.4924 -1.9797 0.9804
-0.1366 4.4346 -1.9336 0.9808
-0.5333 4.4022 -1.9326 0.9808
-1.7297 4.2099 -1.9836 0.9803
-2.4551 3.8356 -1.9847 0.9803
-3.3788 3.0368 -1.9799 0.9804
-3.6343 2.7194 -1.9782 0.9804
-4.2178 1.6509 -1.9740 0.9804
-1.4935 0.4348 -0.6779 0.9932
-1.4701 0.1531 -0.6442 0.9936
-1.4323 0.0201 -0.6243 0.9938
-1.4627 -0.1110 -0.6393 0.9936
-1.4876 -0.5346 -0.6889 0.9931
4.2176 1.0987 -2.0174 0.9810
4.1017 1.4722 -2.0172 0.9810
3.9525 1.8336 -2.0168 0.9810
3.7711 2.1799 -2.0163 0.9810
3.3185 2.8160 -2.0146 0.9810
3.0511 3.1004 -2.0135 0.9810
2.7591 3.3594 -2.0123 0.9810
2.4452 3.5907 -2.0109 0.9810
2.1119 3.7926 -2.0094 0.9810
1.3983 4.1017 -2.0059 0.9811
1.0229 4.2020 -2.0018 0.9811
0.6410 4.2691 -1.9983 0.9812
0.2553 4.3027 -1.9952 0.9812
-0.1313 4.3028 -1.9926 0.9812
-0.5160 4.2694 -1.9906 0.9812
-0.8960 4.2029 -1.9892 0.9812
-1.2685 4.1038 -1.9883 0.9812
-1.6311 3.9730 -1.9880 0.9812
-2.3121 3.6144 -1.9861 0.9813
-2.6243 3.3894 -1.9842 0.9813
-2.9149 3.1377 -1.9824 0.9813
-3.1818 2.8613 -1.9807 0.9813
-1.2703 0.3702 -0.6125 0.9942
-1.2698 0.2493 -0.5990 0.9943
-1.2616 0.0181 -0.5840 0.9945
-1.2719 -0.0962 -0.5904 0.9944
-1.2625 -0.4534 -0.6209 0.9941
-3.6893 -2.1333 -1.9727 0.9814
-3.2517 -2.7600 -1.9743 0.9814
-2.7096 -3.3001 -1.9765 0.9814
-1.7379 -3.9107 -1.9809 0.9813
-1.3815 -4.0543 -1.9826 0.9813
-1.0134 -4.1656 -1.9844 0.9813
-0.6365 -4.2437 -1.9863 0.9813
-0.2538 -4.2878 -1.9882 0.9812
0.5170 -4.2729 -1.9923 0.9812
0.8989 -4.2137 -1.9943 0.9812
1.9936 -3.8344 -2.0005 0.9811
2.6514 -3.4234 -2.0043 0.9811
2.9503 -3.1749 -2.0062 0.9811
3.6976 -2.2810 -2.0110 0.9810
3.8898 -1.9417 -2.0124 0.9810
4.0507 -1.5862 -2.0136 0.9810
4.1788 -1.2173 -2.0147 0.9810
4.2730 -0.8382 -2.0156 0.9810
4.3455 0.3291 -2.0172 0.9810
4.2173 1.0999 -2.0174 0.9810
4.1013 1.4734 -2.0172 0.9810
3.9520 1.8347 -2.0168 0.9810
3.5585 2.5093 -2.0155 0.9810
3.3177 2.8169 -2.0146 0.9810
3.0502 3.1013 -2.0135 0.9810
2.7582 3.3601 -2.0123 0.9810
2.4442 3.5914 -2.0109 0.9810
2.1108 3.7932 -2.0093 0.9810
1.3971 4.1020 -2.0059 0.9811
1.0217 4.2022 -2.0018 0.9811
-0.8971 4.2027 -1.9892 0.9812
-1.2697 4.1035 -1.9883 0.9812
-1.6322 3.9725 -1.9880 0.9812
-2.3131 3.6138 -1.9861 0.9813
-2.6252 3.3887 -1.9842 0.9813
-2.9158 3.1369 -1.9824 0.9813
-3.4234 2.5615 -1.9791 0.9813
-3.8204 1.9064 -1.9764 0.9814
-1.2555 0.4914 -0.6241 0.9941
-1.2616 0.0177 -0.5840 0.9945
-1.2720 -0.0965 -0.5905 0.9944
-1.2706 -0.3316 -0.6078 0.9942
-1.2625 -0.4537 -0.6210 0.9941
3.8681 1.3884 -2.0159 0.9819
3.7274 1.7292 -2.0155 0.9819
2.8776 2.9241 -2.0124 0.9819
2.6023 3.1685 -2.0112 0.9819
0.9661 3.9686 -2.0036 0.9820
0.6059 4.0355 -2.0017 0.9820
0.2413 4.0677 -1.9988 0.9820
-0.4878 4.0367 -1.9945 0.9820
-0.8472 3.9740 -1.9931 0.9821
-1.1994 3.8802 -1.9922 0.9821
-1.5409 3.7534 -1.9903 0.9821
-1.8694 3.5968 -1.9884 0.9821
-2.7516 2.9619 -1.9831 0.9821
-3.0036 2.7011 -1.9815 0.9822
-3.2312 2.4192 -1.9800 0.9822
-1.1156 0.4370 -0.5877 0.9947
-1.1363 0.0163 -0.5575 0.9949
-1.1435 -0.0864 -0.5625 0.9949
-1.0945 -0.5079 -0.5919 0.9946
-3.0702 -2.6060 -1.9754 0.9822
-2.5583 -3.1157 -1.9775 0.9822
-1.9634 -3.5272 -1.9801 0.9822
0.4879 -4.0323 -1.9924 0.9821
0.8482 -3.9763 -1.9943 0.9820
1.8809 -3.6177 -2.0001 0.9820
2.7831 -2.9950 -2.0055 0.9819
3.2784 -2.4537 -2.0087 0.9819
3.8204 -1.4960 -2.0125 0.9819
3.9770 1.0372 -2.0161 0.9819
3.7269 1.7302 -2.0155 0.9819
3.5558 2.0568 -2.0150 0.9819
2.6014 3.1692 -2.0112 0.9819
1.9910 3.5779 -2.0085 0.9819
1.3180 3.8698 -2.0053 0.9820
0.9650 3.9689 -2.0036 0.9820
0.6047 4.0357 -2.0017 0.9820
0.2402 4.0677 -1.9988 0.9820
-0.8483 3.9737 -1.9931 0.9821
-2.1833 3.4109 -1.9865 0.9821
-2.4780 3.1986 -1.9848 0.9821
-3.0044 2.7003 -1.9815 0.9822
-3.2319 2.4182 -1.9800 0.9822
-1.1156 0.4367 -0.5877 0.9947
-1.1316 0.3295 -0.5781 0.9948
-1.1386 0.2232 -0.5691 0.9948
-1.1443 0.1192 -0.5643 0.9949
-1.1363 0.0159 -0.5574 0.9949
-1.1435 -0.0868 -0.5625 0.9949
3.7585 0.9791 -2.0149 0.9827
3.5223 1.6341 -2.0144 0.9827
3.3608 1.9427 -2.0139 0.9827
2.9577 2.5098 -2.0124 0.9827
2.4595 2.9945 -2.0103 0.9827
1.8828 3.3812 -2.0077 0.9827
1.2469 3.6575 -2.0047 0.9827
0.5728 3.8150 -2.0013 0.9828
-0.1175 3.8491 -1.9978 0.9828
-0.8014 3.7594 -1.9941 0.9828
-1.1341 3.6690 -1.9923 0.9828
-1.4572 3.5494 -1.9905 0.9829
-1.7679 3.4014 -1.9887 0.9829
-2.0639 3.2264 -1.9870 0.9829
-2.3428 3.0259 -1.9853 0.9829
-2.6025 2.8014 -1.9837 0.9829
-3.0564 2.2883 -1.9808 0.9829
-0.9674 0.5969 -0.5897 0.9949
-1.0019 0.3925 -0.5582 0.9952
-1.0298 0.2022 -0.5444 0.9953
-1.0376 0.1084 -0.5412 0.9953
-1.0316 0.0148 -0.5352 0.9954
-0.9820 -0.4557 -0.5616 0.9951
-3.1125 -2.1942 -1.9756 0.9830
-2.6730 -2.7171 -1.9773 0.9830
-2.4200 -2.9473 -1.9784 0.9830
-2.1474 -3.1543 -1.9796 0.9830
-1.8572 -3.3363 -1.9809 0.9829
-1.5518 -3.4919 -1.9823 0.9829
0.4613 -3.8129 -1.9925 0.9828
1.1369 -3.6760 -1.9962 0.9828
1.7782 -3.4201 -1.9998 0.9828
2.0795 -3.2498 -2.0015 0.9828
2.3644 -3.0529 -2.0032 0.9827
2.6307 -2.8310 -2.0049 0.9827
2.8761 -2.5857 -2.0064 0.9827
3.0986 -2.3192 -2.0079 0.9827
3.2962 -2.0334 -2.0092 0.9827
3.7244 -1.0849 -2.0125 0.9827
3.8082 -0.7470 -2.0133 0.9827
3.8611 -0.4028 -2.0139 0.9827
3.8826 -0.0550 -2.0144 0.9827
3.8725 0.2933 -2.0147 0.9827
3.8309 0.6393 -2.0149 0.9827
3.7582 0.9802 -2.0149 0.9827
3.6549 1.3130 -2.0147 0.9827
3.5218 1.6351 -2.0144 0.9827
3.1714 2.2364 -2.0132 0.9827
2.9570 2.5106 -2.0124 0.9827
2.7187 2.7643 -2.0114 0.9827
2.4586 2.9952 -2.0103 0.9827
2.1789 3.2016 -2.0091 0.9827
1.5700 3.5342 -2.0062 0.9827
0.5717 3.8152 -2.0013 0.9828
-0.1185 3.8491 -1.9978 0.9828
-0.4627 3.8195 -1.9959 0.9828
-1.7688 3.4009 -1.9887 0.9829
-2.0648 3.2258 -1.9869 0.9829
-2.3437 3.0252 -1.9853 0.9829
-2.6033 2.8007 -1.9837 0.9829
-2.8417 2.5541 -1.9822 0.9829
-3.0571 2.2874 -1.9807 0.9829
-0.9672 0.5965 -0.5895 0.9949
-1.0020 0.3922 -0.5582 0.9952
-1.0316 0.0145 -0.5352 0.9954
-1.0373 -0.0787 -0.5397 0.9953
-1.0336 -0.1726 -0.5436 0.9953
-1.0200 -0.2662 -0.5469 0.9953
-1.0087 -0.3625 -0.5561 0.9952
1.8851 0.4911 -1.0669 0.9912
3.3345 1.5470 -2.0133 0.9834
3.1817 1.8392 -2.0128 0.9834
3.0030 2.1163 -2.0122 0.9834
2.3286 2.8352 -2.0094 0.9834
1.4875 3.3461 -2.0056 0.9834
0.5424 3.6129 -2.0010 0.9835
0.2162 3.6439 -1.9993 0.9835
-0.4372 3.6177 -1.9959 0.9835
-1.9553 3.0566 -1.9873 0.9836
-2.2196 2.8667 -1.9857 0.9836
-2.8960 2.1682 -1.9815 0.9836
-0.9090 0.3561 -0.5347 0.9956
-0.9233 0.2691 -0.5267 0.9956
-0.9473 0.0989 -0.5216 0.9957
-0.9427 0.0135 -0.5164 0.9957
-0.9472 -0.0716 -0.5202 0.9957
-0.9432 -0.1573 -0.5237 0.9956
-0.9139 -0.3282 -0.5319 0.9956
-0.8964 -0.4160 -0.5412 0.9955
-0.8700 -0.5031 -0.5504 0.9954
-2.5330 -2.5747 -1.9782 0.9837
-2.2932 -2.7928 -1.9792 0.9837
-2.0348 -2.9889 -1.9804 0.9836
-0.8571 -3.5231 -1.9859 0.9836
-0.5383 -3.5887 -1.9875 0.9836
0.4370 -3.6117 -1.9926 0.9835
0.7597 -3.5611 -1.9943 0.9835
1.0768 -3.4817 -1.9961 0.9835
1.3857 -3.3741 -1.9978 0.9835
1.9693 -3.0776 -2.0012 0.9835
2.4911 -2.6807 -2.0043 0.9834
2.7234 -2.4484 -2.0058 0.9834
2.9339 -2.1959 -2.0071 0.9834
3.1209 -1.9253 -2.0084 0.9834
1.8811 -0.5480 -1.0731 0.9911
1.8850 -0.3698 -1.0521 0.9913
1.8891 -0.1971 -1.0403 0.9914
1.8851 0.4916 -1.0670 0.9912
3.1811 1.8401 -2.0128 0.9834
2.3278 2.8358 -2.0094 0.9834
2.0630 3.0313 -2.0083 0.9834
1.7818 3.2020 -2.0070 0.9834
1.1797 3.4638 -2.0041 0.9835
0.8638 3.5528 -2.0026 0.9835
0.5414 3.6130 -2.0010 0.9835
-0.7601 3.5606 -1.9941 0.9835
-1.0753 3.4751 -1.9924 0.9835
-1.3813 3.3618 -1.9907 0.9836
-1.6757 3.2218 -1.9890 0.9836
-2.8967 2.1674 -1.9815 0.9836
-0.8628 0.5321 -0.5552 0.9954
-0.9233 0.2688 -0.5267 0.9956
-0.9426 0.0132 -0.5163 0.9957
-0.9432 -0.1575 -0.5237 0.9956
-0.9139 -0.3285 -0.5319 0.9956
1.7304 0.4508 -1.0324 0.9918
3.1617 1.4668 -2.0123 0.9840
3.0168 1.7439 -2.0119 0.9840
2.8475 2.0067 -2.0113 0.9840
2.6552 2.2531 -2.0105 0.9840
2.4415 2.4810 -2.0096 0.9841
1.9572 2.8741 -2.0075 0.9841
1.1198 3.2848 -2.0036 0.9841
0.5145 3.4268 -2.0006 0.9841
0.2051 3.4563 -1.9990 0.9841
-0.7201 3.3780 -1.9941 0.9842
-1.0192 3.2971 -1.9925 0.9842
-1.3096 3.1899 -1.9908 0.9842
-1.5890 3.0572 -1.9892 0.9842
-2.1061 2.7201 -1.9862 0.9842
-0.8035 0.6016 -0.5795 0.9954
-0.8352 0.4170 -0.5389 0.9957
-0.8658 0.2523 -0.5206 0.9958
-0.8822 0.0921 -0.5121 0.9959
-0.8791 0.0126 -0.5076 0.9959
-0.8821 -0.0667 -0.5107 0.9959
-0.8594 -0.3086 -0.5272 0.9958
-0.7998 -0.5638 -0.5649 0.9955
-1.6699 -2.9999 -1.9823 0.9843
-1.1089 -3.2542 -1.9849 0.9842
-0.2036 -3.4398 -1.9894 0.9842
0.4146 -3.4264 -1.9927 0.9842
0.7206 -3.3782 -1.9943 0.9842
2.1236 -2.7419 -2.0023 0.9841
2.3626 -2.5424 -2.0038 0.9841
2.5827 -2.3220 -2.0052 0.9841
2.7823 -2.0825 -2.0065 0.9841
2.9596 -1.8258 -2.0077 0.9841
1.7250 -0.5025 -1.0373 0.9917
1.7346 -0.3402 -1.0205 0.9919
1.7304 0.4513 -1.0324 0.9918
3.1613 1.4677 -2.0123 0.9840
3.0163 1.7448 -2.0118 0.9840
2.8469 2.0075 -2.0113 0.9840
1.1189 3.2851 -2.0036 0.9841
0.5135 3.4269 -2.0006 0.9841
0.2041 3.4564 -1.9990 0.9841
-0.4157 3.4317 -1.9958 0.9842
-0.7211 3.3778 -1.9941 0.9842
-1.0201 3.2969 -1.9925 0.9842
-1.3105 3.1895 -1.9908 0.9842
-1.5898 3.0567 -1.9892 0.9842
-1.8560 2.8996 -1.9877 0.9842
-0.8035 0.6012 -0.5794 0.9954
-0.8776 0.1720 -0.5163 0.9959
-0.8791 0.0123 -0.5076 0.9959
-0.8821 -0.0669 -0.5107 0.9959
-0.8799 -0.1470 -0.5150 0.9959
-0.8697 -0.2270 -0.5190 0.9959
-0.8594 -0.3089 -0.5272 0.9958
