ply
format ascii 1.0
element vertex 1587
property float32 x
property float32 y
property float32 z
property float32 I
end_header
9.8566 13.5959 -1.9948 0.9346
5.6136 11.6621 -1.5374 0.9492
4.1374 14.9524 -1.8429 0.9394
2.7870 15.2625 -1.8429 0.9394
0.0222 11.4267 -1.3573 0.9550
-3.0871 11.3279 -1.3947 0.9538
-4.1831 11.2702 -1.4280 0.9527
-6.6450 11.2360 -1.5506 0.9488
-3.9034 5.4285 -0.7942 0.9734
-9.5779 11.0816 -1.7399 0.9427
-11.1568 10.7906 -1.8437 0.9394
-12.8976 8.6365 -1.8438 0.9394
-13.6169 7.4515 -1.8439 0.9394
-14.2277 6.2071 -1.8439 0.9394
-16.6328 2.4011 -1.9962 0.9345
-16.7807 0.9076 -1.9962 0.9345
-16.6749 -2.0892 -1.9962 0.9345
-16.0378 -5.0193 -1.9962 0.9345
-14.0992 -9.0633 -1.9910 0.9347
-12.2560 -9.5248 -1.8438 0.9394
-11.3571 -10.5799 -1.8437 0.9394
-6.9380 -13.8823 -1.8435 0.9394
-4.3600 -14.8932 -1.8434 0.9394
-3.0138 -15.2222 -1.8433 0.9394
-0.2605 -15.5142 -1.8431 0.9394
1.1246 -15.4749 -1.8431 0.9394
2.5007 -15.3123 -1.8430 0.9394
3.8567 -15.0275 -1.8429 0.9394
5.1818 -14.6229 -1.8428 0.9394
9.6004 -13.7783 -1.9948 0.9346
11.8955 -11.8520 -1.9947 0.9346
12.9051 -10.7432 -1.9946 0.9346
15.8464 -5.5500 -1.9944 0.9346
16.2782 -4.1141 -1.9944 0.9346
16.5802 -2.6454 -1.9944 0.9346
16.6887 1.8397 -1.9944 0.9346
16.0963 4.7764 -1.9944 0.9346
15.6062 6.1935 -1.9944 0.9346
14.9917 7.5613 -1.9945 0.9346
14.2576 8.8688 -1.9945 0.9346
13.4098 10.1057 -1.9946 0.9346
11.4009 12.3287 -1.9947 0.9346
10.2558 13.2971 -1.9947 0.9346
5.3154 12.9689 -1.6649 0.9451
0.4261 13.4652 -1.6003 0.9472
-2.8226 -9.6324 -1.4222 0.9603
-2.5298 -12.7608 -1.8433 0.9488
-0.2217 -13.0063 -1.8431 0.9488
0.9396 -12.9738 -1.8431 0.9488
2.0932 -12.8378 -1.8430 0.9488
3.2302 -12.5994 -1.8429 0.9488
5.4176 -11.8240 -1.8428 0.9488
8.0460 -11.5536 -1.9949 0.9447
9.0444 -10.7894 -1.9948 0.9447
10.8174 -9.0098 -1.9947 0.9447
11.5779 -8.0086 -1.9947 0.9447
12.8164 -5.8233 -1.9946 0.9447
13.2847 -4.6566 -1.9946 0.9447
13.6470 -3.4527 -1.9946 0.9447
13.9005 -2.2214 -1.9945 0.9447
13.7995 2.7811 -1.9945 0.9447
13.4964 4.0012 -1.9946 0.9447
13.0858 5.1894 -1.9946 0.9447
12.5708 6.3363 -1.9946 0.9447
9.5611 10.3339 -1.9948 0.9447
6.9951 10.9639 -1.8427 0.9488
4.9355 12.0333 -1.8428 0.9488
2.7186 12.7197 -1.8430 0.9488
0.4097 12.8419 -1.8205 0.9494
-1.6857 11.4017 -1.6331 0.9545
-2.7301 11.3467 -1.6536 0.9539
-3.8098 11.2899 -1.6883 0.9530
-6.2112 11.2588 -1.8219 0.9494
-8.2096 10.0943 -1.8436 0.9488
-9.0777 9.3218 -1.8436 0.9488
-9.8734 8.4750 -1.8436 0.9488
-10.5904 7.5604 -1.8437 0.9488
-11.2229 6.5856 -1.8437 0.9488
-11.7659 5.5581 -1.8438 0.9488
-13.6040 3.6576 -1.9960 0.9447
-14.0875 -0.0755 -1.9961 0.9447
-14.0246 -1.3320 -1.9961 0.9447
-12.0726 -7.2592 -1.9960 0.9447
-9.9783 -8.7524 -1.8806 0.9478
-8.1011 -10.1816 -1.8436 0.9488
-7.1602 -10.8635 -1.8435 0.9488
-3.0780 -9.4543 -1.4088 0.9606
-2.9076 -12.6802 -1.8433 0.9488
-1.7647 -12.8886 -1.8432 0.9488
-0.6077 -12.9942 -1.8431 0.9488
0.5540 -12.9962 -1.8431 0.9488
2.8547 -12.6899 -1.8430 0.9488
3.9753 -12.3842 -1.8429 0.9488
7.6889 -11.7713 -1.9921 0.9448
8.7202 -11.0533 -1.9948 0.9447
9.6713 -10.2310 -1.9948 0.9447
12.0345 -7.3042 -1.9947 0.9447
12.6380 -6.2013 -1.9946 0.9447
13.1406 -5.0490 -1.9946 0.9447
13.5385 -3.8564 -1.9946 0.9447
13.8285 -2.6331 -1.9946 0.9447
14.0082 -1.3889 -1.9945 0.9447
14.0320 1.1228 -1.9945 0.9447
13.8759 2.3702 -1.9945 0.9447
13.6092 3.5987 -1.9946 0.9447
12.7533 5.9602 -1.9946 0.9447
12.1709 7.0744 -1.9946 0.9447
10.7203 9.1251 -1.9947 0.9447
9.8636 10.0454 -1.9948 0.9447
8.9283 10.8856 -1.9948 0.9447
7.9217 11.6391 -1.9949 0.9447
5.2906 11.8813 -1.8428 0.9488
4.2096 12.3064 -1.8429 0.9488
3.0950 12.6332 -1.8429 0.9488
1.9556 12.8594 -1.8430 0.9488
-1.3433 11.4197 -1.6292 0.9546
-2.3799 11.3651 -1.6452 0.9542
-3.4458 11.3090 -1.6751 0.9534
-4.5601 11.2504 -1.7200 0.9521
-5.7933 11.2808 -1.7968 0.9501
-8.7969 9.5872 -1.8436 0.9488
-9.6173 8.7643 -1.8436 0.9488
-10.3612 7.8715 -1.8437 0.9488
-11.0223 6.9159 -1.8437 0.9488
-12.0763 4.8470 -1.8438 0.9488
-13.4433 4.0460 -1.9892 0.9449
-13.7983 2.8403 -1.9961 0.9447
-13.9968 1.5980 -1.9961 0.9447
-14.0836 0.3428 -1.9961 0.9447
-14.0580 -0.9150 -1.9961 0.9447
-13.3135 -4.6050 -1.9960 0.9447
-12.2829 -6.8976 -1.9960 0.9447
-11.6183 -7.9658 -1.9960 0.9447
-8.3999 -9.9367 -1.8436 0.9488
-6.4998 -11.2708 -1.8435 0.9488
-2.7766 -10.6472 -1.5590 0.9565
-0.9933 -12.9706 -1.8432 0.9488
0.1679 -13.0070 -1.8431 0.9488
1.3276 -12.9397 -1.8430 0.9488
4.7063 -12.1250 -1.8429 0.9488
6.8344 -11.1743 -1.8559 0.9485
9.3634 -10.5137 -1.9948 0.9447
12.9850 -5.4369 -1.9946 0.9447
13.4181 -4.2567 -1.9946 0.9447
13.7442 -3.0426 -1.9946 0.9447
13.9608 -1.8042 -1.9945 0.9447
13.7100 3.1931 -1.9946 0.9447
13.3706 4.4035 -1.9946 0.9447
12.9246 5.5789 -1.9946 0.9447
10.1575 9.7481 -1.9947 0.9447
9.2475 10.6157 -1.9948 0.9447
6.5812 11.0301 -1.8199 0.9494
3.4687 12.5357 -1.8429 0.9488
2.3365 12.7956 -1.8430 0.9488
0.0222 11.4267 -1.6190 0.9549
-1.0021 11.4376 -1.6268 0.9547
-2.0330 11.3834 -1.6384 0.9544
-6.6229 11.1988 -1.8435 0.9488
-3.9307 5.4664 -0.9540 0.9732
-8.5083 9.8440 -1.8436 0.9488
-9.3528 9.0459 -1.8436 0.9488
-11.4151 6.2467 -1.8437 0.9488
-11.9271 5.2033 -1.8438 0.9488
-12.3439 4.1186 -1.8438 0.9488
-13.7079 3.2487 -1.9961 0.9447
-14.0672 0.7608 -1.9961 0.9447
-14.0790 -0.4972 -1.9961 0.9447
-13.7664 -2.9914 -1.9961 0.9447
-13.4444 -4.2077 -1.9960 0.9447
-13.0153 -5.3903 -1.9960 0.9447
-12.4823 -6.5299 -1.9960 0.9447
-11.8498 -7.6173 -1.9960 0.9447
-11.0948 -8.6223 -1.9909 0.9448
-9.5207 -8.8692 -1.8436 0.9488
-7.7925 -10.4196 -1.8435 0.9488
-6.8316 -11.0729 -1.8435 0.9488
-3.7234 -9.4835 -1.4436 0.9597
-2.5266 -12.7614 -1.8433 0.9488
-1.3780 -12.9355 -1.8432 0.9488
-0.2184 -13.0064 -1.8431 0.9488
0.9429 -12.9736 -1.8431 0.9488
2.0965 -12.8373 -1.8430 0.9488
6.4535 -11.2916 -1.8428 0.9488
8.0489 -11.5516 -1.9949 0.9447
9.0472 -10.7872 -1.9948 0.9447
10.8197 -9.0071 -1.9947 0.9447
11.5799 -8.0057 -1.9947 0.9447
12.2477 -6.9405 -1.9946 0.9447
12.8179 -5.8201 -1.9946 0.9447
13.6479 -3.4493 -1.9946 0.9447
13.7988 2.7846 -1.9945 0.9447
13.4954 4.0046 -1.9946 0.9447
12.5692 6.3394 -1.9946 0.9447
11.2428 8.4726 -1.9947 0.9447
5.9863 11.5461 -1.8428 0.9488
4.9325 12.0345 -1.8428 0.9488
-0.6617 11.4556 -1.6258 0.9547
-2.8225 -9.6324 -1.6536 0.9601
-2.1758 -10.9752 -1.8432 0.9557
5.8034 -10.1601 -1.9276 0.9537
6.9204 -9.9374 -1.9949 0.9521
8.5760 -8.5489 -1.9948 0.9521
9.3043 -7.7495 -1.9948 0.9521
10.5330 -5.9724 -1.9947 0.9521
11.0237 -5.0087 -1.9947 0.9521
11.7382 -2.9698 -1.9947 0.9521
11.9563 -1.9107 -1.9947 0.9521
12.1054 0.2446 -1.9946 0.9521
12.0354 1.3236 -1.9946 0.9521
11.8693 2.3921 -1.9947 0.9521
11.2554 4.4635 -1.9947 0.9521
10.2832 6.3930 -1.9947 0.9521
9.6720 7.2851 -1.9948 0.9521
8.9837 8.1191 -1.9948 0.9521
8.2237 8.8884 -1.9949 0.9521
5.1514 9.9296 -1.8428 0.9557
3.3048 10.6876 -1.8429 0.9557
2.3382 10.9401 -1.8430 0.9557
0.3567 11.1822 -1.8431 0.9557
-0.6424 11.1698 -1.8431 0.9557
-1.6364 11.0682 -1.8432 0.9557
-2.6174 10.8784 -1.8432 0.9557
-3.5776 10.6018 -1.8433 0.9557
-4.5093 10.2406 -1.8433 0.9557
-8.4916 7.2889 -1.8436 0.9556
-9.6521 5.6639 -1.8436 0.9556
-11.2439 4.1297 -1.9733 0.9526
-11.7003 3.1458 -1.9959 0.9521
-12.1158 -0.0649 -1.9960 0.9521
-11.9113 -2.2171 -1.9960 0.9521
-11.6659 -3.2709 -1.9960 0.9521
-11.3275 -4.2986 -1.9959 0.9521
-10.8987 -5.2920 -1.9959 0.9521
-10.3829 -6.2432 -1.9959 0.9521
-9.7844 -7.1445 -1.9958 0.9521
-9.1078 -7.9888 -1.9958 0.9521
-8.2615 -8.6675 -1.9726 0.9526
-6.9673 -8.7568 -1.8435 0.9556
-2.5008 -10.9059 -1.8433 0.9557
2.4553 -10.9145 -1.8430 0.9557
4.3557 -10.3038 -1.8429 0.9557
7.5003 -9.5071 -1.9949 0.9521
9.0702 -8.0224 -1.9948 0.9521
11.3026 -4.3427 -1.9947 0.9521
11.6449 -3.3170 -1.9947 0.9521
12.0693 0.9657 -1.9946 0.9521
11.7057 3.0954 -1.9947 0.9521
9.2207 7.8487 -1.9948 0.9521
8.4839 8.6402 -1.9948 0.9521
7.6794 9.3629 -1.9949 0.9521
4.5504 10.2192 -1.8429 0.9557
3.6206 10.5847 -1.8429 0.9557
2.6620 10.8658 -1.8430 0.9557
1.6820 11.0603 -1.8430 0.9557
0.6885 11.1666 -1.8431 0.9557
-0.3105 11.1838 -1.8431 0.9557
-1.3070 11.1118 -1.8432 0.9557
-5.1118 9.9538 -1.8434 0.9557
-3.5789 5.6610 -1.1033 0.9732
-6.7998 8.8873 -1.8435 0.9556
-7.5657 8.2454 -1.8435 0.9556
-8.2714 7.5377 -1.8436 0.9556
-9.4797 5.9479 -1.8436 0.9556
-9.9727 5.0785 -1.8437 0.9556
-10.4268 4.1850 -1.8509 0.9555
-11.8670 2.4428 -1.9960 0.9521
-11.9719 -1.8625 -1.9960 0.9521
-11.7579 -2.9231 -1.9960 0.9521
-11.0510 -4.9661 -1.9959 0.9521
-9.9922 -6.8509 -1.9959 0.9521
-8.5956 -8.4978 -1.9912 0.9522
-7.3119 -8.6497 -1.8659 0.9551
-6.4329 -9.1563 -1.8435 0.9556
-5.5902 -9.6935 -1.8434 0.9557
-4.3842 -9.4651 -1.7184 0.9586
-2.7237 -10.4442 -1.7781 0.9572
-1.8462 -11.0353 -1.8432 0.9557
-0.8543 -11.1557 -1.8432 0.9557
0.1444 -11.1871 -1.8431 0.9557
4.9620 -10.0257 -1.8428 0.9557
7.2148 -9.7256 -1.9949 0.9521
11.1687 -4.6764 -1.9947 0.9521
11.1168 4.7986 -1.9947 0.9521
10.6445 5.7713 -1.9947 0.9521
9.4496 7.5714 -1.9948 0.9521
8.7366 8.3845 -1.9948 0.9521
7.9539 9.1307 -1.9949 0.9521
7.0956 9.7874 -1.9915 0.9522
4.8518 10.0795 -1.8428 0.9557
2.9834 10.7819 -1.8429 0.9557
2.0096 11.0054 -1.8430 0.9557
-1.9671 11.0144 -1.8432 0.9557
-3.8935 10.4900 -1.8433 0.9557
-4.8140 10.1011 -1.8434 0.9557
-7.3176 8.4664 -1.8435 0.9556
-8.0439 7.7799 -1.8435 0.9556
-9.2989 6.2267 -1.8436 0.9556
-9.8174 5.3724 -1.8436 0.9556
-11.7893 2.7940 -1.9960 0.9521
-12.0983 0.6544 -1.9960 0.9521
-12.1084 -0.4276 -1.9960 0.9521
-11.8396 -2.5727 -1.9960 0.9521
-11.1937 -4.6359 -1.9959 0.9521
-10.7353 -5.6160 -1.9959 0.9521
-9.5660 -7.4342 -1.9958 0.9521
-8.8631 -8.2566 -1.9955 0.9521
-3.7234 -9.4835 -1.6784 0.9595
-2.8222 -9.6402 -1.6548 0.9601
-2.1731 -10.9758 -1.8432 0.9557
-1.1852 -11.1255 -1.8432 0.9557
0.8109 -11.1584 -1.8431 0.9557
1.8032 -11.0412 -1.8430 0.9557
2.7810 -10.8360 -1.8430 0.9557
3.7365 -10.5444 -1.8429 0.9557
5.8098 -10.1652 -1.9288 0.9536
6.9229 -9.9356 -1.9949 0.9521
7.7816 -9.2782 -1.9949 0.9521
9.3062 -7.7472 -1.9948 0.9521
9.9601 -6.8859 -1.9948 0.9521
10.5346 -5.9697 -1.9947 0.9521
11.0250 -5.0060 -1.9947 0.9521
11.7389 -2.9669 -1.9947 0.9521
11.9567 -1.9077 -1.9947 0.9521
12.0350 1.3267 -1.9946 0.9521
11.6078 3.4445 -1.9947 0.9521
9.6702 7.2875 -1.9948 0.9521
8.2214 8.8904 -1.9949 0.9521
7.3956 9.5887 -1.9949 0.9521
6.0142 9.4317 -1.8428 0.9557
5.1489 9.9309 -1.8428 0.9557
4.2424 10.3509 -1.8429 0.9557
3.3022 10.6884 -1.8429 0.9557
2.3355 10.9407 -1.8430 0.9557
1.3501 11.1058 -1.8430 0.9557
0.3539 11.1823 -1.8431 0.9557
-0.6452 11.1696 -1.8431 0.9557
-1.9070 -9.6192 -1.8432 0.9609
-1.0412 -9.7507 -1.8432 0.9609
-0.1671 -9.8045 -1.8431 0.9609
0.7083 -9.7800 -1.8431 0.9609
1.5779 -9.6776 -1.8430 0.9609
2.4350 -9.4980 -1.8430 0.9609
3.2726 -9.2426 -1.8429 0.9609
4.1944 -9.1544 -1.8927 0.9598
6.8183 -8.1338 -1.9949 0.9577
8.1550 -6.7923 -1.9949 0.9577
9.6622 -4.3901 -1.9948 0.9577
10.2884 -2.6030 -1.9947 0.9577
10.6103 0.2144 -1.9947 0.9577
10.5489 1.1601 -1.9947 0.9577
10.1749 3.0165 -1.9947 0.9577
9.8652 3.9122 -1.9948 0.9577
9.0131 5.6034 -1.9948 0.9577
8.4774 6.3852 -1.9948 0.9577
7.8740 7.1162 -1.9949 0.9577
7.2079 7.7905 -1.9949 0.9577
6.4763 8.3923 -1.9925 0.9578
4.5150 8.7030 -1.8429 0.9609
3.7207 9.0713 -1.8429 0.9609
2.8966 9.3673 -1.8429 0.9609
1.1858 9.7335 -1.8430 0.9609
0.3126 9.8007 -1.8431 0.9609
-0.5630 9.7898 -1.8431 0.9609
-1.4342 9.7007 -1.8432 0.9609
-2.2940 9.5344 -1.8432 0.9609
-3.9522 8.9753 -1.8433 0.9609
-4.7373 8.5871 -1.8434 0.9609
-3.7570 5.5694 -1.2628 0.9730
-6.1882 7.6088 -1.8434 0.9609
-10.4595 1.8312 -1.9959 0.9577
-10.4393 -1.9431 -1.9959 0.9577
-9.9276 -3.7674 -1.9959 0.9577
-9.0999 -5.4717 -1.9958 0.9577
-8.5753 -6.2616 -1.9958 0.9577
-7.9823 -7.0016 -1.9958 0.9577
-6.6023 -8.2980 -1.9932 0.9578
-5.6500 -8.5722 -1.9297 0.9591
-4.6450 -8.6374 -1.8434 0.9609
-3.8558 -9.0172 -1.8433 0.9609
-2.1918 -9.5584 -1.8432 0.9609
2.1520 -9.5662 -1.8430 0.9609
3.8176 -9.0310 -1.8429 0.9609
4.9771 -9.3474 -1.9905 0.9578
5.8043 -8.8862 -1.9950 0.9577
6.5739 -8.3327 -1.9950 0.9577
7.2909 -7.7128 -1.9949 0.9577
7.9498 -7.0315 -1.9949 0.9577
8.5453 -6.2941 -1.9948 0.9577
9.0726 -5.5065 -1.9948 0.9577
9.5276 -4.6751 -1.9948 0.9577
9.9066 -3.8064 -1.9948 0.9577
10.2066 -2.9073 -1.9948 0.9577
10.4252 -1.9851 -1.9947 0.9577
10.5607 -1.0471 -1.9947 0.9577
10.6120 -0.1007 -1.9947 0.9577
10.5787 0.8464 -1.9947 0.9577
9.9770 3.6176 -1.9948 0.9577
9.1755 5.3333 -1.9948 0.9577
8.6632 6.1307 -1.9948 0.9577
8.0818 6.8793 -1.9949 0.9577
7.4359 7.5730 -1.9949 0.9577
5.5164 8.1050 -1.8428 0.9609
3.9883 8.9568 -1.8429 0.9609
0.6035 9.7870 -1.8431 0.9609
-0.2721 9.8021 -1.8431 0.9609
-1.1456 9.7390 -1.8432 0.9609
-2.0099 9.5982 -1.8432 0.9609
-2.8583 9.3808 -1.8433 0.9609
-4.4802 8.7239 -1.8433 0.9609
-6.6308 7.2266 -1.8435 0.9609
-8.3082 5.2129 -1.8436 0.9609
-9.8363 3.9479 -1.9922 0.9578
-10.1680 3.0602 -1.9959 0.9577
-10.4005 2.1409 -1.9959 0.9577
-10.6155 0.2584 -1.9959 0.9577
-10.5962 -0.6897 -1.9959 0.9577
-10.3049 -2.5619 -1.9959 0.9577
-10.0352 -3.4710 -1.9959 0.9577
-9.6854 -4.3524 -1.9958 0.9577
-8.7574 -6.0043 -1.9958 0.9577
-8.1867 -6.7616 -1.9958 0.9577
-6.8545 -8.1086 -1.9957 0.9577
-6.0277 -8.5795 -1.9708 0.9582
-3.3114 -9.2308 -1.8433 0.9609
-2.4746 -9.4892 -1.8432 0.9609
-1.6181 -9.6719 -1.8432 0.9609
1.0008 -9.7543 -1.8431 0.9609
1.8670 -9.6259 -1.8430 0.9609
2.7183 -9.4207 -1.8430 0.9609
3.5478 -9.1404 -1.8429 0.9609
4.6366 -9.3682 -1.9647 0.9583
5.5380 -9.0547 -1.9950 0.9577
7.0587 -7.9260 -1.9949 0.9577
7.7376 -7.2645 -1.9949 0.9577
8.3547 -6.5450 -1.9949 0.9577
8.9052 -5.7735 -1.9948 0.9577
9.7892 -4.0988 -1.9948 0.9577
10.1158 -3.2091 -1.9948 0.9577
10.3617 -2.2938 -1.9947 0.9577
10.5250 -1.3602 -1.9947 0.9577
10.6043 -0.4157 -1.9947 0.9577
10.5991 0.5320 -1.9947 0.9577
10.5094 1.4755 -1.9947 0.9577
10.3359 2.4072 -1.9947 0.9577
10.0800 3.3198 -1.9948 0.9577
8.8413 5.8707 -1.9948 0.9577
8.2824 6.6362 -1.9948 0.9577
7.6575 7.3488 -1.9949 0.9577
5.7546 7.9376 -1.8428 0.9609
1.7614 9.6458 -1.8430 0.9609
0.8938 9.7647 -1.8431 0.9609
-0.8559 9.7686 -1.8431 0.9609
-1.7241 9.6535 -1.8432 0.9609
-3.1929 6.6997 -1.3950 0.9702
-3.5146 5.9429 -1.2978 0.9723
-6.4133 7.4202 -1.8435 0.9609
-8.1498 5.4573 -1.8436 0.9609
-10.3323 2.4488 -1.9959 0.9577
-10.5097 1.5172 -1.9959 0.9577
-10.6120 -0.3748 -1.9959 0.9577
-10.5363 -1.3201 -1.9959 0.9577
-10.3764 -2.2548 -1.9959 0.9577
-10.1338 -3.1715 -1.9959 0.9577
-9.8104 -4.0629 -1.9958 0.9577
-8.9319 -5.7417 -1.9958 0.9577
-8.3839 -6.5156 -1.9958 0.9577
-7.7691 -7.2374 -1.9957 0.9577
-6.3406 -8.4781 -1.9899 0.9578
-4.3843 -8.7725 -1.8434 0.9609
-1.0387 -9.7510 -1.8432 0.9609
0.7107 -9.7798 -1.8431 0.9609
2.4374 -9.4974 -1.8430 0.9609
3.2749 -9.2418 -1.8429 0.9609
4.1978 -9.1558 -1.8932 0.9598
6.0678 -8.7083 -1.9950 0.9577
8.1567 -6.7903 -1.9949 0.9577
9.2334 -5.2324 -1.9948 0.9577
9.6633 -4.3877 -1.9948 0.9577
10.0161 -3.5080 -1.9948 0.9577
10.5486 1.1628 -1.9947 0.9577
10.1741 3.0190 -1.9947 0.9577
9.8643 3.9147 -1.9948 0.9577
7.8722 7.1182 -1.9949 0.9577
7.2059 7.7923 -1.9949 0.9577
3.7184 9.0723 -1.8429 0.9609
1.1833 9.7338 -1.8430 0.9609
-2.4788 -8.4593 -1.8633 0.9646
-1.6957 -8.5534 -1.8432 0.9650
-0.9258 -8.6704 -1.8432 0.9650
-0.1486 -8.7182 -1.8431 0.9650
1.4031 -8.6054 -1.8430 0.9650
3.0805 -8.6999 -1.9509 0.9630
4.6813 -8.1955 -1.9951 0.9621
5.3937 -7.7450 -1.9950 0.9621
6.6840 -6.6629 -1.9949 0.9621
7.2517 -6.0399 -1.9949 0.9622
8.2095 -4.6549 -1.9949 0.9622
8.9059 -3.1217 -1.9948 0.9622
9.1488 -2.3147 -1.9948 0.9622
9.4145 -0.6519 -1.9948 0.9622
9.2510 1.8644 -1.9948 0.9622
9.0478 2.6824 -1.9948 0.9622
8.7725 3.4789 -1.9948 0.9622
8.4272 4.2477 -1.9948 0.9622
7.5383 5.6780 -1.9949 0.9622
7.0018 6.3279 -1.9949 0.9622
5.7566 7.4598 -1.9918 0.9622
4.6892 7.3497 -1.8428 0.9650
1.8223 8.5264 -1.8430 0.9650
0.2780 8.7149 -1.8431 0.9650
-0.5006 8.7051 -1.8431 0.9650
-2.7881 8.2624 -1.8433 0.9650
-3.5143 7.9808 -1.8433 0.9650
-3.1313 5.6760 -1.3703 0.9738
-3.7603 5.5742 -1.4213 0.9729
-4.1619 5.1173 -1.3943 0.9734
-6.0843 6.2479 -1.8434 0.9650
-7.0981 5.0673 -1.8435 0.9650
-7.5219 4.4139 -1.8435 0.9650
-8.5196 4.0246 -1.9917 0.9622
-9.3004 1.6282 -1.9958 0.9621
-9.4417 -0.0506 -1.9958 0.9621
-9.3996 -0.8927 -1.9958 0.9621
-9.2824 -1.7278 -1.9958 0.9621
-8.0914 -4.8653 -1.9958 0.9621
-7.0978 -6.2257 -1.9957 0.9621
-5.1955 -7.8826 -1.9956 0.9621
-4.4625 -8.2981 -1.9916 0.9622
-2.7565 -8.4667 -1.8822 0.9643
-1.1828 -8.6391 -1.8432 0.9650
0.3713 -8.7114 -1.8431 0.9650
1.1470 -8.6434 -1.8431 0.9650
1.9135 -8.5064 -1.8430 0.9650
5.8457 -7.4097 -1.9950 0.9621
6.4833 -6.8585 -1.9950 0.9621
7.5987 -5.5969 -1.9949 0.9622
8.0677 -4.8966 -1.9949 0.9622
8.4723 -4.1572 -1.9948 0.9622
9.2705 -1.7652 -1.9948 0.9622
9.3910 -0.9311 -1.9948 0.9622
9.3023 1.5889 -1.9948 0.9622
9.1235 2.4125 -1.9948 0.9622
8.5496 3.9956 -1.9948 0.9622
8.1591 4.7425 -1.9949 0.9622
7.1866 6.1172 -1.9949 0.9622
6.6123 6.7341 -1.9949 0.9621
4.9053 7.2072 -1.8428 0.9650
4.2428 7.6162 -1.8429 0.9650
3.5465 7.9646 -1.8429 0.9650
2.8219 8.2494 -1.8429 0.9650
2.0747 8.4684 -1.8430 0.9650
1.3109 8.6199 -1.8430 0.9650
-1.0186 8.6599 -1.8432 0.9650
-1.7872 8.5347 -1.8432 0.9650
-2.5416 8.3414 -1.8432 0.9650
-4.6650 5.0841 -1.4585 0.9722
-6.4460 5.8742 -1.8435 0.9650
-8.3338 4.2439 -1.9769 0.9625
-8.7623 3.5169 -1.9958 0.9621
-9.4219 -0.6133 -1.9958 0.9621
-9.1629 -2.2780 -1.9958 0.9621
-8.9231 -3.0864 -1.9958 0.9621
-6.0949 -7.2101 -1.9956 0.9621
-4.7125 -8.1715 -1.9939 0.9622
-2.2048 -8.4547 -1.8469 0.9649
0.1125 -8.7187 -1.8431 0.9650
0.8899 -8.6737 -1.8431 0.9650
3.4033 -8.7681 -1.9881 0.9623
6.8805 -6.4598 -1.9949 0.9622
7.4293 -5.8201 -1.9949 0.9622
9.2140 -2.0397 -1.9948 0.9622
9.3592 -1.2095 -1.9948 0.9622
9.4298 -0.3697 -1.9948 0.9622
9.3454 1.3121 -1.9948 0.9622
8.6645 3.7400 -1.9948 0.9622
8.2963 4.4982 -1.9949 0.9622
7.8620 5.2205 -1.9949 0.9622
7.3650 5.9011 -1.9949 0.9622
6.8092 6.5348 -1.9949 0.9622
5.4185 7.4741 -1.9514 0.9630
4.4671 7.4869 -1.8429 0.9650
3.0655 8.1619 -1.8429 0.9650
1.5662 8.5772 -1.8430 0.9650
0.7948 8.6829 -1.8431 0.9650
-0.7610 8.6863 -1.8431 0.9650
-1.5330 8.5840 -1.8432 0.9650
-2.2928 8.4132 -1.8432 0.9650
-3.0343 8.1752 -1.8433 0.9650
-3.1929 6.6997 -1.5688 0.9701
-6.4415 5.2024 -1.7502 0.9667
-9.1873 2.1774 -1.9958 0.9621
-9.3450 1.3490 -1.9958 0.9621
-9.4281 0.5099 -1.9958 0.9621
-8.7232 -3.6127 -1.9958 0.9621
-7.9421 -5.1054 -1.9957 0.9621
-4.9571 -8.0346 -1.9956 0.9621
-4.2074 -8.4186 -1.9894 0.9623
-3.3299 -8.4813 -1.9260 0.9634
-2.4765 -8.4592 -1.8632 0.9646
-0.9236 -8.6706 -1.8432 0.9650
-0.1464 -8.7182 -1.8431 0.9650
1.4053 -8.6051 -1.8430 0.9650
3.0832 -8.7008 -1.9512 0.9630
5.3956 -7.7437 -1.9950 0.9621
6.0649 -7.2313 -1.9950 0.9621
7.2532 -6.0381 -1.9949 0.9622
8.2106 -4.6528 -1.9949 0.9622
8.9067 -3.1195 -1.9948 0.9622
9.1494 -2.3124 -1.9948 0.9622
9.3192 -1.4869 -1.9948 0.9622
9.4350 0.1930 -1.9948 0.9622
8.4262 4.2499 -1.9948 0.9622
7.0002 6.3297 -1.9949 0.9622
4.6874 7.3509 -1.8428 0.9650
3.3065 8.0672 -1.8429 0.9650
2.5736 8.3302 -1.8430 0.9650
1.8202 8.5268 -1.8430 0.9650
-0.5028 8.7050 -1.8431 0.9650
-0.1423 -8.3486 -1.9624 0.9663
2.1046 -8.2093 -1.9918 0.9658
6.0117 -5.9927 -1.9950 0.9657
6.9809 -4.8288 -1.9949 0.9657
7.3838 -4.1867 -1.9949 0.9657
7.7278 -3.5112 -1.9949 0.9657
8.2287 -2.0819 -1.9949 0.9657
8.3815 -1.3394 -1.9948 0.9657
8.4676 -0.5863 -1.9948 0.9657
8.4861 0.1715 -1.9948 0.9657
7.8902 3.1290 -1.9949 0.9657
7.2086 4.4815 -1.9949 0.9657
6.7801 5.1069 -1.9949 0.9657
4.2175 6.6104 -1.8429 0.9683
1.6390 7.6686 -1.8430 0.9683
-3.1425 5.6964 -1.5290 0.9736
-4.1619 5.1173 -1.5502 0.9733
-5.4721 5.6193 -1.8434 0.9683
-6.3839 4.5574 -1.8435 0.9683
-7.2959 4.2812 -1.9881 0.9658
-7.6780 3.6271 -1.9957 0.9657
-7.9711 2.9276 -1.9957 0.9657
-8.2005 2.2048 -1.9958 0.9657
-8.3646 1.4644 -1.9958 0.9657
-8.4917 -0.0455 -1.9958 0.9657
-8.4538 -0.8029 -1.9958 0.9657
-8.3484 -1.5539 -1.9958 0.9657
-7.9393 -3.0128 -1.9957 0.9657
-7.6387 -3.7091 -1.9957 0.9657
-7.2773 -4.3758 -1.9957 0.9657
-6.8578 -5.0075 -1.9957 0.9657
-4.0215 -7.4780 -1.9955 0.9657
-1.1473 -8.3798 -1.9878 0.9658
0.3551 -8.3313 -1.9598 0.9663
1.8585 -8.2616 -1.9902 0.9658
2.5946 -8.0830 -1.9952 0.9657
3.3054 -7.8192 -1.9951 0.9657
3.9897 -7.4929 -1.9951 0.9657
5.2577 -6.6644 -1.9950 0.9657
5.8312 -6.1686 -1.9950 0.9657
7.6201 -3.7391 -1.9949 0.9657
8.1632 -2.3253 -1.9949 0.9657
8.3381 -1.5877 -1.9949 0.9657
8.4875 -0.0806 -1.9948 0.9657
8.3667 1.4291 -1.9948 0.9657
8.2059 2.1699 -1.9949 0.9657
7.9796 2.8934 -1.9949 0.9657
7.6897 3.5938 -1.9949 0.9657
7.3385 4.2655 -1.9949 0.9657
6.4637 5.5020 -1.9949 0.9657
5.9472 6.0568 -1.9950 0.9657
5.3832 6.5633 -1.9950 0.9657
3.8161 6.8501 -1.8429 0.9683
3.1898 7.1634 -1.8429 0.9683
1.8660 7.6165 -1.8430 0.9683
1.1790 7.7528 -1.8430 0.9683
0.4826 7.8272 -1.8431 0.9683
-0.2176 7.8393 -1.8431 0.9683
-1.6074 7.6761 -1.8432 0.9683
-2.2859 7.5022 -1.8432 0.9683
-3.1661 6.1650 -1.6288 0.9719
-3.2637 5.1624 -1.4354 0.9752
-5.7974 5.2832 -1.8434 0.9683
-7.8806 3.1630 -1.9957 0.9657
-8.1314 2.4473 -1.9958 0.9657
-8.4370 0.9632 -1.9958 0.9657
-8.4739 -0.5516 -1.9958 0.9657
-8.3909 -1.3054 -1.9958 0.9657
-8.0252 -2.7758 -1.9958 0.9657
-7.7455 -3.4807 -1.9957 0.9657
-7.4040 -4.1578 -1.9957 0.9657
-6.5471 -5.4073 -1.9957 0.9657
-5.4817 -6.4846 -1.9956 0.9657
-4.8812 -6.9477 -1.9956 0.9657
-4.2418 -7.3554 -1.9955 0.9657
-3.5686 -7.7043 -1.9955 0.9657
-2.8670 -7.9918 -1.9955 0.9657
-2.1384 -8.1998 -1.9916 0.9658
-0.6407 -8.3665 -1.9721 0.9661
1.6113 -8.3075 -1.9889 0.9658
3.7655 -7.6081 -1.9951 0.9657
5.6455 -6.3391 -1.9950 0.9657
6.1884 -5.8100 -1.9950 0.9657
6.6820 -5.2347 -1.9949 0.9657
7.5058 -3.9637 -1.9949 0.9657
8.0906 -2.5666 -1.9949 0.9657
8.4179 -1.0879 -1.9948 0.9657
8.4813 -0.3325 -1.9948 0.9657
8.2667 1.9253 -1.9949 0.9657
8.0620 2.6552 -1.9949 0.9657
7.0712 4.6954 -1.9949 0.9657
4.9676 6.8521 -1.9891 0.9658
3.4010 7.0655 -1.8429 0.9683
2.7571 7.3409 -1.8430 0.9683
0.7148 7.8094 -1.8431 0.9683
0.0152 7.8422 -1.8431 0.9683
-0.6845 7.8125 -1.8431 0.9683
-1.3788 7.7204 -1.8432 0.9683
-2.0621 7.5668 -1.8432 0.9683
-2.7290 7.3527 -1.8433 0.9683
-3.1215 5.2782 -1.4412 0.9751
-4.4121 5.1047 -1.5857 0.9727
-7.4339 4.0681 -1.9916 0.9658
-7.7832 3.3956 -1.9957 0.9657
-8.0552 2.6876 -1.9957 0.9657
-8.2629 1.9583 -1.9958 0.9657
-8.4047 1.2133 -1.9958 0.9657
-6.7048 -5.2106 -1.9957 0.9657
-5.6718 -6.3191 -1.9956 0.9657
-3.7958 -7.5950 -1.9955 0.9657
-2.3823 -8.1377 -1.9928 0.9658
-1.6441 -8.3038 -1.9895 0.9658
-0.8922 -8.3750 -1.9795 0.9660
-0.1402 -8.3485 -1.9624 0.9663
0.6055 -8.3314 -1.9632 0.9663
1.3632 -8.3474 -1.9878 0.9658
2.1067 -8.2088 -1.9918 0.9658
4.2122 -7.3701 -1.9951 0.9657
6.5237 -5.4308 -1.9950 0.9657
7.3848 -4.1848 -1.9949 0.9657
7.7287 -3.5092 -1.9949 0.9657
8.0109 -2.8057 -1.9949 0.9657
8.3819 -1.3373 -1.9948 0.9657
8.4677 -0.5842 -1.9948 0.9657
8.4861 0.1736 -1.9948 0.9657
8.4368 0.9300 -1.9948 0.9657
8.3202 1.6790 -1.9949 0.9657
7.8894 3.1310 -1.9949 0.9657
6.2961 5.6931 -1.9950 0.9657
5.7632 6.2322 -1.9950 0.9657
4.2159 6.6115 -1.8429 0.9683
3.6093 6.9614 -1.8429 0.9683
1.6371 7.6691 -1.8430 0.9683
-1.4987 -7.5595 -1.9954 0.9687
-0.8182 -7.6630 -1.9954 0.9687
-0.1313 -7.7053 -1.9953 0.9687
0.5566 -7.6861 -1.9953 0.9687
1.2401 -7.6056 -1.9952 0.9687
4.9500 -5.9050 -1.9950 0.9687
5.9205 -4.9312 -1.9950 0.9687
6.3368 -4.3832 -1.9950 0.9687
7.0147 -3.1872 -1.9949 0.9687
7.2711 -2.5487 -1.9949 0.9687
7.4694 -1.8898 -1.9949 0.9687
7.6082 -1.2159 -1.9949 0.9687
7.6863 -0.5322 -1.9949 0.9687
7.7031 0.1557 -1.9949 0.9687
7.6585 0.8423 -1.9949 0.9687
7.5529 1.5222 -1.9949 0.9687
6.8803 3.4680 -1.9949 0.9687
6.1545 4.6357 -1.9950 0.9687
4.7074 6.1002 -1.9950 0.9687
3.9286 6.1576 -1.8912 0.9703
2.1028 6.8004 -1.8430 0.9710
1.4878 6.9610 -1.8430 0.9710
0.8608 7.0661 -1.8431 0.9710
-0.4087 7.1068 -1.8431 0.9710
-2.2762 6.7453 -1.8432 0.9710
-2.8690 6.5154 -1.8433 0.9710
-3.4753 5.1518 -1.6090 0.9746
-4.1619 5.1173 -1.7078 0.9731
-5.4024 4.6372 -1.8434 0.9710
-7.4436 2.0013 -1.9957 0.9687
-7.6808 0.6465 -1.9957 0.9687
-7.6734 -0.7288 -1.9957 0.9687
-7.2064 -2.7347 -1.9957 0.9687
-6.6056 -3.9719 -1.9957 0.9687
-5.3178 -5.5791 -1.9956 0.9687
-4.2415 -6.4352 -1.9955 0.9687
-3.6504 -6.7878 -1.9955 0.9687
-3.0302 -7.0863 -1.9955 0.9687
-2.3858 -7.3283 -1.9954 0.9687
-1.0454 -7.6353 -1.9954 0.9687
-0.3600 -7.6980 -1.9953 0.9687
0.3282 -7.6993 -1.9953 0.9687
2.3552 -7.3371 -1.9952 0.9687
3.6215 -6.8015 -1.9951 0.9687
4.7725 -6.0494 -1.9951 0.9687
5.7715 -5.1048 -1.9950 0.9687
6.5867 -3.9977 -1.9949 0.9687
7.1922 -2.7634 -1.9949 0.9687
7.4100 -2.1107 -1.9949 0.9687
7.6671 -0.7602 -1.9949 0.9687
7.4487 1.9697 -1.9949 0.9687
7.2433 2.6264 -1.9949 0.9687
6.9802 3.2622 -1.9949 0.9687
4.8865 5.9577 -1.9950 0.9687
0.4381 7.1049 -1.8431 0.9710
-0.8316 7.0699 -1.8431 0.9710
-1.4591 6.9677 -1.8432 0.9710
-2.0749 6.8098 -1.8432 0.9710
-3.0824 6.0022 -1.7470 0.9725
-3.2637 5.1624 -1.5813 0.9751
-3.9244 5.1292 -1.6722 0.9737
-4.6058 5.0195 -1.7639 0.9722
-5.2623 4.7955 -1.8434 0.9710
-5.7471 4.3661 -1.8687 0.9706
-6.5165 4.0887 -1.9919 0.9687
-6.8685 3.4977 -1.9957 0.9687
-7.1532 2.8710 -1.9957 0.9687
-7.3809 2.2214 -1.9957 0.9687
-7.5496 1.5541 -1.9957 0.9687
-7.7057 0.1876 -1.9957 0.9687
-7.6917 -0.5006 -1.9957 0.9687
-7.6163 -1.1849 -1.9957 0.9687
-7.4802 -1.8596 -1.9957 0.9687
-7.0306 -3.1594 -1.9957 0.9687
-6.3570 -4.3585 -1.9957 0.9687
-5.4811 -5.4188 -1.9956 0.9687
-4.9757 -5.8861 -1.9956 0.9687
-4.4307 -6.3065 -1.9956 0.9687
-3.8503 -6.6765 -1.9955 0.9687
-2.6024 -7.2542 -1.9955 0.9687
0.7865 -7.6659 -1.9953 0.9687
1.4673 -7.5651 -1.9952 0.9687
2.7883 -7.1836 -1.9952 0.9687
4.0205 -6.5735 -1.9951 0.9687
4.5908 -6.1885 -1.9951 0.9687
5.1246 -5.7541 -1.9950 0.9687
7.1070 -2.9757 -1.9949 0.9687
7.6988 -0.3018 -1.9949 0.9687
7.6299 1.0712 -1.9949 0.9687
7.5039 1.7477 -1.9949 0.9687
7.3181 2.4102 -1.9949 0.9687
6.7734 3.6725 -1.9949 0.9687
6.4188 4.2621 -1.9950 0.9687
3.6470 6.1124 -1.8429 0.9710
3.0872 6.4135 -1.8429 0.9710
2.5027 6.6635 -1.8430 0.9710
1.8983 6.8603 -1.8430 0.9710
1.2787 7.0024 -1.8430 0.9710
0.0138 7.1185 -1.8431 0.9710
-1.2515 7.0079 -1.8432 0.9710
-2.4772 6.6741 -1.8432 0.9710
-3.1215 5.2782 -1.5877 0.9750
-5.1176 4.9496 -1.8434 0.9710
-5.5388 4.4734 -1.8434 0.9710
-7.0648 3.0821 -1.9957 0.9687
-7.7032 -0.2721 -1.9957 0.9687
-7.6482 -0.9582 -1.9957 0.9687
-7.5322 -1.6367 -1.9957 0.9687
-7.3561 -2.3022 -1.9957 0.9687
-7.1213 -2.9493 -1.9957 0.9687
-6.8297 -3.5728 -1.9957 0.9687
-6.4836 -4.1679 -1.9957 0.9687
-6.0859 -4.7297 -1.9956 0.9687
-5.6396 -5.2537 -1.9956 0.9687
-4.6160 -6.1722 -1.9956 0.9687
-4.0469 -6.5593 -1.9955 0.9687
-2.8166 -7.1738 -1.9955 0.9687
-1.4968 -7.5599 -1.9954 0.9687
-0.8163 -7.6632 -1.9954 0.9687
-0.1294 -7.7053 -1.9953 0.9687
0.5586 -7.6860 -1.9953 0.9687
1.2420 -7.6053 -1.9952 0.9687
4.9515 -5.9038 -1.9950 0.9687
5.9217 -4.9297 -1.9950 0.9687
6.7034 -3.7987 -1.9949 0.9687
7.0155 -3.1854 -1.9949 0.9687
7.6085 -1.2139 -1.9949 0.9687
7.6864 -0.5303 -1.9949 0.9687
7.6583 0.8442 -1.9949 0.9687
7.1615 2.8421 -1.9949 0.9687
6.1534 4.6372 -1.9950 0.9687
5.7152 5.1677 -1.9950 0.9687
4.7059 6.1014 -1.9950 0.9687
3.9249 6.1551 -1.8901 0.9703
3.2762 6.3190 -1.8429 0.9710
2.1011 6.8009 -1.8430 0.9710
1.4860 6.9613 -1.8430 0.9710
0.8590 7.0663 -1.8431 0.9710
-1.9821 -6.7642 -1.9954 0.9711
-1.3707 -6.9140 -1.9954 0.9711
-0.7484 -7.0086 -1.9954 0.9711
0.5091 -7.0297 -1.9953 0.9711
1.1342 -6.9562 -1.9953 0.9711
1.7503 -6.8271 -1.9952 0.9711
2.9357 -6.4072 -1.9952 0.9711
3.4955 -6.1196 -1.9951 0.9711
4.0275 -5.7833 -1.9951 0.9711
6.1302 -3.4759 -1.9950 0.9711
6.4158 -2.9151 -1.9950 0.9711
6.6503 -2.3310 -1.9949 0.9711
6.9080 1.3922 -1.9949 0.9711
6.5507 2.5978 -1.9949 0.9711
5.9848 3.7207 -1.9950 0.9711
4.7860 5.1729 -1.9950 0.9711
3.7788 5.9228 -1.9889 0.9712
2.9979 5.7787 -1.8429 0.9733
2.4704 6.0232 -1.8430 0.9733
1.9233 6.2197 -1.8430 0.9733
1.3607 6.3665 -1.8430 0.9733
0.7873 6.4627 -1.8431 0.9733
0.2076 6.5072 -1.8431 0.9733
-0.3738 6.4999 -1.8431 0.9733
-2.0818 6.1692 -1.8432 0.9733
-2.6240 5.9590 -1.8432 0.9733
-3.0595 5.5459 -1.7931 0.9740
-4.5428 4.6650 -1.8434 0.9733
-5.7279 4.0891 -1.9923 0.9712
-6.0799 3.5677 -1.9956 0.9711
-6.6173 2.4304 -1.9957 0.9711
-6.8078 1.8304 -1.9957 0.9711
-6.9440 1.2157 -1.9957 0.9711
-7.0495 -0.0378 -1.9957 0.9711
-7.0180 -0.6665 -1.9957 0.9711
-6.9305 -1.2900 -1.9957 0.9711
-6.3414 -3.0792 -1.9957 0.9711
-5.6931 -4.1571 -1.9956 0.9711
-4.8636 -5.1026 -1.9956 0.9711
-3.3386 -6.2081 -1.9955 0.9711
-2.1821 -6.7024 -1.9954 0.9711
-0.3293 -7.0406 -1.9953 0.9711
2.1541 -6.7106 -1.9952 0.9711
3.8540 -5.9003 -1.9951 0.9711
4.3650 -5.5329 -1.9951 0.9711
5.6741 -4.1793 -1.9950 0.9711
6.3264 -3.1043 -1.9950 0.9711
6.5781 -2.5275 -1.9949 0.9711
6.7773 -1.9305 -1.9949 0.9711
6.9225 -1.3181 -1.9949 0.9711
7.0244 0.5620 -1.9949 0.9711
6.9463 1.1865 -1.9949 0.9711
6.8128 1.8015 -1.9949 0.9711
6.6249 2.4022 -1.9949 0.9711
6.3842 2.9836 -1.9950 0.9711
5.7524 4.0708 -1.9950 0.9711
5.3663 4.5679 -1.9950 0.9711
2.1071 6.1598 -1.8430 0.9733
1.5491 6.3233 -1.8430 0.9733
-0.1806 6.5081 -1.8431 0.9733
-2.4459 6.0342 -1.8432 0.9733
-3.8688 5.0565 -1.8024 0.9739
-4.4023 4.7978 -1.8433 0.9733
-5.9713 3.7466 -1.9956 0.9711
-6.2818 3.1990 -1.9957 0.9711
-6.5422 2.6258 -1.9957 0.9711
-6.7504 2.0317 -1.9957 0.9711
-7.0041 0.7996 -1.9957 0.9711
-7.0475 0.1716 -1.9957 0.9711
-7.0347 -0.4579 -1.9957 0.9711
-6.9658 -1.0837 -1.9957 0.9711
-6.6623 -2.3044 -1.9957 0.9711
-6.4301 -2.8896 -1.9957 0.9711
-5.8141 -3.9863 -1.9956 0.9711
-5.4352 -4.4890 -1.9956 0.9711
-5.0130 -4.9560 -1.9956 0.9711
-4.5508 -5.3834 -1.9956 0.9711
-2.3801 -6.6347 -1.9954 0.9711
-1.7787 -6.8205 -1.9954 0.9711
-1.1630 -6.9519 -1.9954 0.9711
-0.5382 -7.0278 -1.9953 0.9711
0.7194 -7.0113 -1.9953 0.9711
1.3420 -6.9191 -1.9952 0.9711
1.9539 -6.7716 -1.9952 0.9711
2.5502 -6.5702 -1.9952 0.9711
5.1378 -4.8236 -1.9950 0.9711
5.9131 -3.8336 -1.9950 0.9711
6.5002 -2.7217 -1.9950 0.9711
6.7171 -2.1309 -1.9949 0.9711
6.8803 -1.5231 -1.9949 0.9711
7.0415 -0.2761 -1.9949 0.9711
6.9785 0.9798 -1.9949 0.9711
6.4700 2.7928 -1.9950 0.9711
6.1951 3.3589 -1.9950 0.9711
5.8707 3.8982 -1.9950 0.9711
5.4996 4.4065 -1.9950 0.9711
5.0846 4.8796 -1.9950 0.9711
4.6290 5.3139 -1.9951 0.9711
2.8236 5.8659 -1.8429 0.9733
2.2890 6.0945 -1.8430 0.9733
1.7362 6.2745 -1.8430 0.9733
1.1695 6.4045 -1.8430 0.9733
0.5934 6.4834 -1.8431 0.9733
0.0127 6.5106 -1.8431 0.9733
-0.5683 6.4859 -1.8431 0.9733
-1.1447 6.4094 -1.8432 0.9733
-1.7120 6.2818 -1.8432 0.9733
-2.2656 6.1042 -1.8432 0.9733
-2.8012 5.8778 -1.8433 0.9733
-3.0871 5.2200 -1.7168 0.9751
-3.6441 5.0678 -1.7671 0.9744
-6.1840 3.3841 -1.9956 0.9711
-6.4614 2.8189 -1.9957 0.9711
-6.8595 1.6257 -1.9957 0.9711
-6.9949 -0.8764 -1.9957 0.9711
-6.8888 -1.4969 -1.9957 0.9711
-6.7278 -2.1056 -1.9957 0.9711
-5.9299 -3.8119 -1.9956 0.9711
-5.5661 -4.3257 -1.9956 0.9711
-4.2218 -5.6450 -1.9955 0.9711
-3.7012 -5.9991 -1.9955 0.9711
-3.1512 -6.3053 -1.9955 0.9711
-2.5761 -6.5612 -1.9955 0.9711
-0.7466 -7.0087 -1.9954 0.9711
-0.1183 -7.0473 -1.9953 0.9711
0.5109 -7.0296 -1.9953 0.9711
1.1360 -6.9559 -1.9953 0.9711
2.3540 -6.6430 -1.9952 0.9711
3.4971 -6.1187 -1.9951 0.9711
4.0290 -5.7823 -1.9951 0.9711
4.5287 -5.3997 -1.9951 0.9711
4.9923 -4.9740 -1.9950 0.9711
5.4161 -4.5088 -1.9950 0.9711
6.1311 -3.4743 -1.9950 0.9711
6.4165 -2.9135 -1.9950 0.9711
6.6508 -2.3294 -1.9949 0.9711
6.8321 -1.7267 -1.9949 0.9711
6.9589 -1.1103 -1.9949 0.9711
7.0302 -0.4850 -1.9949 0.9711
7.0454 0.1441 -1.9949 0.9711
7.0045 0.7721 -1.9949 0.9711
6.9077 1.3940 -1.9949 0.9711
6.5500 2.5994 -1.9949 0.9711
6.2920 3.1735 -1.9950 0.9711
5.2272 4.7265 -1.9950 0.9711
4.7847 5.1741 -1.9950 0.9711
4.3041 5.5804 -1.9951 0.9711
3.7773 5.9236 -1.9889 0.9712
-0.3754 6.4998 -1.8431 0.9733
-1.8243 -6.2257 -1.9954 0.9732
-1.2616 -6.3635 -1.9954 0.9732
-0.6888 -6.4506 -1.9954 0.9732
-0.1105 -6.4862 -1.9953 0.9732
0.4686 -6.4701 -1.9953 0.9732
2.7020 -5.8972 -1.9952 0.9732
3.2173 -5.6325 -1.9951 0.9732
3.7069 -5.3229 -1.9951 0.9732
4.1670 -4.9709 -1.9951 0.9732
5.3344 -3.6899 -1.9950 0.9732
6.1209 -2.1455 -1.9950 0.9732
6.4705 -0.4480 -1.9950 0.9732
6.4847 0.1310 -1.9950 0.9732
6.4471 0.7091 -1.9950 0.9732
6.3582 1.2814 -1.9950 0.9732
6.2185 1.8436 -1.9950 0.9732
5.7920 2.9194 -1.9950 0.9732
5.5084 3.4245 -1.9950 0.9732
5.1810 3.9024 -1.9950 0.9732
4.8122 4.3491 -1.9950 0.9732
3.9628 5.1352 -1.9951 0.9732
3.4850 5.4623 -1.9929 0.9732
2.8521 5.4976 -1.9049 0.9744
0.7246 5.9482 -1.8431 0.9752
0.1911 5.9892 -1.8431 0.9752
-0.3441 5.9825 -1.8431 0.9752
-1.4018 5.8263 -1.8432 0.9752
-1.9161 5.6781 -1.8432 0.9752
-2.8948 5.2473 -1.8433 0.9752
-3.3514 4.9682 -1.8433 0.9752
-3.7814 4.6494 -1.8433 0.9752
-4.3023 4.4180 -1.8967 0.9745
-5.2805 3.7698 -1.9956 0.9732
-5.8665 2.7713 -1.9956 0.9732
-6.3911 1.1189 -1.9957 0.9732
-6.4654 0.5442 -1.9957 0.9732
-6.4882 -0.0348 -1.9957 0.9732
-6.4592 -0.6135 -1.9957 0.9732
-6.0661 -2.3020 -1.9956 0.9732
-5.8365 -2.8340 -1.9956 0.9732
-5.2399 -3.8261 -1.9956 0.9732
-4.8776 -4.2783 -1.9956 0.9732
-4.0395 -5.0769 -1.9955 0.9732
-2.5507 -5.9651 -1.9955 0.9732
-1.4500 -6.3233 -1.9954 0.9732
-0.8800 -6.4274 -1.9954 0.9732
-0.3031 -6.4801 -1.9953 0.9732
0.8534 -6.4306 -1.9953 0.9732
1.4237 -6.3288 -1.9952 0.9732
1.9826 -6.1764 -1.9952 0.9732
3.0486 -5.7256 -1.9951 0.9732
3.5472 -5.4307 -1.9951 0.9732
4.0175 -5.0925 -1.9951 0.9732
4.4558 -4.7137 -1.9951 0.9732
5.2225 -3.8466 -1.9950 0.9732
5.5448 -3.3653 -1.9950 0.9732
6.2379 -1.7769 -1.9950 0.9732
6.4544 -0.6399 -1.9950 0.9732
6.4857 -0.0616 -1.9950 0.9732
6.2705 1.6581 -1.9950 0.9732
5.8761 2.7462 -1.9950 0.9732
5.6077 3.2595 -1.9950 0.9732
5.2946 3.7468 -1.9950 0.9732
4.9392 4.2043 -1.9950 0.9732
4.1135 5.0153 -1.9951 0.9732
3.6497 5.3623 -1.9951 0.9732
3.1350 5.6276 -1.9814 0.9734
1.9393 5.6695 -1.8430 0.9752
1.4258 5.8199 -1.8430 0.9752
0.9009 5.9240 -1.8431 0.9752
0.3688 5.9809 -1.8431 0.9752
-0.7000 5.9514 -1.8431 0.9752
-2.7377 5.3309 -1.8433 0.9752
-3.2024 5.0655 -1.8433 0.9752
-4.0699 4.4355 -1.8516 0.9751
-4.7783 4.3544 -1.9884 0.9733
-5.4959 3.4483 -1.9956 0.9732
-6.0213 2.4167 -1.9956 0.9732
-6.2130 1.8699 -1.9956 0.9732
-6.3550 1.3082 -1.9957 0.9732
-6.4464 0.7360 -1.9957 0.9732
-6.4112 -0.9974 -1.9957 0.9732
-5.9181 -2.6595 -1.9956 0.9732
-5.6572 -3.1769 -1.9956 0.9732
-5.3512 -3.6689 -1.9956 0.9732
-5.0024 -4.1316 -1.9956 0.9732
-4.6139 -4.5614 -1.9956 0.9732
-2.7267 -5.8868 -1.9955 0.9732
-1.0705 -6.3984 -1.9954 0.9732
0.6621 -6.4532 -1.9953 0.9732
1.2352 -6.3683 -1.9952 0.9732
1.7984 -6.2326 -1.9952 0.9732
2.3472 -6.0472 -1.9952 0.9732
2.8773 -5.8136 -1.9952 0.9732
3.8646 -5.2095 -1.9951 0.9732
4.3139 -4.8439 -1.9951 0.9732
4.7288 -4.4397 -1.9951 0.9732
5.4425 -3.5285 -1.9950 0.9732
5.7355 -3.0288 -1.9950 0.9732
5.9828 -2.5050 -1.9950 0.9732
6.1824 -1.9613 -1.9950 0.9732
6.3327 -1.4019 -1.9950 0.9732
6.4810 -0.2541 -1.9950 0.9732
5.9550 2.5705 -1.9950 0.9732
5.4035 3.5880 -1.9950 0.9732
5.0618 4.0558 -1.9950 0.9732
4.6799 4.4912 -1.9950 0.9732
4.2606 4.8909 -1.9951 0.9732
1.5980 5.7750 -1.8430 0.9752
1.0764 5.8946 -1.8430 0.9752
0.5462 5.9673 -1.8431 0.9752
0.0116 5.9923 -1.8431 0.9752
-0.5230 5.9695 -1.8431 0.9752
-1.0535 5.8992 -1.8432 0.9752
-2.0852 5.6182 -1.8432 0.9752
-2.5782 5.4098 -1.8432 0.9752
-3.0391 5.1388 -1.8363 0.9753
-3.4987 4.8656 -1.8433 0.9752
-3.9189 4.5341 -1.8433 0.9752
-4.5483 4.3991 -1.9463 0.9739
-5.6917 3.1147 -1.9956 0.9732
-6.4217 0.9270 -1.9957 0.9732
-6.4788 0.3504 -1.9957 0.9732
-6.4843 -0.2290 -1.9957 0.9732
-6.4380 -0.8066 -1.9957 0.9732
-6.3403 -1.3778 -1.9957 0.9732
-5.9945 -2.4826 -1.9956 0.9732
-5.7490 -3.0075 -1.9956 0.9732
-3.4066 -5.5215 -1.9955 0.9732
-2.9003 -5.8033 -1.9955 0.9732
-1.8227 -6.2262 -1.9954 0.9732
-0.6872 -6.4508 -1.9954 0.9732
-0.1089 -6.4863 -1.9953 0.9732
1.6125 -6.2832 -1.9952 0.9732
2.1666 -6.1142 -1.9952 0.9732
2.7035 -5.8965 -1.9952 0.9732
3.2187 -5.6317 -1.9951 0.9732
3.7083 -5.3220 -1.9951 0.9732
4.1682 -4.9699 -1.9951 0.9732
4.5949 -4.5781 -1.9951 0.9732
4.9850 -4.1499 -1.9950 0.9732
5.3353 -3.6885 -1.9950 0.9732
5.9058 -2.6816 -1.9950 0.9732
6.1215 -2.1440 -1.9950 0.9732
6.2883 -1.5893 -1.9950 0.9732
6.4050 -1.0219 -1.9950 0.9732
6.4469 0.7107 -1.9950 0.9732
5.5076 3.4259 -1.9950 0.9732
5.1800 3.9037 -1.9950 0.9732
4.8111 4.3503 -1.9950 0.9732
4.4039 4.7622 -1.9951 0.9732
2.2724 5.5443 -1.8430 0.9752
1.2509 5.8601 -1.8430 0.9752
0.7231 5.9484 -1.8431 0.9752
0.1895 5.9893 -1.8431 0.9752
-1.6880 -5.7607 -1.9954 0.9750
-0.6373 -5.9688 -1.9953 0.9750
0.4336 -5.9869 -1.9953 0.9750
0.9660 -5.9242 -1.9953 0.9750
1.4906 -5.8144 -1.9952 0.9750
2.0034 -5.6581 -1.9952 0.9750
2.5002 -5.4567 -1.9952 0.9750
3.8558 -4.5997 -1.9951 0.9750
4.6118 -3.8411 -1.9951 0.9750
4.9360 -3.4143 -1.9950 0.9750
5.2209 -2.9603 -1.9950 0.9750
5.6638 -1.9853 -1.9950 0.9750
5.9265 -0.9471 -1.9950 0.9750
6.0004 0.1212 -1.9950 0.9750
5.9657 0.6561 -1.9950 0.9750
5.7541 1.7059 -1.9950 0.9750
4.7941 3.6109 -1.9950 0.9750
4.0761 4.4056 -1.9951 0.9750
3.6668 4.7517 -1.9951 0.9750
3.2283 5.0600 -1.9951 0.9750
2.7560 5.3123 -1.9893 0.9751
1.6380 5.2970 -1.8430 0.9769
1.1589 5.4221 -1.8430 0.9769
0.6705 5.5039 -1.8431 0.9769
-0.3183 5.5357 -1.8431 0.9769
-1.2971 5.3911 -1.8432 0.9769
-1.7730 5.2540 -1.8432 0.9769
-2.2347 5.0749 -1.8432 0.9769
-2.6786 4.8554 -1.8433 0.9769
-3.1011 4.5971 -1.8433 0.9769
-3.6141 4.4438 -1.9040 0.9761
-4.8861 3.4882 -1.9956 0.9750
-5.4283 2.5643 -1.9956 0.9750
-5.6355 2.0698 -1.9956 0.9750
-5.7977 1.5588 -1.9956 0.9750
-5.9825 0.5036 -1.9956 0.9750
-6.0035 -0.0322 -1.9956 0.9750
-5.7807 -1.6208 -1.9956 0.9750
-5.6130 -2.1301 -1.9956 0.9750
-5.4005 -2.6223 -1.9956 0.9750
-5.1450 -3.0937 -1.9956 0.9750
-4.5132 -3.9587 -1.9956 0.9750
-2.8433 -5.2871 -1.9955 0.9750
-2.3602 -5.5196 -1.9954 0.9750
-1.3417 -5.8510 -1.9954 0.9750
-0.8143 -5.9473 -1.9954 0.9750
-0.2804 -5.9961 -1.9953 0.9750
0.2556 -5.9972 -1.9953 0.9750
1.3174 -5.8561 -1.9952 0.9750
2.8210 -5.2980 -1.9952 0.9750
3.2823 -5.0251 -1.9951 0.9750
5.3881 -2.6438 -1.9950 0.9750
5.6024 -2.1526 -1.9950 0.9750
5.9724 -0.5921 -1.9950 0.9750
6.0014 -0.0570 -1.9950 0.9750
5.9825 0.4787 -1.9950 0.9750
5.8022 1.5343 -1.9950 0.9750
5.6422 2.0459 -1.9950 0.9750
5.4373 2.5411 -1.9950 0.9750
4.5704 3.8903 -1.9951 0.9750
3.8063 4.6407 -1.9951 0.9750
1.7945 5.2460 -1.8430 0.9769
0.8336 5.4816 -1.8431 0.9769
-0.1539 5.5426 -1.8431 0.9769
-2.5332 4.9327 -1.8432 0.9769
-3.4115 4.4588 -1.8662 0.9766
-4.4337 4.0404 -1.9939 0.9750
-4.7803 3.6317 -1.9956 0.9750
-5.5715 2.2362 -1.9956 0.9750
-5.7488 1.7302 -1.9956 0.9750
-5.8803 1.2104 -1.9956 0.9750
-5.9649 0.6810 -1.9956 0.9750
-6.0018 0.1461 -1.9956 0.9750
-5.9322 -0.9229 -1.9956 0.9750
-4.6288 -3.8230 -1.9956 0.9750
-3.8756 -4.5847 -1.9955 0.9750
-3.4511 -4.9121 -1.9955 0.9750
-2.0270 -5.6504 -1.9954 0.9750
0.0775 -6.0021 -1.9953 0.9750
1.1429 -5.8926 -1.9952 0.9750
2.1719 -5.5956 -1.9952 0.9750
2.6624 -5.3794 -1.9952 0.9750
3.1317 -5.1203 -1.9951 0.9750
3.5760 -4.8205 -1.9951 0.9750
3.9917 -4.4822 -1.9951 0.9750
4.3757 -4.1081 -1.9951 0.9750
5.0360 -3.2650 -1.9950 0.9750
5.5360 -2.3180 -1.9950 0.9750
5.8598 -1.2972 -1.9950 0.9750
5.5103 2.3785 -1.9950 0.9750
5.2761 2.8607 -1.9950 0.9750
4.3304 4.1558 -1.9951 0.9750
3.5229 4.8594 -1.9951 0.9750
1.9494 5.1904 -1.8430 0.9769
0.9960 5.4544 -1.8430 0.9769
0.5054 5.5216 -1.8431 0.9769
-2.3856 5.0057 -1.8432 0.9769
-2.8227 4.7730 -1.8433 0.9769
-3.2374 4.5022 -1.8433 0.9769
-3.8269 4.4277 -1.9454 0.9756
-4.3073 4.1660 -1.9919 0.9751
-5.5027 2.4006 -1.9956 0.9750
-5.6949 1.9001 -1.9956 0.9750
-5.9948 0.3242 -1.9956 0.9750
-5.9999 -0.2119 -1.9956 0.9750
-5.9570 -0.7463 -1.9956 0.9750
-5.7295 -1.7931 -1.9956 0.9750
-5.5467 -2.2972 -1.9956 0.9750
-5.3196 -2.7828 -1.9956 0.9750
-5.0501 -3.2463 -1.9956 0.9750
-4.7403 -3.6839 -1.9956 0.9750
-3.5954 -4.8075 -1.9955 0.9750
-3.1521 -5.1090 -1.9955 0.9750
-2.6837 -5.3698 -1.9955 0.9750
-1.6866 -5.7611 -1.9954 0.9750
-1.1659 -5.8885 -1.9954 0.9750
-0.6359 -5.9690 -1.9953 0.9750
-0.1008 -6.0018 -1.9953 0.9750
0.4351 -5.9868 -1.9953 0.9750
1.4921 -5.8140 -1.9952 0.9750
2.0048 -5.6576 -1.9952 0.9750
2.9783 -5.2111 -1.9951 0.9750
4.6127 -3.8400 -1.9951 0.9750
4.9369 -3.4131 -1.9950 0.9750
5.2217 -2.9590 -1.9950 0.9750
5.4648 -2.4813 -1.9950 0.9750
5.9874 -0.4131 -1.9950 0.9750
6.0004 0.1228 -1.9950 0.9750
5.9655 0.6576 -1.9950 0.9750
5.5785 2.2139 -1.9950 0.9750
5.0963 3.1701 -1.9950 0.9750
4.4518 4.0254 -1.9951 0.9750
3.6656 4.7526 -1.9951 0.9750
3.2270 5.0608 -1.9951 0.9750
1.6366 5.2974 -1.8430 0.9769
0.6691 5.5041 -1.8431 0.9769
-1.5691 -5.3547 -1.9954 0.9766
-0.5924 -5.5482 -1.9953 0.9766
1.8622 -5.2594 -1.9952 0.9766
2.7672 -4.8446 -1.9952 0.9766
3.1884 -4.5783 -1.9951 0.9766
3.9512 -3.9387 -1.9951 0.9766
4.2868 -3.5705 -1.9951 0.9766
4.5882 -3.1737 -1.9951 0.9766
4.8530 -2.7517 -1.9950 0.9766
5.0792 -2.3078 -1.9950 0.9766
5.2647 -1.8454 -1.9950 0.9766
5.5089 -0.8804 -1.9950 0.9766
5.5654 -0.3854 -1.9950 0.9766
5.5776 0.1127 -1.9950 0.9766
5.5453 0.6099 -1.9950 0.9766
5.4688 1.1022 -1.9950 0.9766
5.3487 1.5857 -1.9950 0.9766
5.1859 2.0566 -1.9950 0.9766
4.9818 2.5111 -1.9950 0.9766
4.7379 2.9455 -1.9950 0.9766
4.4563 3.3565 -1.9951 0.9766
2.1085 5.1408 -1.9870 0.9767
1.0772 5.0400 -1.8430 0.9783
0.6232 5.1161 -1.8431 0.9783
0.1643 5.1513 -1.8431 0.9783
-1.6480 4.8837 -1.8432 0.9783
-2.0772 4.7172 -1.8432 0.9783
-3.0111 4.4636 -1.9255 0.9774
-3.5109 4.3168 -1.9898 0.9766
-4.2343 3.6346 -1.9955 0.9766
-4.5417 3.2423 -1.9956 0.9766
-5.2383 1.9239 -1.9956 0.9766
-5.4862 -1.0212 -1.9956 0.9766
-5.2174 -1.9799 -1.9956 0.9766
-5.0199 -2.4375 -1.9956 0.9766
-4.7824 -2.8756 -1.9956 0.9766
-4.5067 -3.2908 -1.9956 0.9766
-4.1951 -3.6797 -1.9955 0.9766
-3.8501 -4.0393 -1.9955 0.9766
-2.6429 -4.9144 -1.9955 0.9766
-2.1939 -5.1306 -1.9954 0.9766
-1.2471 -5.4387 -1.9954 0.9766
-0.7569 -5.5282 -1.9954 0.9766
-0.2607 -5.5736 -1.9953 0.9766
0.7340 -5.5310 -1.9953 0.9766
1.2245 -5.4434 -1.9952 0.9766
3.0510 -4.6710 -1.9951 0.9766
3.4556 -4.3801 -1.9951 0.9766
4.7692 -2.8946 -1.9950 0.9766
5.0084 -2.4575 -1.9950 0.9766
5.2076 -2.0009 -1.9950 0.9766
5.4803 -1.0435 -1.9950 0.9766
5.5785 -0.0529 -1.9950 0.9766
5.5610 0.4450 -1.9950 0.9766
5.2447 1.9017 -1.9950 0.9766
5.0541 2.3620 -1.9950 0.9766
4.8233 2.8035 -1.9950 0.9766
4.5539 3.2227 -1.9951 0.9766
4.2483 3.6162 -1.9951 0.9766
3.9088 3.9808 -1.9951 0.9766
3.5381 4.3137 -1.9951 0.9766
2.2631 5.0823 -1.9895 0.9766
1.2264 5.0058 -1.8430 0.9783
0.7749 5.0953 -1.8431 0.9783
0.3172 5.1442 -1.8431 0.9783
-0.6021 5.1188 -1.8431 0.9783
-1.0564 5.0447 -1.8432 0.9783
-2.8302 4.4766 -1.8940 0.9778
-3.3785 4.4156 -1.9882 0.9767
-4.4434 3.3757 -1.9955 0.9766
-4.7269 2.9659 -1.9956 0.9766
-4.9727 2.5323 -1.9956 0.9766
-5.1788 2.0786 -1.9956 0.9766
-5.3436 1.6083 -1.9956 0.9766
-5.5788 0.1358 -1.9956 0.9766
-5.5141 -0.8578 -1.9956 0.9766
-5.2739 -1.8241 -1.9956 0.9766
-5.0901 -2.2874 -1.9956 0.9766
-4.8657 -2.7324 -1.9956 0.9766
-3.6024 -4.2615 -1.9955 0.9766
-0.4260 -5.5634 -1.9953 0.9766
0.0720 -5.5791 -1.9953 0.9766
0.5695 -5.5504 -1.9953 0.9766
1.0624 -5.4774 -1.9953 0.9766
1.5468 -5.3607 -1.9952 0.9766
4.3918 -3.4405 -1.9951 0.9766
4.9332 -2.6052 -1.9950 0.9766
5.3176 -1.6869 -1.9950 0.9766
5.4469 -1.2058 -1.9950 0.9766
5.5745 -0.2185 -1.9950 0.9766
5.5717 0.2797 -1.9950 0.9766
5.2988 1.7451 -1.9950 0.9766
5.1220 2.2109 -1.9950 0.9766
4.3538 3.4884 -1.9951 0.9766
3.2747 4.5170 -1.9951 0.9766
2.8587 4.7912 -1.9951 0.9766
1.9073 5.0782 -1.9399 0.9772
-1.3552 4.9728 -1.8432 0.9783
-1.7935 4.8322 -1.8432 0.9783
-2.2175 4.6529 -1.8432 0.9783
-2.6547 4.4889 -1.8650 0.9781
-3.6416 4.2133 -1.9915 0.9766
-4.0111 3.8794 -1.9955 0.9766
-4.8953 2.6789 -1.9956 0.9766
-5.1148 2.2314 -1.9956 0.9766
-5.4300 1.2869 -1.9956 0.9766
-5.5770 -0.1970 -1.9956 0.9766
-5.5372 -0.6937 -1.9956 0.9766
-5.4532 -1.1850 -1.9956 0.9766
-4.9446 -2.5867 -1.9956 0.9766
-3.7274 -4.1527 -1.9955 0.9766
-3.3420 -4.4687 -1.9955 0.9766
-2.9299 -4.7490 -1.9955 0.9766
-2.4945 -4.9914 -1.9954 0.9766
-2.0393 -5.1939 -1.9954 0.9766
-1.5677 -5.3551 -1.9954 0.9766
-1.0837 -5.4735 -1.9954 0.9766
-0.0937 -5.5788 -1.9953 0.9766
0.8993 -5.5065 -1.9953 0.9766
1.3870 -5.4043 -1.9952 0.9766
1.8635 -5.2589 -1.9952 0.9766
2.3253 -5.0716 -1.9952 0.9766
2.7684 -4.8439 -1.9952 0.9766
3.1895 -4.5775 -1.9951 0.9766
3.9522 -3.9377 -1.9951 0.9766
4.2877 -3.5694 -1.9951 0.9766
4.8537 -2.7505 -1.9950 0.9766
5.0797 -2.3065 -1.9950 0.9766
5.2652 -1.8441 -1.9950 0.9766
5.4087 -1.3670 -1.9950 0.9766
5.5091 -0.8790 -1.9950 0.9766
5.5452 0.6113 -1.9950 0.9766
5.1854 2.0579 -1.9950 0.9766
4.7372 2.9467 -1.9950 0.9766
4.1381 3.7418 -1.9951 0.9766
3.7879 4.0961 -1.9951 0.9766
3.4073 4.4177 -1.9951 0.9766
2.9996 4.7041 -1.9951 0.9766
1.5332 4.9625 -1.8574 0.9782
1.0759 5.0403 -1.8430 0.9783
0.6220 5.1162 -1.8431 0.9783
0.1630 5.1514 -1.8431 0.9783
-1.4642 -4.9968 -1.9954 0.9779
-0.5528 -5.1774 -1.9953 0.9779
0.3761 -5.1931 -1.9953 0.9779
1.2930 -5.0434 -1.9952 0.9779
1.7378 -4.9079 -1.9952 0.9779
2.1687 -4.7332 -1.9952 0.9779
2.5823 -4.5208 -1.9952 0.9779
2.9753 -4.2724 -1.9951 0.9779
3.3446 -3.9898 -1.9951 0.9779
4.0003 -3.3319 -1.9951 0.9779
4.5287 -2.5678 -1.9951 0.9779
5.2049 0.1052 -1.9950 0.9779
5.1034 1.0285 -1.9950 0.9779
4.9913 1.4797 -1.9950 0.9779
4.8394 1.9191 -1.9950 0.9779
4.6489 2.3433 -1.9951 0.9779
4.4213 2.7487 -1.9951 0.9779
4.1585 3.1322 -1.9951 0.9779
3.8625 3.4908 -1.9951 0.9779
3.5357 3.8215 -1.9951 0.9779
2.3976 4.6215 -1.9952 0.9779
1.0291 4.8148 -1.8868 0.9791
0.1534 4.8071 -1.8431 0.9796
-0.7034 4.7579 -1.8431 0.9796
-1.5379 4.5573 -1.8432 0.9796
-2.4707 4.4786 -1.9601 0.9783
-2.9046 4.3058 -1.9904 0.9780
-3.2842 4.0382 -1.9947 0.9779
-3.9513 3.3916 -1.9955 0.9779
-4.2381 3.0256 -1.9955 0.9779
-4.8881 1.7953 -1.9956 0.9779
-5.0288 1.3521 -1.9956 0.9779
-2.3039 -0.2188 -0.8869 0.9901
-5.0141 -1.4059 -1.9956 0.9779
-4.8686 -1.8476 -1.9956 0.9779
-4.6844 -2.2746 -1.9956 0.9779
-3.9147 -3.4338 -1.9955 0.9779
-3.5927 -3.7693 -1.9955 0.9779
-3.2421 -4.0748 -1.9955 0.9779
-2.8656 -4.3477 -1.9955 0.9779
-2.4663 -4.5860 -1.9954 0.9779
-2.0472 -4.7877 -1.9954 0.9779
-0.2433 -5.2011 -1.9953 0.9779
1.1427 -5.0796 -1.9952 0.9779
2.0272 -4.7956 -1.9952 0.9779
2.8471 -4.3588 -1.9952 0.9779
3.2247 -4.0874 -1.9951 0.9779
3.8997 -3.4492 -1.9951 0.9779
4.6737 -2.2933 -1.9951 0.9779
4.8597 -1.8672 -1.9950 0.9779
5.2057 -0.0494 -1.9950 0.9779
5.0330 1.3309 -1.9950 0.9779
4.8942 1.7746 -1.9950 0.9779
4.7164 2.2042 -1.9950 0.9779
3.6476 3.7148 -1.9951 0.9779
3.3016 4.0254 -1.9951 0.9779
2.9294 4.3040 -1.9951 0.9779
2.1164 4.7529 -1.9938 0.9780
1.6797 4.9105 -1.9888 0.9780
0.7239 4.7603 -1.8452 0.9796
0.2960 4.8004 -1.8431 0.9796
-0.9873 4.7147 -1.8460 0.9796
-2.3058 4.4899 -1.9342 0.9786
-3.5205 3.8368 -1.9955 0.9779
-4.1464 3.1501 -1.9955 0.9779
-4.8327 1.9397 -1.9956 0.9779
-4.9865 1.5008 -1.9956 0.9779
-2.3019 0.2628 -0.8879 0.9901
-2.2952 0.0559 -0.8798 0.9902
-2.3033 -0.1499 -0.8845 0.9902
-5.1456 -0.8005 -1.9956 0.9779
-4.9214 -1.7022 -1.9956 0.9779
-4.2948 -2.9446 -1.9955 0.9779
-3.7031 -3.6610 -1.9955 0.9779
-3.3617 -3.9767 -1.9955 0.9779
-1.7582 -4.9011 -1.9954 0.9779
-0.8592 -5.1355 -1.9954 0.9779
-0.3976 -5.1916 -1.9953 0.9779
0.5314 -5.1795 -1.9953 0.9779
0.9914 -5.1113 -1.9953 0.9779
1.4434 -5.0024 -1.9952 0.9779
2.7165 -4.4415 -1.9952 0.9779
3.1019 -4.1814 -1.9951 0.9779
4.0983 -3.2106 -1.9951 0.9779
4.6036 -2.4311 -1.9951 0.9779
5.0829 -1.1252 -1.9950 0.9779
5.0703 1.1809 -1.9950 0.9779
4.9447 1.6285 -1.9950 0.9779
4.0628 3.2553 -1.9951 0.9779
3.7562 3.6048 -1.9951 0.9779
3.4197 3.9256 -1.9951 0.9779
3.0558 4.2151 -1.9951 0.9779
2.6676 4.4710 -1.9952 0.9779
2.2581 4.6912 -1.9952 0.9779
1.8262 4.8623 -1.9904 0.9780
-3.0343 4.2198 -1.9918 0.9780
-4.3269 2.8974 -1.9955 0.9779
-4.5681 2.4998 -1.9956 0.9779
-4.9397 1.6482 -1.9956 0.9779
-5.0671 1.2009 -1.9956 0.9779
-5.1540 0.7440 -1.9956 0.9779
-2.3019 0.1245 -0.8834 0.9902
-2.3015 -0.2883 -0.8889 0.9901
-5.0887 -1.1058 -1.9956 0.9779
-4.8111 -1.9925 -1.9956 0.9779
-4.6141 -2.4138 -1.9956 0.9779
-4.1116 -3.1954 -1.9955 0.9779
-3.8101 -3.5494 -1.9955 0.9779
-3.4783 -3.8752 -1.9955 0.9779
-3.1186 -4.1700 -1.9955 0.9779
-2.3278 -4.6578 -1.9954 0.9779
-1.4630 -4.9972 -1.9954 0.9779
-0.5515 -5.1775 -1.9953 0.9779
-0.0874 -5.2060 -1.9953 0.9779
0.3774 -5.1930 -1.9953 0.9779
0.8392 -5.1385 -1.9953 0.9779
