ply
format ascii 1.0
element vertex 1588
property float32 x
property float32 y
property float32 z
property float32 I
end_header
-1.8782 -17.6137 2.7136 0.9308
1.2430 -17.2484 2.6492 0.9324
1.6096 -9.9095 1.5380 0.9602
4.3145 -16.8891 2.6704 0.9319
5.8939 -16.7044 2.7136 0.9308
7.5385 -16.5120 2.7807 0.9292
3.7221 11.7010 1.8810 0.9515
-0.5388 11.1335 1.7076 0.9559
-1.5583 11.2659 1.7423 0.9550
-2.5694 11.1476 1.7525 0.9548
-3.6007 11.0269 1.7770 0.9541
-8.2436 10.3634 2.0286 0.9478
-9.7073 10.1919 2.1562 0.9446
-6.2414 -18.1292 2.9373 0.9253
-2.7388 -17.7145 2.7460 0.9300
-1.1286 -17.5260 2.6904 0.9314
0.4298 -17.3436 2.6578 0.9322
1.9629 -17.1642 2.6466 0.9325
8.3173 -16.3654 2.8123 0.9284
9.9897 13.9221 2.6250 0.9330
0.9287 5.3543 0.7077 0.9783
0.9483 11.4473 1.4958 0.9547
-0.0737 11.4485 1.4909 0.9549
-2.1162 11.3328 1.5013 0.9546
-9.0918 10.3844 1.7973 0.9458
1.2430 -17.2479 2.2519 0.9326
2.7726 -17.0689 2.2519 0.9326
7.5383 -16.5115 2.3636 0.9294
3.7407 11.7593 1.6069 0.9514
2.5893 11.6392 1.5527 0.9530
0.6973 5.3414 0.7015 0.9785
0.4655 11.4244 1.4889 0.9549
-1.5763 11.3960 1.4981 0.9547
-4.7237 11.0277 1.5622 0.9528
-5.8640 10.8942 1.6111 0.9513
-8.3312 10.4735 1.7427 0.9474
-9.8104 10.3002 1.8523 0.9442
-6.2396 -18.1237 2.4960 0.9256
-4.4305 -17.9119 2.4028 0.9283
-1.1286 -17.5254 2.2869 0.9316
1.9684 -9.5652 1.2717 0.9614
6.6577 -16.6145 2.3308 0.9303
13.1796 -14.5077 2.5524 0.9240
4.3820 5.0828 0.8739 0.9733
9.9520 13.8695 2.2230 0.9335
4.3759 5.1299 0.7240 0.9732
9.8512 13.8820 1.8279 0.9338
3.1722 11.8852 1.3209 0.9517
0.4649 5.6126 0.6048 0.9776
-2.1439 11.4809 1.2542 0.9541
-3.1478 11.2125 1.2506 0.9542
-1.9051 5.0190 0.5765 0.9786
-5.3187 10.9584 1.3080 0.9522
-6.4999 10.8201 1.3554 0.9505
-9.2520 10.5674 1.5082 0.9451
-5.2036 -17.8005 1.9914 0.9281
1.6114 -9.9203 1.0792 0.9604
4.2906 -16.7955 1.8615 0.9326
3.8042 11.9591 1.3476 0.9508
-0.5389 11.1342 1.1970 0.9561
-1.5969 11.5450 1.2515 0.9542
-2.5991 11.2767 1.2427 0.9545
-3.6424 11.1546 1.2600 0.9539
-4.7238 11.0280 1.2883 0.9529
-5.8642 10.8945 1.3286 0.9514
-8.5146 10.7041 1.4687 0.9465
-2.7143 -17.5558 1.9076 0.9310
1.9673 -9.5602 1.0481 0.9615
8.2465 -16.2261 1.9545 0.9294
13.1735 -14.5010 2.1038 0.9242
4.3815 5.0822 0.7206 0.9734
9.9270 13.8347 1.8285 0.9338
4.3411 11.7050 1.3406 0.9510
4.3755 5.1293 0.5707 0.9733
9.8274 13.8484 1.4375 0.9341
-0.0737 11.4555 0.9698 0.9551
-1.9051 5.0188 0.4544 0.9787
-5.3189 10.9587 1.0312 0.9523
-3.5225 -17.8045 1.5364 0.9297
-1.8780 -17.6121 1.4994 0.9314
1.6071 -9.8937 0.8485 0.9606
5.8933 -16.7028 1.4994 0.9314
7.5378 -16.5104 1.5364 0.9297
4.4237 4.7162 0.5474 0.9744
4.3289 5.5281 0.5944 0.9722
0.6994 5.3576 0.4574 0.9785
0.4694 11.5191 0.9759 0.9548
-2.5992 11.2770 0.9797 0.9546
-3.6425 11.1549 0.9934 0.9540
-4.7240 11.0284 1.0156 0.9530
-8.5149 10.7045 1.1579 0.9466
-9.8911 10.3850 1.2141 0.9441
-2.7386 -17.7128 1.5173 0.9306
-1.1285 -17.5243 1.4866 0.9319
0.4298 -17.3420 1.4685 0.9327
9.9063 13.8058 1.4384 0.9341
4.3412 11.7054 1.0568 0.9511
4.3750 5.1288 0.4180 0.9733
3.1724 11.8860 0.7629 0.9519
0.4604 5.5573 0.3458 0.9779
-2.1532 11.5309 0.7274 0.9541
-3.1480 11.2132 0.7222 0.9544
-9.2926 10.6138 0.8748 0.9450
-5.2642 -18.0078 1.1634 0.9276
-0.3012 -17.5629 1.0892 0.9320
1.2526 -17.3811 1.0806 0.9325
4.3321 -16.9581 1.0853 0.9323
5.8931 -16.7022 1.0983 0.9315
3.8045 11.9599 0.7783 0.9509
-2.5993 11.2774 0.7176 0.9547
-5.8646 10.8953 0.7673 0.9516
-7.1811 10.8922 0.8090 0.9491
-9.8924 10.3863 0.8894 0.9441
-6.2389 -18.1219 1.1885 0.9261
-4.4300 -17.9102 1.1441 0.9287
0.4331 -17.4770 1.0841 0.9323
1.9701 -9.5737 0.6061 0.9616
5.0508 -16.8008 1.0879 0.9321
4.3806 5.0811 0.4160 0.9735
4.3746 5.1282 0.2658 0.9734
-0.0741 11.5065 0.4537 0.9550
-1.0974 11.4535 0.4537 0.9550
-1.9049 5.0185 0.2117 0.9787
-6.6136 11.0094 0.5064 0.9499
-7.7603 10.6426 0.5194 0.9486
-9.2930 10.6142 0.5563 0.9451
-3.5510 -17.9487 0.7215 0.9294
-1.8932 -17.7547 0.7041 0.9310
1.6129 -9.9297 0.3967 0.9605
4.3555 -17.0497 0.6939 0.9320
5.9499 -16.8631 0.7051 0.9309
4.4228 4.7152 0.2549 0.9745
4.3279 5.5269 0.2768 0.9723
3.8046 11.9603 0.4949 0.9510
0.7019 5.3770 0.2138 0.9785
0.4715 11.5704 0.4566 0.9547
-5.8647 10.8956 0.4879 0.9517
-7.1813 10.8926 0.5145 0.9491
-8.5155 10.7052 0.5394 0.9467
-8.8383 -10.7544 0.5489 0.9458
-6.2560 -18.1716 0.7577 0.9260
-1.1394 -17.6926 0.6991 0.9315
1.9740 -9.5928 0.3862 0.9616
5.0995 -16.9626 0.6984 0.9316
4.3801 5.0806 0.2645 0.9735
4.2772 5.9609 0.2893 0.9711
4.2689 11.6981 0.2104 0.9514
3.1726 11.8867 0.2078 0.9520
-0.0741 11.5069 0.1944 0.9550
-1.0974 11.4538 0.1944 0.9550
-3.1482 11.2139 0.1967 0.9545
-5.3195 10.9598 0.2058 0.9524
-6.6138 11.0097 0.2170 0.9499
-7.7606 10.6430 0.2225 0.9487
-9.2933 10.6146 0.2383 0.9451
2.7938 -17.1997 0.2943 0.9327
4.3474 -17.0179 0.2967 0.9321
4.3275 5.5263 0.1186 0.9723
3.8048 11.9607 0.2120 0.9510
2.6302 11.8233 0.2046 0.9527
0.4715 11.5707 0.1956 0.9547
-0.5389 11.1356 0.1883 0.9564
-1.6039 11.5959 0.1977 0.9542
-5.8649 10.8960 0.2090 0.9517
-8.5158 10.7056 0.2311 0.9467
-9.9208 10.4161 0.2430 0.9441
-6.2563 -18.1723 0.3246 0.9260
-1.1372 -17.6596 0.2989 0.9317
0.4331 -17.4759 0.2953 0.9325
1.9774 -9.6091 0.1657 0.9615
8.3888 -16.5059 0.3120 0.9286
13.1889 -14.5180 0.3313 0.9245
4.3797 5.0801 0.1133 0.9735
4.3417 11.7066 0.2109 0.9513
4.3736 5.1272 -0.0379 0.9734
9.8406 13.8671 -0.0957 0.9342
3.1727 11.8871 -0.0693 0.9520
0.9456 5.4519 -0.0312 0.9781
-1.0975 11.4542 -0.0648 0.9550
-3.1483 11.2142 -0.0656 0.9545
-6.5010 10.8220 -0.0711 0.9508
-9.2937 10.6150 -0.0794 0.9451
-3.5507 -17.9475 -0.1030 0.9294
-0.3017 -17.5935 -0.0991 0.9320
1.2547 -17.4114 -0.0983 0.9326
4.3553 -17.0486 -0.0991 0.9320
5.9495 -16.8621 -0.1007 0.9310
4.4254 4.7179 -0.0364 0.9745
4.3270 5.5257 -0.0395 0.9723
3.8049 11.9611 -0.0707 0.9510
0.7033 5.3878 -0.0306 0.9785
-1.5766 11.3981 -0.0648 0.9550
-2.5995 11.2784 -0.0652 0.9548
-3.6429 11.1563 -0.0661 0.9541
-4.7246 11.0298 -0.0676 0.9531
-9.9221 10.4175 -0.0810 0.9441
-2.7606 -17.8550 -0.1017 0.9303
-1.1393 -17.6915 -0.0998 0.9315
0.4339 -17.5074 -0.0986 0.9323
1.9814 -17.3264 -0.0982 0.9326
1.9791 -9.6175 -0.0553 0.9615
13.1900 -14.5191 -0.1104 0.9245
9.9492 13.8657 -0.0961 0.9340
4.3418 11.7070 -0.0703 0.9513
4.3732 5.1266 -0.1897 0.9734
9.8814 13.9246 -0.4808 0.9340
4.2692 11.6989 -0.3507 0.9514
3.1728 11.8875 -0.3464 0.9520
-1.0975 11.4545 -0.3240 0.9550
-1.9047 5.0179 -0.1511 0.9788
-5.2176 10.7500 -0.3365 0.9533
-7.6326 10.4675 -0.3648 0.9495
-9.2940 10.6154 -0.3973 0.9451
-1.8931 -17.7530 -0.5027 0.9310
-0.3017 -17.5929 -0.4955 0.9320
1.2547 -17.4108 -0.4915 0.9325
1.6322 -10.0487 -0.2867 0.9601
4.3551 -17.0481 -0.4955 0.9320
4.3265 5.5251 -0.1976 0.9723
2.6304 11.8241 -0.3411 0.9527
-0.5390 11.1363 -0.3139 0.9564
-3.5731 10.9424 -0.3241 0.9550
-4.6340 10.8183 -0.3314 0.9540
-9.9234 10.4188 -0.4051 0.9440
0.4339 -17.5069 -0.4931 0.9323
1.9813 -17.3258 -0.4910 0.9326
5.0990 -16.9610 -0.4987 0.9316
9.8957 13.9447 -0.8672 0.9338
4.2694 11.6993 -0.6316 0.9513
3.1729 11.8879 -0.6240 0.9519
0.9526 5.4922 -0.2827 0.9779
-0.0741 11.5080 -0.5836 0.9550
-2.0761 11.1179 -0.5736 0.9557
-3.0880 10.9995 -0.5794 0.9553
-1.9047 5.0178 -0.2722 0.9787
-7.6329 10.4679 -0.6570 0.9494
-9.2944 10.6158 -0.7156 0.9451
-3.5505 -17.9463 -0.9278 0.9293
-1.8930 -17.7524 -0.9054 0.9310
-0.3011 -17.5602 -0.8907 0.9321
1.2524 -17.3784 -0.8836 0.9326
4.3470 -17.0163 -0.8907 0.9321
5.9383 -16.8301 -0.9051 0.9310
4.3261 5.5245 -0.3559 0.9723
2.6305 11.8244 -0.6143 0.9526
-2.5498 11.0625 -0.5757 0.9555
-4.6342 10.8187 -0.5969 0.9540
-5.7529 10.6878 -0.6156 0.9525
-6.9537 10.5473 -0.6407 0.9507
-8.5168 10.7068 -0.6938 0.9467
-9.9246 10.4201 -0.7298 0.9440
-16.0378 9.6679 -0.9497 0.9277
-6.2569 -18.1743 -0.9748 0.9259
-2.7604 -17.8539 -0.9162 0.9302
-1.1371 -17.6580 -0.8974 0.9316
1.9777 -17.2936 -0.8827 0.9327
1.9908 -9.6745 -0.5009 0.9612
5.0895 -16.9294 -0.8965 0.9316
4.3783 5.0785 -0.3401 0.9735
10.0466 14.1573 -1.2729 0.9327
0.9611 5.5413 -0.4124 0.9777
-1.0765 11.2352 -0.8276 0.9557
-2.0762 11.1183 -0.8293 0.9557
-3.0881 10.9999 -0.8377 0.9552
-1.9046 5.0176 -0.3935 0.9787
-5.2180 10.7507 -0.8762 0.9532
-7.6332 10.4683 -0.9499 0.9494
-9.0948 10.3879 -1.0123 0.9461
-3.5504 -17.9457 -1.3413 0.9293
-0.2988 -17.4235 -1.2777 0.9325
1.2426 -17.2431 -1.2676 0.9330
9.7365 12.4338 -1.1579 0.9386
9.4227 14.5325 -1.2699 0.9329
3.8053 11.9623 -0.9204 0.9509
0.4716 11.5722 -0.8492 0.9546
-0.5390 11.1370 -0.8175 0.9563
-3.5733 10.9431 -0.8441 0.9549
-4.6343 10.8190 -0.8630 0.9539
-6.9540 10.5477 -0.9263 0.9506
-8.4558 10.6302 -0.9959 0.9470
-9.8139 10.3038 -1.0433 0.9445
-16.0389 9.6685 -1.3732 0.9276
-4.4291 -17.9066 -1.3525 0.9287
0.4297 -17.3382 -1.2717 0.9328
1.9954 -9.6968 -0.7259 0.9611
4.3423 11.7082 -0.9156 0.9511
8.2120 17.4889 -1.8549 0.9253
-0.0725 11.2571 -1.0808 0.9558
-1.0765 11.2356 -1.0836 0.9557
-2.0762 11.1186 -1.0859 0.9556
-3.0882 11.0002 -1.0969 0.9551
-6.3770 10.6156 -1.1889 0.9515
-13.4264 12.8274 -1.7827 0.9281
-15.4468 10.2180 -1.7781 0.9283
-16.2800 8.7953 -1.7765 0.9283
-11.3142 -15.1725 -1.8170 0.9268
-5.2630 -18.0036 -1.8008 0.9274
-1.8894 -17.7187 -1.7107 0.9309
-0.2988 -17.4229 -1.6729 0.9324
1.2426 -17.2426 -1.6597 0.9329
7.7869 -17.0562 -1.8001 0.9274
12.2146 -14.6336 -1.8300 0.9263
11.0531 11.7838 -1.5511 0.9371
9.7360 12.4332 -1.5161 0.9385
7.4599 17.7893 -1.8520 0.9254
3.7222 11.7013 -1.1788 0.9519
0.7118 5.4528 -0.5279 0.9781
0.4613 11.3196 -1.0876 0.9555
-0.5390 11.1373 -1.0705 0.9562
-1.5465 11.1806 -1.0836 0.9557
-2.5499 11.0632 -1.0900 0.9554
-3.5734 10.9435 -1.1052 0.9548
-4.6345 10.8194 -1.1300 0.9538
-5.7533 10.6885 -1.1654 0.9524
-6.9542 10.5481 -1.2129 0.9505
-9.8142 10.3042 -1.3662 0.9444
-13.9423 12.2447 -1.7814 0.9281
-14.9567 10.9413 -1.7791 0.9282
-9.2788 -16.5985 -1.8256 0.9264
-7.7910 -17.4157 -1.8317 0.9262
-6.2316 -18.1007 -1.8379 0.9260
-4.4290 -17.9060 -1.7709 0.9286
-2.7551 -17.8200 -1.7311 0.9301
0.4297 -17.3377 -1.6650 0.9327
2.0008 -9.7229 -0.9530 0.9609
5.0497 -16.7971 -1.6839 0.9319
6.9641 -17.3791 -1.7975 0.9275
11.9518 -15.7748 -1.9000 0.9236
12.8071 -14.0977 -1.8285 0.9263
9.7787 13.6280 -1.6103 0.9348
8.8640 15.0140 -1.6739 0.9323
15.7161 7.0017 -2.0437 0.9330
15.0028 8.3565 -2.0399 0.9332
14.1707 9.6383 -2.0357 0.9333
13.2278 10.8369 -2.0313 0.9334
11.2530 11.0315 -1.8719 0.9385
10.2017 11.9594 -1.8673 0.9386
9.0740 12.7867 -1.8625 0.9388
7.8795 13.5075 -1.8575 0.9390
6.6285 14.1167 -1.8525 0.9391
4.2698 11.7005 -1.4795 0.9511
0.9699 5.5919 -0.6742 0.9774
0.4558 5.5024 -0.6558 0.9780
-0.0725 11.2575 -1.3373 0.9557
-1.0766 11.2359 -1.3408 0.9556
-3.0883 11.0006 -1.3572 0.9550
-1.9044 5.0172 -0.6375 0.9786
-5.2183 10.7514 -1.4196 0.9530
-7.6337 10.4690 -1.5391 0.9491
-11.7904 9.4084 -1.7918 0.9410
-12.5688 8.3142 -1.7901 0.9411
-13.8264 5.9477 -1.7879 0.9412
-16.1365 2.2573 -1.9355 0.9365
-16.2807 0.8130 -1.9363 0.9364
-16.2996 -0.6391 -1.9377 0.9364
-15.6050 -4.9376 -1.9442 0.9362
-15.1272 -6.3162 -1.9472 0.9361
-12.9966 -10.1450 -1.9585 0.9357
-10.2009 -11.4026 -1.8174 0.9402
-9.1687 -12.2953 -1.8219 0.9401
-8.0592 -13.0960 -1.8266 0.9399
-6.8803 -13.7976 -1.8314 0.9398
-1.6528 -15.4997 -1.8516 0.9391
1.1264 -15.6310 -1.8616 0.9388
3.8986 -15.2611 -1.8710 0.9385
5.2534 -14.8890 -1.8755 0.9384
7.8428 -13.7816 -1.8836 0.9381
9.0550 -13.0541 -1.8872 0.9380
11.2617 -11.2790 -1.8933 0.9378
12.2363 -10.2457 -1.8958 0.9377
14.1966 -9.8800 -2.0545 0.9327
15.0319 -8.5849 -2.0563 0.9326
16.3307 -5.7903 -2.0582 0.9326
16.9484 3.3260 -2.0516 0.9328
16.5627 4.8141 -2.0488 0.9329
15.3957 7.6476 -2.0420 0.9331
14.6255 8.9695 -2.0380 0.9332
13.7403 10.2134 -2.0337 0.9334
12.7481 11.3694 -2.0290 0.9335
10.7684 11.4803 -1.8697 0.9386
9.6799 12.3616 -1.8650 0.9387
8.5195 13.1395 -1.8602 0.9389
7.2972 13.8084 -1.8552 0.9390
2.5733 11.5671 -1.4076 0.9534
0.7131 5.4628 -0.6544 0.9781
-0.5390 11.1377 -1.3245 0.9561
-1.5465 11.1809 -1.3408 0.9556
-2.5500 11.0635 -1.3486 0.9553
-3.5735 10.9438 -1.3675 0.9547
-5.7535 10.6889 -1.4419 0.9523
-8.3345 10.4776 -1.5903 0.9475
-11.3405 9.9597 -1.7929 0.9410
-12.1686 8.9017 -1.7909 0.9411
-13.5338 6.5945 -1.7883 0.9412
-15.2229 5.8051 -1.9353 0.9365
-15.6767 4.4271 -1.9350 0.9365
-16.2199 1.5793 -1.9358 0.9365
-16.3052 0.1300 -1.9369 0.9364
-16.2650 -1.3222 -1.9384 0.9364
-16.0993 -2.7668 -1.9404 0.9363
-15.3952 -5.5913 -1.9456 0.9362
-14.8610 -6.9502 -1.9488 0.9361
-14.2097 -8.2598 -1.9524 0.9359
-12.5730 -10.6918 -1.9605 0.9357
-3.7271 -15.0681 -1.8438 0.9394
-1.0030 -15.5753 -1.8540 0.9391
0.3877 -15.6448 -1.8590 0.9389
1.7827 -15.5891 -1.8638 0.9388
2.0103 -9.7689 -1.1847 0.9606
7.1765 -14.1207 -1.8815 0.9382
9.6022 -12.6736 -1.8887 0.9380
11.7320 -10.8040 -1.8945 0.9378
16.0371 -6.5528 -2.0579 0.9326
16.9479 -3.6075 -2.0583 0.9326
17.1968 -2.0848 -2.0577 0.9326
17.2715 0.9947 -2.0550 0.9327
16.7838 4.0309 -2.0504 0.9328
16.3347 5.5001 -2.0474 0.9329
15.7542 6.9200 -2.0440 0.9330
13.2861 10.7689 -2.0315 0.9334
7.9514 13.4681 -1.8578 0.9389
4.3426 11.7090 -1.4834 0.9509
13.6109 4.6625 -2.0385 0.9435
11.0569 9.0584 -2.0253 0.9439
8.5342 10.0045 -1.8632 0.9483
5.5522 11.8245 -1.8509 0.9486
0.9713 5.6001 -0.8053 0.9773
-0.0725 11.2579 -1.5951 0.9555
-1.0766 11.2363 -1.5994 0.9554
-1.9044 5.0170 -0.7604 0.9786
-8.3855 9.5778 -1.8037 0.9499
-11.6473 5.0103 -1.7965 0.9501
-13.5935 1.9015 -1.9448 0.9461
-13.7140 0.6849 -1.9455 0.9460
-13.7284 -0.5383 -1.9467 0.9460
-13.6365 -1.7589 -1.9482 0.9460
-12.7310 -5.3157 -1.9548 0.9458
-12.2255 -6.4367 -1.9576 0.9457
-10.9280 -8.5302 -1.9642 0.9455
-7.7006 -10.3266 -1.8252 0.9493
-6.7660 -10.9945 -1.8292 0.9492
-4.7315 -12.0738 -1.8374 0.9490
-1.3845 -12.9840 -1.8501 0.9486
-0.2244 -13.0854 -1.8543 0.9485
9.3994 -9.4139 -1.8849 0.9477
11.8444 -8.2430 -2.0446 0.9434
12.5396 -7.1615 -2.0461 0.9433
13.6209 -4.8295 -2.0477 0.9433
14.3006 1.5026 -2.0374 0.9436
14.1436 2.7756 -2.0422 0.9434
13.8249 4.0183 -2.0399 0.9435
13.3949 5.2255 -2.0372 0.9436
12.2186 7.4934 -2.0309 0.9437
9.8446 8.7800 -1.8690 0.9481
9.0063 9.6017 -1.8653 0.9482
8.0993 10.3431 -1.8614 0.9483
7.1314 10.9986 -1.8573 0.9484
2.5733 11.5675 -1.6791 0.9533
-1.5466 11.1813 -1.5994 0.9554
-2.5501 11.0639 -1.6087 0.9552
-4.6348 10.8201 -1.6678 0.9536
-6.9547 10.5488 -1.7903 0.9502
-8.7746 9.2126 -1.8027 0.9499
-13.2066 3.7295 -1.9444 0.9461
-13.4871 2.5400 -1.9446 0.9461
-13.7340 0.1095 -1.9460 0.9460
-13.6984 -1.1136 -1.9473 0.9460
-12.5054 -5.8485 -1.9561 0.9458
-11.9539 -6.9486 -1.9591 0.9457
-11.3073 -7.9980 -1.9624 0.9456
-10.5700 -8.9885 -1.9660 0.9455
-8.1698 -9.9410 -1.8232 0.9493
-3.1243 -12.6311 -1.8436 0.9488
-1.9927 -12.8886 -1.8479 0.9487
-0.8401 -13.0446 -1.8521 0.9486
0.3246 -13.0971 -1.8563 0.9484
1.4918 -13.0449 -1.8604 0.9483
2.0130 -9.7823 -1.4151 0.9605
3.7959 -12.6265 -1.8681 0.9481
4.9137 -12.2623 -1.8717 0.9480
5.9960 -11.7979 -1.8751 0.9479
7.0336 -11.2364 -1.8783 0.9479
9.7910 -9.0165 -1.8859 0.9476
12.1838 -7.7421 -2.0454 0.9433
13.3764 -5.4656 -2.0474 0.9433
14.1357 -3.0089 -2.0477 0.9433
14.3439 -1.7389 -2.0473 0.9433
14.4354 -0.4557 -2.0464 0.9433
14.4093 0.8299 -2.0450 0.9434
14.0077 3.3642 -2.0412 0.9435
13.6362 4.5915 -2.0387 0.9435
12.5694 6.9151 -2.0327 0.9437
11.8841 7.9923 -2.0292 0.9438
11.1054 9.0014 -2.0255 0.9439
9.4592 9.1763 -1.8673 0.9482
8.5876 9.9609 -1.8635 0.9483
7.6509 10.6626 -1.8595 0.9484
6.6572 11.2760 -1.8554 0.9485
4.3427 11.7095 -1.7695 0.9508
11.9927 2.9468 -2.0344 0.9512
11.6707 3.9978 -2.0323 0.9512
11.2551 5.0143 -2.0298 0.9513
10.7500 5.9877 -2.0271 0.9513
10.1597 6.9102 -2.0241 0.9514
8.7655 7.1812 -1.8667 0.9551
8.0782 7.9192 -1.8636 0.9552
7.3286 8.5913 -1.8603 0.9553
6.5232 9.1922 -1.8569 0.9553
4.7724 10.1636 -1.8497 0.9555
3.8416 10.5271 -1.8461 0.9556
2.8841 10.8057 -1.8424 0.9557
0.9777 5.6370 -0.9425 0.9771
-1.0585 11.0472 -1.8282 0.9560
-1.9043 5.0169 -0.8840 0.9785
-4.8134 9.9172 -1.8160 0.9563
-7.2336 8.2621 -1.8090 0.9565
-9.1354 6.0430 -1.8044 0.9566
-9.6317 5.2035 -1.8035 0.9566
-10.0528 4.3244 -1.8028 0.9566
-11.5383 2.6781 -1.9513 0.9531
-11.7326 1.6412 -1.9516 0.9531
-11.8475 -0.4645 -1.9533 0.9531
-11.5949 -2.5607 -1.9562 0.9530
-10.9806 -4.5848 -1.9603 0.9529
-10.5424 -5.5505 -1.9628 0.9528
-9.4191 -7.3524 -1.9685 0.9527
-8.7418 -8.1745 -1.9716 0.9526
-6.9802 -9.3605 -1.9236 0.9538
-1.1901 -11.1609 -1.8491 0.9555
-0.1928 -11.2445 -1.8527 0.9554
5.6202 -9.8760 -1.8720 0.9550
7.3005 -8.7463 -1.8768 0.9549
9.4756 -7.9341 -2.0360 0.9511
10.1517 -7.0650 -2.0375 0.9511
11.2546 -5.1592 -2.0396 0.9510
11.9945 -3.0838 -2.0402 0.9510
12.2199 -2.0042 -2.0400 0.9510
12.3461 -0.9088 -2.0394 0.9511
12.1243 2.3793 -2.0355 0.9511
11.4865 4.4810 -2.0312 0.9512
10.4825 6.4286 -2.0258 0.9514
9.8539 7.3246 -2.0227 0.9514
8.4502 7.5363 -1.8653 0.9551
4.3382 10.3451 -1.8480 0.9555
0.7166 5.4891 -0.9119 0.9778
-0.5370 11.0957 -1.8300 0.9560
-1.5186 10.9838 -1.8267 0.9560
-5.2213 9.7002 -1.8148 0.9563
-6.0554 9.1847 -1.8123 0.9564
-7.5698 7.9477 -1.8081 0.9565
-8.8434 6.4692 -1.8050 0.9566
-9.3781 5.6533 -1.8039 0.9566
-9.8395 4.7944 -1.8031 0.9566
-10.2241 3.8989 -1.8026 0.9566
-11.8211 -0.9610 -1.9538 0.9531
-11.4824 -3.0458 -1.9570 0.9530
-11.1776 -4.0595 -1.9591 0.9529
-9.7473 -6.8946 -1.9669 0.9528
-7.6044 -9.2530 -1.9731 0.9526
-0.7220 -11.2113 -1.8508 0.9555
1.2813 -11.2046 -1.8579 0.9553
4.2168 -10.5233 -1.8676 0.9551
5.1443 -10.1221 -1.8705 0.9550
6.0331 -9.6381 -1.8732 0.9550
6.8756 -9.0750 -1.8756 0.9549
7.6647 -8.4371 -1.8778 0.9548
11.4625 -4.6836 -2.0399 0.9510
11.8356 -3.6458 -2.0402 0.9510
12.1128 -2.5783 -2.0402 0.9510
12.3708 -0.3905 -2.0390 0.9511
12.3497 0.7113 -2.0378 0.9511
12.2285 1.8059 -2.0364 0.9511
12.0087 2.8841 -2.0346 0.9512
11.6922 3.9369 -2.0324 0.9512
10.1967 6.8575 -2.0243 0.9514
8.8038 7.1358 -1.8669 0.9551
8.1204 7.8776 -1.8638 0.9552
7.3743 8.5537 -1.8605 0.9552
6.5720 9.1589 -1.8571 0.9553
10.4853 2.5764 -2.0295 0.9570
10.2051 3.4958 -2.0276 0.9570
9.8432 4.3853 -2.0254 0.9571
9.4030 5.2374 -2.0231 0.9571
8.8883 6.0455 -2.0205 0.9572
6.4156 7.5209 -1.8581 0.9606
5.7118 8.0489 -1.8551 0.9606
4.9648 8.5109 -1.8520 0.9607
4.1807 8.9037 -1.8489 0.9608
3.3662 9.2244 -1.8457 0.9608
2.5278 9.4708 -1.8425 0.9609
0.4586 5.5363 -1.0442 0.9776
-0.0628 9.7519 -1.8330 0.9611
-0.9286 9.6917 -1.8300 0.9611
-2.6234 9.3446 -1.8243 0.9613
-1.9042 5.0167 -1.0086 0.9784
-5.6891 7.8021 -1.8149 0.9615
-6.9686 6.6577 -1.8115 0.9615
-8.4639 4.5727 -1.8082 0.9616
-10.3390 -1.3336 -1.9594 0.9585
-10.1868 -2.2497 -1.9609 0.9584
-9.9547 -3.1498 -1.9625 0.9584
-9.6446 -4.0270 -1.9645 0.9584
-9.2583 -4.8745 -1.9667 0.9583
-8.7987 -5.6858 -1.9691 0.9583
-7.6728 -7.1749 -1.9745 0.9581
-5.5198 -8.9695 -1.9796 0.9580
-4.5278 -9.0800 -1.9071 0.9595
-1.9051 -9.6296 -1.8451 0.9608
-1.0426 -9.7778 -1.8483 0.9608
-0.1689 -9.8486 -1.8514 0.9607
1.5218 -9.3688 -1.7840 0.9621
2.3696 -9.2758 -1.7995 0.9618
3.2983 -9.3480 -1.8632 0.9605
4.1227 -9.0302 -1.8658 0.9604
4.9161 -8.6388 -1.8683 0.9604
5.6720 -8.1770 -1.8705 0.9603
6.6521 -7.9695 -1.9512 0.9586
7.6232 -7.6349 -2.0279 0.9570
8.2838 -6.9362 -2.0308 0.9570
8.8740 -6.1758 -2.0321 0.9570
9.3932 -5.3646 -2.0332 0.9569
9.8368 -4.5093 -2.0340 0.9569
10.2012 -3.6170 -2.0344 0.9569
10.6803 -1.7517 -2.0343 0.9569
10.8144 0.1688 -2.0329 0.9569
10.7504 1.1296 -2.0318 0.9570
10.5997 2.0801 -2.0303 0.9570
10.3638 3.0123 -2.0286 0.9570
9.1698 5.6236 -2.0219 0.9572
7.3950 6.5952 -1.8625 0.9605
6.7686 7.2161 -1.8596 0.9605
6.0902 7.7773 -1.8567 0.9606
3.8008 9.0637 -1.8474 0.9608
2.1269 9.5606 -1.8409 0.9609
0.7203 5.5174 -1.0459 0.9776
-0.4711 9.7331 -1.8316 0.9611
-1.3330 9.6370 -1.8286 0.9612
-2.1817 9.4654 -1.8258 0.9612
-3.0107 9.2201 -1.8231 0.9613
-4.5848 8.5176 -1.8182 0.9614
-5.3180 8.0663 -1.8160 0.9614
-7.7704 5.6843 -1.8096 0.9616
-8.6467 4.2132 -1.8079 0.9616
-10.2303 1.9266 -1.9567 0.9585
-10.3633 1.0090 -1.9571 0.9585
-10.3870 -0.8444 -1.9588 0.9585
-10.2774 -1.7663 -1.9601 0.9584
-10.0874 -2.6758 -1.9616 0.9584
-9.8184 -3.5659 -1.9634 0.9584
-8.5579 -6.0532 -1.9703 0.9582
-7.9964 -6.7999 -1.9730 0.9582
-7.3705 -7.4953 -1.9759 0.9581
-6.6847 -8.1339 -1.9789 0.9581
-5.9440 -8.7103 -1.9821 0.9580
-5.1028 -9.1283 -1.9656 0.9583
-4.0435 -9.0387 -1.8612 0.9605
-1.5011 -9.7089 -1.8466 0.9608
-0.6325 -9.8208 -1.8498 0.9607
0.2442 -9.8548 -1.8529 0.9607
1.1219 -9.8103 -1.8560 0.9606
1.9190 -9.3252 -1.7895 0.9620
5.2769 -8.4301 -1.8694 0.9603
7.9443 -7.3160 -2.0299 0.9570
9.1275 -5.8000 -2.0327 0.9569
9.6116 -4.9671 -2.0336 0.9569
10.0184 -4.0935 -2.0342 0.9569
10.7432 -1.3024 -2.0341 0.9569
10.8129 -0.3413 -2.0334 0.9569
10.7951 0.6217 -2.0324 0.9569
10.6902 1.5787 -2.0311 0.9570
8.9206 5.9993 -2.0206 0.9572
7.7036 6.2441 -1.8639 0.9604
6.4555 7.4879 -1.8583 0.9606
4.2278 8.8825 -1.8490 0.9608
9.3057 2.2866 -2.0256 0.9616
9.0579 3.1029 -2.0239 0.9616
8.3481 4.6499 -2.0199 0.9617
7.8923 5.3680 -2.0176 0.9617
6.9464 5.6909 -1.8982 0.9640
5.6995 6.6814 -1.8564 0.9647
4.4122 7.5637 -1.8510 0.9648
3.7162 7.9142 -1.8482 0.9649
2.9927 8.2009 -1.8453 0.9649
2.2477 8.4216 -1.8425 0.9650
0.9905 5.7106 -1.2251 0.9766
0.4597 5.5493 -1.1770 0.9775
-0.8263 8.6244 -1.8314 0.9652
-2.3353 8.3185 -1.8263 0.9653
-3.7633 7.7536 -1.8218 0.9654
-4.4333 7.3799 -1.8198 0.9654
-5.0672 6.9492 -1.8180 0.9654
-5.6603 6.4650 -1.8163 0.9655
-7.1524 4.7312 -1.8127 0.9655
-7.5418 4.0745 -1.8120 0.9656
-8.2309 3.5407 -1.8940 0.9640
-8.8135 2.8929 -1.9608 0.9628
-9.0358 2.0973 -1.9608 0.9628
-9.1877 1.2852 -1.9610 0.9628
-9.2760 -0.3637 -1.9623 0.9628
-9.2116 -1.1882 -1.9633 0.9627
-8.8677 -2.8059 -1.9661 0.9627
-7.8351 -5.0631 -1.9719 0.9626
-7.3622 -5.7469 -1.9742 0.9625
-6.2434 -6.9788 -1.9794 0.9624
-4.1969 -8.4164 -1.9880 0.9623
-3.4294 -8.7512 -1.9868 0.9623
-1.7400 -8.7948 -1.8951 0.9640
-0.9299 -8.7203 -1.8537 0.9648
1.4077 -8.6662 -1.8559 0.9647
2.1761 -8.5185 -1.8585 0.9647
5.4391 -7.8411 -2.0172 0.9617
6.1344 -7.3493 -2.0236 0.9616
6.7697 -6.7801 -2.0253 0.9616
7.8745 -5.4802 -2.0279 0.9615
8.3347 -4.7601 -2.0289 0.9615
8.7280 -4.0010 -2.0295 0.9615
9.0511 -3.2092 -2.0299 0.9615
9.3012 -2.3914 -2.0300 0.9615
9.5747 -0.7048 -2.0294 0.9615
9.5397 1.0024 -2.0276 0.9615
8.5629 4.2535 -2.0210 0.9617
8.1416 4.9931 -2.0188 0.9617
7.6479 5.6848 -2.0143 0.9618
6.0126 6.4100 -1.8577 0.9647
4.7677 7.3531 -1.8524 0.9648
4.0884 7.7365 -1.8496 0.9649
2.6444 8.3130 -1.8440 0.9650
0.7246 5.5508 -1.1833 0.9774
-1.1863 8.5765 -1.8302 0.9652
-1.9419 8.4252 -1.8276 0.9653
-2.6803 8.2082 -1.8252 0.9653
-3.3957 7.9274 -1.8230 0.9654
-6.4491 5.6638 -1.8143 0.9655
-6.9232 5.0645 -1.8132 0.9655
-7.3428 4.4264 -1.8123 0.9656
-7.7048 3.7542 -1.8117 0.9656
-8.6509 3.2989 -1.9571 0.9629
-8.9268 2.5209 -1.9607 0.9628
-9.2344 0.8991 -1.9612 0.9628
-9.2808 0.0740 -1.9618 0.9628
-9.2547 -0.7523 -1.9627 0.9627
-9.1564 -1.5736 -1.9639 0.9627
-6.5608 -6.6719 -1.9779 0.9625
-5.2892 -7.7507 -1.9835 0.9624
-3.0575 -8.8810 -1.9854 0.9623
-2.1854 -8.8353 -1.9239 0.9635
-1.3542 -8.7591 -1.8735 0.9644
0.2170 -8.7576 -1.8517 0.9648
5.0524 -8.0714 -2.0128 0.9618
7.0504 -6.4927 -2.0260 0.9616
7.6051 -5.8436 -2.0273 0.9615
8.8890 -3.6321 -2.0298 0.9615
9.1780 -2.8272 -2.0300 0.9615
9.0746 3.0555 -2.0240 0.9616
7.1221 5.7727 -1.9379 0.9632
5.1130 7.1257 -1.8539 0.9648
4.4522 7.5411 -1.8511 0.9648
8.3566 2.0533 -2.0224 0.9653
7.8480 3.4964 -2.0192 0.9653
7.4988 4.1768 -2.0173 0.9653
7.0902 4.8225 -2.0153 0.9654
5.6432 5.5321 -1.8573 0.9681
4.5618 6.4284 -1.8526 0.9681
2.6912 7.3748 -1.8450 0.9683
0.4604 5.5574 -1.3106 0.9773
-0.0502 7.8072 -1.8349 0.9684
-0.7437 7.7616 -1.8325 0.9685
-2.1023 7.4883 -1.8280 0.9685
-1.9041 5.0163 -1.2610 0.9782
-3.3886 6.9815 -1.8239 0.9686
-3.9923 6.6458 -1.8221 0.9686
-5.5920 5.3425 -1.8176 0.9687
-6.0415 4.8209 -1.8166 0.9687
-6.4433 4.2622 -1.8157 0.9688
-7.6669 3.2980 -1.9615 0.9663
-8.1408 1.8895 -1.9641 0.9662
-8.2775 1.1579 -1.9643 0.9662
-8.1748 -1.8054 -1.9676 0.9662
-7.9872 -2.5273 -1.9689 0.9662
-7.4254 -3.9094 -1.9722 0.9661
-7.0550 -4.5590 -1.9742 0.9661
-6.6285 -5.1741 -1.9763 0.9660
-5.0449 -6.7652 -1.9834 0.9659
-3.7760 -7.5723 -1.9887 0.9658
-3.0916 -7.8890 -1.9914 0.9658
-2.3808 -8.1441 -1.9942 0.9657
-1.6488 -8.3339 -1.9966 0.9657
0.6111 -8.4808 -1.9983 0.9657
2.1110 -8.2635 -2.0045 0.9656
4.2446 -7.4588 -2.0170 0.9654
4.8960 -7.0583 -2.0189 0.9653
6.0793 -6.0887 -2.0222 0.9653
6.6012 -5.5272 -2.0235 0.9652
7.0705 -4.9207 -2.0245 0.9652
8.1262 -2.8813 -2.0263 0.9652
8.3506 -2.1470 -2.0264 0.9652
8.2604 2.4010 -2.0217 0.9653
8.0078 3.1239 -2.0202 0.9653
4.2857 6.6098 -1.8514 0.9681
3.6757 6.9555 -1.8489 0.9682
2.3782 7.4762 -1.8438 0.9683
1.7013 7.6475 -1.8413 0.9683
0.7260 5.5610 -1.3181 0.9772
-0.3772 7.7934 -1.8338 0.9684
-2.4129 7.3895 -1.8269 0.9686
-3.6764 6.8301 -1.8230 0.9686
-4.2654 6.4698 -1.8213 0.9687
-5.3359 5.6022 -1.8183 0.9687
-6.6151 3.9877 -1.8153 0.9688
-7.4041 3.6077 -1.9357 0.9667
-8.3196 0.8100 -1.9645 0.9662
-8.3372 -0.6777 -1.9659 0.9662
-7.8771 -2.8608 -1.9696 0.9662
-7.5977 -3.5533 -1.9713 0.9661
-7.2583 -4.2191 -1.9731 0.9661
-5.9058 -6.0058 -1.9796 0.9660
-5.3546 -6.5155 -1.9821 0.9659
-4.1259 -7.3806 -1.9872 0.9659
-3.4576 -7.7289 -1.9899 0.9658
-2.7600 -8.0169 -1.9927 0.9658
-1.2978 -8.3943 -1.9963 0.9657
0.2105 -8.4960 -1.9974 0.9657
0.9666 -8.4523 -1.9994 0.9656
1.7173 -8.3455 -2.0025 0.9656
2.4580 -8.1760 -2.0065 0.9655
3.8862 -7.6465 -2.0159 0.9654
5.1897 -6.8498 -2.0197 0.9653
5.7833 -6.3661 -2.0214 0.9653
6.8288 -5.2471 -2.0240 0.9652
7.2721 -4.6210 -2.0250 0.9652
7.9807 -3.2609 -2.0262 0.9652
8.5582 -1.0375 -2.0261 0.9652
8.6142 -0.2719 -2.0256 0.9652
7.8666 3.4554 -2.0193 0.9653
7.5210 4.1377 -2.0175 0.9653
6.6363 5.3790 -2.0077 0.9655
5.6725 5.5028 -1.8574 0.9680
5.1540 5.9783 -1.8551 0.9681
4.5958 6.4049 -1.8527 0.9681
4.0024 6.7793 -1.8503 0.9682
2.7300 7.3612 -1.8452 0.9683
7.5757 1.8615 -2.0198 0.9683
7.3751 2.5264 -2.0185 0.9683
6.7997 3.7874 -2.0152 0.9684
6.4298 4.3733 -2.0134 0.9684
6.0027 4.9177 -2.0092 0.9684
4.6467 5.4472 -1.8538 0.9708
3.5991 6.1698 -1.8494 0.9709
2.4426 6.6933 -1.8448 0.9710
1.3986 5.2400 -1.4042 0.9778
0.9983 5.7558 -1.5125 0.9762
0.4601 5.5544 -1.4431 0.9772
-0.0426 6.6097 -1.7114 0.9731
-1.2983 6.9528 -1.8313 0.9712
-5.0823 4.8555 -1.8199 0.9714
-6.6651 3.6008 -1.9614 0.9692
-7.2179 2.3692 -1.9669 0.9691
-7.4000 1.7176 -1.9669 0.9691
-7.5896 0.3790 -1.9675 0.9691
-7.5422 -0.9728 -1.9690 0.9691
-7.4297 -1.6408 -1.9700 0.9691
-7.0307 -2.9356 -1.9727 0.9690
-6.7471 -3.5523 -1.9743 0.9690
-5.5856 -5.2231 -1.9800 0.9689
-3.4285 -6.8754 -1.9892 0.9688
-1.4967 -7.5652 -1.9967 0.9686
0.5564 -7.7205 -2.0042 0.9685
1.2425 -7.6494 -2.0065 0.9685
1.9203 -7.5170 -2.0088 0.9685
2.5842 -7.3242 -2.0110 0.9684
4.4393 -6.3998 -2.0166 0.9683
5.5113 -5.5198 -2.0196 0.9683
5.9840 -5.0105 -2.0208 0.9683
6.4092 -4.4604 -2.0218 0.9683
7.5689 -1.9460 -2.0235 0.9682
7.7115 -1.2648 -2.0233 0.9682
7.8098 0.1219 -2.0223 0.9682
7.7648 0.8159 -2.0215 0.9683
7.6575 1.5027 -2.0205 0.9683
5.7739 5.1495 -2.0032 0.9685
2.1586 6.7858 -1.8437 0.9710
1.1558 5.1957 -1.3782 0.9782
0.7265 5.5649 -1.4531 0.9771
-0.3425 7.0773 -1.8346 0.9711
-0.9697 7.0105 -1.8324 0.9712
-1.5877 6.8886 -1.8304 0.9712
-2.1920 6.7128 -1.8284 0.9712
-2.7777 6.4846 -1.8265 0.9713
-3.3404 6.2059 -1.8248 0.9713
-3.8759 5.8790 -1.8232 0.9713
-4.3802 5.5065 -1.8218 0.9713
-7.0985 2.7070 -1.9670 0.9691
-7.3107 2.0645 -1.9669 0.9691
-7.4657 1.4060 -1.9670 0.9691
-7.5999 0.0606 -1.9678 0.9691
-7.4966 -1.2884 -1.9695 0.9691
-6.9041 -3.2289 -1.9734 0.9690
-6.5950 -3.8336 -1.9751 0.9690
-5.3645 -5.4554 -1.9810 0.9689
-4.3226 -6.3343 -1.9855 0.9688
-3.7464 -6.7018 -1.9879 0.9688
-2.5056 -7.2778 -1.9929 0.9687
-0.4965 -7.7101 -2.0004 0.9686
2.2348 -7.4337 -2.0098 0.9684
2.8904 -7.2130 -2.0119 0.9684
3.5241 -6.9341 -2.0139 0.9684
4.7054 -6.2105 -2.0174 0.9683
5.2431 -5.7715 -2.0189 0.9683
5.7394 -5.2855 -2.0202 0.9683
6.5917 -4.1887 -2.0221 0.9682
7.2337 -2.9557 -2.0232 0.9682
7.4687 -2.3006 -2.0234 0.9682
7.6437 -1.6270 -2.0234 0.9682
7.7571 -0.9404 -2.0232 0.9682
7.8081 -0.2465 -2.0227 0.9682
7.7220 1.1403 -2.0210 0.9683
7.3886 2.4878 -2.0186 0.9683
6.8198 3.7519 -2.0153 0.9684
6.4529 4.3398 -2.0135 0.9684
5.1864 5.0313 -1.8709 0.9706
3.6317 6.1513 -1.8495 0.9709
2.4778 6.6809 -1.8450 0.9710
6.9213 1.7007 -2.0177 0.9708
6.5019 2.8966 -2.0150 0.9708
5.8760 3.9966 -2.0118 0.9709
3.7837 5.3319 -1.8509 0.9732
2.2337 6.1211 -1.8446 0.9733
1.3986 5.2402 -1.5354 0.9777
0.8974 5.1743 -1.4867 0.9784
-1.7477 6.2251 -1.8304 0.9735
-1.8619 4.9052 -1.4853 0.9784
-2.8180 5.8061 -1.8270 0.9735
-3.7964 5.2065 -1.8241 0.9736
-6.1211 3.3069 -1.9696 0.9715
-6.6094 2.1694 -1.9693 0.9715
-6.7761 1.5728 -1.9693 0.9715
-6.9549 -0.2727 -1.9704 0.9715
-6.8024 -1.5023 -1.9721 0.9715
-6.6456 -2.1028 -1.9733 0.9714
-6.4364 -2.6875 -1.9746 0.9714
-6.1764 -3.2518 -1.9760 0.9714
-5.8674 -3.7915 -1.9776 0.9714
-5.5116 -4.3023 -1.9794 0.9714
-5.1119 -4.7801 -1.9813 0.9713
-4.1923 -5.6219 -1.9853 0.9713
-3.1365 -6.2898 -1.9897 0.9712
-1.9766 -6.7616 -1.9943 0.9711
-1.3688 -6.9186 -1.9966 0.9711
-0.7487 -7.0210 -1.9989 0.9711
0.5086 -7.0584 -2.0033 0.9710
1.1358 -6.9926 -2.0055 0.9710
1.7553 -6.8710 -2.0076 0.9709
2.3619 -6.6942 -2.0096 0.9709
2.9509 -6.4635 -2.0114 0.9709
4.5638 -5.4676 -2.0162 0.9708
5.0353 -5.0431 -2.0175 0.9708
5.4669 -4.5775 -2.0185 0.9708
5.8551 -4.0748 -2.0194 0.9708
6.4884 -2.9743 -2.0206 0.9708
6.7282 -2.3856 -2.0209 0.9708
6.9141 -1.7776 -2.0210 0.9708
7.0443 -1.1554 -2.0208 0.9708
7.0936 0.7454 -2.0192 0.9708
6.9958 1.3729 -2.0182 0.9708
6.8421 1.9887 -2.0171 0.9708
6.3725 3.1655 -2.0143 0.9709
5.7009 4.2376 -2.0109 0.9709
5.2898 4.7178 -2.0066 0.9710
4.5910 4.8945 -1.8997 0.9725
4.0332 5.1505 -1.8519 0.9732
3.5551 5.4830 -1.8499 0.9732
2.5214 6.0127 -1.8457 0.9733
1.9742 6.2060 -1.8436 0.9733
1.1596 5.2128 -1.5118 0.9780
0.2080 5.1037 -1.4460 0.9790
-0.3134 6.4753 -1.8353 0.9734
-0.8873 6.4148 -1.8333 0.9734
-1.4530 6.3039 -1.8314 0.9735
-2.1004 4.9035 -1.5102 0.9781
-3.0577 5.6806 -1.8263 0.9735
-4.0100 5.0411 -1.8235 0.9736
-4.4398 4.6614 -1.8224 0.9736
-6.6944 1.8905 -1.9693 0.9715
-6.8363 1.2875 -1.9693 0.9715
-6.9247 0.6742 -1.9696 0.9715
-6.7352 -1.7866 -1.9726 0.9714
-6.5536 -2.3802 -1.9738 0.9714
-6.3203 -2.9558 -1.9752 0.9714
-6.0369 -3.5091 -1.9768 0.9714
-5.7056 -4.0358 -1.9784 0.9714
-5.3288 -4.5315 -1.9802 0.9713
-4.9093 -4.9925 -1.9822 0.9713
-3.4275 -6.1313 -1.9885 0.9712
-2.8716 -6.4191 -1.9908 0.9712
-2.2918 -6.6568 -1.9930 0.9712
-1.6924 -6.8422 -1.9953 0.9711
-1.0782 -6.9737 -1.9976 0.9711
1.4286 -6.9423 -2.0065 0.9710
2.6416 -6.5922 -2.0105 0.9709
3.2205 -6.3367 -2.0123 0.9709
6.8225 -2.1016 -2.0210 0.9708
7.0861 -0.8591 -2.0207 0.9708
7.1328 -0.2252 -2.0203 0.9708
7.1223 0.4102 -2.0196 0.9708
7.0546 1.0418 -2.0188 0.9708
6.2319 3.4285 -2.0136 0.9709
5.8972 3.9660 -2.0119 0.9709
5.5159 4.4708 -2.0100 0.9709
5.0741 4.9224 -2.0013 0.9710
4.2739 4.9574 -1.8530 0.9732
2.8037 5.8907 -1.8469 0.9732
2.2659 6.1097 -1.8447 0.9733
5.9794 2.6639 -2.0134 0.9730
5.7146 3.1830 -2.0120 0.9730
5.4046 3.6760 -2.0104 0.9730
4.1056 4.8130 -1.9458 0.9739
3.0279 5.1907 -1.8483 0.9752
2.5515 5.4338 -1.8464 0.9752
2.0557 5.6333 -1.8445 0.9752
1.3987 5.2404 -1.6682 0.9776
0.8990 5.1831 -1.6180 0.9782
0.4248 5.1287 -1.5829 0.9787
-0.0326 5.0573 -1.5556 0.9791
-0.5690 5.9383 -1.8349 0.9753
-1.6094 5.7326 -1.8314 0.9754
-1.8574 4.8932 -1.6098 0.9783
-3.0586 5.0915 -1.8269 0.9754
-3.4970 4.7958 -1.8256 0.9755
-3.9074 4.4629 -1.8245 0.9755
-4.2866 4.0953 -1.8235 0.9755
-4.8595 3.8777 -1.9122 0.9743
-5.3410 3.5330 -1.9697 0.9736
-5.6405 3.0473 -1.9719 0.9735
-5.8881 2.5329 -1.9715 0.9735
-6.4027 0.3197 -1.9718 0.9735
-6.4075 -0.2512 -1.9723 0.9735
-6.3620 -0.8206 -1.9730 0.9735
-6.2666 -1.3840 -1.9739 0.9735
-6.1218 -1.9370 -1.9750 0.9735
-5.9288 -2.4755 -1.9762 0.9735
-5.6890 -2.9952 -1.9775 0.9735
-5.0760 -3.9623 -1.9806 0.9734
-4.3011 -4.8078 -1.9842 0.9734
-3.8600 -5.1764 -1.9861 0.9733
-3.3876 -5.5048 -1.9881 0.9733
-1.8193 -6.2234 -1.9943 0.9732
0.4680 -6.4942 -2.0027 0.9731
1.0450 -6.4332 -2.0046 0.9731
2.1726 -6.1576 -2.0084 0.9730
4.1969 -5.0280 -2.0145 0.9730
4.6302 -4.6374 -2.0156 0.9729
5.0270 -4.2091 -2.0166 0.9729
5.3837 -3.7467 -2.0174 0.9729
5.6975 -3.2539 -2.0181 0.9729
5.9657 -2.7347 -2.0185 0.9729
6.4329 1.2624 -2.0164 0.9729
5.8606 2.9112 -2.0128 0.9730
5.5742 3.4185 -2.0113 0.9730
5.2437 3.8977 -2.0096 0.9730
3.2710 5.0449 -1.8493 0.9752
2.8064 5.3104 -1.8474 0.9752
1.8169 5.7117 -1.8435 0.9752
1.1597 5.2130 -1.6426 0.9779
0.6732 5.1572 -1.5997 0.9785
0.2080 5.1038 -1.5711 0.9788
-0.2885 5.9617 -1.8358 0.9753
-0.8170 5.9065 -1.8340 0.9754
-2.0857 4.8692 -1.6293 0.9781
-3.6938 4.6436 -1.8250 0.9755
-4.0899 4.2941 -1.8240 0.9755
-5.7626 2.8079 -1.9717 0.9735
-5.9887 2.2837 -1.9714 0.9735
-6.3799 0.6212 -1.9716 0.9735
-6.4112 0.0511 -1.9720 0.9735
-6.3924 -0.5196 -1.9726 0.9735
-5.8217 -2.7227 -1.9768 0.9735
-5.5603 -3.2321 -1.9782 0.9734
-5.2548 -3.7169 -1.9797 0.9734
-4.9074 -4.1732 -1.9814 0.9734
-4.0977 -4.9860 -1.9850 0.9734
-3.1554 -5.6446 -1.9890 0.9733
-2.6435 -5.9091 -1.9911 0.9733
-2.1095 -6.1273 -1.9932 0.9732
-0.9923 -6.4178 -1.9974 0.9732
-0.4178 -6.4874 -1.9995 0.9732
0.1612 -6.5056 -2.0016 0.9731
1.8790 -6.2502 -2.0074 0.9731
2.4298 -6.0636 -2.0092 0.9730
3.9538 -5.2186 -2.0138 0.9730
4.4052 -4.8491 -2.0150 0.9730
5.5369 -3.5184 -2.0178 0.9729
5.8295 -3.0126 -2.0183 0.9729
6.2728 -1.9323 -2.0189 0.9729
6.4198 -1.3665 -2.0188 0.9729
6.5152 -0.7898 -2.0186 0.9729
6.5583 -0.2070 -2.0182 0.9729
6.5488 0.3772 -2.0176 0.9729
6.3729 1.5305 -2.0159 0.9729
6.2079 2.0903 -2.0148 0.9730
5.9935 2.6326 -2.0135 0.9730
5.7315 3.1532 -2.0121 0.9730
3.5071 4.8877 -1.8503 0.9751
3.0553 5.1751 -1.8484 0.9752
2.5801 5.4207 -1.8465 0.9752
2.0854 5.6228 -1.8446 0.9752
5.8845 1.4459 -2.0142 0.9748
5.7296 1.9627 -2.0132 0.9748
5.5290 2.4632 -2.0120 0.9748
4.6721 3.8276 -2.0077 0.9749
4.3094 4.2246 -2.0060 0.9749
3.3582 4.7323 -1.9289 0.9758
2.8011 4.8019 -1.8479 0.9768
1.9020 5.2122 -1.8443 0.9769
1.3778 5.1623 -1.7760 0.9777
0.4249 5.1289 -1.7107 0.9785
-0.0326 5.0575 -1.6812 0.9789
-1.4898 5.3068 -1.8322 0.9770
-1.8528 4.8812 -1.7355 0.9782
-2.4030 4.9509 -1.8293 0.9771
-2.8319 4.7142 -1.8280 0.9771
-3.2380 4.4407 -1.8269 0.9771
-3.6182 4.1326 -1.8258 0.9771
-4.6335 3.6974 -1.9705 0.9753
-4.9532 3.2765 -1.9741 0.9753
-5.2237 2.8221 -1.9736 0.9753
-5.4530 2.3457 -1.9732 0.9753
-5.9296 0.2961 -1.9735 0.9753
-5.8917 -0.7599 -1.9746 0.9753
-5.6688 -1.7937 -1.9764 0.9752
-5.4898 -2.2922 -1.9775 0.9752
-5.0033 -3.2332 -1.9802 0.9752
-4.3579 -4.0751 -1.9832 0.9752
-3.5729 -4.7913 -1.9867 0.9751
-3.1354 -5.0949 -1.9886 0.9751
-2.6722 -5.3587 -1.9905 0.9751
-1.6834 -5.7587 -1.9943 0.9750
-0.6374 -5.9776 -1.9983 0.9750
-0.1032 -6.0164 -2.0002 0.9750
0.4329 -6.0074 -2.0021 0.9749
0.9666 -5.9505 -2.0039 0.9749
1.4934 -5.8461 -2.0057 0.9749
2.0093 -5.6948 -2.0074 0.9749
2.5100 -5.4978 -2.0089 0.9748
4.2811 -4.2877 -2.0141 0.9748
4.9774 -3.4640 -2.0157 0.9748
5.5152 -2.5282 -2.0167 0.9748
6.0504 -0.4454 -2.0166 0.9748
6.0647 0.0947 -2.0162 0.9748
5.4192 2.6920 -2.0114 0.9748
5.1547 3.1612 -2.0100 0.9748
4.1253 4.3980 -2.0044 0.9749
3.7025 4.7282 -1.9962 0.9750
2.1468 5.1194 -1.8453 0.9769
1.1424 5.1353 -1.7487 0.9781
0.6673 5.1118 -1.7136 0.9785
0.2080 5.1040 -1.6980 0.9787
-0.2671 5.5179 -1.8363 0.9770
-1.2386 5.3736 -1.8330 0.9770
-1.7103 5.2377 -1.8315 0.9770
-2.0772 4.8494 -1.7536 0.9780
-3.0261 4.5899 -1.8275 0.9771
-3.4203 4.2998 -1.8263 0.9771
-4.4479 3.9063 -1.9677 0.9754
-4.7907 3.5046 -1.9731 0.9753
-5.0855 3.0656 -1.9738 0.9753
-5.3368 2.6004 -1.9734 0.9753
-5.5463 2.1150 -1.9731 0.9753
-5.7121 1.6131 -1.9730 0.9753
-5.9085 0.5753 -1.9733 0.9753
-5.5901 -2.0302 -1.9769 0.9752
-5.1482 -2.9926 -1.9794 0.9752
-4.8651 -3.4412 -1.9808 0.9752
-4.1849 -4.2558 -1.9840 0.9752
-2.9204 -5.2241 -1.9894 0.9751
0.6846 -5.9866 -2.0029 0.9749
1.2156 -5.9073 -2.0048 0.9749
1.7378 -5.7807 -2.0065 0.9749
3.2101 -5.1282 -2.0111 0.9748
3.6559 -4.8254 -2.0124 0.9748
4.0731 -4.4835 -2.0135 0.9748
5.1189 -3.2528 -2.0160 0.9748
5.7991 -1.7863 -2.0170 0.9747
6.0545 0.3487 -2.0159 0.9748
5.9974 0.8857 -2.0152 0.9748
5.7400 1.9327 -2.0133 0.9748
5.5420 2.4343 -2.0121 0.9748
3.9296 4.5580 -2.0004 0.9750
2.3870 5.0150 -1.8462 0.9769
1.9294 5.2025 -1.8444 0.9769
5.3223 1.8232 -2.0119 0.9764
5.1362 2.2882 -2.0108 0.9764
4.9093 2.7344 -2.0096 0.9764
4.6434 3.1582 -2.0082 0.9764
4.0042 3.9253 -2.0052 0.9765
2.7215 4.6654 -1.9315 0.9773
1.7679 4.8445 -1.8442 0.9783
1.3286 4.9781 -1.8425 0.9784
0.4185 5.0524 -1.8130 0.9787
-0.9416 5.0425 -1.8344 0.9784
-1.3854 4.9348 -1.8329 0.9785
-1.8176 4.7883 -1.8316 0.9785
-2.2348 4.6044 -1.8302 0.9785
-2.6338 4.3844 -1.8290 0.9785
-3.0117 4.1302 -1.8280 0.9785
-3.5180 4.0181 -1.9098 0.9776
-3.9870 3.8091 -1.9719 0.9768
-4.3195 3.4468 -1.9762 0.9768
-4.6075 3.0478 -1.9755 0.9768
-4.8592 2.6252 -1.9750 0.9768
-5.4687 0.7650 -1.9747 0.9768
-5.5159 0.2755 -1.9750 0.9768
-5.5198 -0.2164 -1.9754 0.9768
-5.4803 -0.7069 -1.9760 0.9768
-5.3978 -1.1921 -1.9768 0.9768
-5.2727 -1.6684 -1.9777 0.9768
-5.1061 -2.1320 -1.9787 0.9768
-4.8990 -2.5793 -1.9799 0.9768
-4.3702 -3.4113 -1.9826 0.9767
-3.7022 -4.1382 -1.9856 0.9767
-3.3221 -4.4549 -1.9873 0.9767
-2.9150 -4.7369 -1.9890 0.9766
-2.0330 -5.1878 -1.9926 0.9766
-1.5648 -5.3530 -1.9944 0.9766
-0.5924 -5.5557 -1.9980 0.9765
-0.0959 -5.5914 -1.9998 0.9765
0.4023 -5.5826 -2.0016 0.9765
0.8981 -5.5294 -2.0033 0.9765
1.3877 -5.4320 -2.0049 0.9765
1.8669 -5.2911 -2.0065 0.9764
2.3319 -5.1078 -2.0079 0.9764
3.2045 -4.6197 -2.0106 0.9764
3.9767 -3.9828 -2.0127 0.9764
4.6232 -3.2175 -2.0142 0.9764
4.8924 -2.7941 -2.0148 0.9764
5.5614 -0.9121 -2.0154 0.9763
5.6197 -0.4137 -2.0151 0.9763
5.6012 0.5885 -2.0141 0.9764
5.5246 1.0841 -2.0133 0.9764
5.4038 1.5707 -2.0124 0.9764
5.2399 2.0442 -2.0114 0.9764
4.1865 3.7337 -2.0060 0.9765
3.8347 4.0882 -2.0044 0.9765
2.4559 4.6472 -1.8797 0.9779
1.9953 4.7581 -1.8451 0.9783
1.1184 5.0272 -1.8417 0.9784
0.6632 5.0805 -1.8322 0.9785
-0.2483 5.1303 -1.8368 0.9784
-1.1517 4.9967 -1.8337 0.9785
-2.0160 4.7063 -1.8309 0.9785
-2.4250 4.5052 -1.8297 0.9785
-3.2284 4.0586 -1.8546 0.9782
-4.1476 3.6426 -1.9740 0.9768
-4.4594 3.2622 -1.9759 0.9768
-4.7306 2.8517 -1.9753 0.9768
-4.9645 2.4190 -1.9749 0.9768
-5.1593 1.9675 -1.9746 0.9768
-5.3137 1.5006 -1.9745 0.9768
-5.4263 1.0219 -1.9746 0.9768
-5.5231 0.0440 -1.9752 0.9768
-5.5066 -0.4476 -1.9757 0.9768
-5.4468 -0.9361 -1.9764 0.9768
-5.1994 -1.8883 -1.9782 0.9768
-4.5245 -3.2003 -1.9818 0.9767
-3.8915 -3.9574 -1.9848 0.9767
-3.5268 -4.2914 -1.9864 0.9767
-3.1337 -4.5921 -1.9881 0.9767
-2.2742 -5.0837 -1.9916 0.9766
-0.8533 -5.5189 -1.9970 0.9766
-0.3592 -5.5780 -1.9989 0.9765
0.6362 -5.5631 -2.0024 0.9765
1.1295 -5.4890 -2.0040 0.9765
2.0877 -5.2101 -2.0072 0.9764
2.5448 -5.0072 -2.0086 0.9764
3.3962 -4.4825 -2.0111 0.9764
3.7835 -4.1648 -2.0122 0.9764
4.1410 -3.8134 -2.0131 0.9764
5.0057 -2.5869 -2.0150 0.9763
5.2168 -2.1316 -2.0153 0.9763
5.5124 -1.1734 -2.0154 0.9763
5.5944 -0.6782 -2.0152 0.9763
5.6236 0.3239 -2.0144 0.9764
4.3596 3.5336 -2.0068 0.9764
4.0248 3.9045 -2.0053 0.9765
3.6586 4.2436 -2.0037 0.9765
2.7557 4.6677 -1.9384 0.9772
2.2184 4.6610 -1.8460 0.9783
1.7933 4.8355 -1.8443 0.9783
4.9638 1.7004 -2.0107 0.9778
3.7352 3.6617 -2.0045 0.9778
3.3921 3.9765 -2.0030 0.9779
1.6669 4.5679 -1.8634 0.9794
0.3962 4.7835 -1.8394 0.9796
-0.0309 4.7958 -1.8379 0.9797
-0.8789 4.7069 -1.8350 0.9797
-1.2933 4.6066 -1.8336 0.9797
-1.6968 4.4701 -1.8323 0.9797
-2.0864 4.2986 -1.8311 0.9797
-2.4853 4.1371 -1.8495 0.9795
-2.9689 4.0715 -1.9310 0.9786
-3.3929 3.8753 -1.9739 0.9782
-4.0333 3.2184 -1.9774 0.9781
-4.5374 2.4513 -1.9764 0.9782
-4.7368 2.0376 -1.9760 0.9782
-4.8989 1.6080 -1.9759 0.9782
-5.1066 0.7143 -1.9760 0.9782
-2.3029 -0.2970 -0.8898 0.9901
-4.9232 -1.5578 -1.9788 0.9781
-4.5739 -2.4081 -1.9809 0.9781
-4.3441 -2.8072 -1.9821 0.9781
-3.7829 -3.5375 -1.9848 0.9781
-3.4558 -3.8629 -1.9862 0.9780
-2.7208 -4.4212 -1.9894 0.9780
-2.3185 -4.6495 -1.9910 0.9780
-0.0895 -5.2168 -1.9995 0.9779
0.3753 -5.2083 -2.0011 0.9779
2.1751 -4.7643 -2.0071 0.9778
2.5920 -4.5548 -2.0083 0.9778
2.9887 -4.3087 -2.0095 0.9778
3.7087 -3.7144 -2.0115 0.9778
4.0260 -3.3710 -2.0123 0.9778
4.5624 -2.6056 -2.0134 0.9777
4.7770 -2.1898 -2.0138 0.9777
5.1861 -0.8506 -2.0140 0.9777
5.2406 -0.3858 -2.0137 0.9777
5.2530 0.0820 -2.0133 0.9777
4.6955 2.3324 -2.0092 0.9778
4.2025 3.1238 -2.0067 0.9778
3.9052 3.4829 -2.0053 0.9778
3.5772 3.8137 -2.0038 0.9779
3.2213 4.1137 -2.0022 0.9779
2.4285 4.5954 -1.9918 0.9780
1.9234 4.5868 -1.9060 0.9789
1.0437 4.6914 -1.8418 0.9796
0.6216 4.7616 -1.8402 0.9796
-0.6563 4.7451 -1.8357 0.9797
-1.4847 4.5468 -1.8330 0.9797
-3.2037 4.0275 -1.9722 0.9782
-3.5554 3.7329 -1.9755 0.9782
-4.6358 2.2588 -1.9762 0.9782
-4.9619 1.4012 -1.9759 0.9782
-5.0670 0.9543 -1.9759 0.9782
-2.2897 0.0182 -0.8775 0.9902
-2.3042 -0.1873 -0.8859 0.9901
-4.9900 -1.3236 -1.9784 0.9781
-4.8546 -1.7631 -1.9793 0.9781
-4.4702 -2.5984 -1.9814 0.9781
-3.9440 -3.3539 -1.9840 0.9781
-2.9249 -4.2861 -1.9885 0.9780
-1.6934 -4.9187 -1.9935 0.9780
-0.7962 -5.1497 -1.9969 0.9779
0.5935 -5.1900 -2.0019 0.9779
1.0537 -5.1206 -2.0034 0.9779
2.3736 -4.6704 -2.0077 0.9778
2.7814 -4.4434 -2.0089 0.9778
3.1675 -4.1807 -2.0100 0.9778
3.5286 -3.8842 -2.0110 0.9778
3.8619 -3.5564 -2.0119 0.9778
4.4339 -2.8175 -2.0132 0.9777
5.0227 -1.5472 -2.0141 0.9777
5.1404 -1.0942 -2.0140 0.9777
5.2169 -0.6325 -2.0139 0.9777
4.3467 2.9232 -2.0074 0.9778
4.0666 3.2961 -2.0060 0.9778
4.7706 1.1722 -2.0106 0.9790
4.6454 1.5913 -2.0097 0.9790
4.2855 2.3870 -2.0077 0.9790
3.7900 3.1050 -2.0052 0.9790
3.1753 3.7224 -2.0025 0.9791
2.8294 3.9872 -2.0010 0.9791
2.4607 4.2183 -1.9987 0.9791
1.6587 4.5454 -1.9803 0.9793
1.2039 4.5108 -1.9108 0.9800
-0.0289 4.4912 -1.8382 0.9808
-0.8232 4.4084 -1.8354 0.9808
-1.2113 4.3147 -1.8342 0.9808
-1.6051 4.2286 -1.8512 0.9806
-3.4966 3.3406 -1.9792 0.9793
-3.7786 3.0152 -1.9785 0.9793
-4.0307 2.6663 -1.9779 0.9793
-4.2511 2.2966 -1.9775 0.9793
-2.0950 0.4862 -0.8802 0.9907
-2.0007 -0.0784 -0.8195 0.9914
-2.0204 -0.2606 -0.8337 0.9912
-4.6121 -1.4593 -1.9798 0.9793
-4.4660 -1.8647 -1.9807 0.9793
-4.2846 -2.2558 -1.9818 0.9793
-4.0692 -2.6296 -1.9829 0.9793
-3.8215 -2.9830 -1.9841 0.9793
-3.2367 -3.6179 -1.9868 0.9792
-2.5480 -4.1404 -1.9897 0.9792
-1.3673 -4.6773 -1.9944 0.9792
-0.5175 -4.8533 -1.9976 0.9791
0.3514 -4.8758 -2.0007 0.9791
0.7843 -4.8288 -2.0022 0.9791
2.7971 -4.0324 -2.0086 0.9790
3.1463 -3.7694 -2.0095 0.9790
4.0346 -2.8078 -2.0118 0.9790
4.6352 -1.6435 -2.0128 0.9790
4.7631 -1.2246 -2.0128 0.9790
4.8529 -0.7960 -2.0127 0.9790
4.9040 -0.3610 -2.0125 0.9790
4.9157 0.0767 -2.0121 0.9790
4.7164 1.3708 -2.0102 0.9790
3.3485 3.5699 -2.0032 0.9791
3.0155 3.8508 -2.0018 0.9791
2.6589 4.1008 -2.0003 0.9791
2.2787 4.3120 -1.9961 0.9791
1.4407 4.5292 -1.9452 0.9797
0.9998 4.4944 -1.8844 0.9803
0.5827 4.4633 -1.8422 0.9807
0.1829 4.4894 -1.8389 0.9808
-0.6147 4.4440 -1.8361 0.9808
-1.0069 4.3686 -1.8348 0.9808
-1.8009 4.2043 -1.8720 0.9804
-4.1385 2.4947 -1.9777 0.9793
-4.3432 2.1163 -1.9774 0.9793
-4.5138 1.7213 -1.9771 0.9793
-2.0487 -0.3521 -0.8508 0.9911
-4.6747 -1.2400 -1.9794 0.9793
-4.5478 -1.6517 -1.9803 0.9793
-4.1874 -2.4340 -1.9823 0.9793
-3.9565 -2.7986 -1.9834 0.9793
-3.4024 -3.4600 -1.9860 0.9792
-3.0832 -3.7517 -1.9875 0.9792
-2.3731 -4.2451 -1.9904 0.9792
-1.9875 -4.4428 -1.9920 0.9792
-1.5856 -4.6057 -1.9936 0.9792
-1.1705 -4.7323 -1.9952 0.9792
-0.3138 -4.8726 -1.9983 0.9791
0.1210 -4.8849 -1.9999 0.9791
0.5556 -4.8585 -2.0014 0.9791
3.3022 -3.6350 -2.0100 0.9790
3.8971 -2.9944 -2.0115 0.9790
4.1492 -2.6366 -2.0120 0.9790
4.8102 -1.0239 -2.0128 0.9790
4.8818 -0.5918 -2.0126 0.9790
4.9076 0.2826 -2.0119 0.9790
4.7768 1.1472 -2.0106 0.9790
4.6538 1.5670 -2.0098 0.9790
3.8063 3.0852 -2.0053 0.9790
3.1949 3.7058 -2.0025 0.9791
2.0934 4.3982 -1.9936 0.9792
4.4779 1.1003 -2.0096 0.9801
4.3605 1.4937 -2.0088 0.9801
3.8055 2.5884 -2.0058 0.9801
3.5580 2.9149 -2.0046 0.9801
3.2825 3.2179 -2.0033 0.9801
2.9812 3.4948 -2.0020 0.9802
2.6566 3.7436 -2.0006 0.9802
1.9478 4.1482 -1.9973 0.9802
1.5674 4.2951 -1.9926 0.9802
0.7726 4.4548 -1.9704 0.9805
-0.4162 4.3434 -1.9016 0.9811
-0.8033 4.3019 -1.9073 0.9811
-1.1952 4.2574 -1.9272 0.9809
-1.9814 4.0823 -1.9776 0.9804
-2.6784 3.6732 -1.9812 0.9804
-3.2852 3.1386 -1.9801 0.9804
-3.5503 2.8330 -1.9795 0.9804
-3.7872 2.5052 -1.9790 0.9804
-4.1698 1.7937 -1.9783 0.9804
-1.4858 0.3448 -0.6647 0.9934
-1.4737 0.2061 -0.6485 0.9935
-1.4470 -0.0567 -0.6311 0.9937
-1.4731 -0.1900 -0.6473 0.9935
-4.0253 -2.1193 -1.9826 0.9803
-3.8228 -2.4703 -1.9836 0.9803
-3.5899 -2.8022 -1.9847 0.9803
-3.3284 -3.1124 -1.9860 0.9803
-3.0403 -3.3984 -1.9873 0.9803
-2.7277 -3.6579 -1.9886 0.9803
-2.3932 -3.8888 -1.9900 0.9803
-1.6685 -4.2577 -1.9930 0.9802
-0.8888 -4.4927 -1.9959 0.9802
0.3299 -4.5780 -2.0003 0.9802
1.1376 -4.4531 -2.0031 0.9801
1.5303 -4.3370 -2.0044 0.9801
1.9112 -4.1862 -2.0056 0.9801
3.5364 -2.9611 -2.0101 0.9801
4.0072 -2.2886 -2.0112 0.9801
4.3505 -1.5425 -2.0117 0.9801
4.6028 -0.3388 -2.0114 0.9801
4.6139 0.0720 -2.0111 0.9801
4.5881 0.4821 -2.0106 0.9801
4.5256 0.8881 -2.0100 0.9801
4.4270 1.2868 -2.0092 0.9801
4.2932 1.6748 -2.0084 0.9801
4.1252 2.0492 -2.0074 0.9801
3.4317 3.0606 -2.0040 0.9801
2.8312 3.6155 -2.0013 0.9802
2.4965 3.8504 -1.9999 0.9802
1.3846 4.3527 -1.9906 0.9803
0.1794 4.4021 -1.9201 0.9810
-0.2112 4.3643 -1.9043 0.9811
-0.5981 4.3242 -1.9025 0.9811
-0.9868 4.2814 -1.9148 0.9810
-1.3829 4.2351 -1.9416 0.9807
-1.7863 4.1701 -1.9771 0.9804
-2.5008 3.7931 -1.9800 0.9804
-2.8302 3.5579 -1.9813 0.9804
-3.4133 2.9977 -1.9798 0.9804
-4.0809 1.9885 -1.9784 0.9804
-1.4936 0.4218 -0.6764 0.9933
-1.4687 0.1430 -0.6431 0.9936
-1.4717 -0.2529 -0.6508 0.9935
-1.4867 -0.5399 -0.6893 0.9931
-3.9339 -2.2867 -1.9830 0.9803
-3.4703 -2.9511 -1.9853 0.9803
-2.2288 -3.9871 -1.9907 0.9803
-1.8667 -4.1726 -1.9922 0.9803
-1.4891 -4.3254 -1.9937 0.9802
-1.0992 -4.4440 -1.9951 0.9802
-0.2947 -4.5753 -1.9981 0.9802
0.1137 -4.5867 -1.9996 0.9802
0.5217 -4.5617 -2.0010 0.9802
0.9261 -4.5003 -2.0024 0.9802
1.3236 -4.4029 -2.0037 0.9801
1.7112 -4.2703 -2.0049 0.9801
2.0855 -4.1035 -2.0061 0.9801
2.4436 -3.9038 -2.0072 0.9801
2.7826 -3.6727 -2.0082 0.9801
3.3923 -3.1239 -2.0098 0.9801
3.8944 -2.4747 -2.0109 0.9801
4.1000 -2.1188 -2.0113 0.9801
4.2728 -1.7459 -2.0116 0.9801
4.4114 -1.3589 -2.0117 0.9801
4.5148 -0.9610 -2.0117 0.9801
4.5820 -0.5555 -2.0115 0.9801
4.6063 0.2653 -2.0108 0.9801
4.5632 0.6739 -2.0103 0.9801
4.3684 1.4709 -2.0088 0.9801
4.2183 1.8529 -2.0079 0.9801
4.0347 2.2197 -2.0069 0.9801
3.8192 2.5685 -2.0058 0.9801
2.6763 3.7298 -2.0007 0.9802
2.3322 3.9503 -1.9993 0.9802
1.9698 4.1386 -1.9975 0.9802
1.5901 4.2874 -1.9929 0.9802
4.2142 1.0355 -2.0087 0.9811
3.9608 1.7646 -2.0071 0.9811
3.7863 2.1090 -2.0062 0.9811
3.5818 2.4362 -2.0051 0.9811
3.0898 3.0290 -2.0028 0.9811
2.8063 3.2898 -2.0016 0.9811
2.5008 3.5241 -2.0003 0.9811
1.8342 3.9062 -1.9975 0.9812
1.1101 4.1592 -1.9926 0.9812
-0.0276 4.2868 -1.9843 0.9813
-0.4086 4.2639 -1.9827 0.9813
-1.1569 4.1210 -1.9813 0.9813
-1.5192 4.0022 -1.9815 0.9813
-2.5234 3.4607 -1.9825 0.9813
-3.7625 2.0327 -1.9795 0.9813
-1.2445 0.5353 -0.6271 0.9940
-1.2681 0.0633 -0.5877 0.9944
-1.2664 -0.0497 -0.5867 0.9944
-1.2752 -0.1645 -0.5952 0.9943
-1.2680 -0.2800 -0.6011 0.9943
-3.7912 -1.9961 -1.9833 0.9813
-3.3810 -2.6391 -1.9853 0.9813
-3.1346 -2.9312 -1.9865 0.9813
-2.8631 -3.2004 -1.9877 0.9813
-2.5687 -3.4446 -1.9890 0.9812
-2.2535 -3.6619 -1.9903 0.9812
-1.5710 -4.0089 -1.9931 0.9812
-1.2090 -4.1357 -1.9945 0.9812
-0.8368 -4.2298 -1.9959 0.9812
-0.4575 -4.2905 -1.9973 0.9812
-0.0740 -4.3172 -1.9987 0.9811
0.6932 -4.2677 -2.0013 0.9811
1.4404 -4.0823 -2.0038 0.9811
2.1434 -3.7665 -2.0060 0.9811
2.7795 -3.3300 -2.0078 0.9811
3.3281 -2.7867 -2.0092 0.9810
3.5638 -2.4802 -2.0098 0.9810
3.9483 -1.8100 -2.0105 0.9810
4.2071 -1.0816 -2.0107 0.9810
4.2864 -0.7030 -2.0106 0.9810
4.3315 -0.3189 -2.0104 0.9810
4.3178 0.4537 -2.0096 0.9810
4.2591 0.8358 -2.0091 0.9811
4.1664 1.2110 -2.0084 0.9811
4.0405 1.5763 -2.0076 0.9811
3.8825 1.9286 -2.0067 0.9811
3.6937 2.2653 -2.0057 0.9811
3.4757 2.5835 -2.0046 0.9811
2.9593 3.1549 -2.0022 0.9811
2.0170 3.8168 -1.9983 0.9812
