ply
format ascii 1.0
element vertex 1577
property float32 x
property float32 y
property float32 z
property float32 I
end_header
-4.4793 -17.7288 1.9636 0.9291
-2.8011 -17.5863 1.9122 0.9309
1.9042 -17.1392 1.8518 0.9330
4.9757 -16.6916 1.8703 0.9323
6.5652 -16.4736 1.9043 0.9311
13.3265 -14.6725 2.1284 0.9234
-0.6372 -17.4926 1.4818 0.9321
7.2385 -16.5977 1.5328 0.9299
4.6893 4.9272 0.5758 0.9731
4.5923 5.7831 0.6251 0.9708
3.8558 11.9137 1.0600 0.9510
0.5103 11.4834 0.9731 0.9549
-2.5654 11.2508 0.9769 0.9547
-8.5055 10.6953 1.1568 0.9466
-6.0198 -18.1045 1.6151 0.9263
-4.2190 -17.8998 1.5568 0.9288
-2.5305 -17.7078 1.5142 0.9307
0.6442 -17.3470 1.4695 0.9327
5.3076 -16.8171 1.4928 0.9317
4.6109 5.6194 0.6153 0.9712
4.0761 11.9387 1.0679 0.9506
1.3402 5.4889 0.4783 0.9776
0.8211 5.4347 0.4653 0.9782
0.6959 11.5045 0.9757 0.9548
-0.3239 11.1222 0.9419 0.9563
-1.3812 11.5867 0.9878 0.9542
-4.4989 11.0311 1.0085 0.9533
-6.8769 10.8167 1.0850 0.9498
-4.5315 -17.9353 1.5660 0.9284
-1.2031 -17.5569 1.4897 0.9318
0.3670 -17.3785 1.4715 0.9326
5.0227 -16.8494 1.4884 0.9319
8.3419 -16.4724 1.5630 0.9286
13.3388 -14.6860 1.6795 0.9234
-5.6876 -18.0660 1.1745 0.9269
0.9279 -17.4499 1.0836 0.9324
2.4810 -17.2734 1.0821 0.9325
4.6885 4.9264 0.4217 0.9731
4.5915 5.7820 0.4578 0.9708
1.2258 5.3938 0.3430 0.9781
0.5126 11.5344 0.7160 0.9548
-0.5013 11.1025 0.6892 0.9564
-2.5655 11.2513 0.7156 0.9548
-4.6967 11.0091 0.7422 0.9532
-7.0714 10.7391 0.7973 0.9498
-6.0196 -18.1037 1.1830 0.9264
-4.2188 -17.8990 1.1403 0.9290
0.6492 -17.4816 1.0848 0.9323
5.3074 -16.8164 1.0935 0.9318
6.9385 -16.6311 1.1175 0.9303
13.6250 -14.5270 1.2350 0.9233
4.6100 5.6184 0.4507 0.9713
0.6990 11.5556 0.7179 0.9547
-0.3239 11.1226 0.6900 0.9564
-3.4671 11.2998 0.7329 0.9537
-4.4991 11.0315 0.7388 0.9534
-8.2521 10.7247 0.8391 0.9472
-9.6042 10.4057 0.8781 0.9448
-4.5313 -17.9345 1.1471 0.9285
-2.8282 -17.7565 1.1150 0.9305
-1.2075 -17.6210 1.0952 0.9317
1.9617 -9.6686 0.6118 0.9612
6.6414 -16.6648 1.1124 0.9306
8.3416 -16.4717 1.1449 0.9287
13.3500 -14.6983 1.2313 0.9235
-3.9415 -18.0086 0.7269 0.9289
-2.2558 -17.8170 0.7082 0.9306
-0.6433 -17.6599 0.6968 0.9317
0.9295 -17.4812 0.6903 0.9323
2.2703 -9.6015 0.3890 0.9613
5.6477 -16.9450 0.7043 0.9310
4.5906 5.7809 0.2911 0.9709
0.7479 5.5504 0.2208 0.9778
0.5126 11.5349 0.4553 0.9548
-1.6238 5.0052 0.2075 0.9792
-4.6969 11.0095 0.4720 0.9532
-5.8418 10.8794 0.4869 0.9518
-7.0717 10.7396 0.5070 0.9498
-8.5063 10.6963 0.5389 0.9468
-9.9028 10.3905 0.5660 0.9442
-8.6060 -10.6612 0.5403 0.9466
-6.0370 -18.1562 0.7544 0.9263
-2.5509 -17.8506 0.7110 0.9304
-0.9281 -17.6923 0.6986 0.9315
0.6503 -17.5129 0.6910 0.9322
2.2074 -17.3359 0.6891 0.9324
2.1085 -9.6010 0.3876 0.9614
4.7035 4.7863 0.2646 0.9735
4.6092 5.6173 0.2865 0.9713
4.0764 11.9398 0.4975 0.9507
2.8657 11.7371 0.4764 0.9528
0.8228 5.4462 0.2172 0.9782
0.6990 11.5561 0.4565 0.9547
-0.3240 11.1231 0.4388 0.9564
-1.3813 11.5876 0.4601 0.9544
-2.3812 11.2727 0.4543 0.9549
-5.6317 10.9033 0.4839 0.9521
-6.8811 10.8233 0.5057 0.9500
-9.6199 10.4227 0.5593 0.9448
-8.6403 -10.3600 0.5319 0.9474
-1.2084 -17.6339 0.6969 0.9317
1.9260 -17.3358 0.6878 0.9326
1.9656 -9.6880 0.3898 0.9612
8.3633 -16.5146 0.7299 0.9286
-0.6421 -17.6269 0.2979 0.9319
0.9278 -17.4485 0.2952 0.9325
2.2743 -9.6186 0.1670 0.9612
4.6868 4.9247 0.1148 0.9732
1.2341 5.4301 0.0941 0.9780
-2.5657 11.2522 0.1949 0.9549
-1.6239 5.0053 0.0889 0.9792
-4.6971 11.0100 0.2022 0.9532
-5.8421 10.8799 0.2086 0.9518
-8.5067 10.6968 0.2309 0.9468
-9.9033 10.3910 0.2425 0.9442
-8.6076 -10.6632 0.2315 0.9467
-4.2184 -17.8975 0.3106 0.9291
-2.5462 -17.8172 0.3040 0.9305
0.6491 -17.4802 0.2955 0.9324
2.2033 -17.3036 0.2946 0.9326
2.1105 -9.6102 0.1662 0.9614
5.3483 -16.9462 0.3002 0.9314
-0.3240 11.1235 0.1880 0.9565
-4.4994 11.0325 0.2013 0.9535
-5.6320 10.9038 0.2073 0.9521
-6.8832 10.8265 0.2167 0.9500
-1.2092 -17.6468 0.2987 0.9317
0.3698 -17.5119 0.2959 0.9323
1.9694 -9.7064 0.1673 0.9612
13.3277 -14.6738 0.3348 0.9238
-3.9412 -18.0071 -0.1038 0.9289
5.6472 -16.9436 -0.1006 0.9311
0.7481 5.5516 -0.0315 0.9778
0.5126 11.5358 -0.0650 0.9549
-0.5014 11.1038 -0.0626 0.9565
-2.5658 11.2527 -0.0650 0.9549
-7.0724 10.7406 -0.0724 0.9499
-4.2182 -17.8967 -0.1035 0.9291
-2.5507 -17.8491 -0.1015 0.9304
-0.9281 -17.6908 -0.0997 0.9316
2.2072 -17.3346 -0.0984 0.9325
2.1125 -9.6189 -0.0554 0.9614
5.3579 -16.9765 -0.1002 0.9313
0.8244 5.4568 -0.0311 0.9782
0.6991 11.5570 -0.0652 0.9547
-0.3240 11.1240 -0.0627 0.9565
-3.4228 11.1553 -0.0657 0.9544
-5.6322 10.9042 -0.0691 0.9521
-6.8449 10.7664 -0.0718 0.9502
-8.2533 10.7262 -0.0762 0.9473
-9.6208 10.4237 -0.0799 0.9448
-2.8483 -17.8829 -0.1020 0.9301
5.0704 -17.0092 -0.0999 0.9315
-8.5799 -10.9840 -0.3925 0.9458
-0.6432 -17.6577 -0.4975 0.9317
2.4851 -17.3023 -0.4922 0.9324
5.6470 -16.9429 -0.5029 0.9310
4.6852 4.9230 -0.1914 0.9732
0.5127 11.5363 -0.3252 0.9548
-1.5383 11.3550 -0.3227 0.9552
-4.6071 10.7988 -0.3306 0.9541
-5.7300 10.6712 -0.3411 0.9527
-6.9365 10.5342 -0.3551 0.9508
-9.9043 10.3921 -0.4042 0.9442
-6.0390 -18.1622 -0.5389 0.9263
-4.2181 -17.8960 -0.5177 0.9291
-2.5506 -17.8484 -0.5077 0.9304
-0.9280 -17.6901 -0.4988 0.9316
2.2072 -17.3339 -0.4920 0.9325
4.0770 11.9414 -0.3553 0.9508
0.6991 11.5575 -0.3260 0.9547
-5.5240 10.6946 -0.3389 0.9530
-9.6213 10.4242 -0.3994 0.9448
-2.8482 -17.8822 -0.5099 0.9301
0.3698 -17.5105 -0.4932 0.9323
5.0701 -17.0085 -0.4997 0.9314
13.2523 -14.5908 -0.5550 0.9242
-2.2554 -17.8141 -0.9106 0.9306
0.9277 -17.4464 -0.8860 0.9324
2.4850 -17.3016 -0.8864 0.9324
5.6468 -16.9423 -0.9057 0.9310
10.0459 12.6508 -0.8193 0.9373
1.2474 5.4887 -0.2855 0.9777
0.7441 5.5222 -0.2826 0.9779
0.5127 11.5368 -0.5857 0.9548
-1.5107 11.1511 -0.5707 0.9559
-2.5166 11.0368 -0.5741 0.9557
-4.6073 10.7993 -0.5954 0.9541
-5.7303 10.6717 -0.6143 0.9526
-8.5079 10.6983 -0.6932 0.9467
-9.9048 10.3926 -0.7281 0.9441
-8.6198 -10.6783 -0.6960 0.9465
-2.5505 -17.8476 -0.9143 0.9303
-0.9263 -17.6571 -0.8967 0.9316
0.6491 -17.4781 -0.8870 0.9323
2.2071 -17.3332 -0.8861 0.9324
2.1267 -9.6837 -0.5028 0.9611
5.3575 -16.9751 -0.9027 0.9312
10.0912 12.2984 -0.8068 0.9383
9.7787 14.3674 -0.8814 0.9328
2.8662 11.7391 -0.6128 0.9528
0.6991 11.5580 -0.5872 0.9547
-0.3240 11.1249 -0.5644 0.9564
-1.3317 11.1714 -0.5706 0.9559
-2.3358 11.0574 -0.5731 0.9557
-5.5242 10.6951 -0.6105 0.9529
-6.7137 10.5600 -0.6346 0.9511
-8.2541 10.7272 -0.6864 0.9472
-9.6218 10.4247 -0.7195 0.9448
-2.8481 -17.8814 -0.9183 0.9300
-1.2119 -17.6857 -0.8990 0.9315
1.9867 -9.7918 -0.5067 0.9608
5.0699 -17.0078 -0.9000 0.9314
13.2182 -14.5532 -0.9970 0.9243
-3.9407 -18.0048 -1.3514 0.9287
-0.6370 -17.4876 -1.2831 0.9322
0.9205 -17.3107 -1.2711 0.9328
2.4612 -17.1356 -1.2693 0.9329
2.2935 -9.6998 -0.7308 0.9608
1.2593 5.5410 -0.4166 0.9775
0.7436 5.5185 -0.4083 0.9779
-5.7305 10.6722 -0.8882 0.9526
-6.9371 10.5351 -0.9249 0.9507
-9.8620 10.3477 -1.0481 0.9443
-8.6214 -10.6802 -1.0064 0.9464
2.1859 -17.1669 -1.2689 0.9329
10.0911 12.2983 -1.1664 0.9382
9.7142 14.2726 -1.2659 0.9331
4.0773 11.9425 -0.9253 0.9506
-1.3318 11.1719 -0.8249 0.9559
-2.3359 11.0578 -0.8287 0.9557
-3.3573 10.9417 -0.8392 0.9551
-4.4135 10.8218 -0.8569 0.9542
-5.5244 10.6956 -0.8827 0.9529
-6.7140 10.5605 -0.9176 0.9510
-9.5350 10.3306 -1.0308 0.9452
-1.2027 -17.5519 -1.2900 0.9319
0.3669 -17.3736 -1.2742 0.9327
1.9107 -17.1982 -1.2688 0.9330
8.3577 -16.5035 -1.3564 0.9285
-19.4696 -1.9907 -1.8789 0.9244
-19.2470 -3.7300 -1.8822 0.9242
-15.9761 -11.8720 -1.9109 0.9231
-11.4711 -14.6854 -1.7890 0.9279
-10.1633 -15.7314 -1.7981 0.9275
-8.7620 -16.6646 -1.8076 0.9271
-5.6859 -18.0604 -1.8178 0.9267
-3.9087 -17.8586 -1.7551 0.9292
-0.6369 -17.4869 -1.6799 0.9321
0.9204 -17.3100 -1.6642 0.9327
2.3002 -9.7279 -0.9597 0.9606
7.5807 -17.3823 -1.8206 0.9266
13.6435 -14.0880 -1.8828 0.9242
11.1594 11.7256 -1.5540 0.9370
9.3075 14.1570 -1.6266 0.9342
9.2463 17.2491 -1.8789 0.9244
7.6240 17.9059 -1.8684 0.9248
1.2683 5.5807 -0.5494 0.9773
0.7412 5.5011 -0.5329 0.9779
0.5015 11.2848 -1.0845 0.9556
-1.5108 11.1520 -1.0804 0.9558
-1.6239 5.0053 -0.5052 0.9791
-5.7308 10.6726 -1.1630 0.9525
-6.9374 10.5356 -1.2111 0.9506
-14.6560 10.6941 -1.7418 0.9297
-17.6082 8.5340 -1.8786 0.9244
-19.1995 3.5474 -1.8744 0.9245
-19.4442 1.8170 -1.8749 0.9245
-19.5427 0.0712 -1.8762 0.9245
-19.4938 -1.6784 -1.8784 0.9244
-18.9544 -5.1428 -1.8855 0.9241
-16.1526 -11.6066 -1.9096 0.9232
-10.4042 -15.5525 -1.7964 0.9276
-7.5478 -17.3404 -1.8156 0.9268
-6.0003 -18.0459 -1.8258 0.9264
-2.5456 -17.8135 -1.7276 0.9302
2.1858 -17.1662 -1.6613 0.9328
2.1351 -9.7219 -0.9556 0.9608
5.3058 -16.8116 -1.6925 0.9316
7.2951 -17.4859 -1.8190 0.9267
10.0907 12.2979 -1.5272 0.9381
9.5306 17.1158 -1.8808 0.9243
7.9176 17.7995 -1.8703 0.9247
2.8197 11.5483 -1.1413 0.9534
-0.3240 11.1258 -1.0686 0.9563
-1.3318 11.1723 -1.0802 0.9558
-6.7143 10.5609 -1.2015 0.9510
-9.5354 10.3311 -1.3497 0.9451
-13.4894 12.2159 -1.7472 0.9295
-14.4892 10.9319 -1.7425 0.9297
-15.3746 9.5714 -1.7387 0.9298
-18.7255 5.5521 -1.8751 0.9245
-19.1404 3.8543 -1.8745 0.9245
-19.4112 2.1278 -1.8747 0.9245
-19.5134 -1.3658 -1.8780 0.9244
-19.0264 -4.8368 -1.8847 0.9241
-18.5636 -6.5348 -1.8894 0.9240
-17.9570 -8.1922 -1.8949 0.9238
-17.2095 -9.7973 -1.9012 0.9235
-10.6421 -15.3700 -1.7948 0.9276
-1.2027 -17.5512 -1.6890 0.9317
1.9963 -9.8390 -0.9638 0.9605
12.8591 -14.1579 -1.8362 0.9260
-15.9773 -0.1975 -1.8980 0.9377
-15.9122 -1.6269 -1.9000 0.9376
-15.4174 -4.4492 -1.9061 0.9374
-14.9899 -5.8224 -1.9102 0.9373
-9.3227 -11.9350 -1.7990 0.9408
-8.2520 -12.7730 -1.8063 0.9406
-7.1072 -13.5173 -1.8141 0.9403
-5.8961 -14.1610 -1.8221 0.9401
-0.5687 -15.6134 -1.8559 0.9390
0.8334 -15.6734 -1.8644 0.9387
2.2415 -15.6064 -1.8728 0.9385
2.3092 -9.7661 -1.1921 0.9604
6.3833 -14.6367 -1.8968 0.9377
10.1468 -12.5516 -1.9172 0.9371
11.2619 -11.6287 -1.9229 0.9369
12.2888 -10.6031 -1.9280 0.9367
14.3096 -10.2669 -2.0920 0.9315
15.1988 -8.9631 -2.0960 0.9314
15.9628 -7.5794 -2.0991 0.9313
17.6353 -1.5057 -2.1025 0.9312
17.6873 0.0771 -2.1010 0.9312
17.5900 1.6564 -2.0987 0.9313
16.9551 4.7464 -2.0915 0.9315
16.4247 6.2289 -2.0866 0.9317
15.7597 7.6520 -2.0810 0.9319
14.9671 9.0031 -2.0748 0.9321
14.0552 10.2710 -2.0678 0.9323
13.0334 11.4451 -2.0604 0.9325
6.1450 14.4323 -1.8633 0.9388
3.7727 11.6572 -1.4554 0.9518
0.7412 5.5009 -0.6593 0.9779
-0.5015 11.1061 -1.3206 0.9562
-1.5108 11.1525 -1.3369 0.9557
-2.5169 11.0381 -1.3448 0.9554
-1.6239 5.0054 -0.6251 0.9790
-5.7310 10.6731 -1.4390 0.9524
-6.9377 10.5361 -1.4985 0.9505
-8.3256 10.4691 -1.5889 0.9475
-12.6811 7.6158 -1.7571 0.9422
-14.9427 5.6547 -1.8978 0.9377
-15.6983 2.9005 -1.8963 0.9377
-15.9328 -1.3718 -1.8996 0.9376
-15.4812 -4.2005 -1.9054 0.9374
-15.0750 -5.5795 -1.9094 0.9373
-13.9123 -8.2177 -1.9193 0.9370
-11.3178 -11.7031 -1.9339 0.9365
-7.3169 -13.3914 -1.8127 0.9404
-4.8579 -14.6099 -1.8289 0.9399
-0.8178 -15.5894 -1.8543 0.9391
1.9899 -15.6277 -1.8713 0.9385
2.1492 -9.7860 -1.1901 0.9604
4.7829 -15.1547 -1.8877 0.9380
8.7339 -13.4978 -1.9097 0.9373
9.9389 -12.7052 -1.9161 0.9371
16.4913 -6.3920 -2.1009 0.9312
17.3829 -3.3559 -2.1030 0.9312
17.6890 -0.2061 -2.1013 0.9312
17.6183 1.3750 -2.0992 0.9313
17.3995 2.9405 -2.0961 0.9314
17.0352 4.4761 -2.0922 0.9315
13.2237 11.2426 -2.0618 0.9325
11.1941 11.3914 -1.8971 0.9377
8.9121 13.0941 -1.8815 0.9382
7.6719 13.7778 -1.8732 0.9385
3.9883 11.6817 -1.4663 0.9515
2.8198 11.5488 -1.4121 0.9532
-0.3241 11.1262 -1.3222 0.9562
-2.3360 11.0587 -1.3426 0.9555
-8.0772 10.4972 -1.5733 0.9480
-9.5359 10.3317 -1.6701 0.9449
-11.0112 9.9717 -1.7646 0.9419
-12.5612 7.8200 -1.7576 0.9421
-14.8490 5.8926 -1.8977 0.9377
-15.3098 4.5393 -1.8968 0.9377
-15.8709 1.7397 -1.8965 0.9377
-15.9711 0.3139 -1.8975 0.9377
-15.8060 -2.5412 -1.9016 0.9375
-15.5413 -3.9509 -1.9048 0.9374
-15.1563 -5.3354 -1.9087 0.9373
-13.3042 -9.2406 -1.9241 0.9368
-9.6862 -11.6140 -1.7964 0.9409
-8.6437 -12.4838 -1.8037 0.9407
-6.3362 -13.9428 -1.8192 0.9402
-1.0663 -15.5614 -1.8528 0.9391
0.3308 -15.6664 -1.8614 0.9388
1.7381 -15.6450 -1.8698 0.9386
2.0052 -9.8831 -1.1979 0.9602
4.5364 -15.2178 -1.8863 0.9380
5.9032 -14.8123 -1.8941 0.9378
8.5114 -13.6272 -1.9085 0.9373
13.9630 -10.7114 -2.0904 0.9316
14.8949 -9.4390 -2.0947 0.9314
15.7046 -8.0825 -2.0980 0.9313
16.3841 -6.6540 -2.1006 0.9312
17.5806 -2.0696 -2.1027 0.9312
17.6419 1.0931 -2.0996 0.9313
-13.5000 -0.1669 -1.9130 0.9469
-13.4428 -1.3745 -1.9146 0.9469
-13.2820 -2.5740 -1.9169 0.9468
-13.0183 -3.7569 -1.9198 0.9467
-12.1886 -6.0391 -1.9274 0.9465
-10.9729 -8.1541 -1.9370 0.9463
-6.9399 -10.7420 -1.8120 0.9496
-5.9731 -11.3602 -1.8186 0.9495
-4.9517 -11.8928 -1.8253 0.9493
-3.8832 -12.3346 -1.8322 0.9491
-2.7755 -12.6812 -1.8393 0.9489
4.1984 -12.5967 -1.8813 0.9478
5.3259 -12.2121 -1.8877 0.9476
6.4170 -11.7245 -1.8938 0.9474
12.6379 -7.4529 -2.0788 0.9424
13.2699 -6.3008 -2.0814 0.9424
13.7921 -5.0935 -2.0832 0.9423
14.1997 -3.8419 -2.0843 0.9423
14.4886 -2.5573 -2.0846 0.9423
14.4230 2.6755 -2.0784 0.9425
13.1200 6.3703 -2.0665 0.9428
12.4665 7.4990 -2.0613 0.9429
11.7135 8.5598 -2.0556 0.9431
10.0390 8.8156 -1.8930 0.9475
8.2533 10.3934 -1.8805 0.9478
7.2650 11.0503 -1.8738 0.9480
5.1422 12.0769 -1.8598 0.9484
3.7729 11.6577 -1.7361 0.9517
1.2748 5.6092 -0.8150 0.9770
0.7448 5.5272 -0.7902 0.9777
-0.5015 11.1065 -1.5753 0.9561
-1.5109 11.1529 -1.5947 0.9555
-2.5170 11.0386 -1.6042 0.9553
-4.6080 10.8011 -1.6639 0.9537
-5.7313 10.6735 -1.7166 0.9522
-6.9380 10.5365 -1.7875 0.9503
-7.8365 9.8541 -1.7839 0.9504
-8.6659 9.0927 -1.7797 0.9505
-9.4247 8.2643 -1.7761 0.9506
-10.1080 7.3755 -1.7729 0.9507
-11.2304 5.4430 -1.7683 0.9508
-12.9961 3.6281 -1.9118 0.9469
-13.2661 2.4512 -1.9115 0.9470
-13.4343 1.2554 -1.9118 0.9469
-13.4607 -1.1589 -1.9143 0.9469
-13.3183 -2.3605 -1.9165 0.9468
-12.7258 -4.7100 -1.9226 0.9467
-12.2788 -5.8409 -1.9266 0.9465
-11.0966 -7.9735 -1.9361 0.9463
-10.3685 -8.9591 -1.9416 0.9461
-9.5550 -9.8803 -1.9475 0.9460
-8.0004 -9.9110 -1.8047 0.9498
-4.0773 -12.2625 -1.8310 0.9491
-2.9760 -12.6264 -1.8380 0.9489
-1.8423 -12.8918 -1.8452 0.9487
0.4870 -13.1147 -1.8595 0.9484
2.1544 -9.8099 -1.4231 0.9602
5.1267 -12.2885 -1.8866 0.9476
7.2789 -11.2492 -1.8985 0.9473
8.2786 -10.5827 -1.9038 0.9472
11.7604 -8.7263 -2.0749 0.9426
13.1648 -6.5111 -2.0810 0.9424
14.1354 -4.0684 -2.0841 0.9423
14.7021 -0.1713 -2.0833 0.9423
14.6459 1.1430 -2.0815 0.9424
14.4676 2.4450 -2.0790 0.9424
14.1691 3.7230 -2.0758 0.9425
13.7537 4.9657 -2.0719 0.9426
10.1844 8.6586 -1.8940 0.9474
9.3396 9.5042 -1.8880 0.9476
8.4239 10.2664 -1.8816 0.9478
5.3384 12.0013 -1.8611 0.9483
3.9885 11.6822 -1.7491 0.9514
0.8274 5.4769 -0.7848 0.9779
0.6839 11.3065 -1.6049 0.9553
-1.3319 11.1732 -1.5943 0.9556
-2.3361 11.0591 -1.6015 0.9554
-3.3577 10.9431 -1.6219 0.9548
-5.5251 10.6970 -1.7059 0.9525
-7.6812 9.9827 -1.7847 0.9504
-8.5227 9.2339 -1.7804 0.9505
-9.9916 7.5385 -1.7734 0.9507
-10.6094 6.6049 -1.7707 0.9508
-11.5917 4.6000 -1.7670 0.9509
-13.4953 0.2652 -1.9125 0.9469
-13.3514 -2.1466 -1.9160 0.9468
-13.1243 -3.3364 -1.9187 0.9468
-5.3227 -11.7125 -1.8229 0.9494
-2.0470 -12.8517 -1.8439 0.9488
-0.8931 -13.0337 -1.8511 0.9486
1.4536 -13.0842 -1.8653 0.9482
6.0317 -11.9105 -1.8917 0.9475
7.0942 -11.3583 -1.8975 0.9473
8.1043 -10.7088 -1.9028 0.9472
12.3864 -7.8494 -2.0778 0.9425
13.0562 -6.7195 -2.0806 0.9424
13.6184 -5.5308 -2.0826 0.9423
14.0674 -4.2938 -2.0840 0.9423
14.3991 -3.0196 -2.0846 0.9423
14.6992 -0.4066 -2.0835 0.9423
14.6650 0.9086 -2.0819 0.9424
-11.6778 -0.1443 -1.9239 0.9538
-11.4860 -2.2259 -1.9274 0.9537
-11.2556 -3.2482 -1.9299 0.9536
-10.9372 -4.2482 -1.9329 0.9535
-10.5327 -5.2186 -1.9364 0.9535
-8.8300 -7.8800 -1.9497 0.9532
-8.1117 -8.6610 -1.9549 0.9530
-7.3038 -9.3503 -1.9546 0.9530
-5.9825 -9.2602 -1.8162 0.9563
-5.1465 -9.7882 -1.8218 0.9562
-2.3877 -10.9092 -1.8397 0.9557
-1.4074 -11.1160 -1.8459 0.9556
-0.4092 -11.2346 -1.8520 0.9554
0.5989 -11.2633 -1.8581 0.9553
2.2232 -9.4024 -1.5917 0.9616
4.5649 -10.4672 -1.8812 0.9548
5.4975 -10.0446 -1.8864 0.9546
6.3900 -9.5372 -1.8912 0.9545
8.0222 -8.2836 -1.8997 0.9543
11.3439 -5.3863 -2.0687 0.9504
11.7888 -4.3537 -2.0703 0.9503
12.5659 0.0547 -2.0701 0.9503
12.5008 1.1771 -2.0685 0.9504
12.3321 2.2877 -2.0662 0.9504
12.0616 3.3765 -2.0634 0.9505
11.6921 4.4341 -2.0600 0.9506
11.2274 5.4513 -2.0561 0.9507
10.0225 7.3240 -2.0450 0.9509
8.6010 7.5529 -1.8857 0.9547
7.8695 8.2688 -1.8805 0.9548
6.2335 9.4813 -1.8693 0.9550
5.3439 9.9691 -1.8634 0.9552
4.4167 10.3732 -1.8573 0.9553
3.4601 10.6912 -1.8512 0.9555
0.7452 5.5302 -0.9193 0.9776
-0.5002 11.0781 -1.8269 0.9560
-1.4840 10.9541 -1.8211 0.9562
-2.4499 10.7444 -1.8155 0.9563
-5.9951 9.1046 -1.7959 0.9568
-6.7700 8.5130 -1.7918 0.9569
-8.7396 6.3770 -1.7823 0.9571
-9.2630 5.5630 -1.7800 0.9571
-9.7136 4.7078 -1.7782 0.9572
-11.2428 3.1386 -1.9229 0.9538
-11.4766 2.1205 -1.9227 0.9538
-11.6219 1.0860 -1.9229 0.9538
-11.6774 0.0426 -1.9237 0.9538
-11.6426 -1.0024 -1.9251 0.9537
-11.0005 -4.0714 -1.9324 0.9536
-10.6112 -5.0476 -1.9358 0.9535
-10.1378 -5.9882 -1.9397 0.9534
-7.4581 -9.2392 -1.9561 0.9530
-6.2035 -9.2732 -1.8380 0.9558
-4.4251 -10.1664 -1.8266 0.9560
-1.5842 -11.0854 -1.8448 0.9556
0.4183 -11.2649 -1.8570 0.9553
2.0685 -9.4188 -1.5886 0.9617
2.9433 -9.3259 -1.6110 0.9611
4.3946 -10.5335 -1.8802 0.9548
5.3336 -10.1265 -1.8855 0.9547
6.2337 -9.6340 -1.8904 0.9545
7.0871 -9.0596 -1.8949 0.9544
7.8858 -8.4078 -1.8990 0.9543
11.2543 -5.5662 -2.0684 0.9504
11.7163 -4.5413 -2.0701 0.9503
12.5085 -1.2699 -2.0712 0.9503
12.5666 -0.1464 -2.0703 0.9503
12.3698 2.0905 -2.0667 0.9504
12.1173 3.1839 -2.0640 0.9505
11.7653 4.2478 -2.0607 0.9506
11.3173 5.2729 -2.0568 0.9506
10.7777 6.2504 -2.0525 0.9507
10.1519 7.1723 -2.0477 0.9509
7.2235 8.8035 -1.8760 0.9549
6.3880 9.3856 -1.8703 0.9550
5.5059 9.8879 -1.8644 0.9552
4.5849 10.3072 -1.8584 0.9553
3.6329 10.6407 -1.8523 0.9554
2.6581 10.8866 -1.8461 0.9556
0.8279 5.4798 -0.9130 0.9778
0.6721 11.1118 -1.8339 0.9559
-1.3092 10.9826 -1.8221 0.9562
-2.2789 10.7881 -1.8164 0.9563
-3.2247 10.5097 -1.8110 0.9564
-5.8511 9.2033 -1.7966 0.9568
-6.6354 8.6236 -1.7925 0.9568
-8.0339 7.2755 -1.7856 0.9570
-9.6385 4.8634 -1.7785 0.9572
-10.0270 3.9791 -1.7772 0.9572
-11.1917 3.3183 -1.9231 0.9538
-11.4413 2.3039 -1.9227 0.9538
-11.6025 1.2718 -1.9228 0.9538
-11.6741 0.2294 -1.9235 0.9538
-11.3482 -2.8849 -1.9289 0.9536
-11.0611 -3.8937 -1.9318 0.9536
-10.6871 -4.8756 -1.9351 0.9535
-10.2284 -5.8230 -1.9389 0.9534
-9.6881 -6.7290 -1.9432 0.9533
-9.0694 -7.5865 -1.9479 0.9532
-7.6109 -9.1257 -1.9576 0.9530
-6.4395 -9.3003 -1.8635 0.9552
-2.7323 -10.8143 -1.8375 0.9558
1.2481 -11.2337 -1.8620 0.9552
1.9144 -9.4352 -1.5860 0.9617
5.1683 -10.2056 -1.8846 0.9547
6.0760 -9.7281 -1.8895 0.9546
6.9383 -9.1681 -1.8941 0.9545
7.7473 -8.5298 -1.8983 0.9544
10.5913 -6.7118 -2.0657 0.9504
11.6408 -4.7276 -2.0698 0.9503
12.3065 -2.5808 -2.0715 0.9503
12.4871 -1.4700 -2.0713 0.9503
12.5639 -0.3475 -2.0706 0.9503
12.4042 1.8926 -2.0671 0.9504
-10.2799 -0.1271 -1.9324 0.9590
-8.8330 -5.4100 -1.9469 0.9587
-8.3305 -6.1905 -1.9508 0.9586
-6.4339 -8.2368 -1.9645 0.9584
-5.6839 -8.7978 -1.9687 0.9583
-2.9311 -9.3104 -1.8347 0.9611
-1.2332 -9.7402 -1.8454 0.9608
-0.3584 -9.8401 -1.8508 0.9607
2.2058 -9.3290 -1.8018 0.9617
3.1484 -9.4461 -1.8715 0.9603
3.9905 -9.1500 -1.8763 0.9602
4.8041 -8.7776 -1.8808 0.9601
5.5821 -8.3315 -1.8850 0.9600
7.5665 -7.8130 -2.0443 0.9567
8.8831 -6.3734 -2.0550 0.9565
9.8967 -4.6992 -2.0592 0.9564
10.5864 -2.8643 -2.0614 0.9563
10.8014 -1.9065 -2.0616 0.9563
10.9269 -0.9330 -2.0613 0.9563
10.9620 0.0478 -2.0604 0.9564
10.5264 2.9467 -2.0546 0.9565
10.2061 3.8705 -2.0517 0.9565
9.8028 4.7596 -2.0482 0.9566
8.7426 6.3888 -2.0353 0.9569
4.6770 8.7250 -1.8607 0.9605
0.7457 5.5342 -1.0496 0.9775
0.4332 9.7475 -1.8340 0.9611
-1.3025 9.6143 -1.8236 0.9613
-2.1511 9.4338 -1.8187 0.9614
-3.7777 8.8549 -1.8095 0.9616
-4.5438 8.4620 -1.8053 0.9617
-5.2708 8.0046 -1.8014 0.9617
-7.1678 6.2853 -1.7919 0.9619
-9.8975 2.7631 -1.9315 0.9590
-10.1036 1.8668 -1.9312 0.9590
-10.2796 0.0375 -1.9322 0.9590
-10.2482 -0.8823 -1.9334 0.9590
-10.1370 -1.7967 -1.9351 0.9590
-9.9468 -2.6988 -1.9372 0.9589
-9.6786 -3.5822 -1.9398 0.9589
-8.9155 -5.2662 -1.9463 0.9587
-8.4254 -6.0542 -1.9501 0.9587
-7.8672 -6.7978 -1.9543 0.9586
-5.8239 -8.7057 -1.9687 0.9583
-4.9864 -9.1261 -1.9547 0.9586
-3.9352 -9.0408 -1.8533 0.9607
-3.0782 -9.2575 -1.8337 0.9611
-2.2446 -9.5232 -1.8390 0.9610
-1.3882 -9.7141 -1.8444 0.9608
2.0524 -9.3453 -1.7984 0.9618
5.4460 -8.4165 -1.8843 0.9600
6.2780 -8.0254 -1.9152 0.9594
7.4303 -7.9222 -2.0415 0.9568
8.1485 -7.2615 -2.0515 0.9565
8.7779 -6.5133 -2.0545 0.9565
9.3364 -5.7092 -2.0570 0.9564
10.2209 -3.9616 -2.0604 0.9564
10.7695 -2.0791 -2.0616 0.9563
10.9111 -1.1078 -2.0614 0.9563
10.9229 0.8524 -2.0593 0.9564
10.7932 1.8240 -2.0575 0.9564
10.5747 2.7785 -2.0551 0.9565
9.8808 4.6036 -2.0489 0.9566
9.4123 5.4586 -2.0451 0.9567
8.8602 6.2597 -2.0391 0.9568
7.6243 6.4821 -1.8810 0.9601
6.9974 7.1208 -1.8765 0.9602
6.3167 7.6984 -1.8718 0.9603
5.5882 8.2105 -1.8668 0.9604
4.8184 8.6534 -1.8616 0.9605
3.1819 9.3198 -1.8510 0.9607
-0.2834 9.7301 -1.8297 0.9612
-1.1490 9.6387 -1.8245 0.9613
-2.0008 9.4715 -1.8196 0.9614
-4.4096 8.5371 -1.8061 0.9616
-7.6016 5.7353 -1.7899 0.9620
-8.0746 5.0268 -1.7878 0.9620
-8.4839 4.2808 -1.7861 0.9621
-9.8525 2.9213 -1.9316 0.9590
-10.0725 2.0283 -1.9312 0.9590
-10.2768 0.2020 -1.9320 0.9590
-10.2597 -0.7181 -1.9331 0.9590
-10.1627 -1.6339 -1.9347 0.9590
-9.7322 -3.4259 -1.9393 0.9589
-9.4012 -4.2889 -1.9423 0.9588
-7.9719 -6.6684 -1.9535 0.9586
-7.3605 -7.3713 -1.9580 0.9585
-5.9597 -8.6073 -1.9678 0.9583
-5.1622 -9.0986 -1.9663 0.9583
-2.3955 -9.4811 -1.8381 0.9610
-1.5427 -9.6856 -1.8435 0.9609
0.2083 -9.8628 -1.8542 0.9606
1.8994 -9.3615 -1.7955 0.9619
3.6923 -9.2648 -1.8746 0.9602
4.5169 -8.9193 -1.8792 0.9601
5.3085 -8.4992 -1.8835 0.9600
7.2599 -7.9931 -2.0296 0.9570
8.0290 -7.3889 -2.0509 0.9566
8.6704 -6.6513 -2.0540 0.9565
9.2420 -5.8567 -2.0566 0.9564
9.7384 -5.0120 -2.0586 0.9564
10.1551 -4.1242 -2.0602 0.9564
10.7348 -2.2512 -2.0616 0.9563
10.9366 0.6776 -2.0596 0.9564
-9.1725 -0.1134 -1.9390 0.9632
-8.5822 -3.3335 -1.9461 0.9631
-8.2615 -4.0933 -1.9489 0.9630
-7.4255 -5.5180 -1.9555 0.9629
-6.3495 -6.7795 -1.9634 0.9627
-5.7306 -7.3363 -1.9678 0.9627
-5.0635 -7.8375 -1.9724 0.9626
-3.6007 -8.6480 -1.9801 0.9624
-1.9329 -8.8312 -1.9109 0.9637
0.4659 -8.7613 -1.8546 0.9648
1.2505 -8.7064 -1.8592 0.9647
2.0289 -8.5807 -1.8638 0.9646
3.6115 -8.2810 -1.9097 0.9637
4.4788 -8.1832 -1.9719 0.9626
6.7223 -6.9413 -2.0425 0.9613
8.3545 -4.9268 -2.0502 0.9611
9.3786 -2.5375 -2.0537 0.9611
9.5689 -1.6890 -2.0539 0.9611
9.6803 -0.8265 -2.0537 0.9611
9.7118 0.0423 -2.0529 0.9611
9.6632 0.9099 -2.0516 0.9611
9.3289 2.6115 -2.0478 0.9612
9.0465 3.4308 -2.0451 0.9612
8.6907 4.2197 -2.0421 0.9613
8.2648 4.9715 -2.0387 0.9613
7.7579 5.6692 -2.0310 0.9615
6.1050 6.4148 -1.8719 0.9644
5.4945 6.9192 -1.8676 0.9645
4.8423 7.3653 -1.8632 0.9646
4.1542 7.7497 -1.8586 0.9647
2.6937 8.3231 -1.8492 0.9649
-1.9154 8.4005 -1.8213 0.9654
-1.6239 5.0054 -1.1123 0.9787
-4.6983 7.1352 -1.8059 0.9657
-5.3081 6.6748 -1.8027 0.9657
-6.3930 5.6059 -1.7973 0.9658
-6.8604 5.0058 -1.7951 0.9659
-7.2732 4.3680 -1.7934 0.9659
-7.6286 3.6973 -1.7919 0.9659
-8.5684 3.2425 -1.9365 0.9632
-9.1296 0.8531 -1.9382 0.9632
-9.1437 -0.7873 -1.9399 0.9632
-9.0437 -1.6029 -1.9415 0.9631
-8.8729 -2.4075 -1.9434 0.9631
-7.5104 -5.3967 -1.9549 0.9629
-6.4547 -6.6745 -1.9627 0.9628
-5.8449 -7.2407 -1.9670 0.9627
-5.1861 -7.7522 -1.9715 0.9626
-2.9543 -8.8850 -1.9792 0.9624
-2.0846 -8.8444 -1.9208 0.9635
-1.2534 -8.7709 -1.8728 0.9644
-0.4582 -8.7351 -1.8490 0.9649
1.8905 -8.6084 -1.8630 0.9646
4.3196 -8.2014 -1.9594 0.9628
5.2115 -8.0541 -2.0278 0.9615
5.9411 -7.5947 -2.0382 0.9613
6.6085 -7.0460 -2.0420 0.9613
7.2228 -6.4365 -2.0450 0.9612
7.7793 -5.7723 -2.0476 0.9612
8.2732 -5.0591 -2.0498 0.9611
9.0552 -3.5098 -2.0529 0.9611
9.3364 -2.6872 -2.0536 0.9611
9.6662 -0.9814 -2.0538 0.9611
9.6778 0.7553 -2.0519 0.9611
9.5638 1.6162 -2.0503 0.9611
8.3459 4.8401 -2.0394 0.9613
7.8604 5.5533 -2.0344 0.9614
6.7638 5.7504 -1.8766 0.9644
3.5663 8.0173 -1.8548 0.9648
2.8279 8.2828 -1.8500 0.9649
2.0706 8.4804 -1.8452 0.9649
-0.2522 8.6586 -1.8310 0.9652
-2.5226 8.2214 -1.8178 0.9655
-3.2403 7.9452 -1.8138 0.9655
-4.5851 7.2119 -1.8065 0.9657
-5.7765 6.2586 -1.8003 0.9658
-6.7807 5.1160 -1.7955 0.9659
-7.5694 3.8194 -1.7922 0.9659
-8.7916 2.6067 -1.9383 0.9632
-8.9880 1.8099 -1.9380 0.9632
-9.1145 0.9991 -1.9382 0.9632
-9.1700 0.1802 -1.9387 0.9632
-9.1541 -0.6407 -1.9397 0.9632
-8.6805 -3.0557 -1.9452 0.9631
-5.3072 -7.6650 -1.9707 0.9626
-3.0964 -8.8372 -1.9794 0.9624
-2.2380 -8.8577 -1.9312 0.9633
-1.3991 -8.7840 -1.8802 0.9643
2.5227 -8.4628 -1.8667 0.9645
4.1624 -8.2192 -1.9475 0.9630
5.8133 -7.6816 -2.0363 0.9614
6.4931 -7.1489 -2.0414 0.9613
7.1171 -6.5496 -2.0445 0.9612
8.1897 -5.1899 -2.0495 0.9611
9.2917 -2.8361 -2.0535 0.9611
9.5099 -1.9943 -2.0539 0.9611
9.5900 1.4632 -2.0506 0.9611
-8.2728 -0.1023 -1.9445 0.9666
-7.9665 -2.2990 -1.9487 0.9665
-7.7376 -3.0055 -1.9509 0.9665
-6.6916 -4.9726 -1.9594 0.9663
-5.1610 -6.6071 -1.9704 0.9661
-4.5591 -7.0569 -1.9745 0.9661
-1.8126 -8.2818 -1.9925 0.9658
-1.0661 -8.4203 -1.9948 0.9657
1.9674 -8.3208 -2.0095 0.9655
6.5726 -5.6710 -2.0402 0.9650
7.0613 -5.0663 -2.0425 0.9649
7.4929 -4.4188 -2.0444 0.9649
8.5805 -1.5145 -2.0478 0.9648
8.6805 -0.7411 -2.0475 0.9648
8.6660 0.8160 -2.0457 0.9649
8.3679 2.3425 -2.0422 0.9649
8.1156 3.0778 -2.0399 0.9650
7.7976 3.7860 -2.0372 0.9650
7.4167 4.4614 -2.0342 0.9651
6.9728 5.0954 -2.0297 0.9651
5.4819 5.7601 -1.8688 0.9679
3.0883 7.2531 -1.8527 0.9681
0.7484 5.5539 -1.3171 0.9772
0.3467 7.8025 -1.8356 0.9684
-0.3515 7.7844 -1.8314 0.9685
-1.0438 7.7046 -1.8273 0.9686
-1.7247 7.5640 -1.8233 0.9686
-1.6239 5.0055 -1.2368 0.9786
-3.0320 7.1069 -1.8159 0.9687
-3.6485 6.7947 -1.8126 0.9688
-4.2341 6.4301 -1.8094 0.9689
-5.2956 5.5564 -1.8040 0.9690
-7.4196 3.5960 -1.9378 0.9667
-7.9658 2.2238 -1.9437 0.9666
-8.1319 1.5025 -1.9435 0.9666
-8.2728 0.0302 -1.9443 0.9666
-8.1557 -1.4455 -1.9466 0.9665
-8.0009 -2.1709 -1.9484 0.9665
-7.7831 -2.8806 -1.9505 0.9665
-7.5038 -3.5695 -1.9529 0.9664
-7.1647 -4.2321 -1.9557 0.9664
-5.8147 -6.0127 -1.9658 0.9662
-5.2642 -6.5213 -1.9697 0.9661
-2.6676 -8.0228 -1.9870 0.9659
-1.9441 -8.2483 -1.9917 0.9658
-1.2005 -8.4009 -1.9945 0.9657
-0.4450 -8.4831 -1.9965 0.9657
0.3157 -8.5017 -1.9995 0.9656
1.0768 -8.4564 -2.0035 0.9656
2.5798 -8.1740 -2.0145 0.9654
3.3116 -7.9377 -2.0214 0.9653
4.6938 -7.2540 -2.0306 0.9651
5.3324 -6.8166 -2.0340 0.9651
5.9295 -6.3220 -2.0371 0.9650
7.8020 -3.8587 -2.0457 0.9649
8.1203 -3.1474 -2.0468 0.9648
8.3721 -2.4096 -2.0475 0.9648
8.7092 -0.1014 -2.0470 0.9648
8.6790 0.6773 -2.0460 0.9649
8.4058 2.2087 -2.0426 0.9649
7.4893 4.3433 -2.0347 0.9651
7.0594 4.9874 -2.0314 0.9651
4.4573 6.5488 -1.8618 0.9680
3.2053 7.2057 -1.8535 0.9681
2.5423 7.4463 -1.8492 0.9682
1.8620 7.6260 -1.8449 0.9683
0.8340 5.5204 -1.3121 0.9773
-0.9207 7.7234 -1.8280 0.9685
-2.2718 7.4041 -1.8202 0.9687
-4.6888 6.0937 -1.8071 0.9689
-5.6835 5.1470 -1.8021 0.9690
-6.1142 4.6130 -1.8001 0.9690
-7.1895 3.6277 -1.8926 0.9675
-7.6902 3.0517 -1.9445 0.9666
-7.9296 2.3511 -1.9438 0.9666
-8.1068 1.6325 -1.9435 0.9666
-8.2208 0.9011 -1.9437 0.9666
-8.2707 0.1625 -1.9442 0.9666
-8.2559 -0.5779 -1.9451 0.9666
-8.1766 -1.3146 -1.9464 0.9665
-8.0332 -2.0422 -1.9480 0.9665
-7.8266 -2.7551 -1.9501 0.9665
-7.2296 -4.1158 -1.9552 0.9664
-6.4017 -5.3550 -1.9615 0.9663
-5.9081 -5.9168 -1.9651 0.9662
-3.4885 -7.6764 -1.9817 0.9659
-2.0750 -8.2127 -1.9908 0.9658
-1.3347 -8.3796 -1.9942 0.9657
-0.5806 -8.4730 -1.9960 0.9657
0.1796 -8.5031 -1.9989 0.9657
2.4472 -8.2096 -2.0133 0.9654
3.1821 -7.9845 -2.0201 0.9653
3.8952 -7.6916 -2.0263 0.9652
4.5757 -7.3259 -2.0300 0.9651
5.8260 -6.4145 -2.0366 0.9650
6.3849 -5.8759 -2.0393 0.9650
7.3454 -4.6548 -2.0438 0.9649
7.7383 -3.9826 -2.0454 0.9649
8.3321 -2.5432 -2.0474 0.9648
8.5275 -1.7883 -2.0478 0.9648
8.6529 -1.0186 -2.0477 0.9648
8.7071 -0.2408 -2.0471 0.9648
8.6896 0.5384 -2.0462 0.9649
8.6008 1.3123 -2.0448 0.9649
-7.5267 -0.0930 -1.9489 0.9694
-7.4919 -0.7660 -1.9499 0.9694
-7.3983 -1.4338 -1.9512 0.9693
-7.2466 -2.0913 -1.9528 0.9693
-7.0377 -2.7336 -1.9548 0.9693
-4.6899 -6.0040 -1.9726 0.9690
-3.5594 -6.7696 -1.9803 0.9689
-2.9458 -7.0751 -1.9843 0.9688
-0.9687 -7.6513 -1.9969 0.9686
1.1034 -7.6821 -2.0094 0.9684
1.7894 -7.5677 -2.0134 0.9684
2.4636 -7.3916 -2.0173 0.9683
3.1203 -7.1549 -2.0210 0.9683
3.7541 -6.8591 -2.0245 0.9682
4.3593 -6.5064 -2.0278 0.9682
4.9309 -6.0996 -2.0308 0.9681
5.4638 -5.6418 -2.0335 0.9681
5.9534 -5.1367 -2.0359 0.9680
6.3953 -4.5885 -2.0380 0.9680
7.1210 -3.3812 -2.0410 0.9680
7.3982 -2.7322 -2.0420 0.9679
7.6150 -2.0603 -2.0426 0.9679
7.7694 -1.3713 -2.0427 0.9679
7.8861 0.0344 -2.0419 0.9679
7.5788 2.1216 -2.0377 0.9680
7.0639 3.4298 -2.0332 0.9681
6.7199 4.0422 -2.0304 0.9681
4.9694 5.2215 -1.8663 0.9707
4.4743 5.6345 -1.8629 0.9707
3.9450 6.0004 -1.8593 0.9708
1.6938 5.2335 -1.4243 0.9775
1.1734 5.1630 -1.3709 0.9784
0.2340 5.2651 -1.3646 0.9785
-0.3192 7.0698 -1.8324 0.9712
-1.5670 6.8724 -1.8251 0.9713
-1.5976 4.9244 -1.3404 0.9788
-3.8496 5.8463 -1.8124 0.9715
-4.3507 5.4708 -1.8098 0.9715
-5.6271 4.1059 -1.8036 0.9716
-7.0397 2.6640 -1.9488 0.9694
-7.4921 0.7001 -1.9483 0.9694
-7.5267 0.0274 -1.9488 0.9694
-7.5025 -0.6459 -1.9497 0.9694
-7.2780 -1.9747 -1.9525 0.9693
-7.0792 -2.6201 -1.9544 0.9693
-6.8243 -3.2463 -1.9567 0.9693
-6.5152 -3.8484 -1.9592 0.9692
-6.1538 -4.4219 -1.9620 0.9692
-5.7428 -4.9621 -1.9651 0.9691
-4.7838 -5.9262 -1.9719 0.9690
-4.2428 -6.3422 -1.9757 0.9690
-2.4222 -7.2848 -1.9877 0.9688
1.6674 -7.5927 -2.0127 0.9684
4.2535 -6.5735 -2.0272 0.9682
4.8314 -6.1762 -2.0303 0.9681
5.8693 -5.2303 -2.0355 0.9680
6.7198 -4.1092 -2.0394 0.9680
7.0652 -3.4943 -2.0408 0.9680
7.5808 -2.1819 -2.0425 0.9679
7.7464 -1.4955 -2.0427 0.9679
7.8485 -0.7968 -2.0426 0.9679
7.8862 -0.0919 -2.0420 0.9679
7.8592 0.6133 -2.0411 0.9680
7.7679 1.3127 -2.0398 0.9680
7.6130 2.0004 -2.0381 0.9680
6.7854 3.9351 -2.0309 0.9681
6.3970 4.5194 -2.0279 0.9682
5.0539 5.1430 -1.8669 0.9706
3.4878 6.2637 -1.8562 0.9708
1.2621 5.1690 -1.3777 0.9783
-0.2061 7.0766 -1.8330 0.9712
-0.8363 7.0155 -1.8293 0.9712
-1.5281 4.9802 -1.3488 0.9787
-3.2184 6.2309 -1.8158 0.9714
-6.7139 3.3877 -1.9471 0.9694
-6.9966 2.7765 -1.9490 0.9694
-7.2146 2.1391 -1.9484 0.9694
-7.5248 0.1479 -1.9487 0.9694
-7.5111 -0.5257 -1.9495 0.9694
-7.4385 -1.1959 -1.9507 0.9693
-7.1189 -2.5060 -1.9541 0.9693
-6.8739 -3.1360 -1.9562 0.9693
-6.5743 -3.7427 -1.9587 0.9692
-6.2221 -4.3217 -1.9615 0.9692
-4.8764 -5.8470 -1.9713 0.9690
-3.7715 -6.6474 -1.9789 0.9689
-3.1684 -6.9721 -1.9829 0.9689
-2.5376 -7.2424 -1.9870 0.9688
-0.5280 -7.7049 -1.9996 0.9686
0.8563 -7.7078 -2.0080 0.9685
1.5452 -7.6157 -2.0120 0.9684
2.8879 -7.2464 -2.0197 0.9683
4.7308 -6.2511 -2.0298 0.9681
5.7836 -5.3225 -2.0351 0.9680
7.3059 -2.9671 -2.0417 0.9679
7.8350 -0.9224 -2.0426 0.9679
7.8688 0.4875 -2.0413 0.9679
7.7889 1.1884 -2.0400 0.9680
-6.8974 -0.0852 -1.9527 0.9717
-6.8652 -0.7019 -1.9536 0.9717
-6.7791 -1.3137 -1.9548 0.9717
-6.6396 -1.9161 -1.9563 0.9717
-6.4476 -2.5044 -1.9581 0.9717
-6.2045 -3.0741 -1.9602 0.9716
-5.9119 -3.6209 -1.9626 0.9716
-5.5719 -4.1406 -1.9652 0.9716
-5.1869 -4.6289 -1.9681 0.9715
-4.7597 -5.0821 -1.9712 0.9715
-4.2934 -5.4964 -1.9744 0.9714
-3.7913 -5.8685 -1.9779 0.9714
-3.2573 -6.1952 -1.9815 0.9713
-2.6954 -6.4737 -1.9852 0.9713
-2.1098 -6.7015 -1.9889 0.9712
-0.8859 -6.9972 -1.9967 0.9711
-0.2572 -7.0620 -2.0005 0.9710
0.3759 -7.0702 -2.0044 0.9710
1.6352 -6.9158 -2.0118 0.9709
2.2510 -6.7537 -2.0153 0.9708
3.9813 -5.9423 -2.0249 0.9707
4.9888 -5.1514 -2.0301 0.9706
5.4353 -4.6897 -2.0323 0.9706
6.1942 -3.6528 -2.0357 0.9705
6.9503 -1.8805 -2.0383 0.9705
7.0912 -1.2516 -2.0385 0.9705
7.1740 -0.6125 -2.0383 0.9705
7.1632 0.6745 -2.0368 0.9705
6.9187 1.9368 -2.0339 0.9706
6.4500 3.1317 -2.0298 0.9706
5.3564 4.7037 -2.0180 0.9708
3.6052 5.4836 -1.8578 0.9731
3.0948 5.7734 -1.8544 0.9731
1.1734 5.1632 -1.4989 0.9782
0.6902 5.1220 -1.4631 0.9787
-0.8677 6.4051 -1.8298 0.9735
-3.5257 5.3544 -1.8149 0.9737
-5.2538 3.8336 -1.8412 0.9733
-5.9066 3.5473 -1.9505 0.9718
-6.8749 -0.5919 -1.9534 0.9717
-6.6684 -1.8093 -1.9560 0.9717
-6.4857 -2.4004 -1.9578 0.9717
-5.9678 -3.5251 -1.9621 0.9716
-5.2590 -4.5441 -1.9675 0.9715
-4.8391 -5.0038 -1.9706 0.9715
-4.3795 -5.4253 -1.9738 0.9714
-3.3550 -6.1402 -1.9808 0.9713
-2.7977 -6.4276 -1.9845 0.9713
-2.2160 -6.6646 -1.9883 0.9712
-0.9974 -6.9797 -1.9960 0.9711
-0.3701 -7.0546 -1.9998 0.9711
0.8957 -7.0344 -2.0075 0.9710
1.5238 -6.9388 -2.0112 0.9709
2.1420 -6.7868 -2.0147 0.9708
2.7448 -6.5792 -2.0181 0.9708
5.7696 -4.2811 -2.0339 0.9706
6.4490 -3.1896 -2.0368 0.9705
6.7114 -2.6014 -2.0377 0.9705
6.9191 -1.9914 -2.0383 0.9705
7.0907 1.1983 -2.0358 0.9705
6.1962 3.5935 -2.0278 0.9707
4.1714 5.0839 -1.8617 0.9730
3.6937 5.4269 -1.8584 0.9731
2.6582 5.9759 -1.8516 0.9732
1.7872 5.2347 -1.5659 0.9773
0.3072 5.0794 -1.4406 0.9791
-0.1886 6.4750 -1.8338 0.9734
-3.4404 5.4115 -1.8153 0.9737
-3.9053 5.0754 -1.8129 0.9737
-4.7359 4.2888 -1.8088 0.9738
-6.1612 3.1088 -1.9537 0.9717
-6.6115 1.9603 -1.9522 0.9717
-6.8829 -0.4818 -1.9533 0.9717
-6.8160 -1.0959 -1.9543 0.9717
-6.6955 -1.7021 -1.9557 0.9717
-6.5222 -2.2959 -1.9574 0.9717
-6.2972 -2.8728 -1.9594 0.9716
-5.6988 -3.9582 -1.9642 0.9716
-5.3296 -4.4581 -1.9670 0.9715
-4.9171 -4.9243 -1.9700 0.9715
-3.9747 -5.7405 -1.9766 0.9714
-2.8993 -6.3798 -1.9838 0.9713
-2.3216 -6.6260 -1.9876 0.9712
-1.7232 -6.8202 -1.9914 0.9712
0.1494 -7.0738 -2.0030 0.9710
2.6384 -6.6204 -2.0175 0.9708
3.2250 -6.3682 -2.0208 0.9708
3.7872 -6.0635 -2.0239 0.9707
4.3202 -5.7086 -2.0267 0.9707
4.8194 -5.3062 -2.0293 0.9706
5.2805 -4.8595 -2.0315 0.9706
6.0725 -3.8482 -2.0352 0.9706
6.3965 -3.2920 -2.0366 0.9705
6.6685 -2.7083 -2.0376 0.9705
7.1511 -0.8419 -2.0384 0.9705
7.1962 -0.1990 -2.0380 0.9705
7.1098 1.0848 -2.0360 0.9705
-6.3588 -0.0786 -1.9560 0.9737
-6.3289 -0.6471 -1.9568 0.9737
-6.2493 -1.2111 -1.9579 0.9737
-5.9429 -2.3083 -1.9610 0.9737
-5.7183 -2.8333 -1.9629 0.9736
-5.1343 -3.8154 -1.9675 0.9736
-4.3849 -4.6818 -1.9730 0.9735
-3.4918 -5.4049 -1.9792 0.9734
-1.3853 -6.3295 -1.9929 0.9732
-0.8153 -6.4395 -1.9965 0.9732
-0.2367 -6.4982 -2.0000 0.9732
0.3459 -6.5048 -2.0036 0.9731
0.9277 -6.4590 -2.0070 0.9731
3.1526 -5.7601 -2.0197 0.9729
4.1388 -5.1198 -2.0249 0.9728
5.6916 -3.3565 -2.0324 0.9727
5.9722 -2.8357 -2.0335 0.9727
6.5152 -1.1500 -2.0349 0.9727
6.6135 0.0288 -2.0342 0.9727
6.5817 0.6198 -2.0334 0.9727
6.3579 1.7798 -2.0307 0.9727
6.1679 2.3391 -2.0290 0.9728
5.9281 2.8783 -2.0269 0.9728
5.6406 3.3930 -2.0246 0.9728
4.9331 4.3320 -2.0193 0.9729
3.7697 4.7472 -1.8645 0.9750
3.3160 5.0436 -1.8566 0.9751
2.3566 5.5346 -1.8502 0.9751
1.1764 5.1764 -1.6327 0.9780
0.6902 5.1222 -1.5897 0.9786
-0.2689 5.9563 -1.8339 0.9754
-1.3210 5.7936 -1.8277 0.9754
-1.5909 4.9038 -1.5857 0.9787
-3.6725 4.6181 -1.8148 0.9756
-5.1292 3.7427 -1.9530 0.9738
-5.9474 2.2506 -1.9559 0.9737
-6.2512 1.1550 -1.9553 0.9737
-6.3589 0.0232 -1.9559 0.9737
-6.3379 -0.5457 -1.9566 0.9737
-6.2671 -1.1108 -1.9577 0.9737
-5.9781 -2.2126 -1.9606 0.9737
-4.0341 -4.9975 -1.9754 0.9735
-3.5768 -5.3467 -1.9786 0.9734
-3.0896 -5.6545 -1.9819 0.9734
-2.5760 -5.9182 -1.9853 0.9733
-2.0401 -6.1355 -1.9887 0.9733
-1.4860 -6.3045 -1.9923 0.9733
-0.9180 -6.4236 -1.9958 0.9732
-0.3406 -6.4915 -1.9994 0.9732
0.8240 -6.4710 -2.0064 0.9731
4.0555 -5.1843 -2.0245 0.9728
4.5079 -4.8064 -2.0268 0.9728
4.9246 -4.3885 -2.0289 0.9728
5.3019 -3.9341 -2.0307 0.9727
5.6366 -3.4468 -2.0321 0.9727
6.1665 -2.3901 -2.0342 0.9727
6.3572 -1.8297 -2.0347 0.9727
6.6135 -0.0770 -2.0343 0.9727
6.5914 0.5144 -2.0335 0.9727
6.5154 1.1011 -2.0324 0.9727
5.9745 2.7836 -2.0273 0.9728
5.6954 3.3030 -2.0250 0.9728
5.3706 3.7943 -2.0225 0.9729
5.0031 4.2535 -2.0198 0.9729
4.5842 4.6650 -2.0117 0.9730
2.9324 5.2663 -1.8540 0.9751
2.4456 5.4979 -1.8508 0.9751
-0.1736 5.9617 -1.8345 0.9753
-1.2285 5.8157 -1.8283 0.9754
-2.2377 5.4867 -1.8225 0.9755
-2.7153 5.2570 -1.8199 0.9755
-3.1702 4.9865 -1.8175 0.9756
-3.9982 4.3319 -1.8132 0.9756
-4.3652 3.9531 -1.8114 0.9757
-5.4033 3.3638 -1.9577 0.9737
-6.0954 1.8073 -1.9555 0.9737
-6.3574 0.1249 -1.9558 0.9737
-6.1720 -1.5690 -1.9588 0.9737
-5.8040 -2.6478 -1.9622 0.9737
-5.5499 -3.1595 -1.9643 0.9736
-4.9107 -4.1077 -1.9692 0.9736
-4.5301 -4.5367 -1.9719 0.9735
-3.1787 -5.6026 -1.9813 0.9734
-2.6696 -5.8744 -1.9847 0.9734
-2.1373 -6.1002 -1.9881 0.9733
-1.0203 -6.4060 -1.9952 0.9732
1.8692 -6.2704 -2.0125 0.9730
2.4261 -6.0877 -2.0157 0.9729
3.9711 -5.2474 -2.0241 0.9728
4.4296 -4.8770 -2.0264 0.9728
4.8529 -4.4660 -2.0285 0.9728
5.2375 -4.0178 -2.0304 0.9728
5.5800 -3.5361 -2.0319 0.9727
5.8774 -3.0249 -2.0331 0.9727
6.3269 -1.9311 -2.0346 0.9727
6.4750 -1.3579 -2.0349 0.9727
6.5993 0.4089 -2.0337 0.9727
6.5329 0.9968 -2.0326 0.9727
-5.8923 -0.0728 -1.9588 0.9755
-5.8645 -0.5996 -1.9595 0.9755
-5.7904 -1.1221 -1.9606 0.9754
-5.6706 -1.6365 -1.9619 0.9754
-5.5059 -2.1386 -1.9634 0.9754
-5.2975 -2.6247 -1.9652 0.9754
-4.7556 -3.5339 -1.9695 0.9753
-4.4261 -3.9499 -1.9719 0.9753
-4.0606 -4.3356 -1.9746 0.9753
-3.6619 -4.6879 -1.9774 0.9752
-3.2328 -5.0040 -1.9803 0.9752
-0.2190 -6.0116 -1.9996 0.9750
0.8580 -5.9737 -2.0061 0.9749
2.4233 -5.5566 -2.0151 0.9748
3.8253 -4.7320 -2.0226 0.9747
4.2375 -4.3755 -2.0247 0.9747
4.9574 -3.5569 -2.0282 0.9746
6.0898 -0.5200 -2.0316 0.9746
6.0813 0.5726 -2.0304 0.9746
5.8750 1.6446 -2.0280 0.9746
5.6998 2.1616 -2.0263 0.9746
5.2134 3.1360 -2.0223 0.9747
4.9064 3.5854 -2.0200 0.9747
3.7458 4.7171 -2.0022 0.9749
2.6331 4.9120 -1.8526 0.9768
2.1798 5.1196 -1.8496 0.9768
1.6685 5.1556 -1.8013 0.9774
0.6887 5.1107 -1.7142 0.9785
-0.7397 5.4603 -1.8316 0.9770
-1.2231 5.3640 -1.8288 0.9771
-2.1527 5.0459 -1.8235 0.9771
-2.5918 4.8268 -1.8211 0.9772
-3.0093 4.5701 -1.8189 0.9772
-3.4020 4.2779 -1.8168 0.9772
-3.7967 3.9836 -1.8293 0.9771
-5.3045 2.5709 -1.9594 0.9755
-5.5111 2.0855 -1.9587 0.9755
-5.6743 1.5841 -1.9583 0.9755
-5.8657 0.5481 -1.9583 0.9755
-5.6953 -1.5453 -1.9616 0.9754
-5.3379 -2.5392 -1.9649 0.9754
-4.1285 -4.2690 -1.9741 0.9753
-2.8601 -5.2346 -1.9828 0.9752
-1.8881 -5.6785 -1.9892 0.9751
-0.3151 -6.0055 -1.9990 0.9750
0.2235 -6.0195 -2.0023 0.9749
1.8214 -5.7712 -2.0117 0.9748
2.3335 -5.5933 -2.0146 0.9748
3.3011 -5.1016 -2.0199 0.9747
3.7484 -4.7916 -2.0222 0.9747
4.1662 -4.4420 -2.0244 0.9747
4.5509 -4.0555 -2.0263 0.9746
5.6974 -2.2083 -2.0311 0.9746
6.0016 -1.1587 -2.0318 0.9746
6.0808 -0.6174 -2.0317 0.9746
5.9013 1.5506 -2.0282 0.9746
5.7346 2.0704 -2.0266 0.9746
5.5215 2.5725 -2.0248 0.9747
5.2639 3.0528 -2.0227 0.9747
4.6250 3.9321 -2.0179 0.9747
2.7121 4.8706 -1.8531 0.9768
2.2621 5.0855 -1.8501 0.9768
0.7706 5.1006 -1.7147 0.9785
-0.1607 5.5181 -1.8350 0.9770
-0.6524 5.4729 -1.8321 0.9770
-1.1374 5.3844 -1.8293 0.9771
-1.5047 4.9040 -1.7051 0.9786
-2.9364 4.6186 -1.8193 0.9772
-3.3338 4.3326 -1.8172 0.9772
-3.7039 4.0130 -1.8153 0.9772
-4.3186 3.9109 -1.9367 0.9757
-5.2631 2.6557 -1.9596 0.9755
-5.6484 1.6747 -1.9583 0.9755
-5.8560 0.6419 -1.9582 0.9755
-5.8910 0.1158 -1.9586 0.9755
-5.8798 -0.4116 -1.9592 0.9755
-5.8222 -0.9361 -1.9602 0.9754
-5.7186 -1.4538 -1.9614 0.9754
-5.5699 -1.9607 -1.9628 0.9754
-5.1412 -2.9268 -1.9665 0.9754
-4.5482 -3.8045 -1.9710 0.9753
-4.1952 -4.2014 -1.9736 0.9753
-3.3895 -4.8953 -1.9792 0.9752
-2.4711 -5.4376 -1.9854 0.9751
-1.9782 -5.6459 -1.9886 0.9751
-1.4679 -5.8096 -1.9918 0.9751
-0.4110 -5.9980 -1.9984 0.9750
0.1271 -6.0205 -2.0017 0.9749
1.2012 -5.9204 -2.0081 0.9749
2.7412 -5.4128 -2.0168 0.9747
3.6705 -4.8500 -2.0218 0.9747
4.8398 -3.7127 -2.0276 0.9746
5.1560 -3.2674 -2.0290 0.9746
5.9823 -1.2545 -2.0318 0.9746
6.1088 -0.1690 -2.0314 0.9746
6.0974 0.3778 -2.0307 0.9746
-5.4840 -0.0678 -1.9613 0.9770
-5.2770 -1.5229 -1.9641 0.9769
-4.9292 -2.4423 -1.9672 0.9769
-4.1174 -3.6744 -1.9735 0.9768
-3.0065 -4.6537 -1.9813 0.9767
-2.5821 -4.9109 -1.9841 0.9767
-1.6711 -5.3081 -1.9901 0.9766
-0.2035 -5.5869 -1.9992 0.9765
0.2973 -5.5912 -2.0023 0.9765
0.7972 -5.5504 -2.0052 0.9765
1.7780 -5.3348 -2.0109 0.9764
2.7067 -4.9455 -2.0161 0.9763
3.1417 -4.6891 -2.0184 0.9763
3.9346 -4.0628 -2.0225 0.9763
4.2858 -3.6979 -2.0243 0.9762
4.8823 -2.8792 -2.0270 0.9762
5.3214 -1.9652 -2.0286 0.9762
5.4769 -1.4819 -2.0290 0.9762
5.5878 -0.9863 -2.0291 0.9762
5.6531 -0.4827 -2.0290 0.9762
5.6724 0.0247 -2.0285 0.9762
5.2922 2.0070 -2.0240 0.9762
5.0871 2.4700 -2.0223 0.9763
4.2355 3.7194 -2.0158 0.9763
3.8811 4.0781 -2.0132 0.9764
2.0256 4.7574 -1.8491 0.9783
1.5897 4.9120 -1.8463 0.9783
1.1424 5.0268 -1.8434 0.9783
0.6799 5.0457 -1.8207 0.9786
-1.5768 4.8602 -1.8272 0.9785
-3.2127 4.0398 -1.8458 0.9783
-3.7761 3.9621 -1.9573 0.9770
-4.1271 3.6190 -1.9629 0.9770
-4.7053 2.8258 -1.9628 0.9770
-4.9368 2.3927 -1.9618 0.9770
-5.2811 1.4743 -1.9608 0.9770
-5.4841 0.0200 -1.9612 0.9770
-5.4657 -0.4706 -1.9618 0.9770
-5.4043 -0.9578 -1.9627 0.9770
-5.1540 -1.9076 -1.9653 0.9769
-2.2170 -5.0935 -1.9865 0.9767
-0.7895 -5.5244 -1.9956 0.9766
0.2077 -5.5937 -2.0017 0.9765
0.7081 -5.5610 -2.0047 0.9765
1.6920 -5.3612 -2.0104 0.9764
2.1675 -5.1954 -2.0131 0.9764
2.6267 -4.9871 -2.0157 0.9763
3.8684 -4.1246 -2.0222 0.9763
4.2254 -3.7654 -2.0240 0.9762
4.5486 -3.3751 -2.0255 0.9762
5.6537 0.4412 -2.0280 0.9762
5.5890 0.9445 -2.0270 0.9762
5.4789 1.4396 -2.0258 0.9762
5.1268 2.3887 -2.0226 0.9763
4.6101 3.2570 -2.0185 0.9763
4.2955 3.6519 -2.0162 0.9763
3.9468 4.0164 -2.0137 0.9764
3.5642 4.3439 -2.0094 0.9764
2.1061 4.7347 -1.8531 0.9782
1.6686 4.8873 -1.8468 0.9783
1.2231 5.0092 -1.8440 0.9783
0.7637 5.0550 -1.8282 0.9785
-1.0578 5.0074 -1.8302 0.9785
-3.1183 4.0526 -1.8286 0.9785
-3.6706 3.9769 -1.9353 0.9773
-4.3846 3.3081 -1.9642 0.9769
-4.6599 2.9010 -1.9630 0.9770
-5.3748 1.0823 -1.9606 0.9770
-5.4828 0.1077 -1.9611 0.9770
-5.4722 -0.3830 -1.9617 0.9770
-5.4184 -0.8711 -1.9625 0.9770
-5.3218 -1.3529 -1.9637 0.9769
-5.0033 -2.2825 -1.9666 0.9769
-4.7835 -2.7233 -1.9684 0.9769
-4.5255 -3.1433 -1.9704 0.9769
-4.2311 -3.5393 -1.9726 0.9768
-2.7365 -4.8232 -1.9831 0.9767
-1.8391 -5.2490 -1.9890 0.9766
0.1181 -5.5948 -2.0012 0.9765
0.6188 -5.5701 -2.0042 0.9765
1.1160 -5.5005 -2.0071 0.9764
2.0836 -5.2282 -2.0126 0.9764
2.9888 -4.7853 -2.0176 0.9763
3.4085 -4.5039 -2.0198 0.9763
4.7867 -3.0334 -2.0265 0.9762
5.4264 -1.6563 -2.0289 0.9762
5.5533 -1.1646 -2.0291 0.9762
5.6709 -0.1569 -2.0287 0.9762
5.6039 0.8550 -2.0272 0.9762
-2.3033 -0.2355 -0.8873 0.9901
-5.0339 -0.9755 -1.9650 0.9783
-4.7857 -1.8589 -1.9674 0.9782
-4.6040 -2.2811 -1.9690 0.9782
-4.3855 -2.6860 -1.9708 0.9782
-4.1319 -3.0704 -1.9727 0.9782
-3.8449 -3.4313 -1.9749 0.9782
-3.1799 -4.0709 -1.9796 0.9781
-2.8068 -4.3446 -1.9821 0.9781
-2.4103 -4.5842 -1.9848 0.9781
-1.9936 -4.7880 -1.9875 0.9780
-1.5597 -4.9540 -1.9903 0.9780
0.2774 -5.2161 -2.0017 0.9779
3.9953 -3.4473 -2.0222 0.9776
4.2905 -3.0783 -2.0236 0.9776
4.5511 -2.6839 -2.0247 0.9776
4.7749 -2.2672 -2.0256 0.9776
5.1049 -1.3812 -2.0266 0.9776
5.2692 -0.4499 -2.0266 0.9776
5.2873 0.0230 -2.0262 0.9776
5.0846 1.4234 -2.0234 0.9776
4.2486 3.1047 -2.0165 0.9777
3.9496 3.4683 -2.0143 0.9777
3.2609 4.1064 -2.0095 0.9778
2.8722 4.3687 -2.0036 0.9779
2.4593 4.5879 -1.9949 0.9779
1.9387 4.5532 -1.8965 0.9790
1.4833 4.5830 -1.8460 0.9796
1.0660 4.6906 -1.8434 0.9796
0.2129 4.7917 -1.8381 0.9797
-0.6421 4.7398 -1.8330 0.9797
-1.8697 4.3826 -1.8260 0.9798
-2.2515 4.1931 -1.8239 0.9798
-2.6914 4.0873 -1.8754 0.9793
-3.1887 4.0096 -1.9632 0.9783
-3.8598 3.3846 -1.9673 0.9782
-4.3955 2.6397 -1.9648 0.9783
-4.6119 2.2352 -1.9640 0.9783
-4.7917 1.8133 -1.9634 0.9783
-5.0368 0.9306 -1.9629 0.9783
-5.0484 -0.8948 -1.9648 0.9783
-4.9509 -1.3433 -1.9659 0.9783
-3.5859 -3.7080 -1.9767 0.9781
-2.8753 -4.2981 -1.9817 0.9781
-2.4828 -4.5440 -1.9843 0.9781
-2.0694 -4.7543 -1.9870 0.9780
-1.6383 -4.9272 -1.9898 0.9780
-0.7367 -5.1549 -1.9955 0.9779
0.1938 -5.2186 -2.0012 0.9779
0.6605 -5.1875 -2.0040 0.9778
1.1232 -5.1146 -2.0067 0.9778
1.5781 -5.0002 -2.0093 0.9778
2.4494 -4.6505 -2.0142 0.9777
2.8585 -4.4177 -2.0164 0.9777
3.2453 -4.1486 -2.0185 0.9777
3.6065 -3.8453 -2.0203 0.9777
3.9391 -3.5103 -2.0220 0.9777
4.5071 -2.7561 -2.0246 0.9776
4.7377 -2.3432 -2.0255 0.9776
4.9299 -1.9108 -2.0262 0.9776
5.0821 -1.4627 -2.0266 0.9776
5.1929 -1.0025 -2.0268 0.9776
5.2615 -0.5342 -2.0267 0.9776
5.2872 -0.0616 -2.0263 0.9776
5.2699 0.4113 -2.0257 0.9776
5.2098 0.8804 -2.0248 0.9776
5.1073 1.3420 -2.0237 0.9776
4.9635 1.7920 -2.0223 0.9776
4.5573 2.6430 -2.0189 0.9777
4.2985 3.0369 -2.0169 0.9777
2.9437 4.3251 -2.0049 0.9778
1.5568 4.5599 -1.8465 0.9796
1.1412 4.6741 -1.8438 0.9796
0.7177 4.7506 -1.8412 0.9796
0.2897 4.7889 -1.8386 0.9797
-0.5663 4.7507 -1.8334 0.9797
-1.3997 4.5618 -1.8286 0.9798
-2.6057 4.0986 -1.8612 0.9794
-3.1024 4.0319 -1.9496 0.9784
-3.4783 3.7685 -1.9653 0.9783
-4.0957 3.0901 -1.9662 0.9783
-4.3531 2.7100 -1.9650 0.9783
-5.0212 1.0111 -1.9629 0.9783
-2.3025 0.2524 -0.8877 0.9901
-2.2938 0.0451 -0.8792 0.9902
-2.3037 -0.1612 -0.8850 0.9902
-5.0617 -0.8138 -1.9646 0.9783
-4.9713 -1.2638 -1.9657 0.9783
-4.8415 -1.7043 -1.9669 0.9783
-4.6732 -2.1320 -1.9684 0.9782
-4.2265 -2.9356 -1.9720 0.9782
-3.6440 -3.6493 -1.9763 0.9782
-2.9430 -4.2505 -1.9812 0.9781
-2.5546 -4.5026 -1.9838 0.9781
-1.2734 -5.0401 -1.9922 0.9780
-0.8189 -5.1412 -1.9950 0.9779
0.1102 -5.2197 -2.0007 0.9779
1.0410 -5.1307 -2.0062 0.9778
1.4975 -5.0237 -2.0089 0.9778
2.3741 -4.6881 -2.0138 0.9777
2.7869 -4.4620 -2.0160 0.9777
3.1780 -4.1993 -2.0181 0.9777
3.5440 -3.9019 -2.0200 0.9777
3.8819 -3.5724 -2.0217 0.9777
4.4620 -2.8276 -2.0244 0.9776
5.0579 -1.5438 -2.0265 0.9776
5.2524 -0.6183 -2.0267 0.9776
5.2858 -0.1462 -2.0264 0.9776
5.2236 0.7970 -2.0250 0.9776
-2.0177 -0.2063 -0.8301 0.9913
-2.0708 -0.4013 -0.8633 0.9909
-4.6197 -1.3332 -1.9679 0.9794
-4.3143 -2.1376 -1.9706 0.9794
-3.3041 -3.5279 -1.9782 0.9793
-1.0413 -4.7576 -1.9933 0.9792
-0.6126 -4.8381 -1.9959 0.9791
-0.1778 -4.8800 -1.9986 0.9791
0.6961 -4.8464 -2.0038 0.9791
1.1280 -4.7707 -2.0064 0.9790
4.0135 -2.8796 -2.0217 0.9789
4.2572 -2.5106 -2.0228 0.9789
4.6396 -1.7134 -2.0242 0.9789
4.7750 -1.2919 -2.0246 0.9788
4.8716 -0.8599 -2.0247 0.9788
4.9287 -0.4208 -2.0245 0.9788
4.8591 0.9014 -2.0226 0.9789
4.6154 1.7503 -2.0202 0.9789
4.4371 2.1544 -2.0187 0.9789
4.2231 2.5403 -2.0170 0.9789
2.6927 4.0956 -2.0060 0.9790
2.3091 4.3077 -2.0003 0.9791
1.9087 4.4828 -1.9941 0.9792
1.0144 4.4637 -1.8735 0.9804
0.6006 4.4574 -1.8408 0.9807
-0.2023 4.4812 -1.8359 0.9808
-0.6014 4.4395 -1.8336 0.9808
-0.9947 4.3625 -1.8313 0.9808
-1.3791 4.2509 -1.8291 0.9809
-2.6435 4.0146 -1.9673 0.9794
-2.9946 3.7656 -1.9691 0.9794
-3.3215 3.4851 -1.9704 0.9794
-3.6172 3.1718 -1.9690 0.9794
-4.1195 2.4740 -1.9667 0.9794
-4.3224 2.0949 -1.9659 0.9795
-4.6242 1.2909 -1.9649 0.9795
-2.0622 0.3810 -0.8583 0.9910
-2.0162 0.1884 -0.8288 0.9913
-1.9910 0.0073 -0.8149 0.9914
-2.0147 -0.1735 -0.8276 0.9913
-4.6399 -1.2589 -1.9677 0.9794
-4.5116 -1.6698 -1.9689 0.9794
-4.3474 -2.0680 -1.9703 0.9794
-4.1485 -2.4504 -1.9719 0.9794
-3.9163 -2.8141 -1.9737 0.9794
-3.6527 -3.1562 -1.9757 0.9794
-3.3595 -3.4738 -1.9778 0.9793
-3.0389 -3.7646 -1.9801 0.9793
-2.3255 -4.2560 -1.9849 0.9793
-1.9381 -4.4526 -1.9875 0.9792
-1.1170 -4.7392 -1.9928 0.9792
-0.2558 -4.8754 -1.9981 0.9791
0.6183 -4.8558 -2.0034 0.9791
1.0513 -4.7871 -2.0059 0.9790
1.8916 -4.5341 -2.0107 0.9790
2.2920 -4.3516 -2.0129 0.9790
2.6746 -4.1335 -2.0150 0.9789
3.6851 -3.2839 -2.0202 0.9789
3.9665 -2.9432 -2.0215 0.9789
4.4316 -2.1918 -2.0235 0.9789
4.8572 -0.9377 -2.0247 0.9788
4.9455 -0.0576 -2.0242 0.9789
4.9295 0.3847 -2.0236 0.9789
4.8733 0.8236 -2.0228 0.9789
4.7777 1.2554 -2.0218 0.9789
4.4716 2.0834 -2.0190 0.9789
4.2639 2.4728 -2.0173 0.9789
3.7480 3.1865 -2.0134 0.9790
3.4443 3.5050 -2.0112 0.9790
2.7585 4.0529 -2.0065 0.9790
2.3791 4.2726 -2.0015 0.9791
