ply
format ascii 1.0
element vertex 1582
property float32 x
property float32 y
property float32 z
property float32 I
end_header
2.1285 -16.9190 -1.6371 0.9338
6.3488 -15.3216 -1.5922 0.9355
3.5021 15.1156 -1.8431 0.9394
2.1412 15.3677 -1.8431 0.9394
0.7634 15.4976 -1.8431 0.9394
-2.5215 11.3577 -1.3820 0.9542
-3.5914 11.3013 -1.4086 0.9534
-3.6160 5.5753 -0.7894 0.9736
-10.3642 11.0402 -1.7987 0.9408
-11.5870 10.3225 -1.8433 0.9394
-13.9049 6.8903 -1.8434 0.9394
-16.4901 3.2122 -1.9956 0.9346
-16.7108 1.7300 -1.9956 0.9346
-16.2621 -4.2174 -1.9956 0.9346
-15.8216 -5.6496 -1.9956 0.9346
-15.2551 -7.0370 -1.9956 0.9346
-14.5673 -8.3683 -1.9956 0.9346
-12.7511 -8.9244 -1.8488 0.9392
-10.9321 -11.0135 -1.8433 0.9394
-9.9072 -11.9437 -1.8433 0.9394
-8.8034 -12.7789 -1.8433 0.9394
-7.6296 -13.5124 -1.8433 0.9394
-6.3951 -14.1383 -1.8433 0.9394
-2.4278 -15.3257 -1.8432 0.9394
-1.0524 -15.4809 -1.8432 0.9394
0.3312 -15.5129 -1.8431 0.9394
4.4224 -14.8723 -1.8431 0.9394
5.7299 -14.4189 -1.8431 0.9394
6.9919 -13.8508 -1.8430 0.9394
16.4229 -3.5184 -1.9951 0.9346
16.6710 -2.0410 -1.9951 0.9346
16.3336 3.9121 -1.9951 0.9346
15.9200 5.3520 -1.9951 0.9346
12.0529 11.6977 -1.9951 0.9346
10.9627 12.7253 -1.9952 0.9346
9.7853 13.6517 -1.9952 0.9346
4.0637 14.9743 -1.8431 0.9394
1.3412 15.4582 -1.8431 0.9394
-1.0540 11.4349 -1.3641 0.9548
-2.0843 11.3807 -1.3744 0.9545
-5.4417 11.2993 -1.4897 0.9507
-9.6477 11.0780 -1.7450 0.9425
-11.1937 10.7476 -1.8433 0.9394
-12.9239 8.5901 -1.8434 0.9394
-14.2436 6.1597 -1.8434 0.9394
-14.7359 4.8660 -1.8434 0.9394
-16.7781 0.8608 -1.9956 0.9346
-16.7880 -0.6377 -1.9956 0.9346
-16.4082 -3.6076 -1.9956 0.9346
-16.0214 -5.0553 -1.9956 0.9346
-15.5071 -6.4628 -1.9956 0.9346
-12.2349 -9.5457 -1.8433 0.9394
-4.3206 -11.0451 -1.4088 0.9533
-4.3427 -14.8971 -1.8432 0.9394
-1.6294 -15.4310 -1.8432 0.9394
-0.2479 -15.5146 -1.8431 0.9394
1.1356 -15.4748 -1.8431 0.9394
2.5100 -15.3118 -1.8431 0.9394
5.1879 -14.6228 -1.8431 0.9394
6.4702 -14.1022 -1.8430 0.9394
9.6030 -13.7806 -1.9952 0.9346
12.9055 -10.7496 -1.9951 0.9346
13.8120 -9.5567 -1.9951 0.9346
14.6085 -8.2879 -1.9951 0.9346
15.2888 -6.9532 -1.9951 0.9346
16.2801 -4.1288 -1.9951 0.9346
16.5832 -2.6617 -1.9951 0.9346
16.7544 -1.1734 -1.9951 0.9346
15.6210 6.1707 -1.9951 0.9346
14.2777 8.8456 -1.9951 0.9346
13.4328 10.0828 -1.9951 0.9346
12.4810 11.2397 -1.9951 0.9346
11.4299 12.3073 -1.9952 0.9346
10.2879 13.2769 -1.9952 0.9346
4.6196 14.8122 -1.8431 0.9394
0.4666 13.4643 -1.6003 0.9472
-2.6936 11.3486 -1.3855 0.9541
-3.7704 11.2919 -1.4141 0.9532
-4.8742 11.1690 -1.4476 0.9521
-6.1626 11.2614 -1.5249 0.9496
-3.6854 5.5049 -0.7869 0.9737
-8.9719 11.1135 -1.6966 0.9441
-13.3522 7.9081 -1.8434 0.9394
-14.0038 6.6869 -1.8434 0.9394
-16.1828 4.4272 -1.9929 0.9347
-16.5352 2.9715 -1.9956 0.9346
-16.7342 1.4863 -1.9956 0.9346
-16.8001 -0.0108 -1.9956 0.9346
-16.7323 -1.5078 -1.9956 0.9346
-16.5314 -2.9927 -1.9956 0.9346
-16.1989 -4.4539 -1.9956 0.9346
-15.7375 -5.8796 -1.9956 0.9346
-15.1509 -7.2585 -1.9956 0.9346
-12.5827 -9.0826 -1.8434 0.9394
-9.7320 -12.0869 -1.8433 0.9394
-6.1883 -14.2300 -1.8432 0.9394
-3.2977 -9.9184 -1.2416 0.9588
-0.8267 -15.4946 -1.8432 0.9394
0.5573 -15.5064 -1.8431 0.9394
1.9368 -15.3949 -1.8431 0.9394
3.3009 -15.1609 -1.8431 0.9394
4.6386 -14.8063 -1.8431 0.9394
0.6331 12.8537 -1.8234 0.9493
-0.2008 5.0174 -0.7115 0.9799
-1.4832 11.4123 -1.6306 0.9546
-2.5215 11.3577 -1.6484 0.9541
-3.5914 11.3014 -1.6802 0.9532
-4.6858 11.1789 -1.7174 0.9522
-3.6265 5.5915 -0.9443 0.9734
-8.0233 10.2404 -1.8433 0.9488
-8.9040 9.4848 -1.8433 0.9488
-9.7138 8.6537 -1.8433 0.9488
-11.0958 6.7921 -1.8433 0.9488
-11.6570 5.7764 -1.8433 0.9488
-13.4994 3.9054 -1.9911 0.9448
-13.8243 2.6929 -1.9956 0.9447
-14.0093 1.4504 -1.9956 0.9447
-14.0443 -1.0594 -1.9956 0.9447
-11.5386 -8.0757 -1.9955 0.9447
-10.4033 -8.7605 -1.9271 0.9465
-9.1649 -9.2331 -1.8433 0.9488
-8.3056 -10.0129 -1.8433 0.9488
-4.3014 -9.5097 -1.4788 0.9587
-3.3006 -9.4643 -1.4202 0.9603
1.4355 -12.9288 -1.8431 0.9488
2.5818 -12.7493 -1.8431 0.9488
4.8038 -12.0883 -1.8431 0.9488
8.4763 -11.2446 -1.9952 0.9447
9.4445 -10.4445 -1.9952 0.9447
12.4981 -6.4865 -1.9951 0.9447
13.9765 -1.7111 -1.9951 0.9447
14.0583 0.7970 -1.9951 0.9447
13.9314 2.0465 -1.9951 0.9447
13.6936 3.2798 -1.9951 0.9447
12.8941 5.6584 -1.9951 0.9447
11.6850 7.8575 -1.9951 0.9447
10.9384 8.8675 -1.9952 0.9447
9.1908 10.6685 -1.9952 0.9447
8.2037 11.4451 -1.9952 0.9447
6.5181 11.0567 -1.8186 0.9495
4.5119 12.2002 -1.8431 0.9488
2.2747 12.8076 -1.8431 0.9488
-0.0307 11.4239 -1.6187 0.9549
-2.0843 11.3807 -1.6393 0.9543
-3.9628 5.4664 -0.9566 0.9731
-9.3841 9.0102 -1.8433 0.9488
-10.1497 8.1382 -1.8433 0.9488
-11.4333 6.2074 -1.8433 0.9488
-12.4305 4.1047 -1.8548 0.9485
-13.9454 1.9721 -1.9956 0.9447
-13.7556 -3.0244 -1.9956 0.9447
-13.0002 -5.4180 -1.9956 0.9447
-12.4656 -6.5549 -1.9955 0.9447
-11.0744 -8.6403 -1.9902 0.9448
-9.5164 -8.8971 -1.8459 0.9487
-6.8145 -11.0815 -1.8433 0.9488
-5.7999 -11.6446 -1.8432 0.9488
-2.8206 -9.6756 -1.4280 0.9601
-1.3660 -12.9366 -1.8432 0.9488
0.9520 -12.9734 -1.8431 0.9488
2.1043 -12.8368 -1.8431 0.9488
3.2397 -12.5981 -1.8431 0.9488
4.3494 -12.2592 -1.8431 0.9488
5.4244 -11.8227 -1.8431 0.9488
6.4563 -11.2922 -1.8430 0.9488
9.0482 -10.7897 -1.9952 0.9447
9.9736 -9.9404 -1.9952 0.9447
12.2474 -6.9484 -1.9951 0.9447
12.8177 -5.8293 -1.9951 0.9447
13.6489 -3.4615 -1.9951 0.9447
13.9030 -2.2315 -1.9951 0.9447
14.0465 -0.9838 -1.9951 0.9447
14.0783 0.2718 -1.9951 0.9447
13.9980 1.5252 -1.9951 0.9447
13.8065 2.7665 -1.9951 0.9447
13.5051 3.9858 -1.9951 0.9447
13.0962 5.1733 -1.9951 0.9447
12.5832 6.3198 -1.9951 0.9447
11.2617 8.4531 -1.9952 0.9447
10.4637 9.4230 -1.9952 0.9447
9.5825 10.3180 -1.9952 0.9447
6.0156 11.5330 -1.8430 0.9488
3.8729 12.4179 -1.8431 0.9488
1.6072 12.9085 -1.8431 0.9488
-0.6260 11.4574 -1.6258 0.9547
-1.6514 11.4035 -1.6326 0.9545
-2.6936 11.3486 -1.6526 0.9540
-3.7704 11.2919 -1.6868 0.9530
-4.8742 11.1690 -1.7267 0.9520
-6.1626 11.2614 -1.8189 0.9495
-9.0413 9.3541 -1.8433 0.9488
-10.5583 7.6007 -1.8433 0.9488
-11.7399 5.6059 -1.8433 0.9488
-12.1928 4.5375 -1.8433 0.9488
-13.5776 3.7145 -1.9945 0.9447
-14.0289 1.2460 -1.9956 0.9447
-14.0842 -0.0090 -1.9956 0.9447
-14.0273 -1.2640 -1.9956 0.9447
-13.8588 -2.5089 -1.9956 0.9447
-13.5801 -3.7339 -1.9956 0.9447
-12.7016 -6.0851 -1.9956 0.9447
-12.1088 -7.1927 -1.9955 0.9447
-11.4196 -8.2430 -1.9955 0.9447
-10.0940 -8.7545 -1.8932 0.9475
-7.2233 -10.8195 -1.8433 0.9488
-4.1322 -9.5020 -1.4681 0.9590
-3.1443 -9.4573 -1.4121 0.9605
-2.9879 -12.6609 -1.8432 0.9488
1.6237 -12.9064 -1.8431 0.9488
2.7673 -12.7103 -1.8431 0.9488
2.5252 10.8993 -1.8431 0.9557
1.5440 11.0810 -1.8431 0.9557
-0.2008 5.0175 -0.8272 0.9798
-1.4419 11.0951 -1.8432 0.9557
-3.3885 10.6631 -1.8432 0.9557
-4.3253 10.3188 -1.8432 0.9557
-3.6369 5.6075 -1.1011 0.9733
-6.9007 8.8075 -1.8433 0.9557
-7.6581 8.1576 -1.8433 0.9557
-8.9846 6.6688 -1.8433 0.9557
-9.5432 5.8417 -1.8433 0.9557
-10.7126 4.1654 -1.8935 0.9545
-11.6361 3.3663 -1.9955 0.9521
-11.8898 2.3161 -1.9955 0.9521
-12.0489 1.2474 -1.9955 0.9521
-12.1122 0.1688 -1.9955 0.9521
-12.0790 -0.9112 -1.9955 0.9521
-11.9498 -1.9839 -1.9955 0.9521
-9.2655 -7.8023 -1.9955 0.9521
-8.5082 -8.5715 -1.9896 0.9522
-7.1726 -8.6470 -1.8508 0.9555
-5.5012 -9.7430 -1.8432 0.9557
-4.2986 -9.5034 -1.7183 0.9586
-3.3006 -9.4643 -1.6512 0.9602
-1.7505 -11.0506 -1.8432 0.9557
1.2346 -11.1198 -1.8431 0.9557
4.1317 -10.3970 -1.8431 0.9557
6.3909 -10.2686 -1.9925 0.9522
8.8912 -8.2236 -1.9952 0.9521
9.5886 -7.3986 -1.9952 0.9521
10.2097 -6.5147 -1.9952 0.9521
10.7496 -5.5790 -1.9952 0.9521
11.2039 -4.5989 -1.9952 0.9521
12.1045 -0.3947 -1.9951 0.9521
12.0915 0.6855 -1.9951 0.9521
11.0901 4.8668 -1.9952 0.9521
10.6124 5.8357 -1.9952 0.9521
9.4081 7.6269 -1.9952 0.9521
7.9049 9.1759 -1.9952 0.9521
4.8002 10.1056 -1.8431 0.9557
2.9302 10.7974 -1.8431 0.9557
1.9564 11.0157 -1.8431 0.9557
-1.0269 11.1411 -1.8432 0.9557
-7.3483 8.4377 -1.8433 0.9557
-8.0710 7.7494 -1.8433 0.9557
-6.4810 5.1966 -1.3685 0.9669
-9.3185 6.1937 -1.8433 0.9557
-9.8334 5.3388 -1.8433 0.9557
-11.4900 3.7941 -1.9934 0.9521
-11.7951 2.7582 -1.9955 0.9521
-12.1046 -0.4598 -1.9955 0.9521
-11.8307 -2.6012 -1.9955 0.9521
-11.5519 -3.6450 -1.9955 0.9521
-10.7213 -5.6376 -1.9955 0.9521
-9.5503 -7.4511 -1.9955 0.9521
-8.8458 -8.2702 -1.9949 0.9521
-7.7448 -8.6579 -1.9137 0.9540
-6.6870 -8.9708 -1.8433 0.9557
-3.7095 -9.4829 -1.6775 0.9596
-2.8206 -9.6756 -1.6603 0.9600
-1.1749 -11.1265 -1.8432 0.9557
1.8098 -11.0407 -1.8431 0.9557
3.7408 -10.5440 -1.8431 0.9557
5.8138 -10.1686 -1.9296 0.9536
6.9245 -9.9368 -1.9952 0.9521
7.7823 -9.2801 -1.9952 0.9521
8.5782 -8.5497 -1.9952 0.9521
9.9595 -6.8912 -1.9952 0.9521
10.5339 -5.9762 -1.9952 0.9521
11.0245 -5.0138 -1.9952 0.9521
11.4274 -4.0115 -1.9952 0.9521
11.7393 -2.9772 -1.9951 0.9521
11.9579 -1.9193 -1.9951 0.9521
12.1087 0.2338 -1.9951 0.9521
11.8749 2.3795 -1.9951 0.9521
11.6157 3.4281 -1.9951 0.9521
11.2640 4.4496 -1.9952 0.9521
7.4183 9.5736 -1.9952 0.9521
5.1740 9.9194 -1.8431 0.9557
4.2695 10.3411 -1.8431 0.9557
2.3661 10.9349 -1.8431 0.9557
1.3823 11.1024 -1.8431 0.9557
-0.6104 11.1716 -1.8431 0.9557
-1.6035 11.0729 -1.8432 0.9557
-2.5838 10.8860 -1.8432 0.9557
-3.5436 10.6126 -1.8432 0.9557
-4.4752 10.2547 -1.8432 0.9557
-3.7163 5.5511 -1.1005 0.9733
-7.0283 8.7060 -1.8433 0.9557
-7.7762 8.0452 -1.8433 0.9557
-9.6273 5.7020 -1.8433 0.9557
-10.0972 4.8215 -1.8433 0.9557
-11.1193 4.1380 -1.9545 0.9530
-11.6840 3.1964 -1.9955 0.9521
-11.9223 2.1426 -1.9955 0.9521
-12.0645 -1.0871 -1.9955 0.9521
-11.9196 -2.1579 -1.9955 0.9521
-10.9243 -5.2336 -1.9955 0.9521
-10.4144 -6.1862 -1.9955 0.9521
-9.8217 -7.0896 -1.9955 0.9521
-7.0172 -8.7151 -1.8433 0.9557
-4.1322 -9.5020 -1.7070 0.9589
-3.1443 -9.4573 -1.6418 0.9604
1.3965 -11.1006 -1.8431 0.9557
4.2827 -10.3357 -1.8431 0.9557
2.2133 9.5527 -1.8431 0.9609
-2.1253 9.5731 -1.8432 0.9609
-3.7909 9.0439 -1.8432 0.9609
-3.6575 5.6393 -1.2634 0.9730
-6.0481 7.7194 -1.8432 0.9609
-6.7119 7.1498 -1.8433 0.9609
-8.3641 5.1199 -1.8433 0.9609
-8.7871 4.3543 -1.8433 0.9609
-10.1984 2.9504 -1.9955 0.9577
-10.4208 2.0299 -1.9955 0.9577
-10.6156 0.1479 -1.9955 0.9577
-10.5866 -0.7986 -1.9955 0.9577
-10.2767 -2.6651 -1.9955 0.9577
-9.2057 -5.2883 -1.9955 0.9577
-8.1207 -6.8383 -1.9955 0.9577
-5.9088 -8.5772 -1.9577 0.9585
-4.8322 -8.5581 -1.8473 0.9608
-4.0414 -8.9348 -1.8432 0.9609
-2.3912 -9.5102 -1.8432 0.9609
-1.5343 -9.6854 -1.8432 0.9609
-0.6651 -9.7835 -1.8432 0.9609
0.2093 -9.8037 -1.8431 0.9609
1.9462 -9.6107 -1.8431 0.9609
2.7948 -9.3990 -1.8431 0.9609
4.7614 -9.4322 -1.9860 0.9579
6.3898 -8.4766 -1.9952 0.9577
7.1196 -7.8735 -1.9952 0.9577
7.7929 -7.2077 -1.9952 0.9577
9.4216 -4.8898 -1.9952 0.9577
10.1399 -3.1397 -1.9952 0.9577
10.5362 -1.2899 -1.9952 0.9577
10.5978 0.6008 -1.9952 0.9577
10.3229 2.4724 -1.9952 0.9577
10.0615 3.3825 -1.9952 0.9577
9.7201 4.2656 -1.9952 0.9577
8.2458 6.6847 -1.9952 0.9577
5.7125 7.9696 -1.8430 0.9609
4.2072 8.8572 -1.8431 0.9609
1.7147 9.6547 -1.8431 0.9609
0.8476 9.7692 -1.8431 0.9609
-0.0263 9.8059 -1.8431 0.9609
-0.9000 9.7647 -1.8432 0.9609
-2.6191 9.4500 -1.8432 0.9609
-3.1708 6.5838 -1.3735 0.9707
-7.0738 6.7919 -1.8433 0.9609
-6.4605 5.1801 -1.5565 0.9669
-8.1672 5.4285 -1.8433 0.9609
-9.6870 4.1892 -1.9837 0.9580
-10.5121 1.4866 -1.9955 0.9577
-10.5309 -1.3467 -1.9955 0.9577
-9.7996 -4.0841 -1.9955 0.9577
-9.3966 -4.9411 -1.9955 0.9577
-8.9189 -5.7587 -1.9955 0.9577
-8.3703 -6.5305 -1.9955 0.9577
-7.7550 -7.2504 -1.9955 0.9577
-7.0781 -7.9125 -1.9955 0.9577
-5.2667 -8.5645 -1.8898 0.9599
-4.3720 -8.7778 -1.8432 0.9609
-3.5724 -9.1324 -1.8432 0.9609
-2.7444 -9.4144 -1.8432 0.9609
0.7177 -9.7796 -1.8431 0.9609
1.5862 -9.6767 -1.8431 0.9609
3.2787 -9.2413 -1.8431 0.9609
6.8209 -8.1337 -1.9952 0.9577
7.5185 -7.4935 -1.9952 0.9577
8.1563 -6.7937 -1.9952 0.9577
8.7291 -6.0398 -1.9952 0.9577
10.4807 -1.6822 -1.9952 0.9577
10.5889 -0.7416 -1.9952 0.9577
9.8725 3.8999 -1.9952 0.9577
9.4858 4.7641 -1.9952 0.9577
7.8880 7.1035 -1.9952 0.9577
4.5348 8.6940 -1.8431 0.9609
3.7420 9.0636 -1.8431 0.9609
2.0738 9.5840 -1.8431 0.9609
1.2115 9.7307 -1.8431 0.9609
0.3396 9.8001 -1.8431 0.9609
-0.5350 9.7914 -1.8431 0.9609
-1.4054 9.7049 -1.8432 0.9609
-3.1058 9.3014 -1.8432 0.9609
-3.9223 8.9877 -1.8432 0.9609
-3.7377 5.5830 -1.2628 0.9730
-6.8154 7.0512 -1.8433 0.9609
-7.9589 5.7295 -1.8433 0.9609
-8.4378 4.9975 -1.8433 0.9609
-9.9499 3.7028 -1.9955 0.9577
-10.2403 2.8015 -1.9955 0.9577
-10.6167 -0.0068 -1.9955 0.9577
-9.9452 -3.7156 -1.9955 0.9577
-9.1277 -5.4219 -1.9955 0.9577
-8.6082 -6.2136 -1.9955 0.9577
-6.6518 -8.2613 -1.9936 0.9578
-5.7239 -8.5737 -1.9376 0.9589
-4.6966 -8.6086 -1.8432 0.9609
-3.9108 -8.9928 -1.8432 0.9609
-3.0939 -9.3054 -1.8432 0.9609
-2.2524 -9.5440 -1.8432 0.9609
-1.3929 -9.7067 -1.8432 0.9609
1.2240 -9.7292 -1.8431 0.9609
2.9315 -9.3573 -1.8431 0.9609
1.9681 8.4944 -1.8431 0.9650
1.2033 8.6360 -1.8431 0.9650
-0.2008 5.0176 -1.0615 0.9797
-1.1238 8.6469 -1.8432 0.9650
-3.3709 8.0419 -1.8432 0.9650
-3.6658 5.6522 -1.4240 0.9728
-4.0028 5.1089 -1.3719 0.9738
-5.9682 6.3576 -1.8432 0.9650
-6.5110 5.8005 -1.8432 0.9650
-6.7296 4.9950 -1.7715 0.9663
-8.4307 4.1777 -1.9889 0.9623
-8.7986 3.4211 -1.9955 0.9621
-9.0684 2.6235 -1.9955 0.9621
-9.3901 0.9721 -1.9955 0.9621
-9.1380 -2.3698 -1.9955 0.9621
-8.1857 -4.7023 -1.9955 0.9621
-7.7341 -5.4130 -1.9955 0.9621
-7.2210 -6.0806 -1.9955 0.9621
-6.0269 -7.2658 -1.9954 0.9621
-5.3554 -7.7739 -1.9954 0.9621
-4.6359 -8.2104 -1.9931 0.9622
-3.8417 -8.4932 -1.9704 0.9626
-2.9545 -8.4719 -1.8966 0.9640
-2.1263 -8.4565 -1.8432 0.9650
-0.5914 -8.6995 -1.8432 0.9650
0.9622 -8.6662 -1.8431 0.9650
3.4751 -8.7448 -1.9891 0.9623
4.2537 -8.4265 -1.9953 0.9621
4.9876 -8.0139 -1.9953 0.9621
5.6819 -7.5375 -1.9952 0.9621
7.4730 -5.7662 -1.9952 0.9621
8.3778 -4.3481 -1.9952 0.9621
8.7319 -3.5842 -1.9952 0.9621
9.0166 -2.7919 -1.9952 0.9621
9.2295 -1.9773 -1.9952 0.9621
9.4339 -0.3076 -1.9952 0.9621
9.4106 0.5335 -1.9924 0.9622
9.3387 1.3718 -1.9952 0.9621
9.1793 2.1985 -1.9952 0.9621
8.6433 3.7930 -1.9952 0.9621
8.2709 4.5481 -1.9952 0.9621
7.3323 5.9441 -1.9952 0.9621
6.1608 7.1513 -1.9952 0.9621
5.1930 7.2449 -1.8842 0.9642
3.0244 8.1780 -1.8431 0.9650
0.7537 8.6869 -1.8431 0.9650
-0.0234 8.7195 -1.8431 0.9650
-3.1890 6.6217 -1.5536 0.9704
-3.5249 5.9065 -1.4539 0.9723
-3.9969 5.5134 -1.4394 0.9725
-4.4442 5.1031 -1.4304 0.9727
-6.4400 5.1636 -1.7448 0.9668
-9.4279 0.4837 -1.9955 0.9621
-9.3641 -1.1975 -1.9955 0.9621
-7.9307 -5.1207 -1.9955 0.9621
-7.4429 -5.8070 -1.9955 0.9621
-5.6418 -7.5686 -1.9954 0.9621
-3.3176 -8.4810 -1.9250 0.9635
-2.4659 -8.4589 -1.8625 0.9646
-1.6847 -8.5554 -1.8432 0.9650
0.6381 -8.6961 -1.8431 0.9650
1.4105 -8.6046 -1.8431 0.9650
2.1855 -8.4985 -1.8549 0.9648
3.0874 -8.7023 -1.9518 0.9630
3.9348 -8.5760 -1.9945 0.9622
7.2527 -6.0411 -1.9952 0.9621
8.9061 -3.1264 -1.9952 0.9621
9.2549 1.8545 -1.9952 0.9621
7.5490 5.6663 -1.9952 0.9621
6.4234 6.9164 -1.9952 0.9621
5.7731 7.4505 -1.9923 0.9622
4.0324 7.7308 -1.8431 0.9650
3.3275 8.0594 -1.8431 0.9650
2.5961 8.3239 -1.8431 0.9650
1.0773 8.6527 -1.8431 0.9650
0.3020 8.7143 -1.8431 0.9650
-0.4757 8.7066 -1.8431 0.9650
-2.7617 8.2709 -1.8432 0.9650
-3.1271 5.7144 -1.3769 0.9737
-7.0771 5.0947 -1.8433 0.9650
-7.5029 4.4438 -1.8433 0.9650
-9.2915 1.6698 -1.9955 0.9621
-9.4033 0.8352 -1.9955 0.9621
-9.4403 -0.0061 -1.9955 0.9621
-7.1316 -6.1852 -1.9955 0.9621
-4.5132 -8.2724 -1.9919 0.9622
-2.8155 -8.4683 -1.8864 0.9642
-2.0028 -8.4866 -1.8432 0.9650
-1.2386 -8.6313 -1.8432 0.9650
0.3132 -8.7139 -1.8431 0.9650
1.0884 -8.6513 -1.8431 0.9650
2.6960 -8.6054 -1.9062 0.9638
3.6048 -8.6995 -1.9905 0.9622
0.3858 7.8329 -1.8431 0.9683
-0.2008 5.0177 -1.1802 0.9796
-2.3752 7.4742 -1.8432 0.9683
-3.3455 5.1583 -1.4450 0.9751
-5.3678 5.7180 -1.8432 0.9683
-5.8560 5.2169 -1.8432 0.9683
-7.0292 4.3028 -1.9370 0.9667
-7.6077 3.7699 -1.9955 0.9657
-8.1561 2.3596 -1.9955 0.9657
-8.3339 1.6234 -1.9955 0.9657
-8.4665 -0.6387 -1.9955 0.9657
-8.3759 -1.3906 -1.9955 0.9657
-7.9960 -2.8553 -1.9955 0.9657
-7.7098 -3.5564 -1.9955 0.9657
-6.4945 -5.4689 -1.9955 0.9657
-5.9813 -6.0258 -1.9954 0.9657
-4.8167 -6.9918 -1.9954 0.9657
-4.1744 -7.3932 -1.9954 0.9657
-3.4990 -7.7357 -1.9954 0.9657
-2.7954 -8.0155 -1.9951 0.9657
-2.0660 -8.2166 -1.9912 0.9658
0.9250 -8.3311 -1.9700 0.9661
2.4183 -8.1326 -1.9941 0.9657
3.8258 -7.5788 -1.9953 0.9657
4.4859 -7.2077 -1.9953 0.9657
6.2325 -5.7645 -1.9952 0.9657
6.7213 -5.1861 -1.9952 0.9657
7.1567 -4.5666 -1.9952 0.9657
7.5351 -3.9107 -1.9952 0.9657
8.3011 -1.7784 -1.9952 0.9657
8.4265 -1.0317 -1.9952 0.9657
8.4849 -0.2767 -1.9952 0.9657
8.2559 1.9774 -1.9952 0.9657
8.0469 2.7052 -1.9952 0.9657
7.4389 4.0906 -1.9952 0.9657
6.5947 5.3462 -1.9952 0.9657
6.0921 5.9126 -1.9952 0.9657
5.5411 6.4319 -1.9952 0.9657
3.9825 6.7556 -1.8431 0.9683
3.3647 7.0836 -1.8431 0.9683
-0.0210 7.8424 -1.8431 0.9683
-0.7198 7.8093 -1.8432 0.9683
-3.1695 6.5812 -1.7168 0.9704
-3.7188 5.1298 -1.4891 0.9743
-4.4442 5.1031 -1.5904 0.9726
-6.1188 4.9061 -1.8432 0.9683
-6.5363 4.3445 -1.8446 0.9683
-7.4480 4.0437 -1.9918 0.9658
-7.7930 3.3701 -1.9955 0.9657
-8.0623 2.6623 -1.9955 0.9657
-8.4794 0.4350 -1.9955 0.9657
-8.4220 -1.0770 -1.9955 0.9657
-7.8371 -3.2662 -1.9955 0.9657
-4.4474 -7.2323 -1.9954 0.9657
-3.7853 -7.5998 -1.9954 0.9657
-1.6354 -8.3052 -1.9894 0.9658
-0.1334 -8.3483 -1.9623 0.9663
6.9813 -4.8305 -1.9952 0.9657
7.7278 -3.5145 -1.9952 0.9657
8.2289 -2.0869 -1.9952 0.9657
8.4878 0.1639 -1.9952 0.9657
8.1422 2.4030 -1.9952 0.9657
7.8957 3.1190 -1.9952 0.9657
6.7896 5.0963 -1.9952 0.9657
6.3085 5.6811 -1.9952 0.9657
5.7772 6.2207 -1.9952 0.9657
5.1960 6.7057 -1.9938 0.9657
2.9927 7.2487 -1.8431 0.9683
1.6585 7.6649 -1.8431 0.9683
0.9689 7.7822 -1.8431 0.9683
-0.4279 7.8307 -1.8431 0.9683
-1.1239 7.7615 -1.8432 0.9683
-1.8111 7.6305 -1.8432 0.9683
-2.4839 7.4388 -1.8432 0.9683
-3.1451 5.7472 -1.5398 0.9734
-4.1323 5.1188 -1.5461 0.9733
-5.4506 5.6391 -1.8432 0.9683
-5.9314 5.1310 -1.8432 0.9683
-6.3651 4.5821 -1.8432 0.9683
-7.2384 4.2871 -1.9772 0.9660
-7.9574 2.9613 -1.9955 0.9657
-8.3567 1.5018 -1.9955 0.9657
-8.4573 0.7512 -1.9955 0.9657
-8.4906 -0.0054 -1.9955 0.9657
-8.3548 -1.5125 -1.9955 0.9657
-7.6571 -3.6684 -1.9955 0.9657
-5.8929 -6.1124 -1.9954 0.9657
-4.7142 -7.0613 -1.9954 0.9657
-1.9455 -8.2436 -1.9907 0.9658
-1.2015 -8.3728 -1.9880 0.9658
1.8013 -8.2731 -1.9899 0.9658
0.9824 7.0505 -1.8431 0.9710
-0.2009 5.0178 -1.3002 0.9795
-0.9174 7.0593 -1.8432 0.9710
-1.5428 6.9495 -1.8432 0.9710
-2.1560 6.7844 -1.8432 0.9710
-2.7520 6.5654 -1.8432 0.9710
-4.0152 5.1247 -1.6856 0.9735
-4.7074 5.0144 -1.7808 0.9720
-5.8698 4.3568 -1.8927 0.9702
-6.5644 4.0183 -1.9928 0.9687
-6.9056 3.4219 -1.9955 0.9687
-7.1830 2.7930 -1.9955 0.9687
-7.4033 2.1418 -1.9955 0.9687
-7.6660 0.7936 -1.9955 0.9687
-7.6029 -1.2622 -1.9955 0.9687
-7.2581 -2.5918 -1.9955 0.9687
-4.9203 -5.9317 -1.9954 0.9687
-4.3721 -6.3465 -1.9954 0.9687
-3.1761 -7.0218 -1.9954 0.9687
-1.2058 -7.6116 -1.9954 0.9687
0.1645 -7.7047 -1.9953 0.9687
0.8504 -7.6594 -1.9953 0.9687
1.5295 -7.5531 -1.9953 0.9687
2.8459 -7.1615 -1.9953 0.9687
5.1686 -5.7158 -1.9953 0.9687
5.6573 -5.2325 -1.9952 0.9687
6.4962 -4.1452 -1.9952 0.9687
6.8397 -3.5498 -1.9952 0.9687
7.1288 -2.9262 -1.9952 0.9687
7.3612 -2.2793 -1.9952 0.9687
7.6489 -0.9365 -1.9952 0.9687
7.7019 -0.2511 -1.9952 0.9687
7.6936 0.4362 -1.9952 0.9687
7.6242 1.1200 -1.9952 0.9687
7.4940 1.7949 -1.9952 0.9687
7.0565 3.0967 -1.9952 0.9687
4.4811 6.2517 -1.9915 0.9687
3.6150 6.1322 -1.8431 0.9710
2.4691 6.6765 -1.8431 0.9710
1.8644 6.8700 -1.8431 0.9710
-0.0191 7.1186 -1.8431 0.9710
-0.6533 7.0886 -1.8432 0.9710
-1.9013 6.8602 -1.8432 0.9710
-2.5050 6.6635 -1.8432 0.9710
-3.1189 5.2263 -1.5758 0.9752
-3.7256 5.1392 -1.6435 0.9741
-4.3826 5.0323 -1.7278 0.9728
-5.1351 4.9305 -1.8432 0.9710
-5.5541 4.4533 -1.8432 0.9710
-7.3183 2.4166 -1.9955 0.9687
-7.6968 0.3949 -1.9955 0.9687
-7.6447 -0.9776 -1.9955 0.9687
-7.5271 -1.6550 -1.9955 0.9687
-7.1138 -2.9648 -1.9955 0.9687
-6.4746 -4.1804 -1.9954 0.9687
-6.0763 -4.7407 -1.9954 0.9687
-5.6296 -5.2633 -1.9954 0.9687
-4.0370 -6.5648 -1.9954 0.9687
-3.4359 -6.8984 -1.9954 0.9687
-1.4890 -7.5614 -1.9954 0.9687
-0.1231 -7.7055 -1.9953 0.9687
0.5640 -7.6858 -1.9953 0.9687
1.2466 -7.6049 -1.9953 0.9687
1.9193 -7.4635 -1.9953 0.9687
3.8249 -6.6900 -1.9953 0.9687
5.4581 -5.4400 -1.9953 0.9687
5.9211 -4.9320 -1.9952 0.9687
6.7025 -3.8026 -1.9952 0.9687
7.0147 -3.1902 -1.9952 0.9687
7.5558 1.5140 -1.9952 0.9687
7.1671 2.8312 -1.9952 0.9687
5.7264 5.1568 -1.9952 0.9687
5.2441 5.6466 -1.9953 0.9687
4.7201 6.0915 -1.9953 0.9687
3.9602 6.1784 -1.9001 0.9701
2.1195 6.7957 -1.8431 0.9710
1.5055 6.9575 -1.8431 0.9710
0.2466 7.1144 -1.8431 0.9710
-1.0202 7.0452 -1.8432 0.9710
-2.2546 6.7523 -1.8432 0.9710
-3.1451 5.7472 -1.6963 0.9733
-3.4498 5.1530 -1.6056 0.9747
-4.1323 5.1188 -1.7033 0.9732
-4.9475 5.1187 -1.8432 0.9710
-5.3840 4.6575 -1.8432 0.9710
-6.9547 3.3209 -1.9955 0.9687
-7.4338 2.0337 -1.9955 0.9687
-7.7069 -0.0049 -1.9955 0.9687
-7.4312 -2.0432 -1.9955 0.9687
-7.2195 -2.6973 -1.9955 0.9687
-5.3490 -5.5483 -1.9954 0.9687
-4.2792 -6.4096 -1.9954 0.9687
-1.7701 -7.5005 -1.9954 0.9687
-1.0947 -7.6284 -1.9954 0.9687
0.2768 -7.7015 -1.9953 0.9687
2.3039 -7.3539 -1.9953 0.9687
1.4695 6.3426 -1.8431 0.9733
0.8985 6.4484 -1.8431 0.9733
-0.2009 5.0179 -1.4217 0.9793
-0.8391 6.4565 -1.8432 0.9733
-1.4111 6.3561 -1.8432 0.9733
-1.9718 6.2051 -1.8432 0.9733
-2.5169 6.0047 -1.8432 0.9733
-3.9583 5.0521 -1.8169 0.9737
-5.6459 4.1906 -1.9905 0.9712
-6.0118 3.6800 -1.9954 0.9711
-6.3158 3.1297 -1.9954 0.9711
-6.5696 2.5545 -1.9954 0.9711
-6.7711 1.9589 -1.9955 0.9711
-6.9187 1.3477 -1.9955 0.9711
-7.0481 0.0982 -1.9955 0.9711
-7.0288 -0.5302 -1.9955 0.9711
-6.4006 -2.9525 -1.9954 0.9711
-6.1120 -3.5111 -1.9954 0.9711
-5.7748 -4.0417 -1.9954 0.9711
-5.3917 -4.5402 -1.9954 0.9711
-3.9987 -5.8046 -1.9954 0.9711
-2.9049 -6.4221 -1.9954 0.9711
-1.7187 -6.8357 -1.9954 0.9711
-1.1028 -6.9616 -1.9954 0.9711
-0.4781 -7.0322 -1.9954 0.9711
1.3989 -6.9081 -1.9953 0.9711
2.6029 -6.5500 -1.9953 0.9711
3.7242 -5.9839 -1.9953 0.9711
4.7272 -5.2277 -1.9953 0.9711
5.1742 -4.7857 -1.9953 0.9711
5.5801 -4.3056 -1.9953 0.9711
5.9415 -3.7912 -1.9952 0.9711
6.2557 -3.2467 -1.9952 0.9711
6.5201 -2.6763 -1.9952 0.9711
6.7326 -2.0847 -1.9952 0.9711
6.8916 -1.4765 -1.9952 0.9711
6.9957 -0.8565 -1.9952 0.9711
6.6806 2.2459 -1.9952 0.9711
6.4539 2.8322 -1.9952 0.9711
6.1758 3.3961 -1.9952 0.9711
5.8487 3.9329 -1.9952 0.9711
5.0577 4.9086 -1.9953 0.9711
4.6002 5.3398 -1.9953 0.9711
3.4305 5.8191 -1.9123 0.9723
2.7934 5.8808 -1.8431 0.9733
1.7052 6.2834 -1.8431 0.9733
0.5628 6.4863 -1.8431 0.9733
-1.1729 6.4043 -1.8432 0.9733
-1.7389 6.2743 -1.8432 0.9733
-3.1077 5.2075 -1.7168 0.9751
-4.2761 4.9100 -1.8432 0.9733
-4.6966 4.5094 -1.8432 0.9733
-5.8697 3.9014 -1.9952 0.9711
-6.4697 2.7978 -1.9954 0.9711
-6.6933 2.2102 -1.9955 0.9711
-7.0395 0.3612 -1.9955 0.9711
-6.8843 -1.5136 -1.9955 0.9711
-6.7221 -2.1210 -1.9955 0.9711
-5.9216 -3.8234 -1.9954 0.9711
-4.6994 -5.2535 -1.9954 0.9711
-4.2126 -5.6513 -1.9954 0.9711
-2.5678 -6.5642 -1.9954 0.9711
-1.9726 -6.7668 -1.9954 0.9711
-0.7401 -7.0094 -1.9954 0.9711
-0.1126 -7.0475 -1.9953 0.9711
0.5158 -7.0294 -1.9953 0.9711
1.1402 -6.9555 -1.9953 0.9711
3.4983 -6.1187 -1.9953 0.9711
4.0296 -5.7826 -1.9953 0.9711
4.5288 -5.4005 -1.9953 0.9711
4.9921 -4.9754 -1.9953 0.9711
5.4155 -4.5108 -1.9953 0.9711
6.1302 -3.4779 -1.9952 0.9711
6.8317 -1.7326 -1.9952 0.9711
6.9589 -1.1169 -1.9952 0.9711
7.0307 -0.4924 -1.9952 0.9711
7.0065 0.7634 -1.9952 0.9711
6.7597 1.9950 -1.9952 0.9711
6.5551 2.5894 -1.9952 0.9711
6.2983 3.1632 -1.9952 0.9711
5.6368 4.2310 -1.9952 0.9711
5.2374 4.7165 -1.9953 0.9711
4.7963 5.1644 -1.9953 0.9711
3.0109 5.7725 -1.8431 0.9733
1.3769 6.3634 -1.8431 0.9733
0.8044 6.4608 -1.8431 0.9733
0.2255 6.5068 -1.8431 0.9733
-1.5036 6.3348 -1.8432 0.9733
-2.0621 6.1757 -1.8432 0.9733
-4.5250 4.6816 -1.8432 0.9733
-5.0716 4.3873 -1.8984 0.9725
-6.3608 3.0373 -1.9954 0.9711
-6.6061 2.4584 -1.9955 0.9711
-6.7989 1.8600 -1.9955 0.9711
-6.9376 1.2468 -1.9955 0.9711
-7.0488 -0.0045 -1.9955 0.9711
-7.0203 -0.6326 -1.9955 0.9711
-6.7965 -1.8687 -1.9955 0.9711
-5.7153 -4.1255 -1.9954 0.9711
-5.3249 -4.6183 -1.9954 0.9711
-4.8922 -5.0744 -1.9954 0.9711
-4.4205 -5.4902 -1.9954 0.9711
-3.9137 -5.8622 -1.9954 0.9711
-2.2238 -6.6885 -1.9954 0.9711
-1.0012 -6.9770 -1.9954 0.9711
0.2532 -7.0438 -1.9953 0.9711
0.8798 -6.9932 -1.9953 0.9711
2.1072 -6.7259 -1.9953 0.9711
2.6981 -6.5113 -1.9953 0.9711
1.3525 5.8377 -1.8431 0.9752
0.8270 5.9350 -1.8431 0.9752
0.2948 5.9852 -1.8431 0.9752
-0.2009 5.0180 -1.5446 0.9792
-0.7723 5.9425 -1.8432 0.9752
-1.2987 5.8501 -1.8432 0.9752
-2.3166 5.5267 -1.8432 0.9752
-2.7998 5.2983 -1.8432 0.9752
-3.6959 4.7172 -1.8432 0.9752
-5.8130 2.8805 -1.9954 0.9732
-6.0466 2.3511 -1.9954 0.9732
-6.2320 1.8029 -1.9954 0.9732
-6.4870 0.0904 -1.9954 0.9732
-5.3151 -3.7200 -1.9954 0.9732
-4.5703 -4.6043 -1.9954 0.9732
-3.1897 -5.6491 -1.9954 0.9732
-2.6736 -5.9109 -1.9954 0.9732
-2.1363 -6.1256 -1.9954 0.9732
-1.5819 -6.2915 -1.9954 0.9732
-1.0150 -6.4074 -1.9954 0.9732
-0.4400 -6.4724 -1.9954 0.9732
0.1385 -6.4858 -1.9953 0.9732
1.2875 -6.3581 -1.9953 0.9732
1.8490 -6.2181 -1.9953 0.9732
3.4277 -5.5075 -1.9953 0.9732
3.9048 -5.1802 -1.9953 0.9732
4.3509 -4.8116 -1.9953 0.9732
4.7623 -4.4047 -1.9953 0.9732
5.1359 -3.9628 -1.9953 0.9732
5.7577 -2.9882 -1.9952 0.9732
6.3430 -1.3589 -1.9952 0.9732
6.4389 -0.7883 -1.9952 0.9732
6.4765 0.3672 -1.9952 0.9732
6.4181 0.9428 -1.9952 0.9732
5.9401 2.6068 -1.9952 0.9732
5.0392 4.0851 -1.9953 0.9732
4.6551 4.5179 -1.9953 0.9732
4.2340 4.9147 -1.9953 0.9732
3.7793 5.2725 -1.9953 0.9732
2.5710 5.4127 -1.8431 0.9752
1.0479 5.9000 -1.8431 0.9752
0.5180 5.9700 -1.8431 0.9752
-0.0161 5.9924 -1.8431 0.9752
-0.5500 5.9672 -1.8431 0.9752
-1.0795 5.8944 -1.8432 0.9752
-2.6002 5.3991 -1.8432 0.9752
-3.0424 5.0980 -1.8260 0.9755
-3.5173 4.8518 -1.8432 0.9752
-3.9356 4.5191 -1.8432 0.9752
-5.0557 4.0538 -1.9932 0.9732
-5.4029 3.5912 -1.9954 0.9732
-5.7015 3.0955 -1.9954 0.9732
-5.9546 2.5751 -1.9954 0.9732
-6.1604 2.0342 -1.9954 0.9732
-6.4791 0.3324 -1.9954 0.9732
-6.4829 -0.2463 -1.9954 0.9732
-6.4352 -0.8230 -1.9954 0.9732
-5.4502 -3.5190 -1.9954 0.9732
-5.1149 -3.9907 -1.9954 0.9732
-4.7390 -4.4306 -1.9954 0.9732
-4.3253 -4.8352 -1.9954 0.9732
-2.3633 -6.0416 -1.9954 0.9732
-1.8156 -6.2281 -1.9954 0.9732
-1.2534 -6.3651 -1.9954 0.9732
-0.1036 -6.4864 -1.9953 0.9732
2.7052 -5.8961 -1.9953 0.9732
3.7088 -5.3223 -1.9953 0.9732
4.1683 -4.9706 -1.9953 0.9732
4.5947 -4.5794 -1.9953 0.9732
4.9844 -4.1517 -1.9953 0.9732
6.1208 -2.1486 -1.9952 0.9732
6.2879 -1.5947 -1.9952 0.9732
6.4050 -1.0280 -1.9952 0.9732
6.4711 -0.4532 -1.9952 0.9732
6.4857 0.1252 -1.9952 0.9732
5.1881 3.8942 -1.9953 0.9732
4.8204 4.3410 -1.9953 0.9732
3.9734 5.1278 -1.9953 0.9732
2.2868 5.5388 -1.8431 0.9752
1.2673 5.8568 -1.8431 0.9752
0.7404 5.9465 -1.8431 0.9752
0.2075 5.9888 -1.8431 0.9752
-0.3269 5.9835 -1.8431 0.9752
-0.8588 5.9306 -1.8432 0.9752
-2.8768 5.2569 -1.8432 0.9752
-3.3338 4.9797 -1.8432 0.9752
-4.2724 4.4202 -1.8909 0.9746
-4.8937 4.2334 -1.9902 0.9733
-5.8544 2.7955 -1.9954 0.9732
-6.3853 1.1475 -1.9954 0.9732
-6.4622 0.5740 -1.9954 0.9732
-6.4614 -0.5822 -1.9954 0.9732
-6.2554 -1.7199 -1.9954 0.9732
-6.0773 -2.2705 -1.9954 0.9732
-4.0686 -5.0531 -1.9954 0.9732
-3.6021 -5.3955 -1.9954 0.9732
-3.1070 -5.6950 -1.9954 0.9732
-2.5872 -5.9492 -1.9954 0.9732
-2.0468 -6.1560 -1.9954 0.9732
-1.4901 -6.3139 -1.9954 0.9732
-0.9215 -6.4215 -1.9954 0.9732
0.8098 -6.4365 -1.9953 0.9732
1.3801 -6.3387 -1.9953 0.9732
1.9394 -6.1905 -1.9953 0.9732
2.4833 -5.9930 -1.9953 0.9732
1.2515 5.4017 -1.8431 0.9769
0.7652 5.4918 -1.8431 0.9769
0.2728 5.5381 -1.8431 0.9769
-0.2009 5.0180 -1.6694 0.9791
-1.2017 5.4131 -1.8432 0.9769
-2.1435 5.1139 -1.8432 0.9769
-3.0173 4.6522 -1.8432 0.9769
-3.4890 4.4531 -1.8805 0.9764
-4.4804 3.9915 -1.9946 0.9750
-5.3788 2.6654 -1.9954 0.9750
-5.5949 2.1755 -1.9954 0.9750
-5.7665 1.6683 -1.9954 0.9750
-5.8923 1.1478 -1.9954 0.9750
-5.9860 -0.4516 -1.9954 0.9750
-5.9220 -0.9832 -1.9954 0.9750
-5.2052 -2.9902 -1.9954 0.9750
-4.5918 -3.8667 -1.9954 0.9750
-4.2289 -4.2604 -1.9954 0.9750
-3.8325 -4.6203 -1.9954 0.9750
-3.4055 -4.9434 -1.9954 0.9750
-2.4739 -5.4694 -1.9954 0.9750
-1.9767 -5.6680 -1.9954 0.9750
-1.4638 -5.8216 -1.9954 0.9750
-0.9392 -5.9289 -1.9954 0.9750
2.2168 -5.5783 -1.9953 0.9750
4.0259 -4.4522 -1.9953 0.9750
4.4067 -4.0758 -1.9953 0.9750
5.0601 -3.2288 -1.9953 0.9750
5.3277 -2.7651 -1.9953 0.9750
5.5529 -2.2793 -1.9953 0.9750
5.8693 -1.2574 -1.9952 0.9750
5.9580 -0.7294 -1.9952 0.9750
5.9993 -0.1956 -1.9952 0.9750
5.9387 0.8724 -1.9952 0.9750
5.4965 2.4121 -1.9953 0.9750
5.2597 2.8923 -1.9953 0.9750
4.6628 3.7800 -1.9953 0.9750
4.3074 4.1805 -1.9953 0.9750
3.4970 4.8787 -1.9953 0.9750
3.0462 5.1673 -1.9939 0.9750
2.5314 5.3293 -1.9612 0.9754
1.9233 5.2005 -1.8431 0.9769
0.4793 5.5241 -1.8431 0.9769
-0.0149 5.5448 -1.8431 0.9769
-0.5089 5.5215 -1.8431 0.9769
-1.4809 5.3435 -1.8432 0.9769
-2.4060 4.9958 -1.8432 0.9769
-2.8416 4.7616 -1.8432 0.9769
-3.2546 4.4894 -1.8432 0.9769
-3.8542 4.4256 -1.9508 0.9756
-4.6834 3.7552 -1.9954 0.9750
-4.9994 3.3229 -1.9954 0.9750
-5.2756 2.8642 -1.9954 0.9750
-5.5099 2.3827 -1.9954 0.9750
-5.9439 0.8406 -1.9954 0.9750
-5.9951 0.3076 -1.9954 0.9750
-5.7248 -1.8064 -1.9954 0.9750
-5.3132 -2.7939 -1.9954 0.9750
-5.0431 -3.2562 -1.9954 0.9750
-4.3850 -4.0997 -1.9954 0.9750
-4.0022 -4.4741 -1.9954 0.9750
-3.5876 -4.8129 -1.9954 0.9750
-3.1445 -5.1134 -1.9954 0.9750
-2.6763 -5.3733 -1.9954 0.9750
-2.1868 -5.5903 -1.9954 0.9750
-1.6800 -5.7629 -1.9954 0.9750
-0.0959 -6.0020 -1.9953 0.9750
2.5032 -5.4558 -1.9953 0.9750
3.8570 -4.5994 -1.9953 0.9750
4.9361 -3.4154 -1.9953 0.9750
5.2208 -2.9619 -1.9953 0.9750
5.4640 -2.4849 -1.9953 0.9750
5.6636 -1.9882 -1.9952 0.9750
5.9878 -0.4194 -1.9952 0.9750
6.0013 0.1159 -1.9952 0.9750
5.9671 0.6502 -1.9952 0.9750
5.8855 1.1793 -1.9952 0.9750
5.7570 1.6991 -1.9952 0.9750
5.5827 2.2053 -1.9952 0.9750
4.8006 3.6034 -1.9953 0.9750
4.4604 4.0168 -1.9953 0.9750
2.1381 5.1788 -1.8624 0.9767
1.6509 5.2933 -1.8431 0.9769
1.1727 5.4194 -1.8431 0.9769
-0.7947 5.4877 -1.8432 0.9769
-1.2805 5.3950 -1.8432 0.9769
-1.7562 5.2595 -1.8432 0.9769
-2.2179 5.0821 -1.8432 0.9769
-2.6619 4.8643 -1.8432 0.9769
-3.0848 4.6077 -1.8432 0.9769
-5.1650 3.0591 -1.9954 0.9750
-5.4171 2.5867 -1.9954 0.9750
-5.6261 2.0937 -1.9954 0.9750
-5.7902 1.5841 -1.9954 0.9750
-5.9795 0.5311 -1.9954 0.9750
-5.6234 -2.1009 -1.9954 0.9750
-5.4138 -2.5936 -1.9954 0.9750
-4.5349 -3.9332 -1.9954 0.9750
-4.1664 -4.3216 -1.9954 0.9750
-3.7647 -4.6757 -1.9954 0.9750
-3.3331 -4.9925 -1.9954 0.9750
-1.8939 -5.6962 -1.9954 0.9750
-0.8527 -5.9419 -1.9954 0.9750
2.2978 -5.5454 -1.9953 0.9750
1.1633 5.0210 -1.8431 0.9783
-0.2009 5.0181 -1.7960 0.9789
-0.6642 5.1111 -1.8432 0.9783
-1.5610 4.9121 -1.8432 0.9783
-1.9925 4.7535 -1.8432 0.9783
-2.9002 4.4716 -1.9060 0.9776
-3.4299 4.3777 -1.9888 0.9767
-4.1664 3.7117 -1.9954 0.9766
-4.4805 3.3257 -1.9954 0.9766
-5.2006 2.0222 -1.9954 0.9766
-5.3601 1.5507 -1.9954 0.9766
-5.4770 1.0669 -1.9954 0.9766
-5.5503 0.5746 -1.9954 0.9766
-5.5046 -0.9139 -1.9954 0.9766
-5.4013 -1.4007 -1.9954 0.9766
-5.2550 -1.8765 -1.9954 0.9766
-5.0668 -2.3373 -1.9954 0.9766
-4.5715 -3.1995 -1.9954 0.9766
-4.2682 -3.5942 -1.9954 0.9766
-3.1655 -4.5950 -1.9954 0.9766
-2.2996 -5.0839 -1.9954 0.9766
-1.8374 -5.2686 -1.9954 0.9766
-0.8730 -5.5110 -1.9954 0.9766
-0.3784 -5.5669 -1.9953 0.9766
0.1191 -5.5784 -1.9953 0.9766
0.6157 -5.5456 -1.9953 0.9766
1.1074 -5.4686 -1.9953 0.9766
2.5144 -4.9809 -1.9953 0.9766
3.7422 -4.1385 -1.9953 0.9766
4.7035 -3.0013 -1.9953 0.9766
5.1616 -2.1187 -1.9953 0.9766
5.3298 -1.6503 -1.9953 0.9766
5.4557 -1.1688 -1.9953 0.9766
5.5765 -0.1818 -1.9952 0.9766
5.5705 0.3158 -1.9952 0.9766
5.5202 0.8109 -1.9953 0.9766
5.1092 2.2421 -1.9953 0.9766
4.6301 3.1134 -1.9953 0.9766
4.3342 3.5136 -1.9953 0.9766
3.6417 4.2272 -1.9953 0.9766
3.2506 4.5349 -1.9953 0.9766
2.8335 4.8065 -1.9953 0.9766
2.3892 5.0298 -1.9913 0.9766
1.8742 5.0680 -1.9323 0.9773
1.3499 4.9741 -1.8431 0.9783
0.9013 5.0746 -1.8431 0.9783
-0.0138 5.1541 -1.8431 0.9783
-0.4730 5.1324 -1.8431 0.9783
-0.9285 5.0698 -1.8432 0.9783
-1.8137 4.8245 -1.8432 0.9783
-2.2364 4.6437 -1.8432 0.9783
-2.6779 4.4873 -1.8687 0.9780
-3.6576 4.1999 -1.9916 0.9766
-4.0249 3.8646 -1.9954 0.9766
-4.3533 3.4905 -1.9954 0.9766
-4.6470 3.0888 -1.9954 0.9766
-4.9038 2.6624 -1.9954 0.9766
-5.1215 2.2148 -1.9954 0.9766
-5.2985 1.7496 -1.9954 0.9766
-5.4334 1.2705 -1.9954 0.9766
-5.5250 0.7813 -1.9954 0.9766
-5.5726 0.2859 -1.9954 0.9766
-5.5759 -0.2118 -1.9954 0.9766
-5.5349 -0.7078 -1.9954 0.9766
-5.4498 -1.1982 -1.9954 0.9766
-5.1505 -2.1466 -1.9954 0.9766
-4.6877 -3.0267 -1.9954 0.9766
-4.3993 -3.4324 -1.9954 0.9766
-4.0760 -3.8107 -1.9954 0.9766
-3.7202 -4.1588 -1.9954 0.9766
-2.9229 -4.7530 -1.9954 0.9766
-1.0780 -5.4746 -1.9954 0.9766
-0.0891 -5.5790 -1.9953 0.9766
0.4084 -5.5647 -1.9953 0.9766
0.9026 -5.5062 -1.9953 0.9766
1.3896 -5.4038 -1.9953 0.9766
1.8656 -5.2585 -1.9953 0.9766
3.5852 -4.2752 -1.9953 0.9766
4.5883 -3.1747 -1.9953 0.9766
4.8529 -2.7532 -1.9953 0.9766
5.0789 -2.3098 -1.9953 0.9766
5.2645 -1.8480 -1.9953 0.9766
5.5089 -0.8842 -1.9953 0.9766
5.5658 -0.3898 -1.9953 0.9766
5.4707 1.0962 -1.9953 0.9766
5.3513 1.5793 -1.9953 0.9766
4.1461 3.7338 -1.9953 0.9766
3.7969 4.0884 -1.9953 0.9766
3.4175 4.4104 -1.9953 0.9766
3.0109 4.6974 -1.9953 0.9766
2.5786 4.9436 -1.9939 0.9766
2.1213 5.1380 -1.9878 0.9767
1.5489 4.9664 -1.8604 0.9781
0.1785 5.1510 -1.8431 0.9783
-0.2812 5.1464 -1.8431 0.9783
-1.6324 4.8888 -1.8432 0.9783
-2.4743 4.5215 -1.8432 0.9783
-4.5285 3.2600 -1.9954 0.9766
-5.2295 1.9462 -1.9954 0.9766
-5.4920 0.9870 -1.9954 0.9766
-5.2270 -1.9529 -1.9954 0.9766
-5.0322 -2.4109 -1.9954 0.9766
-4.5244 -3.2658 -1.9954 0.9766
-4.2153 -3.6560 -1.9954 0.9766
-2.2252 -5.1169 -1.9954 0.9766
-1.2816 -5.4306 -1.9954 0.9766
-0.7926 -5.5232 -1.9954 0.9766
0.2004 -5.5761 -1.9953 0.9766
2.1359 -5.1546 -1.9953 0.9766
1.1208 4.8376 -1.9030 0.9790
-0.1924 4.8058 -1.8431 0.9796
-1.0424 4.6954 -1.8432 0.9796
-1.4566 4.5838 -1.8432 0.9796
-2.3703 4.4855 -1.9442 0.9785
-3.5638 3.7963 -1.9954 0.9779
-4.1811 3.1034 -1.9954 0.9779
-4.8530 1.8870 -1.9954 0.9779
-5.1110 0.9956 -1.9954 0.9779
-2.3032 0.2384 -0.8874 0.9901
-2.2918 0.0319 -0.8784 0.9902
-5.0403 -1.3071 -1.9954 0.9779
-4.7282 -2.1811 -1.9954 0.9779
-4.5150 -2.5937 -1.9954 0.9779
-3.9829 -3.3540 -1.9954 0.9779
-3.6682 -3.6955 -1.9954 0.9779
-3.3243 -4.0077 -1.9954 0.9779
-2.9539 -4.2879 -1.9954 0.9779
-2.5601 -4.5341 -1.9954 0.9779
-2.1459 -4.7442 -1.9954 0.9779
-1.2697 -5.0497 -1.9954 0.9779
0.1112 -5.2056 -1.9953 0.9779
1.0334 -5.1032 -1.9953 0.9779
1.4840 -4.9908 -1.9953 0.9779
3.1341 -4.1577 -1.9953 0.9779
3.8224 -3.5353 -1.9953 0.9779
4.9736 -1.5400 -1.9953 0.9779
5.1680 -0.6327 -1.9953 0.9779
4.9352 1.6591 -1.9953 0.9779
4.7677 2.0923 -1.9953 0.9779
4.5623 2.5088 -1.9953 0.9779
4.3206 2.9054 -1.9953 0.9779
3.7363 3.6262 -1.9953 0.9779
3.3983 3.9447 -1.9953 0.9779
3.0333 4.2318 -1.9953 0.9779
2.2340 4.7031 -1.9953 0.9779
1.8014 4.8711 -1.9902 0.9780
-1.2846 4.6350 -1.8432 0.9796
-2.1668 4.4992 -1.9137 0.9788
-2.6584 4.4546 -1.9880 0.9780
-3.7559 3.6063 -1.9954 0.9779
-4.5761 2.4844 -1.9954 0.9779
-4.7792 2.0668 -1.9954 0.9779
-5.1557 0.7291 -1.9954 0.9779
-2.3015 0.1181 -0.8831 0.9902
-4.9657 -1.5668 -1.9954 0.9779
-4.8063 -2.0031 -1.9954 0.9779
-4.6087 -2.4234 -1.9954 0.9779
-4.1053 -3.2030 -1.9954 0.9779
-3.1119 -4.1747 -1.9954 0.9779
-2.7275 -4.4354 -1.9954 0.9779
-2.3214 -4.6608 -1.9954 0.9779
-1.8969 -4.8491 -1.9954 0.9779
-1.4572 -4.9988 -1.9954 0.9779
-1.0060 -5.1087 -1.9954 0.9779
-0.5468 -5.1780 -1.9954 0.9779
0.3811 -5.1928 -1.9953 0.9779
2.1713 -4.7324 -1.9953 0.9779
2.5843 -4.5201 -1.9953 0.9779
4.2816 -2.9625 -1.9953 0.9779
4.7395 -2.1555 -1.9953 0.9779
5.0468 -1.2799 -1.9953 0.9779
5.1939 -0.3638 -1.9953 0.9779
5.2056 0.1005 -1.9953 0.9779
5.1759 0.5640 -1.9953 0.9779
3.5432 3.8151 -1.9953 0.9779
3.1891 4.1157 -1.9953 0.9779
2.4079 4.6165 -1.9953 0.9779
1.9840 4.8055 -1.9923 0.9780
1.5408 4.9405 -1.9832 0.9781
1.0426 4.8182 -1.8892 0.9791
0.1668 4.8139 -1.8459 0.9796
-0.6893 4.7600 -1.8432 0.9796
-1.5233 4.5621 -1.8432 0.9796
-1.9691 4.5120 -1.8866 0.9791
-2.4515 4.4799 -1.9570 0.9784
-3.9380 3.4066 -1.9954 0.9779
-4.2259 3.0421 -1.9954 0.9779
-4.4802 2.6535 -1.9954 0.9779
-4.8800 1.8161 -1.9954 0.9779
-2.2867 -0.0015 -0.8763 0.9903
-2.3041 -0.2076 -0.8865 0.9901
-5.1237 -0.9276 -1.9954 0.9779
-4.8777 -1.8223 -1.9954 0.9779
-4.6959 -2.2497 -1.9954 0.9779
-4.4767 -2.6592 -1.9954 0.9779
-3.6139 -3.7486 -1.9954 0.9779
-2.4937 -4.5709 -1.9954 0.9779
-1.6428 -4.9409 -1.9954 0.9779
-1.1959 -5.0676 -1.9954 0.9779
0.6500 -5.1661 -1.9953 0.9779
1.1077 -5.0876 -1.9953 0.9779
1.5566 -4.9686 -1.9953 0.9779
1.9932 -4.8101 -1.9953 0.9779
1.0969 4.7344 -1.9890 0.9792
0.6579 4.7219 -1.9512 0.9796
-0.1842 4.6013 -1.8847 0.9803
-1.0093 4.5463 -1.9060 0.9801
-1.4372 4.5227 -1.9422 0.9797
-2.2727 4.3007 -1.9908 0.9792
-3.3369 3.5546 -1.9954 0.9791
-4.5441 1.7669 -1.9954 0.9791
-4.6834 1.3549 -1.9954 0.9791
-2.0714 0.4035 -0.8637 0.9909
-2.0425 -0.3391 -0.8474 0.9911
-4.7194 -1.2239 -1.9954 0.9791
-4.5915 -1.6396 -1.9954 0.9791
-4.4272 -2.0422 -1.9954 0.9791
-4.2276 -2.4286 -1.9954 0.9791
-3.9943 -2.7956 -1.9954 0.9791
-1.1888 -4.7282 -1.9954 0.9791
0.1041 -4.8742 -1.9953 0.9791
0.5380 -4.8455 -1.9953 0.9791
0.9676 -4.7783 -1.9953 0.9791
1.3896 -4.6730 -1.9953 0.9791
1.8004 -4.5306 -1.9953 0.9791
2.1970 -4.3521 -1.9953 0.9791
2.9346 -3.8930 -1.9953 0.9791
3.2698 -3.6160 -1.9953 0.9791
4.7670 -1.0213 -1.9953 0.9791
4.8725 -0.1589 -1.9953 0.9791
4.0456 2.7204 -1.9953 0.9791
3.7871 3.0701 -1.9953 0.9791
3.4985 3.3953 -1.9953 0.9791
2.8402 3.9624 -1.9953 0.9791
1.2738 4.6937 -1.9905 0.9792
-0.0124 4.6222 -1.8917 0.9802
-0.8343 4.5552 -1.8953 0.9802
-1.2563 4.5330 -1.9252 0.9799
-1.6944 4.5072 -1.9707 0.9794
-2.1093 4.3798 -1.9896 0.9792
-2.4951 4.1809 -1.9927 0.9792
-3.2019 3.6766 -1.9954 0.9791
-3.5168 3.3767 -1.9954 0.9791
-3.8037 3.0499 -1.9954 0.9791
-4.2847 2.3263 -1.9954 0.9791
-4.4750 1.9352 -1.9954 0.9791
-2.0207 0.2858 -0.8353 0.9912
-2.0002 -0.0760 -0.8192 0.9914
-2.0878 -0.4590 -0.8749 0.9908
-4.3153 -2.2691 -1.9954 0.9791
-4.0959 -2.6446 -1.9954 0.9791
-3.5614 -3.3296 -1.9954 0.9791
-3.2505 -3.6337 -1.9954 0.9791
-2.9138 -3.9089 -1.9954 0.9791
-2.1736 -4.3640 -1.9954 0.9791
-1.7761 -4.5403 -1.9954 0.9791
-1.3644 -4.6805 -1.9954 0.9791
-0.9419 -4.7835 -1.9954 0.9791
0.3568 -4.8622 -1.9953 0.9791
1.2142 -4.7216 -1.9953 0.9791
1.6301 -4.5946 -1.9953 0.9791
2.0330 -4.4311 -1.9953 0.9791
2.7873 -3.9998 -1.9953 0.9791
3.1326 -3.7355 -1.9953 0.9791
3.4530 -3.4415 -1.9953 0.9791
3.7459 -3.1201 -1.9953 0.9791
4.4378 -2.0182 -1.9953 0.9791
4.8135 -0.7726 -1.9953 0.9791
4.8632 -0.3406 -1.9953 0.9791
4.8742 0.0941 -1.9953 0.9791
4.3566 2.1880 -1.9953 0.9791
4.1443 2.5675 -1.9953 0.9791
3.8990 2.9266 -1.9953 0.9791
2.6308 4.1044 -1.9953 0.9791
0.5863 4.7085 -1.9420 0.9797
-0.6612 4.5657 -1.8881 0.9803
-1.0782 4.5427 -1.9109 0.9800
-1.5087 4.5185 -1.9497 0.9796
-1.9433 4.4529 -1.9885 0.9792
-2.3357 4.2682 -1.9913 0.9792
-2.7114 4.0501 -1.9948 0.9792
-3.0625 3.7935 -1.9954 0.9791
-3.6872 3.1897 -1.9954 0.9791
-4.1949 2.4845 -1.9954 0.9791
-2.0570 0.3697 -0.8554 0.9910
-2.0153 0.1790 -0.8280 0.9913
-2.0584 -0.3726 -0.8561 0.9910
-4.5671 -1.7063 -1.9954 0.9791
-4.3969 -2.1065 -1.9954 0.9791
-4.1917 -2.4899 -1.9954 0.9791
-3.6832 -3.1944 -1.9954 0.9791
-2.3350 -4.2799 -1.9954 0.9791
-1.5382 -4.6264 -1.9954 0.9791
-1.1198 -4.7450 -1.9954 0.9791
-0.6925 -4.8259 -1.9954 0.9791
-0.2597 -4.8684 -1.9953 0.9791
1.0372 -4.7637 -1.9953 0.9791
1.8663 -4.5039 -1.9953 0.9791
1.0323 4.4557 -1.9933 0.9802
0.6304 4.5242 -1.9908 0.9803
-0.1825 4.5582 -1.9881 0.9803
-0.9891 4.4554 -1.9890 0.9803
-1.7674 4.2166 -1.9926 0.9802
-2.1389 4.0476 -1.9952 0.9802
-2.4913 3.8413 -1.9954 0.9802
-2.8237 3.6040 -1.9954 0.9802
-3.4187 3.0456 -1.9954 0.9802
-3.6765 2.7288 -1.9954 0.9802
-3.9050 2.3904 -1.9954 0.9802
-1.5497 0.6026 -0.7247 0.9928
-1.4936 0.4321 -0.6776 0.9932
-1.4725 -0.2445 -0.6505 0.9935
-1.4881 -0.5314 -0.6887 0.9931
-3.7511 -2.6253 -1.9954 0.9802
-2.9231 -3.5240 -1.9954 0.9802
-2.2511 -3.9869 -1.9954 0.9802
-1.5077 -4.3231 -1.9954 0.9802
-0.7163 -4.5220 -1.9954 0.9802
0.9087 -4.4873 -1.9953 0.9802
1.3049 -4.3884 -1.9953 0.9802
2.0632 -4.0871 -1.9953 0.9802
2.4192 -3.8870 -1.9953 0.9802
2.7559 -3.6559 -1.9953 0.9802
3.3611 -3.1087 -1.9953 0.9802
3.8595 -2.4627 -1.9953 0.9802
4.3734 -1.3542 -1.9953 0.9802
4.5443 -0.5564 -1.9953 0.9802
4.5709 0.2591 -1.9953 0.9802
4.5296 0.6654 -1.9953 0.9802
4.3396 1.4589 -1.9953 0.9802
4.1923 1.8398 -1.9953 0.9802
4.0117 2.2060 -1.9953 0.9802
3.7992 2.5547 -1.9953 0.9802
3.5564 2.8831 -1.9953 0.9802
2.9882 3.4686 -1.9953 0.9802
2.3250 3.9440 -1.9953 0.9802
1.9644 4.1355 -1.9953 0.9802
1.5881 4.2941 -1.9953 0.9802
-0.0122 4.5625 -1.9884 0.9803
-0.4187 4.5425 -1.9881 0.9803
-0.8220 4.4882 -1.9886 0.9803
-1.2194 4.3999 -1.9898 0.9803
-1.6081 4.2776 -1.9916 0.9803
-1.9852 4.1222 -1.9940 0.9802
-2.3463 3.9316 -1.9954 0.9802
-2.6873 3.7069 -1.9954 0.9802
-4.2024 1.8173 -1.9954 0.9802
-1.4928 0.4929 -0.6851 0.9932
-1.4862 0.3475 -0.6652 0.9934
-1.4737 0.2084 -0.6487 0.9935
-1.4529 0.0745 -0.6340 0.9937
-1.4463 -0.0549 -0.6308 0.9937
-1.4938 -0.4714 -0.6827 0.9932
-4.0524 -2.1309 -1.9954 0.9802
-3.8464 -2.4835 -1.9954 0.9802
-3.6098 -2.8164 -1.9954 0.9802
-3.3445 -3.1269 -1.9954 0.9802
-3.0525 -3.4124 -1.9954 0.9802
-2.7363 -3.6709 -1.9954 0.9802
-0.0731 -4.5778 -1.9953 0.9802
0.3351 -4.5661 -1.9953 0.9802
0.7406 -4.5181 -1.9953 0.9802
1.1403 -4.4341 -1.9953 0.9802
1.9092 -4.1612 -1.9953 0.9802
2.2724 -3.9746 -1.9953 0.9802
2.6175 -3.7562 -1.9953 0.9802
3.5178 -2.9301 -1.9953 0.9802
3.9820 -2.2591 -1.9953 0.9802
4.5204 -0.7255 -1.9953 0.9802
4.5774 0.0884 -1.9953 0.9802
4.4890 0.8995 -1.9953 0.9802
4.3910 1.2959 -1.9953 0.9802
4.2581 1.6820 -1.9953 0.9802
3.8919 2.4112 -1.9953 0.9802
3.6615 2.7484 -1.9953 0.9802
3.1156 3.3547 -1.9953 0.9802
2.8042 3.6190 -1.9953 0.9802
2.4706 3.8545 -1.9953 0.9802
2.1173 4.0593 -1.9953 0.9802
1.7472 4.2318 -1.9953 0.9802
1.3632 4.3707 -1.9953 0.9802
0.9671 4.4693 -1.9929 0.9802
0.5643 4.5321 -1.9904 0.9803
-0.2489 4.5550 -1.9881 0.9803
-0.6538 4.5151 -1.9883 0.9803
-1.4468 4.3328 -1.9908 0.9803
-1.8291 4.1912 -1.9930 0.9802
-2.5471 3.8046 -1.9954 0.9802
-2.8760 3.5625 -1.9954 0.9802
-3.9394 2.3332 -1.9954 0.9802
-4.1317 1.9729 -1.9954 0.9802
-1.4933 0.4085 -0.6747 0.9933
-1.4703 0.2642 -0.6511 0.9935
-1.4666 0.1303 -0.6417 0.9936
-1.4670 -0.1322 -0.6419 0.9936
-1.4701 -0.2661 -0.6511 0.9935
-1.5085 -0.5636 -0.7018 0.9930
-4.1291 -1.9782 -1.9954 0.9802
-3.4588 -2.9999 -1.9954 0.9802
-3.1778 -3.2961 -1.9954 0.9802
-2.8714 -3.5662 -1.9954 0.9802
-2.5422 -3.8079 -1.9954 0.9802
-2.1928 -4.0192 -1.9954 0.9802
-1.0516 -4.4560 -1.9954 0.9802
0.5715 -4.5426 -1.9953 0.9802
1.7526 -4.2296 -1.9953 0.9802
-0.1722 4.3011 -1.9925 0.9812
-0.5548 4.2688 -1.9926 0.9812
-0.9333 4.2040 -1.9933 0.9812
-1.3051 4.1070 -1.9947 0.9812
-1.6664 3.9756 -1.9954 0.9812
-2.6586 3.3933 -1.9954 0.9812
-2.9504 3.1429 -1.9954 0.9812
-3.2187 2.8675 -1.9954 0.9812
-3.4615 2.5693 -1.9954 0.9812
-3.8626 1.9140 -1.9954 0.9812
-1.2700 0.2474 -0.5989 0.9943
-1.2745 0.1319 -0.5931 0.9944
-1.2615 0.0176 -0.5840 0.9945
-1.2719 -0.0959 -0.5904 0.9944
-1.2735 -0.2114 -0.5975 0.9943
-1.2705 -0.3295 -0.6076 0.9942
-1.2629 -0.4510 -0.6207 0.9941
-2.7521 -3.3179 -1.9954 0.9812
-1.7765 -3.9276 -1.9954 0.9812
-1.4195 -4.0703 -1.9954 0.9812
-0.2924 -4.3007 -1.9953 0.9812
0.0920 -4.3097 -1.9953 0.9812
0.4757 -4.2843 -1.9953 0.9812
1.5919 -4.0059 -1.9953 0.9812
1.9425 -3.8481 -1.9953 0.9812
2.2777 -3.6597 -1.9953 0.9812
2.5947 -3.4422 -1.9953 0.9812
3.1645 -2.9269 -1.9953 0.9812
3.8260 -1.9857 -1.9953 0.9812
3.9877 -1.6368 -1.9953 0.9812
4.2149 -0.9030 -1.9953 0.9812
4.3036 0.2440 -1.9953 0.9812
4.2647 0.6265 -1.9953 0.9812
4.1920 1.0040 -1.9953 0.9812
4.0858 1.3736 -1.9953 0.9812
3.9472 1.7322 -1.9953 0.9812
3.5770 2.4053 -1.9953 0.9812
3.3485 2.7145 -1.9953 0.9812
3.0933 3.0021 -1.9953 0.9812
2.5113 3.5035 -1.9953 0.9812
2.1891 3.7134 -1.9953 0.9812
1.8495 3.8937 -1.9953 0.9812
1.4952 4.0430 -1.9953 0.9812
1.1290 4.1602 -1.9953 0.9812
0.3723 4.2914 -1.9939 0.9812
-0.0115 4.3050 -1.9927 0.9812
-1.1506 4.1514 -1.9941 0.9812
-1.5169 4.0350 -1.9954 0.9812
-2.2091 3.7017 -1.9954 0.9812
-2.5301 3.4901 -1.9954 0.9812
-2.8311 3.2508 -1.9954 0.9812
-3.1095 2.9856 -1.9954 0.9812
-3.3632 2.6966 -1.9954 0.9812
-3.5901 2.3862 -1.9954 0.9812
-3.7884 2.0568 -1.9954 0.9812
-1.2692 0.2968 -0.6033 0.9943
-1.2750 0.1803 -0.5960 0.9943
-1.2682 0.0651 -0.5878 0.9944
-1.2662 -0.0481 -0.5865 0.9944
-1.2678 -0.2788 -0.6009 0.9943
-3.8154 -2.0063 -1.9954 0.9812
-3.6215 -2.3383 -1.9954 0.9812
-3.3987 -2.6517 -1.9954 0.9812
-2.8740 -3.2129 -1.9954 0.9812
-2.2581 -3.6720 -1.9954 0.9812
-0.4527 -4.2868 -1.9954 0.9812
0.3155 -4.2991 -1.9953 0.9812
1.0736 -4.1748 -1.9953 0.9812
1.4413 -4.0625 -1.9953 0.9812
1.7976 -3.9179 -1.9953 0.9812
2.1396 -3.7421 -1.9953 0.9812
2.7698 -3.3029 -1.9953 0.9812
3.3121 -2.7588 -1.9953 0.9812
3.5448 -2.4527 -1.9953 0.9812
3.9238 -1.7845 -1.9953 0.9812
4.2560 -0.6831 -1.9953 0.9812
4.2852 0.4669 -1.9953 0.9812
4.1342 1.2201 -1.9953 0.9812
3.8520 1.9346 -1.9953 0.9812
3.6643 2.2702 -1.9953 0.9812
3.4474 2.5877 -1.9953 0.9812
3.2031 2.8846 -1.9953 0.9812
2.6403 3.4074 -1.9953 0.9812
1.9935 3.8219 -1.9953 0.9812
0.9117 4.2131 -1.9953 0.9812
0.5324 4.2760 -1.9946 0.9812
0.1491 4.3034 -1.9932 0.9812
-0.2348 4.2980 -1.9925 0.9812
-1.3650 4.0881 -1.9950 0.9812
-1.7242 3.9509 -1.9954 0.9812
-2.0694 3.7815 -1.9954 0.9812
-2.3981 3.5821 -1.9954 0.9812
-2.7078 3.3542 -1.9954 0.9812
-2.9959 3.0995 -1.9954 0.9812
-3.7091 2.1968 -1.9954 0.9812
-1.2700 0.6064 -0.6514 0.9938
-1.2599 0.4689 -0.6223 0.9941
-1.2707 0.3476 -0.6098 0.9942
-1.2734 0.1131 -0.5917 0.9944
-1.2713 -0.6090 -0.6525 0.9938
-3.7062 -2.2015 -1.9954 0.9812
-3.2566 -2.8244 -1.9954 0.9812
-2.0645 -3.7842 -1.9954 0.9812
-1.7191 -3.9531 -1.9954 0.9812
-1.3600 -4.0905 -1.9954 0.9812
-0.2296 -4.3045 -1.9953 0.9812
0.5381 -4.2769 -1.9953 0.9812
1.2887 -4.1135 -1.9953 0.9812
0.5614 4.0288 -1.9953 0.9820
0.2001 4.0628 -1.9953 0.9820
-0.5242 4.0339 -1.9953 0.9820
-1.5725 3.7516 -1.9954 0.9820
-2.2135 3.4129 -1.9954 0.9820
-3.0374 2.7059 -1.9954 0.9820
-3.2664 2.4245 -1.9954 0.9820
-3.4695 2.1238 -1.9954 0.9820
-1.0869 0.5386 -0.5950 0.9946
-1.1162 0.4340 -0.5875 0.9947
-1.1435 -0.0863 -0.5625 0.9949
-1.1329 -0.2938 -0.5741 0.9948
-1.1229 -0.4010 -0.5849 0.9947
-3.5273 -2.0263 -1.9954 0.9820
-3.3327 -2.3325 -1.9954 0.9820
-2.8657 -2.8871 -1.9954 0.9820
-2.5971 -3.1309 -1.9954 0.9820
-2.3077 -3.3499 -1.9954 0.9820
-2.0000 -3.5422 -1.9954 0.9820
-1.6764 -3.7063 -1.9954 0.9820
-0.9919 -3.9450 -1.9954 0.9820
1.5022 -3.7802 -1.9953 0.9820
1.8331 -3.6313 -1.9953 0.9820
2.1494 -3.4535 -1.9953 0.9820
2.4486 -3.2482 -1.9953 0.9820
2.7282 -3.0171 -1.9953 0.9820
3.2204 -2.4849 -1.9953 0.9820
3.6104 -1.8738 -1.9953 0.9820
3.9774 -0.8521 -1.9953 0.9820
3.9558 0.9475 -1.9953 0.9820
3.5643 1.9600 -1.9953 0.9820
3.3755 2.2698 -1.9953 0.9820
3.1598 2.5616 -1.9953 0.9820
2.0658 3.5041 -1.9953 0.9820
0.3516 4.0525 -1.9953 0.9820
-0.0109 4.0678 -1.9953 0.9820
-0.7328 4.0013 -1.9954 0.9820
-1.0864 3.9200 -1.9954 0.9820
-1.4314 3.8077 -1.9954 0.9820
-1.7650 3.6650 -1.9954 0.9820
-2.9343 2.8174 -1.9954 0.9820
-3.1737 2.5447 -1.9954 0.9820
-3.3878 2.2518 -1.9954 0.9820
-1.1046 0.4777 -0.5903 0.9947
-1.1326 0.2649 -0.5706 0.9948
-1.1438 0.1618 -0.5667 0.9949
-1.1415 0.0586 -0.5607 0.9949
-1.1293 -0.3563 -0.5809 0.9947
-1.1091 -0.4622 -0.5894 0.9947
-3.4174 -2.2066 -1.9954 0.9820
-3.2072 -2.5023 -1.9954 0.9820
-2.9715 -2.7781 -1.9954 0.9820
-2.7121 -3.0318 -1.9954 0.9820
-2.4311 -3.2615 -1.9954 0.9820
-2.1308 -3.4651 -1.9954 0.9820
