ply
format ascii 1.0
element vertex 1584
property float32 x
property float32 y
property float32 z
property float32 I
end_header
1.9083 13.1490 0.8239 0.9481
0.6695 12.2658 0.7617 0.9520
-0.4951 14.1127 0.8757 0.9450
-2.3377 18.6552 1.1659 0.9274
-4.7352 -13.8639 0.9085 0.9430
5.2056 -16.9466 1.0993 0.9314
8.0838 -15.6337 1.0914 0.9319
14.3509 -12.9780 1.1998 0.9254
14.6383 -4.3242 0.9465 0.9407
4.1543 7.3555 0.5238 0.9667
6.8156 15.0780 1.0261 0.9358
4.9119 14.1124 0.9266 0.9419
-0.3292 14.0470 0.8713 0.9452
-4.9315 -13.9073 0.9150 0.9426
-1.4288 -19.8156 1.2320 0.9235
2.9781 -10.1129 0.6537 0.9586
7.8956 -15.7153 1.0906 0.9319
10.8527 -14.4323 1.1197 0.9302
12.3979 -13.7328 1.1473 0.9285
14.1253 -13.0761 1.1936 0.9258
6.6591 15.2005 0.6544 0.9357
1.9061 13.1342 0.5233 0.9483
0.6687 12.2527 0.4839 0.9521
-0.5118 14.5878 0.5756 0.9432
-2.3942 19.1059 0.7593 0.9258
0.5552 -18.9779 0.7486 0.9268
2.2559 -18.8927 0.7503 0.9267
3.7240 -17.6069 0.7096 0.9305
9.5559 -15.0137 0.7017 0.9312
14.3659 -12.9916 0.7637 0.9254
4.1530 7.3531 0.3330 0.9668
4.9055 14.0940 0.5884 0.9420
3.4576 13.8085 0.5613 0.9446
2.0739 13.2071 0.5272 0.9479
-1.9408 17.0982 0.6785 0.9334
-4.8880 -13.7846 0.5767 0.9431
-1.4304 -19.8374 0.7842 0.9235
3.5274 -17.6920 0.7113 0.9303
6.4794 -16.4132 0.6958 0.9318
9.3638 -15.0970 0.7005 0.9314
11.0776 -5.7399 0.4920 0.9513
14.2164 13.9585 0.7856 0.9233
0.6680 12.2396 0.2071 0.9521
-0.5115 14.5796 0.2464 0.9433
-2.3924 19.0919 0.3250 0.9259
-5.5601 10.6013 0.2022 0.9532
-4.7087 -13.7862 0.2461 0.9434
0.5558 -18.9975 0.3210 0.9268
2.1065 -17.6419 0.3001 0.9314
6.7343 -16.4945 0.3009 0.9312
8.0993 -15.6637 0.2979 0.9319
9.5651 -15.0282 0.3009 0.9312
14.3403 -12.9684 0.3266 0.9256
14.6685 -4.3332 0.2584 0.9406
4.1602 7.3659 0.1429 0.9667
6.9130 15.2934 0.2835 0.9351
-0.3319 14.1647 0.2393 0.9449
-1.9394 17.0861 0.2905 0.9335
-4.8777 -13.7555 0.2465 0.9433
-1.4320 -19.8590 0.3363 0.9234
0.3363 -19.0927 0.3226 0.9265
3.5309 -17.7093 0.3050 0.9303
3.0080 -10.2145 0.1799 0.9583
6.5558 -16.6067 0.3016 0.9311
7.9108 -15.7454 0.2977 0.9319
9.3729 -15.1116 0.3004 0.9313
10.9922 -14.6177 0.3089 0.9294
12.4840 -13.8281 0.3147 0.9282
14.1147 -13.0663 0.3249 0.9259
11.0733 -5.7377 0.2107 0.9513
14.2133 13.9555 0.3365 0.9234
12.8194 11.0170 -0.0952 0.9346
4.0409 7.3532 -0.0472 0.9670
3.2598 13.6931 -0.0792 0.9453
2.0211 13.9262 -0.0792 0.9453
-0.5050 14.3940 -0.0811 0.9440
-6.5498 10.1598 -0.0681 0.9528
-4.7019 -13.7663 -0.0819 0.9435
-1.1949 -19.7768 -0.1116 0.9238
1.9247 -16.1193 -0.0914 0.9371
3.7313 -17.6412 -0.1015 0.9304
6.7408 -16.5102 -0.1004 0.9312
8.1071 -15.6787 -0.0994 0.9318
9.5744 -15.0428 -0.1004 0.9312
14.7121 -4.3460 -0.0857 0.9405
18.4085 -3.6865 -0.1057 0.9277
4.1739 7.3902 -0.0478 0.9666
4.8928 14.0574 -0.0838 0.9422
2.1989 14.0033 -0.0798 0.9449
0.8378 12.6436 -0.0713 0.9506
-1.9380 17.0740 -0.0967 0.9336
-1.4335 -19.8804 -0.1122 0.9234
0.3366 -19.1125 -0.1076 0.9264
1.8542 -17.2299 -0.0976 0.9330
3.0287 -10.2848 -0.0604 0.9580
9.3819 -15.1262 -0.1002 0.9313
12.4966 -13.8421 -0.1050 0.9281
11.0694 -5.7356 -0.0702 0.9514
12.7318 10.9418 -0.4727 0.9350
4.0448 7.3603 -0.2365 0.9670
4.7553 14.1924 -0.4215 0.9419
3.2559 13.6768 -0.3959 0.9453
0.6666 12.2134 -0.3444 0.9522
-0.5047 14.3859 -0.4053 0.9440
-5.5466 -12.4633 -0.3841 0.9469
-2.7975 -11.4548 -0.3320 0.9539
0.4694 -16.0438 -0.4520 0.9378
5.7261 -14.0250 -0.4266 0.9412
8.2135 -12.9047 -0.4307 0.9406
6.8541 -7.4167 -0.2844 0.9604
12.3579 -11.1757 -0.4692 0.9355
11.0304 -5.5535 -0.3477 0.9518
18.8904 -2.0491 -0.5350 0.9268
6.8934 15.2500 -0.4712 0.9352
2.1964 13.9875 -0.3987 0.9449
0.8369 12.6301 -0.3564 0.9506
-0.3275 13.9771 -0.3937 0.9456
-1.9367 17.0620 -0.4835 0.9336
-7.5798 -13.2400 -0.4296 0.9408
-5.7997 -12.6341 -0.3914 0.9459
-4.3002 -12.1271 -0.3623 0.9498
-2.9246 -11.3980 -0.3313 0.9540
-1.8564 -11.3890 -0.3249 0.9549
6.7831 -13.5010 -0.4254 0.9413
9.4030 -12.5044 -0.4405 0.9393
12.1645 -11.2610 -0.4668 0.9358
9.7516 -6.2183 -0.3257 0.9548
10.9643 -5.6812 -0.3477 0.9518
15.7750 -3.3505 -0.4541 0.9375
12.6603 10.8804 -0.8466 0.9353
13.8783 14.2760 -1.0097 0.9234
4.0473 7.3648 -0.4262 0.9669
6.6218 15.1154 -0.8369 0.9360
3.2521 13.6605 -0.7121 0.9453
0.6659 12.2004 -0.6197 0.9522
-5.5441 10.5709 -0.6054 0.9533
-9.6291 -14.1383 -0.8675 0.9338
-7.2715 -13.0514 -0.7577 0.9419
-4.0459 -11.8458 -0.6348 0.9511
-1.6164 -10.6996 -0.5488 0.9576
-0.6258 -10.3572 -0.5262 0.9593
0.2953 -10.0941 -0.5121 0.9604
1.9837 -9.3788 -0.4862 0.9623
4.3337 -8.3811 -0.4785 0.9629
5.1793 -8.1374 -0.4892 0.9621
5.8766 -7.6285 -0.4884 0.9622
9.4777 -5.8896 -0.5659 0.9563
12.1119 -4.7932 -0.6606 0.9492
13.9861 -4.1316 -0.7396 0.9433
18.3789 -1.9936 -0.9375 0.9286
13.9775 14.0471 -1.0050 0.9237
6.8836 15.2284 -0.8475 0.9353
3.4409 13.7421 -0.7184 0.9448
-0.3274 13.9694 -0.7086 0.9456
-1.9353 17.0500 -0.8702 0.9336
-6.4069 10.1966 -0.6107 0.9529
-4.2107 -11.8747 -0.6390 0.9508
-1.7811 -10.9272 -0.5615 0.9566
1.0596 -9.8460 -0.5022 0.9611
2.6765 -9.0888 -0.4805 0.9628
4.2122 -8.3838 -0.4758 0.9631
5.0068 -8.0724 -0.4817 0.9627
5.8469 -7.7754 -0.4934 0.9618
6.7020 -7.4236 -0.5072 0.9607
7.4705 -6.9156 -0.5163 0.9600
8.2819 -6.3912 -0.5305 0.9590
10.6370 -5.5116 -0.6076 0.9532
15.5580 -3.3044 -0.8066 0.9383
18.0719 -2.1734 -0.9231 0.9297
12.6001 10.8286 -1.2182 0.9355
13.8752 14.2728 -1.4595 0.9233
10.6188 15.7880 -1.3951 0.9265
4.0542 7.3774 -0.6172 0.9668
6.6125 15.0942 -1.2083 0.9360
0.6652 12.1874 -0.8949 0.9522
-0.5041 14.3697 -1.0543 0.9440
-2.2876 18.2554 -1.3490 0.9289
-12.5337 -15.2637 -1.4481 0.9238
-9.9203 -14.5658 -1.2922 0.9318
-7.3701 -13.2283 -1.1103 0.9411
-5.5622 -12.4983 -1.0031 0.9466
0.2918 -9.9731 -0.7316 0.9608
1.1467 -9.6037 -0.7092 0.9620
1.9631 -9.2813 -0.6956 0.9627
2.6916 -8.7622 -0.6721 0.9639
5.7934 -7.5204 -0.6961 0.9626
6.7097 -7.2605 -0.7249 0.9611
7.5116 -6.7931 -0.7426 0.9602
10.6804 -5.3773 -0.8768 0.9532
12.0565 -4.7713 -0.9507 0.9493
15.8004 -3.1642 -1.1815 0.9374
18.5374 -2.0108 -1.3672 0.9279
-0.3272 13.9618 -1.0240 0.9455
-7.6632 -13.3856 -1.1309 0.9400
-5.7570 -12.5409 -1.0118 0.9462
-4.2105 -11.8742 -0.9238 0.9507
-1.7686 -10.8505 -0.8061 0.9569
1.8727 -9.3928 -0.7023 0.9623
4.2008 -8.3613 -0.6861 0.9632
7.3816 -6.8333 -0.7375 0.9605
13.5710 -4.1813 -1.0412 0.9446
18.0745 -2.1737 -1.3348 0.9296
13.8721 14.2696 -1.9106 0.9231
4.0701 7.4063 -0.8113 0.9666
4.7509 14.1792 -1.4357 0.9417
3.2443 13.6279 -1.3449 0.9453
2.0120 13.8638 -1.3449 0.9453
-2.2859 18.2419 -1.7650 0.9288
-19.5344 -3.2838 -1.9017 0.9235
-17.0431 -7.9265 -1.8045 0.9273
-14.3637 -10.1359 -1.6878 0.9318
-13.0012 -11.0424 -1.6376 0.9338
-11.6322 -11.8270 -1.5926 0.9355
-5.6567 -12.7105 -1.3357 0.9456
-4.0617 -11.8920 -1.2064 0.9508
-1.6250 -10.7564 -1.0444 0.9572
0.2929 -10.0096 -0.9614 0.9606
1.1467 -9.6035 -0.9285 0.9619
2.7338 -8.8998 -0.8938 0.9633
3.5273 -8.6394 -0.8959 0.9632
7.5237 -6.8040 -0.9739 0.9601
12.0621 -4.7735 -1.2454 0.9492
18.1506 -1.9688 -1.7528 0.9293
18.9666 -0.3501 -1.8212 0.9266
13.9712 14.0409 -1.9016 0.9235
6.8336 15.1177 -1.5928 0.9355
4.8674 13.9845 -1.4216 0.9422
0.8342 12.5894 -1.2113 0.9506
-0.3270 13.9541 -1.3400 0.9455
-19.3530 -3.0222 -1.8805 0.9243
-18.5083 -6.4244 -1.8809 0.9243
-17.2138 -7.7635 -1.8129 0.9269
-15.8877 -8.9556 -1.7509 0.9293
-14.5400 -10.0089 -1.6947 0.9315
-11.8102 -11.7317 -1.5982 0.9353
-7.5706 -13.2239 -1.4629 0.9406
-4.1879 -11.8103 -1.2030 0.9509
-2.9293 -11.4164 -1.1315 0.9537
-1.7686 -10.8507 -1.0555 0.9568
-0.7584 -10.5178 -1.0124 0.9585
0.1754 -9.9607 -0.9564 0.9608
2.6658 -9.0522 -0.9060 0.9628
3.3911 -8.5902 -0.8866 0.9636
4.1936 -8.3468 -0.8968 0.9632
4.9571 -7.9922 -0.9029 0.9629
9.3672 -5.9731 -1.0666 0.9563
10.5982 -5.4915 -1.1460 0.9532
13.5829 -4.1850 -1.3645 0.9445
15.6115 -3.3158 -1.5322 0.9379
18.8729 -0.5681 -1.8127 0.9269
16.4715 9.6673 -2.2687 0.9260
12.1195 10.4155 -1.8982 0.9377
10.6135 15.7803 -2.2590 0.9263
2.0097 13.8481 -1.6622 0.9452
-2.2842 18.2285 -2.1822 0.9287
-18.3983 5.3188 -2.2749 0.9258
-17.8278 3.4624 -2.1573 0.9295
-17.6758 1.8134 -2.1107 0.9309
-17.8394 0.2255 -2.1192 0.9307
-17.5296 -1.3516 -2.0885 0.9316
-16.7663 -2.8185 -2.0196 0.9338
-15.9202 -4.1694 -1.9549 0.9359
-13.0174 -7.5386 -1.7869 0.9412
-10.8835 -9.2438 -1.6962 0.9441
-8.6639 -10.5510 -1.6217 0.9465
-6.4021 -11.4908 -1.5625 0.9484
-5.2616 -11.8229 -1.5372 0.9492
-1.6413 -10.8641 -1.3051 0.9567
-0.6290 -10.4109 -1.2389 0.9589
0.2913 -9.9551 -1.1830 0.9607
1.1499 -9.6305 -1.1521 0.9617
2.7255 -8.8727 -1.1026 0.9633
3.4845 -8.5347 -1.0950 0.9635
6.6832 -7.2318 -1.1697 0.9611
9.6043 -5.9683 -1.3432 0.9555
13.6078 -4.0198 -1.6855 0.9444
15.0626 -1.6339 -1.7997 0.9408
15.5926 -0.2878 -1.8525 0.9391
16.0354 1.1426 -1.9096 0.9373
16.3796 2.6556 -1.9711 0.9353
16.7213 5.9134 -2.1068 0.9310
16.6911 7.6450 -2.1808 0.9287
12.1997 10.2401 -1.8920 0.9379
13.7536 13.8222 -2.3162 0.9245
6.7021 14.8268 -1.9328 0.9366
4.8611 13.9663 -1.7566 0.9422
3.3524 13.3884 -1.6395 0.9459
-1.9929 17.5576 -2.0990 0.9313
-18.5076 5.5846 -2.2963 0.9251
-17.8696 3.6869 -2.1674 0.9291
-17.6801 2.0220 -2.1138 0.9308
-17.7971 0.4321 -2.1147 0.9308
-17.6219 -1.1526 -2.0977 0.9313
-13.1517 -7.4133 -1.7933 0.9410
-7.6830 -11.0033 -1.5941 0.9474
-6.5496 -11.4404 -1.5659 0.9483
-0.7576 -10.5072 -1.2513 0.9585
0.1744 -9.9041 -1.1767 0.9609
1.0306 -9.5767 -1.1441 0.9619
1.8690 -9.3741 -1.1354 0.9622
2.6352 -8.9485 -1.1081 0.9631
3.3885 -8.5835 -1.0962 0.9635
4.8950 -7.8920 -1.1031 0.9633
5.7100 -7.5934 -1.1285 0.9625
6.5261 -7.2288 -1.1568 0.9615
8.3980 -6.4808 -1.2601 0.9582
10.6956 -5.5419 -1.4309 0.9526
11.9593 -4.8945 -1.5350 0.9493
13.3793 -4.1222 -1.6630 0.9452
14.3716 -3.0524 -1.7452 0.9425
14.9879 -1.8025 -1.7932 0.9410
15.9832 0.9521 -1.9019 0.9375
16.5892 4.0365 -2.0281 0.9335
16.1687 10.9919 -2.3224 0.9243
13.8519 13.6006 -2.3060 0.9248
13.7651 6.4996 -2.1569 0.9404
13.1159 9.3702 -2.2839 0.9370
9.2656 13.7762 -2.3524 0.9351
4.0783 7.4213 -1.1998 0.9664
6.4384 14.6967 -2.2734 0.9372
2.3311 6.9571 -1.0396 0.9708
0.6630 12.1481 -1.7238 0.9520
-2.2825 18.2149 -2.6010 0.9285
-3.9901 18.3375 -2.6590 0.9270
-5.6246 13.5505 -2.0788 0.9425
-11.9327 15.3048 -2.7497 0.9246
-13.9162 12.4385 -2.6446 0.9274
-15.7629 4.5569 -2.3249 0.9359
-15.4128 1.5812 -2.1953 0.9393
-14.5882 -1.1248 -2.0731 0.9426
-14.0307 -2.3586 -2.0159 0.9441
-13.3926 -3.5074 -1.9616 0.9456
-11.9186 -5.5432 -1.8624 0.9483
-9.3520 -7.9430 -1.7385 0.9516
-8.4324 -8.5736 -1.7039 0.9526
-7.4910 -9.1227 -1.6725 0.9534
-6.5330 -9.5923 -1.6444 0.9542
-5.5629 -9.9846 -1.6195 0.9549
-4.5847 -10.3018 -1.5977 0.9555
-2.6149 -10.7071 -1.5617 0.9564
-1.6062 -10.6321 -1.5235 0.9575
1.1632 -9.7414 -1.3901 0.9611
4.3388 -8.3911 -1.3385 0.9626
5.9036 -7.6635 -1.3707 0.9617
8.4647 -6.3765 -1.5016 0.9581
9.4171 -5.8519 -1.5709 0.9562
11.2380 -4.4474 -1.7125 0.9523
11.8311 -3.4950 -1.7480 0.9514
13.2270 -0.2442 -1.8744 0.9480
13.5393 0.9648 -1.9232 0.9466
13.7610 2.2310 -1.9752 0.9452
13.8828 3.5496 -2.0303 0.9438
13.5525 7.7435 -2.2116 0.9389
11.6938 9.8155 -2.1632 0.9402
11.0730 11.1282 -2.2243 0.9385
10.3072 12.4044 -2.2851 0.9369
4.1666 7.3772 -1.2005 0.9664
2.4102 6.9247 -1.0389 0.9708
2.0839 13.2708 -1.9034 0.9472
-0.3151 13.4475 -1.9059 0.9471
-1.9915 17.5451 -2.5019 0.9311
-6.6761 13.0975 -2.0829 0.9423
-13.8094 12.6352 -2.6521 0.9272
-15.7110 6.3235 -2.3996 0.9339
-15.6757 3.2342 -2.2679 0.9374
-14.6541 -0.9585 -2.0808 0.9424
-14.1079 -2.2031 -2.0232 0.9439
-13.4797 -3.3631 -1.9685 0.9454
-12.7806 -4.4363 -1.9169 0.9468
-12.0212 -5.4216 -1.8685 0.9481
-11.2107 -6.3192 -1.8234 0.9493
-7.6143 -9.0559 -1.6764 0.9533
-5.6894 -9.9380 -1.6225 0.9548
-4.7121 -10.2648 -1.6003 0.9554
-3.7296 -10.5180 -1.5812 0.9559
-2.7441 -10.6944 -1.5644 0.9564
-1.7423 -10.6893 -1.5346 0.9572
0.1762 -10.0035 -1.4176 0.9604
1.0583 -9.8338 -1.4014 0.9608
1.8544 -9.3011 -1.3438 0.9624
4.1945 -8.3487 -1.3238 0.9630
4.9785 -8.0267 -1.3383 0.9626
6.6291 -7.3428 -1.4017 0.9608
11.1570 -4.5662 -1.7081 0.9525
13.1802 -0.3968 -1.8683 0.9481
13.9000 4.7344 -2.0806 0.9424
13.8091 6.1316 -2.1408 0.9408
11.1618 10.9593 -2.2164 0.9388
11.7081 5.5284 -2.1330 0.9489
11.4428 6.7160 -2.1858 0.9476
9.1756 9.4385 -2.1685 0.9480
7.6738 11.4095 -2.2652 0.9458
4.0918 7.4458 -1.3996 0.9661
2.3296 6.9526 -1.2080 0.9707
1.8233 12.5636 -2.0914 0.9498
-0.4853 13.8318 -2.2800 0.9454
-1.8885 15.0708 -2.5022 0.9403
-4.5393 14.4768 -2.4994 0.9403
-5.5904 13.4681 -2.4023 0.9426
-6.7921 12.9503 -2.4090 0.9424
-8.7008 13.4962 -2.6453 0.9370
-11.4497 10.2339 -2.5299 0.9396
-13.1632 5.1209 -2.3268 0.9443
-13.2531 3.8314 -2.2727 0.9456
-13.0748 1.3413 -2.1652 0.9481
-12.4806 -0.9623 -2.0622 0.9505
-8.1920 -6.9577 -1.7706 0.9574
-6.5928 -8.0288 -1.7114 0.9588
-5.7613 -8.4592 -1.6861 0.9594
-4.9146 -8.8210 -1.6635 0.9599
-4.0567 -9.1155 -1.6437 0.9604
-3.1914 -9.3439 -1.6266 0.9608
-2.3219 -9.5074 -1.6123 0.9611
-0.5827 -9.6442 -1.5917 0.9616
0.2808 -9.5985 -1.5819 0.9618
1.9251 -9.1017 -1.5326 0.9630
3.4486 -8.4467 -1.5030 0.9637
4.9583 -7.7902 -1.5212 0.9633
6.5518 -7.0896 -1.5903 0.9616
7.3952 -6.6878 -1.6426 0.9604
9.3169 -4.6908 -1.7184 0.9586
10.7940 -2.1616 -1.8135 0.9564
11.1689 -1.2115 -1.8508 0.9555
11.4749 -0.2118 -1.8907 0.9545
11.7055 0.8341 -1.9332 0.9535
11.8751 4.1996 -2.0750 0.9502
11.1177 7.7489 -2.2325 0.9465
10.2232 8.5810 -2.1988 0.9473
9.2572 9.3034 -2.1621 0.9482
8.5785 10.3240 -2.2113 0.9470
7.7851 11.2891 -2.2591 0.9459
4.1756 7.3931 -1.3988 0.9662
5.8696 12.9850 -2.3475 0.9439
2.4081 6.9185 -1.2068 0.9707
1.9837 12.6324 -2.1066 0.9495
0.8130 12.2698 -2.0258 0.9514
-3.0593 14.8917 -2.5045 0.9402
-8.5557 13.6165 -2.6492 0.9369
-9.6200 12.6391 -2.6167 0.9376
-10.5563 11.5570 -2.5786 0.9385
-11.3561 10.3905 -2.5357 0.9395
-12.0146 9.1607 -2.4890 0.9406
-12.9048 6.5917 -2.3872 0.9429
-13.2485 3.9977 -2.2797 0.9454
-13.0998 1.4982 -2.1721 0.9480
-12.8629 0.3123 -2.1196 0.9492
-12.5303 -0.8196 -2.0686 0.9504
-11.6169 -2.8983 -1.9724 0.9526
-9.0450 -6.2263 -1.8090 0.9565
-8.2921 -6.8783 -1.7748 0.9573
-6.6995 -7.9678 -1.7149 0.9587
-5.0253 -8.7779 -1.6663 0.9598
-3.3041 -9.3179 -1.6287 0.9607
-1.5644 -9.5977 -1.6020 0.9613
-0.6953 -9.6429 -1.5927 0.9616
0.1692 -9.6081 -1.5831 0.9618
1.8234 -9.1452 -1.5362 0.9629
3.3511 -8.4888 -1.5035 0.9637
4.8588 -7.8337 -1.5186 0.9633
5.6350 -7.4936 -1.5446 0.9627
6.4436 -7.1374 -1.5841 0.9618
7.3003 -6.7580 -1.6388 0.9605
7.9945 -6.1694 -1.6636 0.9599
10.2954 -3.1721 -1.7747 0.9573
10.7406 -2.2812 -1.8089 0.9565
11.1240 -1.3378 -1.8458 0.9556
11.4393 -0.3444 -1.8854 0.9547
11.9103 2.8981 -2.0193 0.9515
11.8857 4.0483 -2.0685 0.9504
10.6619 8.7398 -2.2711 0.9456
10.1761 4.8050 -2.1152 0.9552
9.9134 5.8183 -2.1606 0.9543
9.5516 6.8238 -2.2064 0.9533
9.0722 7.7967 -2.2484 0.9525
7.8713 8.0969 -2.1225 0.9551
2.3282 6.9484 -1.3774 0.9706
2.8765 12.0827 -2.3345 0.9507
-0.4456 12.7031 -2.3892 0.9496
-1.5854 12.6519 -2.3967 0.9494
-4.8640 11.7181 -2.3848 0.9497
-5.8556 11.1646 -2.3696 0.9500
-7.3268 11.3650 -2.5416 0.9465
-8.2315 10.5577 -2.5163 0.9470
-9.0283 9.6560 -2.4847 0.9476
-10.2871 7.6559 -2.4103 0.9491
-10.7425 6.5892 -2.3688 0.9500
-11.4307 2.2200 -2.1887 0.9537
-10.8949 -0.8401 -2.0539 0.9565
-10.1401 -2.6556 -1.9702 0.9582
-8.5582 -4.9562 -1.8589 0.9605
-7.9382 -5.6017 -1.8262 0.9612
-5.8823 -7.1635 -1.7422 0.9630
-5.1486 -7.5596 -1.7192 0.9635
-3.6350 -8.1679 -1.6804 0.9643
-2.8627 -8.3816 -1.6648 0.9646
-1.3041 -8.6319 -1.6409 0.9651
0.2531 -8.6514 -1.6268 0.9654
1.0241 -8.5764 -1.6235 0.9655
1.7863 -8.4456 -1.6226 0.9655
2.5372 -8.2597 -1.6241 0.9654
3.2740 -8.0191 -1.6281 0.9654
4.6946 -7.3760 -1.6434 0.9650
5.3726 -6.9742 -1.6547 0.9648
6.0249 -6.5194 -1.6685 0.9645
7.2394 -5.4534 -1.7036 0.9638
8.3091 -4.1834 -1.7486 0.9628
8.7796 -3.4745 -1.7747 0.9623
9.5692 -1.9163 -1.8343 0.9611
9.8785 -1.0715 -1.8677 0.9604
10.3001 0.7340 -1.9409 0.9588
10.4014 1.6864 -1.9806 0.9580
10.4225 2.6649 -2.0220 0.9572
10.2031 4.6733 -2.1094 0.9554
9.9531 5.6869 -2.1546 0.9544
9.6043 6.6941 -2.2005 0.9535
9.1489 7.6793 -2.2451 0.9525
7.3386 8.8318 -2.1583 0.9543
4.9952 7.2435 -1.6538 0.9648
4.1960 7.4293 -1.6037 0.9659
4.9768 11.0101 -2.2711 0.9520
3.0125 12.0312 -2.3312 0.9508
-0.2976 12.7001 -2.3878 0.9496
-2.5682 12.4996 -2.3985 0.9494
-3.6717 12.2029 -2.3953 0.9495
-5.7307 11.2427 -2.3719 0.9499
-7.1935 11.4486 -2.5414 0.9465
-8.1203 10.6688 -2.5201 0.9469
-9.6322 8.8132 -2.4540 0.9482
-11.4122 3.4436 -2.2406 0.9526
-11.3584 1.2990 -2.1489 0.9545
-11.1889 0.2717 -2.1037 0.9555
-10.1973 -2.5442 -1.9755 0.9581
-9.7306 -3.3776 -1.9360 0.9589
-8.6358 -4.8678 -1.8633 0.9605
-5.9761 -7.1075 -1.7454 0.9629
-4.4965 -7.8542 -1.7011 0.9638
-3.7347 -8.1357 -1.6826 0.9642
-2.9634 -8.3572 -1.6667 0.9646
-0.6251 -8.6684 -1.6336 0.9652
0.9244 -8.5893 -1.6238 0.9655
3.9011 -7.7646 -1.6333 0.9653
5.9418 -6.5815 -1.6666 0.9646
8.7211 -3.5692 -1.7712 0.9624
9.1493 -2.8189 -1.7995 0.9618
9.8418 -1.1836 -1.8632 0.9605
10.0958 -0.3039 -1.8985 0.9597
10.2813 0.6125 -1.9359 0.9589
10.3927 1.5611 -1.9753 0.9581
10.2285 4.5417 -2.1036 0.9555
9.6553 6.5640 -2.1945 0.9536
8.0165 7.8711 -2.1117 0.9553
8.9898 4.2448 -2.1014 0.9602
6.3282 7.7987 -2.1229 0.9598
3.8322 6.9734 -1.6820 0.9680
3.4204 7.8076 -1.8018 0.9658
2.4847 10.4371 -2.2678 0.9571
1.5541 10.7086 -2.2873 0.9567
-0.3837 10.9381 -2.3135 0.9562
-1.3645 10.8893 -2.3198 0.9561
-3.2809 10.4633 -2.3179 0.9562
-5.0477 9.6243 -2.2972 0.9565
-7.1146 9.1251 -2.4459 0.9538
-7.8166 8.3601 -2.4193 0.9543
-8.4273 7.5325 -2.3892 0.9548
-8.9424 6.6552 -2.3563 0.9554
-9.3594 5.7409 -2.3209 0.9561
-9.6777 4.8021 -2.2837 0.9568
-9.8983 3.8507 -2.2450 0.9575
-10.0040 1.0263 -2.1258 0.9597
-9.6574 -0.7446 -2.0474 0.9612
-9.3758 -1.5761 -2.0097 0.9619
-8.6265 -3.1073 -1.9382 0.9632
-8.1708 -3.8001 -1.9048 0.9638
-6.5483 -5.5617 -1.8161 0.9655
-5.3056 -6.4612 -1.7672 0.9664
-4.6499 -6.8273 -1.7461 0.9668
-3.2901 -7.3929 -1.7105 0.9675
-2.5934 -7.5930 -1.6960 0.9677
-1.8899 -7.7386 -1.6839 0.9680
-1.1830 -7.8303 -1.6740 0.9681
-0.4754 -7.8687 -1.6663 0.9683
0.9299 -7.7876 -1.6578 0.9684
1.6221 -7.6693 -1.6570 0.9685
2.9722 -7.2798 -1.6621 0.9684
4.8699 -6.3216 -1.6868 0.9679
5.4569 -5.9048 -1.6995 0.9677
6.0160 -5.4405 -1.7145 0.9674
6.5439 -4.9295 -1.7318 0.9671
7.9044 -3.1281 -1.7969 0.9658
8.5865 -1.7195 -1.8511 0.9648
9.1759 3.2450 -2.0573 0.9610
8.7737 5.0131 -2.1360 0.9595
7.2532 7.2894 -2.1737 0.9588
6.4049 7.7081 -2.1184 0.9599
4.9855 7.2294 -1.8563 0.9647
3.4809 7.7007 -1.7863 0.9660
2.4037 6.9062 -1.5457 0.9705
1.6769 10.6791 -2.2850 0.9568
-0.2563 10.9364 -2.3124 0.9563
-1.2374 10.9018 -2.3192 0.9561
-2.2099 10.7571 -2.3213 0.9561
-3.1598 10.5040 -2.3186 0.9561
-4.9394 9.6904 -2.2991 0.9565
-7.0171 9.2193 -2.4490 0.9537
-9.3108 5.8613 -2.3256 0.9560
-10.0126 3.0213 -2.2107 0.9581
-10.0580 2.0751 -2.1708 0.9589
-9.6890 -0.6337 -2.0524 0.9611
-8.2327 -3.7130 -1.9090 0.9638
-7.7365 -4.3609 -1.8772 0.9643
-6.0204 -5.9804 -1.7938 0.9659
-5.3893 -6.4096 -1.7701 0.9663
-4.7361 -6.7829 -1.7487 0.9667
-4.0651 -7.1006 -1.7295 0.9671
-1.2749 -7.8215 -1.6751 0.9681
0.1384 -7.8591 -1.6615 0.9684
0.8393 -7.7992 -1.6581 0.9684
4.7917 -6.3722 -1.6853 0.9679
5.3821 -5.9616 -1.6977 0.9677
5.9451 -5.5035 -1.7125 0.9674
6.4772 -4.9985 -1.7294 0.9671
6.9751 -4.4478 -1.7486 0.9667
7.4350 -3.8525 -1.7701 0.9663
7.8533 -3.2141 -1.7937 0.9659
9.0267 -0.2717 -1.9089 0.9638
9.2524 1.3898 -1.9777 0.9625
9.2596 2.2531 -2.0144 0.9618
9.0419 4.0148 -2.0912 0.9604
8.8101 4.8987 -2.1308 0.9596
7.5343 7.3976 -2.2319 0.9577
7.4820 5.3452 -2.1611 0.9629
3.8310 6.9713 -1.8695 0.9678
2.3262 6.9426 -1.7208 0.9704
2.1843 9.1755 -2.2167 0.9620
-2.8766 9.1740 -2.2596 0.9613
-4.4306 8.4477 -2.2419 0.9616
-6.2575 8.0258 -2.3918 0.9590
-7.4328 6.6435 -2.3430 0.9599
-7.8999 5.8793 -2.3144 0.9603
-8.5802 4.2576 -2.2512 0.9614
-8.7927 3.4206 -2.2174 0.9620
-8.9695 1.7420 -2.1474 0.9632
-8.4273 -1.4167 -2.0084 0.9655
-8.1315 -2.1296 -1.9756 0.9661
-7.7818 -2.8030 -1.9439 0.9666
-7.3832 -3.4338 -1.9137 0.9671
-6.9407 -4.0195 -1.8850 0.9676
-5.3985 -5.4889 -1.8094 0.9689
-4.8278 -5.8793 -1.7879 0.9692
-4.2357 -6.2192 -1.7684 0.9696
-3.0025 -6.7466 -1.7355 0.9701
-2.3684 -6.9343 -1.7222 0.9703
-0.4348 -7.1971 -1.6946 0.9708
0.8509 -7.1260 -1.6867 0.9709
1.4844 -7.0180 -1.6859 0.9710
3.3149 -6.4108 -1.6962 0.9708
3.8926 -6.1159 -1.7038 0.9707
4.9826 -5.3916 -1.7254 0.9703
5.4889 -4.9638 -1.7393 0.9700
6.4085 -3.9823 -1.7733 0.9695
6.8151 -3.4312 -1.7933 0.9691
8.1736 -0.1509 -1.9213 0.9670
8.2842 0.5903 -1.9519 0.9664
8.3324 1.3509 -1.9839 0.9659
8.3147 2.1260 -2.0170 0.9654
8.2279 2.9097 -2.0511 0.9648
8.0692 3.6959 -2.0859 0.9642
7.8363 4.4774 -2.1211 0.9636
7.5277 5.2467 -2.1565 0.9630
4.8912 7.0927 -2.0249 0.9652
3.4819 7.7030 -1.9867 0.9659
2.4019 6.9008 -1.7173 0.9704
2.2885 9.1394 -2.2143 0.9620
1.4729 9.3796 -2.2314 0.9617
-1.0849 9.5578 -2.2607 0.9612
-2.7704 9.2093 -2.2602 0.9613
-4.3351 8.5048 -2.2435 0.9615
-5.2979 8.4318 -2.3404 0.9599
-6.1707 8.1073 -2.3945 0.9590
-6.8068 7.4520 -2.3720 0.9594
-7.3660 6.7397 -2.3465 0.9598
-8.2378 5.1858 -2.2878 0.9608
-8.9677 1.8502 -2.1520 0.9631
-8.6901 -0.5684 -2.0467 0.9648
-8.4615 -1.3214 -2.0127 0.9654
-7.8301 -2.7179 -1.9480 0.9665
-7.4375 -3.3544 -1.9175 0.9670
-6.5239 -4.4908 -1.8614 0.9680
-6.0125 -4.9874 -1.8360 0.9684
-5.4708 -5.4345 -1.8123 0.9688
-4.9032 -5.8315 -1.7906 0.9692
-4.3137 -6.1779 -1.7709 0.9695
-2.4512 -6.9128 -1.7238 0.9703
-1.1655 -7.1506 -1.7027 0.9707
0.7680 -7.1365 -1.6869 0.9709
3.2384 -6.4457 -1.6953 0.9708
3.8187 -6.1568 -1.7027 0.9707
7.1364 -2.9207 -1.8123 0.9688
8.1549 -0.2455 -1.9175 0.9670
8.3298 1.2512 -1.9797 0.9660
8.3208 2.0247 -2.0126 0.9654
7.8708 4.3765 -2.1165 0.9637
7.5721 5.1477 -2.1519 0.9631
7.1969 5.8995 -2.1871 0.9625
7.2695 3.4326 -2.0815 0.9673
7.0388 4.1312 -2.1132 0.9668
6.7404 4.8155 -2.1448 0.9664
5.9409 6.1112 -2.2068 0.9654
2.3255 6.9404 -1.8952 0.9702
1.9465 8.1766 -2.1762 0.9659
1.2152 8.3737 -2.1908 0.9656
0.4635 8.4931 -2.2023 0.9655
-1.8199 8.3636 -2.2162 0.9653
-3.2688 7.8751 -2.2077 0.9654
-3.9434 7.5187 -2.1982 0.9655
-6.1431 6.5702 -2.3289 0.9635
-6.6407 5.9356 -2.3061 0.9639
-7.0672 5.2596 -2.2810 0.9643
-7.4201 4.5514 -2.2538 0.9647
-7.6980 3.8198 -2.2250 0.9651
-7.9008 3.0736 -2.1950 0.9656
-8.0294 2.3212 -2.1641 0.9661
-8.0856 1.5703 -2.1326 0.9665
-7.9914 0.1010 -2.0693 0.9675
-7.8480 -0.6051 -2.0380 0.9680
-7.6456 -1.2853 -2.0074 0.9685
-6.7277 -3.1290 -1.9211 0.9698
-4.4250 -5.3888 -1.8054 0.9716
-3.8858 -5.7055 -1.7873 0.9719
-3.3293 -5.9756 -1.7711 0.9721
0.1936 -6.6167 -1.7139 0.9730
0.7836 -6.5625 -1.7112 0.9731
1.3670 -6.4633 -1.7105 0.9731
1.9413 -6.3196 -1.7117 0.9731
2.5036 -6.1321 -1.7149 0.9730
3.5819 -5.6278 -1.7272 0.9728
5.0425 -4.5601 -1.7603 0.9723
6.2450 -3.1442 -1.8103 0.9715
6.5741 -2.6017 -1.8306 0.9712
6.8621 -2.0271 -1.8526 0.9709
7.1054 -1.4229 -1.8763 0.9705
7.5681 1.2270 -1.9851 0.9688
7.5404 1.9280 -2.0152 0.9684
7.2946 3.3411 -2.0774 0.9674
7.0726 4.0411 -2.1091 0.9669
6.4256 5.3935 -2.1721 0.9659
5.3738 6.4672 -2.1771 0.9659
4.5793 6.6404 -2.0885 0.9672
3.8331 6.7867 -2.0181 0.9683
2.0887 6.0010 -1.6452 0.9741
2.0396 8.1454 -2.1741 0.9659
1.3116 8.3524 -2.1891 0.9657
-0.9647 8.4989 -2.2147 0.9653
-2.4635 8.1892 -2.2142 0.9653
-4.8526 7.7230 -2.3616 0.9630
-5.5002 7.2264 -2.3514 0.9632
-6.0734 6.6491 -2.3317 0.9635
-6.5800 6.0205 -2.3092 0.9638
-7.6662 3.9158 -2.2289 0.9651
-8.0169 2.4190 -2.1681 0.9660
-8.0823 1.6675 -2.1367 0.9665
-8.0055 0.1944 -2.0734 0.9675
-7.6751 -1.1985 -2.0113 0.9684
-7.4248 -1.8524 -1.9813 0.9689
-7.1237 -2.4727 -1.9524 0.9693
-6.7761 -3.0560 -1.9246 0.9698
-6.3864 -3.5999 -1.8982 0.9702
-5.9592 -4.1021 -1.8732 0.9705
-5.0087 -4.9754 -1.8279 0.9713
-4.4936 -5.3443 -1.8079 0.9716
-3.4024 -5.9431 -1.7731 0.9721
-2.8335 -6.1725 -1.7585 0.9723
-2.2535 -6.3551 -1.7458 0.9725
-1.6655 -6.4909 -1.7351 0.9727
-1.0726 -6.5802 -1.7262 0.9728
-0.4776 -6.6233 -1.7193 0.9729
0.1166 -6.6204 -1.7144 0.9730
1.2917 -6.4787 -1.7105 0.9731
1.8673 -6.3408 -1.7115 0.9731
2.4313 -6.1589 -1.7144 0.9730
6.5336 -2.6740 -1.8279 0.9713
6.8271 -2.1035 -1.8497 0.9709
7.2784 -0.8753 -1.8981 0.9702
7.5672 1.1367 -1.9813 0.9689
7.5475 1.8365 -2.0112 0.9684
7.4654 2.5427 -2.0420 0.9679
7.3185 3.2496 -2.0733 0.9675
6.8244 4.6395 -2.1366 0.9665
6.4758 5.3084 -2.1681 0.9660
6.0599 5.9500 -2.1989 0.9655
6.6248 3.1282 -2.0740 0.9700
6.1261 4.3766 -2.1314 0.9692
5.7856 4.9722 -2.1596 0.9688
3.5555 6.4699 -2.0899 0.9698
2.9907 6.8267 -2.1099 0.9695
2.3247 6.9382 -2.0715 0.9700
1.7534 7.3653 -2.1433 0.9690
-0.2692 7.6734 -2.1736 0.9686
-2.3003 7.3362 -2.1765 0.9685
-3.6004 6.8648 -2.1944 0.9683
-5.5399 5.9251 -2.2963 0.9668
-5.9944 5.3579 -2.2760 0.9671
-6.3862 4.7528 -2.2536 0.9674
-6.9727 3.4599 -2.2036 0.9682
-7.1655 2.7876 -2.1766 0.9685
-7.2917 2.1080 -2.1488 0.9689
-7.3525 1.4280 -2.1203 0.9693
-7.2865 0.0921 -2.0629 0.9702
-7.1653 -0.5525 -2.0345 0.9706
-6.9896 -1.1750 -2.0065 0.9710
-5.4267 -3.8294 -1.8803 0.9728
-4.5545 -4.6308 -1.8387 0.9734
-4.0806 -4.9694 -1.8203 0.9736
-3.0747 -5.5186 -1.7884 0.9741
-2.5493 -5.7284 -1.7750 0.9743
-2.0133 -5.8946 -1.7634 0.9744
-0.9210 -6.0967 -1.7455 0.9747
0.7255 -6.0764 -1.7324 0.9749
1.2658 -5.9847 -1.7317 0.9749
2.8243 -5.4620 -1.7407 0.9748
3.3143 -5.2073 -1.7474 0.9747
3.7852 -4.9136 -1.7559 0.9745
4.2344 -4.5819 -1.7662 0.9744
4.6590 -4.2133 -1.7783 0.9742
5.0564 -3.8090 -1.7921 0.9740
5.4235 -3.3703 -1.8077 0.9738
5.7577 -2.8988 -1.8249 0.9736
6.8297 -0.1261 -1.9338 0.9720
6.9041 0.4920 -1.9595 0.9716
6.9253 1.1228 -1.9861 0.9713
6.7996 2.4046 -2.0417 0.9705
6.6488 3.0454 -2.0703 0.9701
6.4378 3.6784 -2.0990 0.9696
5.8332 4.8963 -2.1560 0.9688
4.9821 5.9958 -2.2069 0.9681
4.1415 6.0055 -2.0652 0.9701
3.6258 6.4197 -2.0872 0.9698
2.0797 5.9751 -1.7910 0.9740
1.8374 7.3380 -2.1415 0.9690
-0.1798 7.6733 -2.1729 0.9686
-0.8675 7.6423 -2.1774 0.9685
-1.5487 7.5388 -2.1788 0.9685
-2.8588 7.1201 -2.1721 0.9686
-6.3390 4.8332 -2.2566 0.9674
-6.6741 4.2014 -2.2326 0.9677
-7.2790 2.1964 -2.1524 0.9689
-7.3482 1.5161 -2.1240 0.9693
-7.2981 0.1772 -2.0666 0.9701
-7.0154 -1.0955 -2.0101 0.9709
-5.8659 -3.3065 -1.9062 0.9724
-4.6144 -4.5837 -1.8413 0.9733
-4.1434 -4.9278 -1.8226 0.9736
-3.6514 -5.2295 -1.8056 0.9738
-2.6183 -5.7036 -1.7767 0.9742
-1.5405 -6.0039 -1.7547 0.9746
-0.9925 -6.0888 -1.7465 0.9747
-0.4421 -6.1305 -1.7400 0.9748
0.6549 -6.0852 -1.7326 0.9749
1.1961 -5.9990 -1.7317 0.9749
2.7593 -5.4921 -1.7400 0.9748
4.1774 -4.6271 -1.7648 0.9744
4.6054 -4.2633 -1.7766 0.9742
5.7162 -2.9619 -1.8226 0.9736
6.5067 -1.3820 -1.8831 0.9727
6.6852 -0.8040 -1.9062 0.9724
6.8974 0.4109 -1.9561 0.9717
6.8988 1.6787 -2.0100 0.9709
6.4686 3.5968 -2.0953 0.9697
5.8798 4.8199 -2.1523 0.9689
5.4950 5.3953 -2.1801 0.9685
6.0788 2.8703 -2.0677 0.9723
5.8713 3.4459 -2.0939 0.9719
5.6084 4.0067 -2.1200 0.9716
5.2908 4.5469 -2.1457 0.9712
4.4961 5.5409 -2.1948 0.9706
3.9381 5.8552 -2.1704 0.9709
3.2382 5.8925 -2.0681 0.9723
1.5933 6.6928 -2.1161 0.9716
0.3786 6.9368 -2.1368 0.9713
-0.8679 6.9258 -2.1469 0.9712
-1.4847 6.8231 -2.1478 0.9712
-3.4775 6.6305 -2.3029 0.9692
-4.5684 5.8594 -2.2853 0.9694
-5.8183 4.3301 -2.2308 0.9701
-6.1217 3.7550 -2.2089 0.9704
-6.5482 2.5475 -2.1611 0.9710
-6.6709 1.9285 -2.1358 0.9714
-6.7341 1.3079 -2.1100 0.9717
-6.7394 0.6914 -2.0838 0.9720
-6.6889 0.0846 -2.0575 0.9724
-6.5851 -0.5077 -2.0314 0.9727
-6.4308 -1.0810 -2.0057 0.9731
-6.2293 -1.6314 -1.9806 0.9734
-5.9837 -2.1553 -1.9562 0.9737
-5.6977 -2.6499 -1.9327 0.9740
-5.0181 -3.5411 -1.8891 0.9746
-4.6316 -3.9338 -1.8691 0.9749
-4.2186 -4.2892 -1.8504 0.9751
-3.3264 -4.8840 -1.8175 0.9756
-2.8537 -5.1219 -1.8034 0.9758
-2.3674 -5.3195 -1.7909 0.9759
-0.8563 -5.6682 -1.7632 0.9763
-0.3446 -5.7031 -1.7574 0.9764
0.1667 -5.6977 -1.7533 0.9764
1.1775 -5.5672 -1.7502 0.9765
2.1557 -5.2800 -1.7541 0.9764
2.6263 -5.0791 -1.7587 0.9764
3.0811 -4.8409 -1.7650 0.9763
3.5177 -4.5664 -1.7729 0.9762
4.3259 -3.9120 -1.7939 0.9759
4.6922 -3.5346 -1.8069 0.9757
5.3360 -2.6865 -1.8375 0.9753
6.0392 -1.2094 -1.8944 0.9746
6.1929 -0.6718 -1.9160 0.9743
6.3640 0.4535 -1.9624 0.9737
6.2472 2.2093 -2.0381 0.9727
5.9013 3.3719 -2.0905 0.9720
5.3351 4.4781 -2.1424 0.9713
2.7906 6.1735 -2.0838 0.9720
2.0731 5.9562 -1.9398 0.9740
-0.7871 6.9344 -2.1466 0.9712
-1.4052 6.8401 -2.1478 0.9712
-3.3998 6.6698 -2.3026 0.9692
-3.9791 6.3328 -2.3004 0.9692
-4.5037 5.9171 -2.2872 0.9694
-6.0857 3.8310 -2.2118 0.9704
-6.3370 3.2369 -2.1887 0.9707
-6.7292 1.3884 -2.1134 0.9717
-6.6985 0.1627 -2.0609 0.9723
-6.2580 -1.5613 -1.9838 0.9734
-6.0180 -2.0889 -1.9593 0.9737
-5.4185 -3.0543 -1.9132 0.9743
-5.0662 -3.4874 -1.8917 0.9746
-4.6834 -3.8849 -1.8716 0.9749
-4.2736 -4.2452 -1.8528 0.9751
-3.3866 -4.8502 -1.8195 0.9755
-1.9355 -5.4583 -1.7813 0.9761
-0.9227 -5.6607 -1.7641 0.9763
-0.4111 -5.7009 -1.7580 0.9764
0.6092 -5.6604 -1.7511 0.9765
1.1126 -5.5805 -1.7502 0.9765
1.6083 -5.4612 -1.7511 0.9765
3.0230 -4.8739 -1.7641 0.9763
3.8808 -4.2986 -1.7813 0.9761
4.6462 -3.5855 -1.8051 0.9757
5.2981 -2.7452 -1.8353 0.9753
5.8150 -1.7916 -1.8715 0.9749
6.1754 -0.7427 -1.9131 0.9743
6.3587 0.3788 -1.9593 0.9737
6.2621 2.1329 -2.0347 0.9727
5.9305 3.2976 -2.0871 0.9720
5.6820 3.8628 -2.1133 0.9717
5.3785 4.4089 -2.1391 0.9713
5.6100 2.6490 -2.0622 0.9742
5.1658 3.6905 -2.1103 0.9736
4.8685 4.1841 -2.1339 0.9733
3.6865 5.4811 -2.1957 0.9725
3.0672 5.5814 -2.1170 0.9735
2.4938 5.6926 -2.0659 0.9741
1.9884 5.9345 -2.0805 0.9740
1.4583 6.1256 -2.0931 0.9738
0.3462 6.3437 -2.1118 0.9736
-0.2234 6.3667 -2.1176 0.9735
-1.3571 6.2370 -2.1217 0.9735
-1.9081 6.0855 -2.1200 0.9735
-3.7055 5.7477 -2.2732 0.9716
-4.1821 5.3640 -2.2609 0.9717
-4.6155 4.9364 -2.2464 0.9719
-5.3371 3.9720 -2.2115 0.9723
-5.8486 2.9021 -2.1703 0.9729
-6.1408 1.7753 -2.1248 0.9734
-6.1754 0.0781 -2.0529 0.9743
-6.0854 -0.4692 -2.0288 0.9746
-5.7676 -1.5105 -1.9818 0.9752
-5.5453 -1.9974 -1.9592 0.9755
-5.2848 -2.4579 -1.9374 0.9757
-4.6621 -3.2899 -1.8967 0.9762
-4.3063 -3.6575 -1.8781 0.9765
-3.9250 -3.9907 -1.8606 0.9767
-3.5215 -4.2885 -1.8445 0.9769
-3.0987 -4.5498 -1.8298 0.9771
-2.2076 -4.9604 -1.8048 0.9774
-1.7449 -5.1089 -1.7945 0.9775
-1.2746 -5.2191 -1.7859 0.9776
-0.7993 -5.2911 -1.7788 0.9777
-0.3217 -5.3249 -1.7733 0.9778
0.1557 -5.3207 -1.7694 0.9778
0.6303 -5.2787 -1.7671 0.9778
1.0997 -5.1994 -1.7665 0.9778
2.8760 -4.5186 -1.7804 0.9777
3.6692 -3.9703 -1.7970 0.9775
4.0334 -3.6476 -1.8077 0.9773
4.3728 -3.2941 -1.8198 0.9772
4.6849 -2.9113 -1.8335 0.9770
5.4319 -1.6046 -1.8827 0.9764
5.8617 1.4988 -2.0111 0.9748
5.6319 2.5796 -2.0591 0.9742
5.2008 3.6248 -2.1072 0.9736
4.9099 4.1213 -2.1308 0.9733
4.5702 4.5930 -2.1538 0.9731
4.1834 5.0346 -2.1759 0.9728
3.7477 5.4344 -2.1943 0.9726
1.5283 6.1038 -2.0916 0.9738
0.9811 6.2481 -2.1023 0.9737
-0.7195 6.3390 -2.1207 0.9735
-1.2845 6.2525 -2.1218 0.9735
-2.4799 6.1764 -2.2124 0.9723
-3.1177 6.1164 -2.2820 0.9715
-3.6406 5.7941 -2.2746 0.9716
-4.1226 5.4164 -2.2626 0.9717
-4.5618 4.9942 -2.2484 0.9719
-4.9542 4.5329 -2.2321 0.9721
-5.2965 4.0384 -2.2140 0.9723
-5.5863 3.5167 -2.1942 0.9726
-6.1285 1.8492 -2.1279 0.9734
-6.1997 1.2791 -2.1042 0.9737
-6.1835 0.1501 -2.0560 0.9743
-5.7935 -1.4454 -1.9848 0.9751
-4.7063 -3.2397 -1.8992 0.9762
-3.1546 -4.5180 -1.8317 0.9770
-2.2670 -4.9384 -1.8062 0.9774
-1.8055 -5.0918 -1.7958 0.9775
-0.3838 -5.3227 -1.7739 0.9778
0.0938 -5.3234 -1.7698 0.9778
1.5020 -5.1003 -1.7673 0.9778
1.9550 -4.9523 -1.7698 0.9778
2.8218 -4.5495 -1.7796 0.9777
3.6202 -4.0099 -1.7958 0.9775
3.9875 -3.6913 -1.8062 0.9774
4.9322 -2.5556 -1.8465 0.9769
5.1864 -2.1226 -1.8628 0.9767
5.5888 -1.1870 -1.8992 0.9762
5.8340 -0.1756 -1.9401 0.9757
5.9046 0.8869 -1.9847 0.9751
5.8698 1.4283 -2.0081 0.9749
5.7862 1.9708 -2.0319 0.9746
4.1803 4.3001 -2.1446 0.9748
3.8143 4.7007 -2.1648 0.9746
3.4082 5.0673 -2.1838 0.9744
2.9573 5.3813 -2.1958 0.9743
0.3186 5.8371 -2.0905 0.9755
-0.7297 5.8235 -2.0988 0.9754
-1.8448 5.8834 -2.2050 0.9741
-2.4262 5.8451 -2.2631 0.9735
-3.8516 4.9400 -2.2401 0.9737
-4.6112 4.1215 -2.2117 0.9741
-5.4034 2.6812 -2.1571 0.9747
-5.5682 2.1662 -2.1366 0.9749
-5.6824 1.6427 -2.1153 0.9752
-5.7466 1.1161 -2.0934 0.9754
-5.7616 0.5911 -2.0712 0.9757
-5.5278 -0.9292 -2.0045 0.9765
-5.3640 -1.4048 -1.9829 0.9767
-4.6510 -2.6935 -1.9220 0.9774
-4.3490 -3.0689 -1.9035 0.9776
-4.0197 -3.4141 -1.8860 0.9778
-3.6661 -3.7275 -1.8696 0.9780
-3.2910 -4.0079 -1.8545 0.9782
-1.1937 -4.8878 -1.7993 0.9789
-0.3014 -4.9891 -1.7874 0.9790
0.1459 -4.9858 -1.7837 0.9790
1.4632 -4.7635 -1.7820 0.9791
1.8862 -4.6199 -1.7845 0.9790
2.6939 -4.2325 -1.7942 0.9789
3.0739 -3.9902 -1.8012 0.9788
4.0903 -3.0812 -1.8313 0.9785
4.6414 -2.3368 -1.8583 0.9782
4.8720 -1.9280 -1.8737 0.9780
5.4426 -0.1005 -1.9467 0.9771
5.4886 0.8899 -1.9884 0.9767
5.4459 1.3925 -2.0102 0.9764
5.0428 2.8813 -2.0769 0.9756
4.8155 3.3564 -2.0991 0.9754
4.2248 4.2459 -2.1419 0.9749
3.4631 5.0218 -2.1814 0.9744
3.0180 5.3435 -2.1946 0.9743
2.4610 5.4445 -2.1366 0.9749
0.9031 5.7512 -2.0819 0.9756
-0.6618 5.8308 -2.0985 0.9754
-1.1815 5.7510 -2.0996 0.9754
-1.7610 5.8538 -2.1860 0.9744
-2.3577 5.8720 -2.2628 0.9735
-2.8716 5.6336 -2.2613 0.9735
-3.3512 5.3335 -2.2526 0.9736
-3.7965 4.9880 -2.2416 0.9737
-4.8858 3.7253 -2.1971 0.9742
-5.3783 2.7472 -2.1597 0.9747
-5.7624 0.6590 -2.0741 0.9757
-5.6630 -0.3704 -2.0295 0.9762
-5.5461 -0.8661 -2.0074 0.9764
-5.3875 -1.3442 -1.9857 0.9767
-5.1898 -1.8014 -1.9645 0.9769
-4.9557 -2.2351 -1.9441 0.9772
-3.3408 -3.9733 -1.8564 0.9782
-2.5421 -4.4405 -1.8298 0.9785
-0.3596 -4.9869 -1.7880 0.9790
0.0879 -4.9883 -1.7841 0.9790
0.9738 -4.8842 -1.7810 0.9791
1.4075 -4.7796 -1.7818 0.9791
2.2446 -4.4676 -1.7880 0.9790
4.6091 -2.3882 -1.8564 0.9782
4.8438 -1.9824 -1.8716 0.9780
5.2129 -1.1072 -1.9058 0.9776
5.4837 0.3267 -1.9645 0.9769
5.4540 1.3271 -2.0073 0.9764
5.3719 1.8297 -2.0294 0.9762
5.2436 2.3283 -2.0517 0.9759
4.5805 3.7548 -2.1180 0.9752
4.2685 4.1911 -2.1392 0.9749
4.8452 2.2878 -2.0534 0.9773
4.4474 3.1773 -2.0946 0.9769
4.1850 3.5966 -2.1147 0.9766
3.1607 4.6993 -2.1703 0.9760
2.7480 5.0006 -2.1866 0.9759
2.2992 5.2484 -2.1958 0.9758
1.7922 5.3489 -2.1618 0.9761
0.7754 5.3432 -2.0691 0.9771
0.2947 5.3989 -2.0720 0.9771
-0.6929 5.5295 -2.1356 0.9764
-1.7537 5.5930 -2.2462 0.9752
-2.2475 5.4146 -2.2466 0.9752
-2.7156 5.1777 -2.2405 0.9753
-3.5652 4.5727 -2.2220 0.9755
-3.9383 4.2121 -2.2098 0.9756
-4.2723 3.8187 -2.1959 0.9758
-4.5645 3.3970 -2.1805 0.9759
-4.8127 2.9520 -2.1636 0.9761
-5.0155 2.4887 -2.1456 0.9763
-5.2818 1.5269 -2.1070 0.9767
-5.3453 1.0381 -2.0867 0.9769
-2.2914 0.0290 -0.8782 0.9902
-2.3041 -0.1776 -0.8856 0.9901
-5.1571 -0.8669 -2.0040 0.9778
-5.0079 -1.3115 -1.9838 0.9781
-4.8222 -1.7369 -1.9642 0.9783
-4.6024 -2.1405 -1.9451 0.9785
-4.3511 -2.5198 -1.9269 0.9787
-3.7651 -3.1978 -1.8930 0.9791
-2.7180 -3.9909 -1.8504 0.9795
-0.2833 -4.6886 -1.8000 0.9801
2.1588 -4.1749 -1.8011 0.9801
2.5311 -3.9766 -1.8064 0.9800
2.8874 -3.7481 -1.8131 0.9799
3.2255 -3.4902 -1.8212 0.9798
3.5432 -3.2042 -1.8307 0.9797
3.8382 -2.8913 -1.8415 0.9796
4.5652 -1.8067 -1.8815 0.9792
4.7477 -1.4025 -1.8971 0.9790
5.0107 -0.5435 -1.9315 0.9786
5.0798 1.2988 -2.0093 0.9778
4.4784 3.1214 -2.0919 0.9769
4.2214 3.5434 -2.1121 0.9767
3.9234 3.9430 -2.1316 0.9765
0.8385 5.3394 -2.0712 0.9771
0.3573 5.3931 -2.0713 0.9771
-1.1581 5.6373 -2.2054 0.9756
-1.6882 5.6118 -2.2457 0.9752
-2.1850 5.4419 -2.2473 0.9752
-3.1007 4.9349 -2.2335 0.9753
-3.8920 4.2609 -2.2115 0.9756
-4.7830 3.0109 -2.1659 0.9761
-5.2701 1.5902 -2.1096 0.9767
-5.3397 1.1017 -2.0894 0.9769
-2.3019 0.2633 -0.8879 0.9901
-2.2952 0.0557 -0.8798 0.9902
-5.0294 -1.2548 -1.9864 0.9780
-4.6327 -2.0894 -1.9476 0.9785
-4.3854 -2.4720 -1.9292 0.9787
-4.1090 -2.8285 -1.9117 0.9789
-3.8062 -3.1572 -1.8951 0.9790
-3.1323 -3.7253 -1.8652 0.9794
-2.3856 -4.1670 -1.8401 0.9796
-1.9916 -4.3385 -1.8294 0.9798
-1.5873 -4.4764 -1.8201 0.9799
0.0826 -4.6883 -1.7969 0.9801
0.5011 -4.6564 -1.7947 0.9801
0.9154 -4.5910 -1.7940 0.9801
1.7218 -4.3615 -1.7969 0.9801
2.1094 -4.1984 -1.8006 0.9801
2.4836 -4.0041 -1.8057 0.9800
3.5032 -3.2429 -1.8294 0.9798
3.8012 -2.9334 -1.8400 0.9796
4.5392 -1.8577 -1.8795 0.9792
4.8794 -1.0363 -1.9116 0.9789
5.0797 -0.1529 -1.9475 0.9785
5.1228 0.3052 -1.9666 0.9783
5.0074 1.7056 -2.0272 0.9776
4.8843 2.1687 -2.0480 0.9774
4.7180 2.6234 -2.0687 0.9771
4.5087 3.0652 -2.0893 0.9769
4.2572 3.4897 -2.1095 0.9767
4.5286 2.1383 -2.0497 0.9786
3.9039 3.3551 -2.1068 0.9780
3.2978 4.0642 -2.1421 0.9776
2.1444 4.8951 -2.1872 0.9772
0.2919 5.3479 -2.1920 0.9771
-0.6765 5.3984 -2.2267 0.9768
-1.6320 5.2049 -2.2325 0.9767
-2.5231 4.8107 -2.2233 0.9768
-2.9333 4.5501 -2.2157 0.9769
-3.3144 4.2511 -2.2062 0.9770
-3.9751 3.5530 -2.1821 0.9772
-4.2491 3.1623 -2.1678 0.9774
-4.4825 2.7495 -2.1522 0.9775
-4.6740 2.3193 -2.1355 0.9777
-4.8227 1.8762 -2.1179 0.9779
-2.0126 -0.1552 -0.8262 0.9913
-2.0447 -0.3437 -0.8486 0.9911
-4.5199 -1.6281 -1.9662 0.9795
-3.5371 -3.0042 -1.8993 0.9801
-2.1976 -3.9443 -1.8479 0.9807
-1.4447 -4.2299 -1.8294 0.9809
-1.0562 -4.3248 -1.8221 0.9809
-0.6628 -4.3875 -1.8161 0.9810
-0.2669 -4.4178 -1.8114 0.9811
0.5232 -4.3821 -1.8062 0.9811
3.0372 -3.2865 -1.8315 0.9808
4.4597 -1.3174 -1.9032 0.9801
4.7015 -0.5100 -1.9355 0.9798
4.7707 -0.0880 -1.9529 0.9796
4.8035 0.3423 -1.9709 0.9794
4.7984 0.7780 -1.9895 0.9792
4.6711 1.6519 -2.0278 0.9788
4.3840 2.5049 -2.0665 0.9784
4.1807 2.9139 -2.0856 0.9782
3.9382 3.3057 -2.1044 0.9780
3.3415 4.0214 -2.1399 0.9777
2.9911 4.3373 -2.1563 0.9775
2.1995 4.8660 -2.1855 0.9772
0.8337 5.3090 -2.1995 0.9770
0.3539 5.3407 -2.1906 0.9771
-1.5716 5.2242 -2.2328 0.9767
-2.8816 4.5862 -2.2168 0.9769
-3.6195 3.9626 -2.1965 0.9771
-3.9367 3.6020 -2.1838 0.9772
-4.4545 2.8042 -2.1543 0.9775
-4.9170 1.4837 -2.1020 0.9780
-2.0192 0.2309 -0.8318 0.9913
-1.9964 0.0485 -0.8173 0.9914
-4.1151 -2.3196 -1.9334 0.9798
-3.8579 -2.6557 -1.9169 0.9800
-3.5755 -2.9659 -1.9013 0.9801
-3.2704 -3.2487 -1.8867 0.9803
-2.6026 -3.7274 -1.8606 0.9805
-2.2450 -3.9214 -1.8493 0.9807
-1.4947 -4.2152 -1.8304 0.9809
-1.1070 -4.3143 -1.8229 0.9809
-0.7141 -4.3811 -1.8168 0.9810
-0.3184 -4.4157 -1.8119 0.9810
0.8627 -4.3268 -1.8057 0.9811
1.6225 -4.1100 -1.8085 0.9811
2.3397 -3.7722 -1.8167 0.9810
2.9970 -3.3196 -1.8304 0.9809
3.2978 -3.0528 -1.8392 0.9808
3.5771 -2.7605 -1.8493 0.9807
4.0634 -2.1055 -1.8730 0.9804
4.2662 -1.7460 -1.8866 0.9803
4.5813 -0.9730 -1.9168 0.9800
4.6900 -0.5640 -1.9333 0.9798
4.6842 1.5955 -2.0253 0.9788
4.2093 2.8616 -2.0832 0.9782
3.9719 3.2559 -2.1020 0.9780
4.0854 2.3978 -2.0645 0.9795
3.3853 3.4823 -2.1166 0.9790
3.0834 3.7999 -2.1327 0.9789
2.7504 4.0893 -2.1478 0.9787
1.5936 4.7560 -2.1860 0.9784
0.2760 5.0570 -2.2072 0.9781
-0.1780 5.0735 -2.2125 0.9781
-1.0820 4.9728 -2.2179 0.9780
-1.5217 4.8531 -2.2166 0.9781
-1.9469 4.6904 -2.2133 0.9781
-3.0929 3.9669 -2.1922 0.9783
-3.4191 3.6568 -2.1818 0.9784
-3.9696 2.9543 -2.1566 0.9786
-4.1897 2.5699 -2.1421 0.9788
-4.3709 2.1689 -2.1265 0.9789
-1.5503 0.6031 -0.7250 0.9928
-1.4704 0.2856 -0.6528 0.9935
-1.4631 -0.1128 -0.6396 0.9936
-1.4921 -0.3908 -0.6722 0.9933
-4.0597 -1.8881 -1.9513 0.9807
-3.8423 -2.2251 -1.9351 0.9808
-3.3316 -2.8297 -1.9050 0.9811
-2.4114 -3.5406 -1.8669 0.9815
-1.3637 -3.9927 -1.8388 0.9818
-0.9972 -4.0832 -1.8318 0.9818
0.1220 -4.1711 -1.8186 0.9820
0.4943 -4.1393 -1.8168 0.9820
0.8624 -4.0774 -1.8163 0.9820
1.5779 -3.8647 -1.8193 0.9820
2.2515 -3.5375 -1.8275 0.9819
2.5675 -3.3328 -1.8335 0.9818
2.8667 -3.1020 -1.8408 0.9817
4.3277 -0.8666 -1.9235 0.9809
4.4235 -0.4798 -1.9392 0.9808
4.4863 -0.0828 -1.9555 0.9806
4.5072 0.7308 -1.9900 0.9803
4.4634 1.1412 -2.0078 0.9801
4.3825 1.5498 -2.0259 0.9799
3.9155 2.7290 -2.0800 0.9794
3.1244 3.7601 -2.1306 0.9789
2.7953 4.0535 -2.1459 0.9787
2.0538 4.5435 -2.1730 0.9785
-0.1189 5.0737 -2.2118 0.9781
-1.0241 4.9851 -2.2180 0.9780
-1.8927 4.7139 -2.2138 0.9781
-2.3017 4.5155 -2.2088 0.9781
-3.0482 4.0049 -2.1934 0.9783
-3.3785 3.6988 -2.1832 0.9784
-4.1633 2.6208 -2.1440 0.9788
-4.3496 2.2218 -2.1286 0.9789
-1.4939 0.4508 -0.6800 0.9932
-1.4762 0.3046 -0.6569 0.9934
-1.4717 0.1683 -0.6456 0.9936
-1.4386 0.0349 -0.6272 0.9937
-1.4901 -0.3718 -0.6693 0.9933
-1.4903 -0.5173 -0.6875 0.9931
-4.0859 -1.8427 -1.9534 0.9806
-3.8721 -2.1826 -1.9371 0.9808
-3.6319 -2.5001 -1.9216 0.9809
-3.3676 -2.7934 -1.9069 0.9811
-2.7764 -3.3021 -1.8802 0.9814
-2.4543 -3.5150 -1.8684 0.9815
-1.0451 -4.0732 -1.8327 0.9818
-0.6743 -4.1371 -1.8268 0.9819
-0.3007 -4.1703 -1.8222 0.9819
0.8149 -4.0871 -1.8163 0.9820
1.5325 -3.8820 -1.8189 0.9820
1.8771 -3.7361 -1.8222 0.9819
2.5273 -3.3609 -1.8327 0.9818
3.6147 -2.3050 -1.8684 0.9815
3.8304 -1.9847 -1.8802 0.9814
4.0199 -1.6452 -1.8930 0.9812
4.1813 -1.2883 -1.9068 0.9811
4.3128 -0.9160 -1.9215 0.9809
4.5128 0.2688 -1.9703 0.9805
4.4712 1.0879 -2.0055 0.9801
4.3951 1.4970 -2.0235 0.9799
4.2816 1.9012 -2.0417 0.9798
4.1307 2.2968 -2.0598 0.9796
3.6513 2.6086 -2.0771 0.9804
3.4300 2.9478 -2.0935 0.9803
1.4921 4.4533 -2.1740 0.9795
0.2586 4.7384 -2.1966 0.9793
-0.1667 4.7515 -2.2008 0.9793
-0.5918 4.7226 -2.2031 0.9792
-1.0122 4.6519 -2.2037 0.9792
-1.4236 4.5401 -2.2024 0.9792
-2.2020 4.1985 -2.1945 0.9793
-2.5612 3.9727 -2.1879 0.9794
-3.4775 3.1082 -2.1589 0.9797
-3.7201 2.7686 -2.1465 0.9798
-4.0998 2.0343 -2.1185 0.9800
-1.2561 0.4887 -0.6239 0.9941
-1.2704 0.3673 -0.6121 0.9942
-1.2721 -0.0981 -0.5906 0.9944
-1.2635 -0.5876 -0.6450 0.9939
-3.1453 -2.6714 -1.9102 0.9820
-2.8740 -2.9221 -1.8972 0.9821
-2.5845 -3.1474 -1.8851 0.9822
-2.2791 -3.3463 -1.8741 0.9823
-1.9600 -3.5179 -1.8641 0.9824
-1.6295 -3.6616 -1.8552 0.9825
-1.2899 -3.7768 -1.8474 0.9826
-0.9435 -3.8631 -1.8408 0.9826
-0.5923 -3.9205 -1.8353 0.9827
-0.2386 -3.9487 -1.8311 0.9827
0.8163 -3.8594 -1.8260 0.9828
1.4934 -3.6578 -1.8288 0.9827
1.8179 -3.5158 -1.8321 0.9827
2.4290 -3.1530 -1.8423 0.9826
3.2208 -2.4262 -1.8665 0.9824
3.4439 -2.1401 -1.8768 0.9823
3.6434 -1.8343 -1.8881 0.9822
3.8176 -1.5108 -1.9004 0.9821
4.0834 -0.8177 -1.9277 0.9818
4.1719 -0.4525 -1.9425 0.9817
4.0093 1.8364 -2.0412 0.9808
3.8608 2.2059 -2.0582 0.9806
3.6776 2.5632 -2.0750 0.9804
3.4606 2.9047 -2.0914 0.9803
3.2110 3.2270 -2.1072 0.9801
2.9302 3.5265 -2.1223 0.9800
2.2840 4.0440 -2.1498 0.9797
1.1450 4.5728 -2.1820 0.9794
0.7339 4.6735 -2.1898 0.9794
-0.5367 4.7288 -2.2029 0.9792
-0.9580 4.6635 -2.2037 0.9792
-2.1537 4.2253 -2.1952 0.9793
-2.5158 4.0040 -2.1889 0.9794
-2.8536 3.7491 -2.1809 0.9794
-3.1637 3.4636 -2.1714 0.9795
-4.0796 2.0838 -2.1205 0.9800
-1.2697 0.3831 -0.6139 0.9942
-1.2681 0.2616 -0.5993 0.9943
-1.2750 0.1458 -0.5940 0.9944
-1.2706 -0.0831 -0.5894 0.9944
-1.2702 -0.3169 -0.6060 0.9942
-3.4271 -2.3591 -1.9258 0.9818
-3.1791 -2.6370 -1.9119 0.9820
-2.9103 -2.8910 -1.8988 0.9821
-2.6230 -3.1196 -1.8867 0.9822
-2.3196 -3.3220 -1.8755 0.9823
-1.6730 -3.6445 -1.8563 0.9825
-0.6381 -3.9147 -1.8360 0.9827
-0.2846 -3.9467 -1.8316 0.9827
0.4222 -3.9234 -1.8266 0.9828
0.7713 -3.8686 -1.8260 0.9828
1.4505 -3.6742 -1.8285 0.9827
2.0906 -3.3706 -1.8360 0.9827
2.6757 -2.9638 -1.8483 0.9826
3.4162 -2.1784 -1.8754 0.9823
3.7964 -1.5537 -1.8988 0.9821
4.1622 -0.5006 -1.9405 0.9817
4.2235 -0.1271 -1.9559 0.9815
4.2523 0.2533 -1.9718 0.9814
4.1349 1.4084 -2.0220 0.9809
4.0260 1.7876 -2.0390 0.9808
3.8820 2.1586 -2.0560 0.9806
3.7033 2.5176 -2.0728 0.9805
3.2452 3.1863 -2.1052 0.9802
3.2280 2.7741 -2.0878 0.9812
2.4233 3.6030 -2.1299 0.9808
1.7615 4.0209 -2.1533 0.9806
-0.5552 4.4308 -2.1904 0.9803
-0.9497 4.3644 -2.1909 0.9803
-1.7092 4.1176 -2.1869 0.9803
-2.0664 3.9400 -2.1823 0.9804
-2.4039 3.7288 -2.1762 0.9804
-2.7183 3.4865 -2.1686 0.9805
-3.0067 3.2158 -2.1595 0.9806
-1.1162 0.4342 -0.5875 0.9947
-1.1443 0.1174 -0.5642 0.9949
-1.1360 0.0144 -0.5573 0.9950
-1.1436 -0.0882 -0.5626 0.9949
-3.2114 -2.2661 -1.9280 0.9826
-2.9754 -2.5271 -1.9149 0.9828
-2.7197 -2.7653 -1.9026 0.9829
-2.1581 -3.1688 -1.8806 0.9831
-1.5439 -3.4692 -1.8626 0.9832
-0.2262 -3.7437 -1.8397 0.9834
0.1095 -3.7432 -1.8369 0.9835
0.4436 -3.7151 -1.8353 0.9835
1.0988 -3.5771 -1.8356 0.9835
2.3021 -2.9884 -1.8504 0.9833
2.8195 -2.5498 -1.8647 0.9832
3.0506 -2.2980 -1.8734 0.9831
3.2609 -2.0263 -1.8832 0.9830
3.4487 -1.7363 -1.8940 0.9829
3.7502 -1.1078 -1.9182 0.9827
3.8609 -0.7732 -1.9315 0.9826
3.9430 -0.4277 -1.9455 0.9825
4.0166 0.2862 -1.9752 0.9822
4.0061 0.6495 -1.9908 0.9821
3.8875 1.3748 -2.0226 0.9818
3.6370 2.0781 -2.0547 0.9815
3.4628 2.4135 -2.0704 0.9814
3.2570 2.7338 -2.0858 0.9812
2.4631 3.5717 -2.1282 0.9809
2.1461 3.7998 -2.1406 0.9807
1.8070 3.9975 -2.1519 0.9806
1.4488 4.1626 -2.1620 0.9806
1.0749 4.2927 -2.1707 0.9805
0.6888 4.3863 -2.1779 0.9804
0.2943 4.4420 -2.1837 0.9804
-0.1045 4.4589 -2.1878 0.9803
-0.5036 4.4366 -2.1902 0.9803
-0.8988 4.3752 -2.1910 0.9803
-2.0211 3.9650 -2.1830 0.9804
-2.3613 3.7581 -2.1771 0.9804
-2.6789 3.5196 -2.1697 0.9805
-2.9708 3.2525 -2.1608 0.9806
-3.2345 2.9595 -2.1505 0.9807
-1.0909 0.5572 -0.6009 0.9946
-1.1129 0.4479 -0.5885 0.9947
-1.1370 0.2346 -0.5695 0.9948
-1.1442 0.1309 -0.5649 0.9949
-1.1380 0.0276 -0.5584 0.9949
-1.1428 -0.0747 -0.5618 0.9949
-1.1430 -0.1785 -0.5675 0.9949
-1.1330 -0.2827 -0.5728 0.9948
-1.1248 -0.3904 -0.5840 0.9947
-3.4518 -1.9457 -1.9436 0.9825
-3.0072 -2.4944 -1.9165 0.9827
-2.4830 -2.9531 -1.8926 0.9830
-2.1964 -3.1456 -1.8819 0.9831
-1.8964 -3.3125 -1.8723 0.9831
-1.5851 -3.4529 -1.8637 0.9832
-1.2646 -3.5663 -1.8561 0.9833
-0.9372 -3.6525 -1.8497 0.9833
-0.2698 -3.7418 -1.8402 0.9834
0.4004 -3.7203 -1.8354 0.9835
1.0570 -3.5893 -1.8354 0.9835
2.2663 -3.0137 -1.8496 0.9833
2.5356 -2.8086 -1.8561 0.9833
3.2348 -2.0627 -1.8819 0.9831
3.4256 -1.7750 -1.8925 0.9830
3.8481 -0.8173 -1.9297 0.9826
3.9340 -0.4731 -1.9436 0.9825
3.9901 -0.1201 -1.9581 0.9824
4.0156 0.2392 -1.9732 0.9822
3.6572 2.0336 -2.0526 0.9815
3.4872 2.3707 -2.0684 0.9814
3.2854 2.6932 -2.0838 0.9813
3.0530 2.9977 -2.0988 0.9811
3.5530 1.6777 -2.0384 0.9825
3.4136 2.0035 -2.0534 0.9823
2.2830 3.3944 -2.1222 0.9817
1.9808 3.6045 -2.1337 0.9816
1.6585 3.7858 -2.1442 0.9815
0.9649 4.0531 -2.1614 0.9814
-1.6077 3.8733 -2.1756 0.9813
-2.5583 3.2813 -2.1585 0.9814
-2.8304 3.0272 -2.1500 0.9815
-3.0759 2.7493 -2.1402 0.9816
-1.0183 0.2944 -0.5499 0.9952
-1.0377 0.1065 -0.5411 0.9953
-1.0314 0.0130 -0.5351 0.9954
-1.0373 -0.0800 -0.5397 0.9953
-1.0086 -0.3633 -0.5561 0.9952
-3.0422 -2.1468 -1.9316 0.9834
-2.8196 -2.3948 -1.9192 0.9835
-2.5782 -2.6214 -1.9075 0.9836
-2.0471 -3.0057 -1.8866 0.9837
-1.1603 -3.3973 -1.8624 0.9840
-0.5331 -3.5289 -1.8515 0.9840
-0.2148 -3.5551 -1.8477 0.9841
0.1040 -3.5549 -1.8450 0.9841
0.4213 -3.5283 -1.8434 0.9841
0.7351 -3.4756 -1.8430 0.9841
1.0436 -3.3973 -1.8437 0.9841
2.1855 -2.8370 -1.8579 0.9840
2.4388 -2.6390 -1.8641 0.9839
2.6756 -2.4196 -1.8715 0.9839
2.8942 -2.1802 -1.8798 0.9838
3.4241 -1.3551 -1.9104 0.9835
3.5536 -1.0497 -1.9223 0.9834
3.6571 -0.7324 -1.9349 0.9833
3.7814 -0.0698 -1.9621 0.9831
3.7886 0.6142 -1.9911 0.9829
3.7464 0.9579 -2.0061 0.9827
3.0721 2.5787 -2.0808 0.9821
2.8481 2.8623 -2.0948 0.9820
2.3207 3.3652 -2.1206 0.9817
1.7014 3.7639 -2.1429 0.9816
1.3638 3.9182 -2.1523 0.9815
1.0115 4.0398 -2.1605 0.9814
0.2769 4.1788 -2.1726 0.9813
-0.0983 4.1942 -2.1765 0.9813
-1.2097 4.0213 -2.1785 0.9813
-1.5629 3.8925 -2.1761 0.9813
-1.9013 3.7301 -2.1720 0.9813
-2.2218 3.5360 -2.1665 0.9814
-2.5211 3.3124 -2.1595 0.9814
-2.7965 3.0616 -2.1512 0.9815
-3.0456 2.7867 -2.1416 0.9816
-3.2663 2.4905 -2.1308 0.9817
-1.0171 0.3069 -0.5512 0.9952
-1.0374 0.1187 -0.5417 0.9953
-1.0330 0.0251 -0.5360 0.9954
-1.0109 -0.3509 -0.5551 0.9952
-0.9861 -0.4447 -0.5612 0.9951
-3.0696 -2.1130 -1.9333 0.9833
-2.6106 -2.5932 -1.9089 0.9836
-2.0833 -2.9837 -1.8879 0.9837
-1.7992 -3.1427 -1.8787 0.9838
-0.8897 -3.4675 -1.8571 0.9840
-0.5743 -3.5236 -1.8521 0.9840
-0.2562 -3.5532 -1.8481 0.9841
0.0626 -3.5564 -1.8453 0.9841
0.3802 -3.5332 -1.8436 0.9841
1.3061 -3.3085 -1.8453 0.9841
1.8817 -3.0338 -1.8521 0.9840
2.1515 -2.8611 -1.8571 0.9840
3.0683 -1.9565 -1.8878 0.9837
3.5382 -1.0901 -1.9207 0.9835
3.7251 -0.4480 -1.9464 0.9832
3.7993 0.2263 -1.9745 0.9830
3.7918 0.5696 -1.9892 0.9829
3.7536 0.9134 -2.0041 0.9827
3.4528 1.9199 -2.0495 0.9824
3.2909 2.2372 -2.0644 0.9822
3.3617 1.5873 -2.0361 0.9832
