ply
format ascii 1.0
element vertex 1582
property float32 x
property float32 y
property float32 z
property float32 I
end_header
-3.5343 5.4704 0.6994 0.9741
-8.8589 11.3407 1.5453 0.9438
-12.3554 11.0255 1.7782 0.9356
-14.5645 10.8223 1.9485 0.9296
-5.8559 -17.1172 1.9427 0.9298
0.4843 -16.9837 1.8245 0.9339
6.0198 13.2284 1.5607 0.9432
-0.2418 11.7280 1.2596 0.9539
-1.2854 11.6230 1.2557 0.9540
-3.4250 11.5104 1.2896 0.9528
-5.8171 11.5008 1.3840 0.9495
-8.5848 11.3551 1.5286 0.9443
-10.2252 11.2688 1.6340 0.9406
-7.4257 -17.4001 1.6015 0.9269
-5.6164 -17.3049 1.5401 0.9296
-3.9275 -17.2160 1.4948 0.9316
-0.7716 -17.0498 1.4448 0.9338
0.7524 -16.9696 1.4379 0.9341
5.7499 13.1838 1.2176 0.9439
-0.4268 11.7183 0.9926 0.9540
-2.5405 11.6070 1.0058 0.9534
-3.6361 11.5493 1.0250 0.9526
-4.6553 11.1805 1.0252 0.9525
-3.5428 5.4836 0.5527 0.9741
-8.9686 11.4812 1.2333 0.9432
-12.5954 11.2397 1.4290 0.9345
-14.6737 10.9035 1.5476 0.9292
-7.7608 -17.4177 1.6142 0.9263
-3.3974 -9.9307 0.8885 0.9587
-2.6012 -17.1461 1.4681 0.9328
0.4843 -16.9837 1.4383 0.9341
6.0289 13.2485 1.2322 0.9432
-0.2418 11.7280 0.9930 0.9540
-1.2854 11.6230 0.9899 0.9541
-2.3510 11.6170 1.0033 0.9535
-3.4250 11.5104 1.0166 0.9529
-4.5765 11.4998 1.0477 0.9515
-5.9158 11.6959 1.1095 0.9487
-3.5045 5.6170 0.5604 0.9738
-8.6940 11.4996 1.2204 0.9438
-10.2252 11.2688 1.2881 0.9407
-12.0658 11.1145 1.3887 0.9363
-0.7778 -17.1853 1.0668 0.9334
0.7974 -17.9856 1.1164 0.9304
2.2770 -16.9108 1.0581 0.9339
5.7461 13.1751 0.8913 0.9440
-0.4268 11.7183 0.7271 0.9541
-1.4767 11.6630 0.7290 0.9540
-4.6553 11.1805 0.7510 0.9526
-3.5548 5.5021 0.4062 0.9741
-8.9686 11.4812 0.9034 0.9433
-10.7179 11.4431 0.9722 0.9391
-12.6203 11.2619 1.0489 0.9345
-15.2991 11.3682 1.1819 0.9265
-2.6012 -17.1461 1.0754 0.9329
-1.0509 -17.1997 1.0685 0.9333
2.1202 -17.8781 1.1164 0.9304
-0.2418 11.7280 0.7274 0.9541
-1.2854 11.6230 0.7251 0.9542
-3.4250 11.5104 0.7447 0.9530
-4.5765 11.4998 0.7675 0.9516
-5.9158 11.6959 0.8128 0.9488
-3.5158 5.6351 0.4119 0.9737
-10.2252 11.2688 0.9436 0.9408
-3.9661 -17.3852 0.7031 0.9311
-2.3456 -17.2998 0.6884 0.9325
-0.7792 -17.2174 0.6796 0.9333
0.8515 -19.2056 0.7580 0.9259
8.9247 -16.6526 0.7450 0.9272
5.7550 13.1956 0.5677 0.9440
-0.4268 11.7183 0.4624 0.9541
-1.4767 11.6630 0.4636 0.9540
-2.5265 11.5429 0.4659 0.9538
-3.6361 11.5493 0.4774 0.9527
-4.6553 11.1805 0.4775 0.9527
-6.1435 11.6839 0.5205 0.9485
-3.5625 5.5141 0.2589 0.9741
-10.7179 11.4431 0.6182 0.9392
-7.7608 -17.4177 0.7519 0.9265
-2.6012 -17.1461 0.6838 0.9329
-1.0529 -17.2318 0.6807 0.9332
2.2441 -18.9226 0.7514 0.9266
6.0590 13.3146 0.5768 0.9431
-0.2418 11.7280 0.4625 0.9541
-5.9158 11.6959 0.5168 0.9489
-4.1080 5.4337 0.2686 0.9731
-10.2252 11.2688 0.6000 0.9409
-9.4621 -17.6165 0.3378 0.9231
-7.4847 -17.5384 0.3221 0.9266
-3.9588 -17.3528 0.3007 0.9313
-2.3412 -17.2676 0.2944 0.9327
-0.7778 -17.1853 0.2906 0.9335
5.7664 13.2217 0.2437 0.9439
-3.6361 11.5493 0.2045 0.9527
-4.6553 11.1805 0.2046 0.9527
-6.1435 11.6839 0.2230 0.9486
-7.7608 -17.4177 0.3221 0.9266
-4.2520 -17.3682 0.3020 0.9310
-2.6012 -17.1461 0.2929 0.9330
-1.0509 -17.1997 0.2911 0.9334
0.5460 -19.1472 0.3236 0.9262
8.5977 -16.6698 0.3168 0.9277
-0.2418 11.7280 0.1981 0.9542
-1.2854 11.6230 0.1975 0.9543
-3.4250 11.5104 0.2029 0.9531
-4.5765 11.4998 0.2091 0.9517
-5.9158 11.6959 0.2214 0.9489
-3.5490 5.6882 0.1133 0.9735
-10.2252 11.2688 0.2570 0.9409
-12.0930 11.1395 0.2777 0.9363
-7.4847 -17.5384 -0.1074 0.9266
-5.6716 -17.4749 -0.1034 0.9291
-2.3456 -17.2998 -0.0983 0.9325
-0.7778 -17.1853 -0.0969 0.9335
8.9247 -16.6526 -0.1064 0.9272
-0.4268 11.7183 -0.0660 0.9542
-2.5265 11.5429 -0.0665 0.9538
-6.0410 11.4890 -0.0731 0.9494
-3.3665 -9.8403 -0.0586 0.9593
0.5469 -19.1791 -0.1080 0.9261
2.2441 -18.9226 -0.1073 0.9266
8.5977 -16.6698 -0.1056 0.9277
-0.2418 11.7280 -0.0660 0.9542
-2.3380 11.5528 -0.0664 0.9539
-3.4250 11.5104 -0.0676 0.9531
-3.5413 5.6760 -0.0377 0.9736
-10.2252 11.2688 -0.0857 0.9409
-7.4847 -17.5384 -0.5369 0.9265
-3.2689 -10.0721 -0.2982 0.9585
-3.9661 -17.3852 -0.5021 0.9311
0.8496 -19.1632 -0.5401 0.9261
-1.4767 11.6630 -0.3310 0.9540
-2.5265 11.5429 -0.3327 0.9538
-3.6361 11.5493 -0.3409 0.9527
-5.9278 11.2738 -0.3587 0.9503
-8.6929 11.1282 -0.3976 0.9451
-1.2854 11.6230 -0.3293 0.9543
-2.3380 11.5528 -0.3319 0.9539
-3.4250 11.5104 -0.3382 0.9531
-8.4240 11.1424 -0.3933 0.9456
-11.8976 10.9595 -0.4555 0.9373
-3.9587 -17.3528 -0.9026 0.9312
-0.7778 -17.1853 -0.8724 0.9334
5.8039 13.3078 -0.7363 0.9435
-3.6361 11.5493 -0.6141 0.9527
-4.6553 11.1805 -0.6142 0.9527
-3.5764 5.5355 -0.3342 0.9740
-12.6203 11.2619 -0.8578 0.9345
-2.6012 -17.1461 -0.8795 0.9329
0.5469 -19.1791 -0.9730 0.9260
2.2441 -18.9226 -0.9664 0.9265
7.3442 -18.0385 -0.9877 0.9250
-2.3380 11.5528 -0.5978 0.9539
-3.4250 11.5104 -0.6090 0.9530
-5.7081 11.2853 -0.6414 0.9506
-3.5387 5.6718 -0.3390 0.9736
-4.1647 5.5086 -0.3502 0.9727
-11.8976 10.9595 -0.8204 0.9373
-7.4257 -17.4001 -1.3871 0.9269
-3.9275 -17.2160 -1.2947 0.9316
-0.7716 -17.0498 -1.2514 0.9338
0.8496 -19.1632 -1.4065 0.9260
2.2770 -16.9108 -1.2511 0.9339
5.8323 13.3728 -1.0697 0.9432
-0.4268 11.7182 -0.8598 0.9541
-3.6361 11.5493 -0.8878 0.9526
-4.6553 11.1805 -0.8880 0.9526
-8.6929 11.1282 -1.0354 0.9449
-12.4016 11.0667 -1.2187 0.9355
-7.7608 -17.4177 -1.3981 0.9264
-3.3675 -9.8435 -0.7628 0.9591
-4.2185 -17.2313 -1.3007 0.9313
-1.0426 -17.0641 -1.2535 0.9337
7.3442 -18.0386 -1.4281 0.9249
-1.2854 11.6230 -0.8574 0.9542
-2.3510 11.6170 -0.8690 0.9536
-3.4250 11.5104 -0.8805 0.9530
-3.5377 5.6703 -0.4900 0.9736
-4.1484 5.4871 -0.5044 0.9728
-10.0336 11.0576 -1.0948 0.9419
-13.2471 -13.8959 -1.8431 0.9258
-11.9515 -15.0247 -1.8431 0.9258
-3.2542 -10.0267 -1.0120 0.9585
-3.9275 -17.2160 -1.6953 0.9315
0.8104 -18.2796 -1.7567 0.9291
2.2770 -16.9108 -1.6382 0.9337
4.2528 -18.7211 -1.8431 0.9258
5.8622 13.4413 -1.4078 0.9428
4.4177 18.6829 -1.8431 0.9258
2.7295 19.0031 -1.8431 0.9258
1.0194 19.1711 -1.8431 0.9258
-0.4177 11.4684 -1.1018 0.9549
-2.4863 11.3595 -1.1164 0.9543
-4.6553 11.1805 -1.1627 0.9525
-3.6048 5.5795 -0.6377 0.9737
-10.3416 11.0414 -1.4524 0.9410
-15.4100 11.4506 -1.8432 0.9258
-17.8963 6.9505 -1.8432 0.9258
-15.6872 -11.0678 -1.8432 0.9258
-14.6347 -12.4261 -1.8432 0.9258
-9.3504 -16.7675 -1.8431 0.9258
-2.6012 -17.1461 -1.6649 0.9327
-1.0426 -17.0641 -1.6413 0.9336
5.6204 -18.3569 -1.8431 0.9258
6.3570 -15.6138 -1.6185 0.9345
7.6912 -14.9122 -1.6108 0.9348
5.9183 13.0053 -1.3718 0.9442
3.0294 18.9576 -1.8431 0.9258
-1.2634 11.4239 -1.1034 0.9549
-2.3008 11.3693 -1.1136 0.9545
-10.0336 11.0576 -1.4335 0.9418
-11.8976 10.9595 -1.5530 0.9371
-16.5396 2.9342 -1.9954 0.9346
-16.7357 1.4436 -1.9954 0.9346
-16.7978 -0.0586 -1.9954 0.9346
-16.7253 -1.5604 -1.9954 0.9346
-15.1171 -7.3240 -1.9954 0.9346
-14.4017 -8.6464 -1.9953 0.9346
-12.5357 -9.1444 -1.8431 0.9394
-11.6678 -10.2286 -1.8431 0.9394
-10.7065 -11.2309 -1.8431 0.9394
-9.6594 -12.1432 -1.8431 0.9394
-6.0904 -14.2712 -1.8431 0.9394
-3.2507 -10.0159 -1.2508 0.9585
-2.0847 -15.3757 -1.8431 0.9394
-0.7015 -15.5005 -1.8431 0.9394
0.6873 -15.5011 -1.8431 0.9394
3.4372 -15.1307 -1.8431 0.9394
6.0772 -14.2765 -1.8431 0.9394
7.3294 -13.6760 -1.8431 0.9394
9.2266 -14.0365 -1.9953 0.9346
11.5792 -12.1686 -1.9953 0.9346
12.6208 -11.0845 -1.9953 0.9346
15.1099 -7.3377 -1.9953 0.9346
16.5154 -3.0647 -1.9953 0.9346
16.7365 1.4282 -1.9953 0.9346
16.5417 2.9189 -1.9953 0.9346
16.2145 4.3863 -1.9953 0.9346
15.7574 5.8185 -1.9953 0.9346
15.1740 7.2042 -1.9953 0.9346
12.7181 10.9728 -1.9953 0.9346
11.6860 12.0661 -1.9953 0.9346
10.5603 13.0626 -1.9953 0.9346
9.3500 13.9546 -1.9953 0.9346
5.6697 13.0000 -1.6847 0.9445
3.5705 15.0998 -1.8431 0.9394
2.2061 15.3586 -1.8431 0.9394
-1.4452 11.4143 -1.3667 0.9547
-2.4863 11.3595 -1.3813 0.9542
-4.6553 11.1805 -1.4386 0.9524
-3.6076 5.5839 -0.7897 0.9736
-8.6929 11.1282 -1.6774 0.9447
-11.5771 10.3311 -1.8431 0.9394
-12.4546 9.2545 -1.8431 0.9394
-13.2322 8.1038 -1.8431 0.9394
-13.9038 6.8883 -1.8431 0.9394
-16.4912 3.1951 -1.9954 0.9346
-16.5649 -2.7882 -1.9954 0.9346
-12.6786 -8.9452 -1.8431 0.9394
-11.8280 -10.0430 -1.8431 0.9394
-10.8826 -11.0603 -1.8431 0.9394
-8.7385 -12.8218 -1.8431 0.9394
-7.5571 -13.5518 -1.8431 0.9394
-0.9463 -15.4874 -1.8431 0.9394
1.8274 -15.4083 -1.8431 0.9394
3.1978 -15.1832 -1.8431 0.9394
5.8509 -14.3708 -1.8431 0.9394
7.1124 -13.7900 -1.8431 0.9394
9.0024 -14.1784 -1.9950 0.9346
11.3855 -12.3500 -1.9953 0.9346
12.4441 -11.2826 -1.9953 0.9346
14.2547 -8.8857 -1.9953 0.9346
14.9921 -7.5755 -1.9953 0.9346
16.1016 -4.7841 -1.9953 0.9346
16.4649 -3.3252 -1.9953 0.9346
16.6962 -1.8397 -1.9953 0.9346
16.7569 1.1636 -1.9953 0.9346
16.2818 4.1296 -1.9953 0.9346
15.8473 5.5689 -1.9953 0.9346
15.2859 6.9635 -1.9953 0.9346
14.6021 8.3024 -1.9953 0.9346
11.8752 11.8799 -1.9953 0.9346
8.2966 14.6055 -1.9953 0.9346
5.9261 13.0225 -1.6995 0.9440
2.4484 15.3219 -1.8431 0.9394
-0.2366 11.4779 -1.3637 0.9548
-2.3008 11.3693 -1.3779 0.9543
-4.4789 11.2546 -1.4389 0.9524
-3.5561 5.6997 -0.7980 0.9733
-13.5864 3.6887 -1.9947 0.9447
-13.8661 2.4599 -1.9953 0.9447
-13.5645 -3.7847 -1.9953 0.9447
-13.1717 -4.9824 -1.9953 0.9447
-12.6735 -6.1401 -1.9953 0.9447
-11.3772 -8.2993 -1.9953 0.9447
-9.9839 -8.7524 -1.8812 0.9478
-8.9758 -9.4155 -1.8431 0.9488
-2.8933 -12.6824 -1.8431 0.9488
-1.7477 -12.8903 -1.8431 0.9488
-0.5881 -12.9949 -1.8431 0.9488
0.5762 -12.9954 -1.8431 0.9488
1.7358 -12.8918 -1.8431 0.9488
5.0949 -11.9688 -1.8431 0.9488
7.7272 -11.7554 -1.9932 0.9448
10.5807 -9.2928 -1.9953 0.9447
13.1668 -4.9943 -1.9953 0.9447
13.5606 -3.7970 -1.9953 0.9447
13.8679 2.4471 -1.9953 0.9447
13.5935 3.6773 -1.9953 0.9447
13.2103 4.8780 -1.9953 0.9447
12.7212 6.0397 -1.9953 0.9447
12.1302 7.1529 -1.9953 0.9447
11.4421 8.2089 -1.9953 0.9447
8.8533 10.9511 -1.9953 0.9447
7.8387 11.6989 -1.9953 0.9447
6.2455 11.4107 -1.8431 0.9488
1.8495 12.8760 -1.8431 0.9488
0.6907 12.9898 -1.8431 0.9488
-1.4452 11.4143 -1.6302 0.9546
-4.6553 11.1805 -1.7160 0.9523
-5.9278 11.2737 -1.8047 0.9498
-3.6172 5.5986 -0.9444 0.9734
-8.0079 10.2513 -1.8431 0.9488
-8.8925 9.4942 -1.8431 0.9488
-9.7058 8.6611 -1.8431 0.9488
-11.6563 5.7748 -1.8431 0.9488
-13.8255 2.6787 -1.9953 0.9447
-14.0096 1.4317 -1.9953 0.9447
-14.0815 0.1733 -1.9953 0.9447
-13.6226 -3.5699 -1.9953 0.9447
-12.7689 -5.9392 -1.9953 0.9447
-11.5069 -8.1185 -1.9953 0.9447
-10.3155 -8.7588 -1.9174 0.9468
-9.1234 -9.2725 -1.8431 0.9488
-6.3355 -11.3612 -1.8431 0.9488
-3.2368 -9.4615 -1.4169 0.9604
-0.7933 -12.9840 -1.8431 0.9488
0.3708 -13.0029 -1.8431 0.9488
2.6809 -12.7289 -1.8431 0.9488
5.9627 -11.5610 -1.8431 0.9488
7.5263 -11.8537 -1.9895 0.9449
8.5811 -11.1657 -1.9953 0.9447
10.4326 -9.4588 -1.9953 0.9447
11.9505 -7.4494 -1.9953 0.9447
13.4989 -4.0108 -1.9953 0.9447
14.0483 0.9755 -1.9953 0.9447
13.9048 2.2277 -1.9953 0.9447
13.6500 3.4621 -1.9953 0.9447
12.2417 6.9604 -1.9953 0.9447
11.5703 8.0271 -1.9953 0.9447
6.4250 11.3106 -1.8431 0.9488
5.3879 11.8398 -1.8431 0.9488
3.1930 12.6102 -1.8431 0.9488
2.0526 12.8452 -1.8431 0.9488
0.8959 12.9773 -1.8431 0.9488
-1.2634 11.4239 -1.6285 0.9546
-4.4789 11.2546 -1.7163 0.9522
-5.7081 11.2853 -1.7919 0.9502
-3.5619 5.7091 -0.9534 0.9732
-8.7414 9.6335 -1.8431 0.9488
-11.6890 3.1736 -1.9953 0.9521
-11.9259 2.1157 -1.9953 0.9521
-12.0673 1.0409 -1.9953 0.9521
-12.1121 -0.0423 -1.9953 0.9521
-11.6665 -3.2551 -1.9953 0.9521
-10.9002 -5.2810 -1.9953 0.9521
-9.1078 -7.9844 -1.9953 0.9521
-8.2627 -8.6674 -1.9727 0.9526
-6.9649 -8.7559 -1.8431 0.9557
-6.1541 -9.3436 -1.8431 0.9557
-3.0683 -9.4538 -1.6374 0.9605
-1.5032 -11.0867 -1.8431 0.9557
0.4956 -11.1771 -1.8431 0.9557
3.4440 -10.6448 -1.8431 0.9557
4.3820 -10.2942 -1.8431 0.9557
7.5312 -9.4857 -1.9953 0.9521
8.3492 -8.7743 -1.9953 0.9521
9.1003 -7.9926 -1.9953 0.9521
9.7785 -7.1469 -1.9953 0.9521
10.3784 -6.2439 -1.9953 0.9521
10.8951 -5.2909 -1.9953 0.9521
11.9085 -2.2098 -1.9953 0.9521
11.9276 2.1047 -1.9953 0.9521
11.6916 3.1628 -1.9953 0.9521
11.3620 4.1955 -1.9953 0.9521
9.8412 7.0604 -1.9953 0.9521
9.1705 7.9120 -1.9953 0.9521
7.6146 9.4189 -1.9953 0.9521
5.3717 9.8142 -1.8431 0.9557
4.4726 10.2551 -1.8431 0.9557
3.5377 10.6140 -1.8431 0.9557
2.5745 10.8878 -1.8431 0.9557
1.5907 11.0744 -1.8431 0.9557
0.5941 11.1723 -1.8431 0.9557
-0.4073 11.1807 -1.8431 0.9557
-1.4053 11.0995 -1.8431 0.9557
-2.3922 10.9294 -1.8431 0.9557
-4.3006 10.3286 -1.8431 0.9557
-5.2069 9.9027 -1.8431 0.9557
-3.6275 5.6147 -1.1012 0.9733
-7.6482 8.1658 -1.8431 0.9557
-8.9804 6.6730 -1.8431 0.9557
-9.5411 5.8433 -1.8431 0.9557
-11.6374 3.3578 -1.9953 0.9521
-11.8910 2.3039 -1.9953 0.9521
-12.0760 -0.9344 -1.9953 0.9521
-11.9441 -2.0105 -1.9953 0.9521
-11.7165 -3.0704 -1.9953 0.9521
-11.3950 -4.1057 -1.9953 0.9521
-9.8968 -6.9826 -1.9953 0.9521
-5.4491 -9.7715 -1.8431 0.9557
-4.2359 -9.5067 -1.7146 0.9587
-3.2368 -9.4615 -1.6474 0.9603
-2.6605 -10.8672 -1.8431 0.9557
-1.6781 -11.0616 -1.8431 0.9557
-0.6823 -11.1673 -1.8431 0.9557
2.3058 -10.9479 -1.8431 0.9557
6.4890 -10.2198 -1.9943 0.9521
8.2096 -8.9051 -1.9953 0.9521
8.9729 -8.1354 -1.9953 0.9521
9.6644 -7.3005 -1.9953 0.9521
10.2784 -6.4071 -1.9953 0.9521
11.2553 -4.4739 -1.9953 0.9521
11.6102 -3.4496 -1.9953 0.9521
10.5289 5.9865 -1.9953 0.9521
9.2943 7.7662 -1.9953 0.9521
6.3845 9.2105 -1.8462 0.9556
3.7050 10.5568 -1.8431 0.9557
2.7462 10.8458 -1.8431 0.9557
1.7654 11.0479 -1.8431 0.9557
-0.2306 11.1857 -1.8431 0.9557
-1.2298 11.1203 -1.8431 0.9557
-2.2192 10.9658 -1.8431 0.9557
-7.5183 8.2856 -1.8431 0.9557
-8.2290 7.5802 -1.8431 0.9557
-10.2448 2.7815 -1.9953 0.9577
-10.4525 1.8543 -1.9953 0.9577
-10.6157 -0.0371 -1.9953 0.9577
-10.2252 -2.8530 -1.9953 0.9577
-9.9291 -3.7558 -1.9953 0.9577
-9.1014 -5.4642 -1.9953 0.9577
-8.5763 -6.2562 -1.9953 0.9577
-7.9826 -6.9979 -1.9953 0.9577
-5.6460 -8.5721 -1.9293 0.9591
-4.6400 -8.6387 -1.8431 0.9609
-0.4433 -9.7958 -1.8431 0.9609
0.4343 -9.7962 -1.8431 0.9609
3.8406 -9.0224 -1.8431 0.9609
8.5704 -6.2639 -1.9953 0.9577
9.0962 -5.4725 -1.9953 0.9577
10.4373 -1.9368 -1.9953 0.9577
10.6154 -0.0468 -1.9953 0.9577
10.5771 0.9026 -1.9953 0.9577
10.4540 1.8447 -1.9953 0.9577
9.9583 3.6772 -1.9953 0.9577
9.5896 4.5529 -1.9953 0.9577
8.6253 6.1881 -1.9953 0.9577
7.3853 7.6254 -1.9953 0.9577
4.7080 8.6017 -1.8431 0.9609
-2.0966 9.5791 -1.8431 0.9609
-3.7693 9.0525 -1.8431 0.9609
-3.6478 5.6461 -1.2635 0.9730
-6.0365 7.7277 -1.8431 0.9609
-6.7033 7.1570 -1.8431 0.9609
-7.3164 6.5289 -1.8431 0.9609
-7.8709 5.8486 -1.8431 0.9609
-8.3623 5.1214 -1.8431 0.9609
-8.7868 4.3532 -1.8431 0.9609
-10.1996 2.9430 -1.9953 0.9577
-10.2690 -2.6911 -1.9953 0.9577
-9.9872 -3.5985 -1.9953 0.9577
-9.6255 -4.4771 -1.9953 0.9577
-9.1866 -5.3198 -1.9953 0.9577
-8.6741 -6.1199 -1.9953 0.9577
-8.0921 -6.8710 -1.9953 0.9577
-7.4454 -7.5670 -1.9953 0.9577
-6.7364 -8.1993 -1.9946 0.9577
-5.8449 -8.5760 -1.9507 0.9586
-4.7759 -8.5643 -1.8431 0.9609
-3.1741 -9.2780 -1.8431 0.9609
-2.3318 -9.5246 -1.8431 0.9609
0.2795 -9.8019 -1.8431 0.9609
1.1548 -9.7376 -1.8431 0.9609
2.0209 -9.5953 -1.8431 0.9609
2.8707 -9.3762 -1.8431 0.9609
3.6976 -9.0819 -1.8431 0.9609
5.6901 -8.9617 -1.9953 0.9577
7.1953 -7.8049 -1.9953 0.9577
7.8644 -7.1303 -1.9953 0.9577
8.4704 -6.3985 -1.9953 0.9577
9.0086 -5.6155 -1.9953 0.9577
9.4746 -4.7875 -1.9953 0.9577
10.4054 -2.1014 -1.9953 0.9577
10.6133 -0.2145 -1.9953 0.9577
10.5900 0.7353 -1.9953 0.9577
10.4818 1.6793 -1.9953 0.9577
9.2282 5.2469 -1.9953 0.9577
8.7220 6.0511 -1.9953 0.9577
8.1460 6.8067 -1.9953 0.9577
5.5863 8.0590 -1.8431 0.9609
4.8433 8.5262 -1.8431 0.9609
4.0616 8.9251 -1.8431 0.9609
-0.2021 9.8038 -1.8431 0.9609
-1.0779 9.7465 -1.8431 0.9609
-1.9450 9.6111 -1.8431 0.9609
-7.2124 6.6437 -1.8431 0.9609
-9.1098 2.4733 -1.9953 0.9621
-9.4047 0.8112 -1.9953 0.9621
-9.3988 -0.8769 -1.9953 0.9621
-9.2827 -1.7137 -1.9953 0.9621
-9.0923 -2.5369 -1.9953 0.9621
-8.4951 -4.1158 -1.9953 0.9621
-8.0930 -4.8589 -1.9953 0.9621
-7.6262 -5.5630 -1.9953 0.9621
-7.0982 -6.2226 -1.9953 0.9621
-5.1923 -7.8832 -1.9953 0.9621
-3.6224 -8.4882 -1.9508 0.9630
-1.1715 -8.6404 -1.8431 0.9650
1.1635 -8.6415 -1.8431 0.9650
1.9316 -8.5028 -1.8431 0.9650
5.1850 -7.8879 -1.9953 0.9621
6.5070 -6.8383 -1.9953 0.9621
7.0924 -6.2290 -1.9953 0.9621
7.6209 -5.5699 -1.9953 0.9621
8.4911 -4.1235 -1.9953 0.9621
8.8258 -3.3477 -1.9953 0.9621
9.2810 -1.7222 -1.9953 0.9621
9.3978 -0.8855 -1.9953 0.9621
9.4393 -0.0416 -1.9953 0.9621
9.2958 1.6403 -1.9953 0.9621
8.8550 3.2698 -1.9953 0.9621
7.1470 6.1663 -1.9953 0.9621
6.5670 6.7806 -1.9953 0.9621
4.8535 7.2437 -1.8431 0.9650
4.1864 7.6487 -1.8431 0.9650
3.4857 7.9924 -1.8431 0.9650
2.7571 8.2720 -1.8431 0.9650
2.0065 8.4854 -1.8431 0.9650
-0.3174 8.7137 -1.8431 0.9650
-2.6185 8.3170 -1.8431 0.9650
-3.1581 6.0062 -1.4344 0.9726
-3.6566 5.6597 -1.4243 0.9728
-5.9606 6.3640 -1.8431 0.9650
-7.4358 4.5540 -1.8431 0.9650
-8.7993 3.4174 -1.9953 0.9621
-9.0696 2.6169 -1.9953 0.9621
-9.2672 1.7955 -1.9953 0.9621
-9.4115 -0.7283 -1.9953 0.9621
-9.3086 -1.5669 -1.9953 0.9621
-8.5590 -3.9810 -1.9953 0.9621
-7.1956 -6.1097 -1.9953 0.9621
-6.6205 -6.7286 -1.9953 0.9621
-5.3162 -7.8002 -1.9953 0.9621
-4.5910 -8.2329 -1.9926 0.9622
-1.3078 -8.6208 -1.8431 0.9650
-0.5318 -8.7032 -1.8431 0.9650
1.0269 -8.6588 -1.8431 0.9650
4.3269 -8.3893 -1.9953 0.9621
5.7520 -7.4845 -1.9953 0.9621
6.3981 -6.9402 -1.9953 0.9621
9.3826 -1.0338 -1.9953 0.9621
9.4375 -0.1907 -1.9953 0.9621
9.3870 0.6518 -1.9890 0.9623
9.3206 1.4932 -1.9953 0.9621
8.5901 3.9132 -1.9953 0.9621
8.2058 4.6656 -1.9953 0.9621
7.7557 5.3807 -1.9953 0.9621
6.6733 6.6760 -1.9953 0.9621
4.9674 7.1661 -1.8431 0.9650
3.6116 7.9363 -1.8431 0.9650
1.3759 8.6102 -1.8431 0.9650
0.6005 8.6988 -1.8431 0.9650
-0.1797 8.7176 -1.8431 0.9650
-1.7295 8.5462 -1.8431 0.9650
-2.4868 8.3574 -1.8431 0.9650
-3.1713 6.2699 -1.4852 0.9717
-3.5846 5.7453 -1.4314 0.9727
-4.2146 5.5747 -1.4772 0.9718
-4.6224 5.0942 -1.4540 0.9723
-6.4133 5.9076 -1.8431 0.9650
-8.1934 2.2245 -1.9953 0.9657
-8.3594 1.4830 -1.9953 0.9657
-8.4586 0.7296 -1.9953 0.9657
-8.4899 -0.0296 -1.9953 0.9657
-8.4533 -0.7886 -1.9953 0.9657
-8.3489 -1.5413 -1.9953 0.9657
-7.9408 -3.0037 -1.9953 0.9657
-7.6405 -3.7017 -1.9953 0.9657
-7.2789 -4.3701 -1.9953 0.9657
-6.8590 -5.0034 -1.9953 0.9657
-5.2852 -6.6442 -1.9953 0.9657
-4.6699 -7.0902 -1.9953 0.9657
-4.0173 -7.4793 -1.9953 0.9657
-3.3324 -7.8086 -1.9953 0.9657
-1.8836 -8.2566 -1.9903 0.9658
0.3694 -8.3313 -1.9600 0.9663
4.0104 -7.4830 -1.9953 0.9657
4.6634 -7.0944 -1.9953 0.9657
5.2790 -6.6490 -1.9953 0.9657
7.2747 -4.3767 -1.9953 0.9657
7.6369 -3.7087 -1.9953 0.9657
7.9379 -3.0110 -1.9953 0.9657
8.1754 -2.2891 -1.9953 0.9657
8.3473 -1.5490 -1.9953 0.9657
8.4524 -0.7964 -1.9953 0.9657
8.4897 -0.0374 -1.9953 0.9657
8.4591 0.7218 -1.9953 0.9657
7.6693 3.6412 -1.9953 0.9657
7.3131 4.3123 -1.9953 0.9657
6.8982 4.9490 -1.9953 0.9657
6.4280 5.5459 -1.9953 0.9657
5.9064 6.0985 -1.9953 0.9657
4.3653 6.5150 -1.8431 0.9683
3.7653 6.8792 -1.8431 0.9683
3.1351 7.1884 -1.8431 0.9683
2.4798 7.4399 -1.8431 0.9683
1.8046 7.6318 -1.8431 0.9683
1.1150 7.7626 -1.8431 0.9683
0.4164 7.8312 -1.8431 0.9683
-0.2855 7.8371 -1.8431 0.9683
-1.6768 7.6609 -1.8431 0.9683
-2.3551 7.4803 -1.8431 0.9683
-3.0145 7.2398 -1.8431 0.9683
-3.1581 6.0062 -1.5948 0.9725
-5.3610 5.7238 -1.8431 0.9683
-5.8513 5.2215 -1.8431 0.9683
-7.0261 4.3030 -1.9364 0.9667
-7.6075 3.7689 -1.9953 0.9657
-7.9141 3.0736 -1.9953 0.9657
-8.1572 2.3537 -1.9953 0.9657
-8.3350 1.6149 -1.9953 0.9657
-8.4460 0.8631 -1.9953 0.9657
-8.4647 -0.6550 -1.9953 0.9657
-8.2127 -2.1522 -1.9953 0.9657
-7.6980 -3.5806 -1.9953 0.9657
-6.9371 -4.8944 -1.9953 0.9657
-4.7814 -7.0155 -1.9953 0.9657
-1.2688 -8.3636 -1.9881 0.9658
-0.5109 -8.3619 -1.9689 0.9662
0.2377 -8.3341 -1.9595 0.9663
0.9880 -8.3310 -1.9717 0.9661
3.8916 -7.5454 -1.9953 0.9657
4.5507 -7.1672 -1.9953 0.9657
5.7545 -6.2420 -1.9953 0.9657
6.2896 -5.7025 -1.9953 0.9657
6.7743 -5.1173 -1.9953 0.9657
7.2047 -4.4910 -1.9953 0.9657
7.5774 -3.8289 -1.9953 0.9657
7.8894 -3.1360 -1.9953 0.9657
8.3218 -1.6806 -1.9953 0.9657
8.3829 1.3430 -1.9953 0.9657
8.2293 2.0872 -1.9953 0.9657
8.0097 2.8147 -1.9953 0.9657
7.3803 4.1963 -1.9953 0.9657
6.9755 4.8394 -1.9953 0.9657
6.5149 5.4437 -1.9953 0.9657
6.0020 6.0044 -1.9953 0.9657
4.6725 6.7407 -1.9276 0.9669
3.8735 6.8189 -1.8431 0.9683
1.9250 7.6024 -1.8431 0.9683
1.2375 7.7440 -1.8431 0.9683
0.5401 7.8237 -1.8431 0.9683
-0.8620 7.7948 -1.8431 0.9683
-3.1714 6.2699 -1.6513 0.9715
-3.8795 5.1315 -1.5119 0.9739
-4.6224 5.0942 -1.6167 0.9721
-5.7681 5.3133 -1.8431 0.9683
-7.4372 2.0192 -1.9953 0.9687
-7.5879 1.3461 -1.9953 0.9687
-7.7064 -0.0269 -1.9953 0.9687
-7.6731 -0.7159 -1.9953 0.9687
-7.2080 -2.7265 -1.9953 0.9687
-6.9353 -3.3601 -1.9953 0.9687
-6.6071 -3.9667 -1.9953 0.9687
-6.2260 -4.5416 -1.9953 0.9687
-5.7949 -5.0801 -1.9953 0.9687
-5.3175 -5.5779 -1.9953 0.9687
-4.7974 -6.0310 -1.9953 0.9687
-4.2390 -6.4358 -1.9953 0.9687
-1.0354 -7.6365 -1.9953 0.9687
-0.3484 -7.6985 -1.9953 0.9687
0.3413 -7.6988 -1.9953 0.9687
1.7071 -7.5149 -1.9953 0.9687
3.6402 -6.7924 -1.9953 0.9687
4.2330 -6.4397 -1.9953 0.9687
6.2217 -4.5473 -1.9953 0.9687
6.6034 -3.9728 -1.9953 0.9687
7.5770 -1.4060 -1.9953 0.9687
7.6723 -0.7229 -1.9953 0.9687
7.4389 2.0124 -1.9953 0.9687
7.2292 2.6694 -1.9953 0.9687
6.9616 3.3052 -1.9953 0.9687
6.6381 3.9144 -1.9953 0.9687
6.2616 4.4922 -1.9953 0.9687
4.8449 5.9929 -1.9953 0.9687
3.4178 6.2444 -1.8431 0.9710
1.6381 6.9275 -1.8431 0.9710
0.3780 7.1085 -1.8431 0.9710
-0.2591 7.1138 -1.8431 0.9710
-1.5220 6.9539 -1.8431 0.9710
-2.7363 6.5717 -1.8431 0.9710
-3.0875 5.8719 -1.7177 0.9730
-4.0036 5.1252 -1.6839 0.9735
-5.8639 4.3572 -1.8915 0.9703
-6.9054 3.4211 -1.9953 0.9687
-7.1837 2.7900 -1.9953 0.9687
-7.5658 1.4659 -1.9953 0.9687
-7.6665 0.7835 -1.9953 0.9687
-7.5995 -1.2792 -1.9953 0.9687
-7.4547 -1.9536 -1.9953 0.9687
-7.2502 -2.6123 -1.9953 0.9687
-6.6690 -3.8619 -1.9953 0.9687
-6.2969 -4.4427 -1.9953 0.9687
-5.8745 -4.9880 -1.9953 0.9687
-4.8921 -5.9545 -1.9953 0.9687
-2.4945 -7.2915 -1.9953 0.9687
-1.1559 -7.6192 -1.9953 0.9687
1.5882 -7.5409 -1.9953 0.9687
2.2561 -7.3687 -1.9953 0.9687
3.5325 -6.8490 -1.9953 0.9687
4.6959 -6.1103 -1.9953 0.9687
5.2234 -5.6660 -1.9953 0.9687
7.1613 -2.8466 -1.9953 0.9687
7.3871 -2.1949 -1.9953 0.9687
7.5538 -1.5255 -1.9953 0.9687
7.6600 -0.8440 -1.9953 0.9687
7.7047 -0.1557 -1.9953 0.9687
7.6878 0.5338 -1.9953 0.9687
7.6093 1.2191 -1.9953 0.9687
7.2705 2.5549 -1.9953 0.9687
4.9390 5.9156 -1.9953 0.9687
2.3573 6.7169 -1.8431 0.9710
-1.4120 6.9771 -1.8431 0.9710
-2.0302 6.8229 -1.8431 0.9710
-4.5569 5.0220 -1.7558 0.9724
-5.2358 4.8230 -1.8431 0.9710
-6.8021 1.8468 -1.9953 0.9711
-7.0223 0.6057 -1.9953 0.9711
-7.0179 -0.6547 -1.9953 0.9711
-6.9312 -1.2796 -1.9953 0.9711
-6.7890 -1.8942 -1.9953 0.9711
-6.5925 -2.4937 -1.9953 0.9711
-5.6943 -4.1538 -1.9953 0.9711
-5.3001 -4.6463 -1.9953 0.9711
-4.3877 -5.5160 -1.9953 0.9711
-3.8770 -5.8863 -1.9953 0.9711
-2.7666 -6.4827 -1.9953 0.9711
-2.1758 -6.7041 -1.9953 0.9711
-0.9470 -6.9844 -1.9953 0.9711
-0.3187 -7.0411 -1.9953 0.9711
0.3122 -7.0414 -1.9953 0.9711
1.5614 -6.8732 -1.9953 0.9711
2.1697 -6.7060 -1.9953 0.9711
2.7606 -6.4852 -1.9953 0.9711
3.3294 -6.2123 -1.9953 0.9711
3.8715 -5.8898 -1.9953 0.9711
5.2957 -4.6511 -1.9953 0.9711
5.6904 -4.1590 -1.9953 0.9711
6.3402 -3.0789 -1.9953 0.9711
6.5901 -2.4997 -1.9953 0.9711
7.0171 -0.6612 -1.9953 0.9711
6.9410 1.2248 -1.9953 0.9711
6.8037 1.8405 -1.9953 0.9711
6.6119 2.4415 -1.9953 0.9711
5.3365 4.6042 -1.9953 0.9711
4.9035 5.0630 -1.9953 0.9711
4.4312 5.4811 -1.9953 0.9711
3.9158 5.8442 -1.9915 0.9712
2.6027 5.9678 -1.8431 0.9733
1.4982 6.3359 -1.8431 0.9733
-0.2370 6.5063 -1.8431 0.9733
-0.8178 6.4591 -1.8431 0.9733
-3.0300 5.7626 -1.8431 0.9733
-3.2930 5.0969 -1.7178 0.9751
-3.9469 5.0526 -1.8150 0.9737
-4.4507 4.7519 -1.8431 0.9733
-4.9287 4.3982 -1.8700 0.9729
-6.0107 3.6811 -1.9953 0.9711
-6.3157 3.1290 -1.9953 0.9711
-6.7721 1.9540 -1.9953 0.9711
-6.9196 1.3407 -1.9953 0.9711
-6.8181 -1.7867 -1.9953 0.9711
-6.0994 -3.5321 -1.9953 0.9711
-5.7592 -4.0633 -1.9953 0.9711
-5.3728 -4.5620 -1.9953 0.9711
-4.9434 -5.0241 -1.9953 0.9711
-3.4328 -6.1558 -1.9953 0.9711
-2.2815 -6.6688 -1.9953 0.9711
-1.6760 -6.8461 -1.9953 0.9711
-1.0572 -6.9686 -1.9953 0.9711
1.4526 -6.8970 -1.9953 0.9711
2.0634 -6.7395 -1.9953 0.9711
3.2308 -6.2642 -1.9953 0.9711
4.2949 -5.5885 -1.9953 0.9711
4.7774 -5.1821 -1.9953 0.9711
5.6240 -4.2483 -1.9953 0.9711
6.9088 -1.3953 -1.9953 0.9711
7.0058 -0.7719 -1.9953 0.9711
7.0468 -0.1424 -1.9953 0.9711
7.0313 0.4882 -1.9953 0.9711
6.9595 1.1150 -1.9953 0.9711
6.8319 1.7328 -1.9953 0.9711
6.6496 2.3367 -1.9953 0.9711
6.4140 2.9219 -1.9953 0.9711
6.1271 3.4837 -1.9953 0.9711
5.4086 4.5194 -1.9953 0.9711
4.9829 4.9849 -1.9953 0.9711
4.0111 5.7866 -1.9932 0.9712
3.2496 5.7206 -1.8625 0.9730
2.1560 6.1433 -1.8431 0.9733
1.5981 6.3115 -1.8431 0.9733
1.0274 6.4291 -1.8431 0.9733
0.4484 6.4952 -1.8431 0.9733
-0.1342 6.5093 -1.8431 0.9733
-1.2914 6.3813 -1.8431 0.9733
-2.9386 5.8098 -1.8431 0.9733
-4.3751 4.8216 -1.8431 0.9733
-4.7915 4.4137 -1.8442 0.9733
-6.2606 1.6998 -1.9953 0.9732
-6.4632 0.5575 -1.9953 0.9732
-6.4872 -0.0226 -1.9953 0.9732
-6.4592 -0.6026 -1.9953 0.9732
-6.2486 -1.7434 -1.9953 0.9732
-5.8381 -2.8285 -1.9953 0.9732
-5.2410 -3.8231 -1.9953 0.9732
-4.8781 -4.2764 -1.9953 0.9732
-4.0385 -5.0769 -1.9953 0.9732
-3.5683 -5.4177 -1.9953 0.9732
-3.0696 -5.7150 -1.9953 0.9732
-2.0026 -6.1704 -1.9953 0.9732
-1.4429 -6.3247 -1.9953 0.9732
-0.8716 -6.4284 -1.9953 0.9732
-0.2933 -6.4806 -1.9953 0.9732
1.9969 -6.1722 -1.9953 0.9732
2.5408 -5.9689 -1.9953 0.9732
3.0643 -5.7178 -1.9953 0.9732
4.4719 -4.6995 -1.9953 0.9732
5.2374 -3.8279 -1.9953 0.9732
5.5587 -3.3443 -1.9953 0.9732
6.0655 -2.3007 -1.9953 0.9732
6.2469 -1.7491 -1.9953 0.9732
6.4871 -0.0286 -1.9953 0.9732
6.2621 1.6940 -1.9953 0.9732
5.2710 3.7816 -1.9953 0.9732
3.6109 5.3892 -1.9953 0.9732
1.8948 5.6849 -1.8431 0.9752
1.3789 5.8315 -1.8431 0.9752
0.3182 5.9839 -1.8431 0.9752
-2.3034 5.5320 -1.8431 0.9752
-2.7888 5.3039 -1.8431 0.9752
-3.2519 5.0333 -1.8431 0.9752
-5.5322 3.3881 -1.9953 0.9732
-6.4867 0.0798 -1.9953 0.9732
-6.4679 -0.5005 -1.9953 0.9732
-6.3972 -1.0768 -1.9953 0.9732
-6.2753 -1.6445 -1.9953 0.9732
-6.1031 -2.1990 -1.9953 0.9732
-5.3007 -3.7398 -1.9953 0.9732
-4.1182 -5.0125 -1.9953 0.9732
-3.6535 -5.3606 -1.9953 0.9732
-2.0998 -6.1380 -1.9953 0.9732
-1.5426 -6.3011 -1.9953 0.9732
-0.9730 -6.4138 -1.9953 0.9732
-0.3956 -6.4751 -1.9953 0.9732
0.1849 -6.4845 -1.9953 0.9732
2.4462 -6.0083 -1.9953 0.9732
5.5052 -3.4317 -1.9953 0.9732
5.7900 -2.9257 -1.9953 0.9732
6.0284 -2.3962 -1.9953 0.9732
6.2185 -1.8476 -1.9953 0.9732
6.3588 -1.2842 -1.9953 0.9732
6.4481 -0.7105 -1.9953 0.9732
6.4055 1.0262 -1.9953 0.9732
6.1203 2.1507 -1.9953 0.9732
5.6393 3.2064 -1.9953 0.9732
4.9781 4.1596 -1.9953 0.9732
3.6957 5.3315 -1.9953 0.9732
2.4820 5.4541 -1.8431 0.9752
1.4709 5.8090 -1.8431 0.9752
0.9456 5.9173 -1.8431 0.9752
-0.1235 5.9911 -1.8431 0.9752
-0.6587 5.9560 -1.8431 0.9752
-1.7090 5.7435 -1.8431 0.9752
-2.7047 5.3473 -1.8431 0.9752
-3.1720 5.0840 -1.8431 0.9752
-4.7534 4.3786 -1.9878 0.9733
-6.0027 -0.0210 -1.9953 0.9750
-5.9768 -0.5576 -1.9953 0.9750
-5.9029 -1.0898 -1.9953 0.9750
-5.4021 -2.6172 -1.9953 0.9750
-5.1464 -3.0898 -1.9953 0.9750
-4.1419 -4.3448 -1.9953 0.9750
-3.7368 -4.6977 -1.9953 0.9750
-2.8404 -5.2882 -1.9953 0.9750
-2.3561 -5.5210 -1.9953 0.9750
-1.8530 -5.7095 -1.9953 0.9750
-1.3351 -5.8523 -1.9953 0.9750
-0.8065 -5.9482 -1.9953 0.9750
-0.2714 -5.9965 -1.9953 0.9750
0.2659 -5.9968 -1.9953 0.9750
0.8010 -5.9490 -1.9953 0.9750
1.3297 -5.8535 -1.9953 0.9750
2.3510 -5.5231 -1.9953 0.9750
2.8355 -5.2907 -1.9953 0.9750
4.1379 -4.3485 -1.9953 0.9750
4.8462 -3.5420 -1.9953 0.9750
5.3996 -2.6222 -1.9953 0.9750
5.6124 -2.1289 -1.9953 0.9750
5.7803 -1.6185 -1.9953 0.9750
5.9019 -1.0952 -1.9953 0.9750
5.9762 -0.5631 -1.9953 0.9750
6.0026 -0.0265 -1.9953 0.9750
5.9113 1.0431 -1.9953 0.9750
5.7944 1.5675 -1.9953 0.9750
5.6310 2.0793 -1.9953 0.9750
5.4225 2.5745 -1.9953 0.9750
4.5449 3.9212 -1.9953 0.9750
3.3413 4.9867 -1.9953 0.9750
2.2829 5.2343 -1.8982 0.9762
1.7533 5.2603 -1.8431 0.9769
1.2759 5.3960 -1.8431 0.9769
0.7883 5.4885 -1.8431 0.9769
-0.2018 5.5411 -1.8431 0.9769
-0.6965 5.5009 -1.8431 0.9769
-1.1855 5.4166 -1.8431 0.9769
-2.1313 5.1188 -1.8431 0.9769
-2.5805 4.9077 -1.8431 0.9769
-4.0893 4.3660 -1.9884 0.9751
-4.4768 3.9949 -1.9945 0.9750
-5.3788 2.6648 -1.9953 0.9750
-5.5955 2.1732 -1.9953 0.9750
-5.8931 1.1418 -1.9953 0.9750
-5.9716 0.6103 -1.9953 0.9750
-6.0022 0.0739 -1.9953 0.9750
-5.9194 -0.9964 -1.9953 0.9750
-5.8066 -1.5217 -1.9953 0.9750
-5.1946 -3.0081 -1.9953 0.9750
-4.9048 -3.4605 -1.9953 0.9750
-3.8106 -4.6381 -1.9953 0.9750
-3.3806 -4.9602 -1.9953 0.9750
-0.9004 -5.9348 -1.9953 0.9750
-0.3661 -5.9915 -1.9953 0.9750
0.1711 -6.0002 -1.9953 0.9750
1.2371 -5.8738 -1.9953 0.9750
2.2635 -5.5595 -1.9953 0.9750
2.7515 -5.3349 -1.9953 0.9750
3.2175 -5.0675 -1.9953 0.9750
4.0687 -4.4134 -1.9953 0.9750
4.4470 -4.0319 -1.9953 0.9750
4.7897 -3.6181 -1.9953 0.9750
5.3575 -2.7072 -1.9953 0.9750
5.5781 -2.2173 -1.9953 0.9750
5.7540 -1.7096 -1.9953 0.9750
5.8838 -1.1883 -1.9953 0.9750
6.0014 -0.1213 -1.9953 0.9750
5.9270 0.9496 -1.9953 0.9750
5.8184 1.4757 -1.9953 0.9750
5.6631 1.9901 -1.9953 0.9750
4.9319 3.4216 -1.9953 0.9750
4.6062 3.8489 -1.9953 0.9750
4.2437 4.2454 -1.9953 0.9750
3.8471 4.6078 -1.9953 0.9750
1.8362 5.2319 -1.8431 0.9769
1.3610 5.3752 -1.8431 0.9769
0.8750 5.4753 -1.8431 0.9769
-0.1143 5.5436 -1.8431 0.9769
-1.0998 5.4346 -1.8431 0.9769
-1.5814 5.3145 -1.8431 0.9769
-2.0502 5.1518 -1.8431 0.9769
-2.5027 4.9479 -1.8431 0.9769
-2.9351 4.7043 -1.8431 0.9769
-3.3731 4.4616 -1.8592 0.9767
-4.0052 4.4140 -1.9812 0.9752
-4.4107 4.0629 -1.9934 0.9750
-5.5796 -0.0195 -1.9953 0.9766
-5.4869 -1.0130 -1.9953 0.9766
-5.2188 -1.9741 -1.9953 0.9766
-5.0214 -2.4328 -1.9953 0.9766
-4.7837 -2.8720 -1.9953 0.9766
-4.1957 -3.6781 -1.9953 0.9766
-3.4735 -4.3666 -1.9953 0.9766
-2.6402 -4.9155 -1.9953 0.9766
-1.7224 -5.3071 -1.9953 0.9766
-1.2410 -5.4399 -1.9953 0.9766
-0.2523 -5.5739 -1.9953 0.9766
0.2471 -5.5742 -1.9953 0.9766
0.7446 -5.5297 -1.9953 0.9766
1.2360 -5.4410 -1.9953 0.9766
1.7176 -5.3087 -1.9953 0.9766
2.1854 -5.1338 -1.9953 0.9766
3.0648 -4.6625 -1.9953 0.9766
3.8463 -4.0421 -1.9953 0.9766
4.1923 -3.6820 -1.9953 0.9766
4.5047 -3.2924 -1.9953 0.9766
5.3730 -1.5044 -1.9953 0.9766
5.4860 -1.0180 -1.9953 0.9766
5.5594 0.4744 -1.9953 0.9766
5.4947 0.9696 -1.9953 0.9766
4.2246 3.6449 -1.9953 0.9766
1.6677 5.0036 -1.8861 0.9778
-0.6474 5.1132 -1.8431 0.9783
-1.1020 5.0348 -1.8431 0.9783
-2.3987 4.5619 -1.8431 0.9783
-2.8895 4.4724 -1.9041 0.9776
-3.8111 4.0690 -1.9937 0.9766
-4.9997 2.4770 -1.9953 0.9766
-5.4778 1.0613 -1.9953 0.9766
-5.5508 0.5673 -1.9953 0.9766
-5.5630 -0.4305 -1.9953 0.9766
-5.5023 -0.9262 -1.9953 0.9766
-5.2493 -1.8914 -1.9953 0.9766
-5.0592 -2.3532 -1.9953 0.9766
-3.9133 -3.9773 -1.9953 0.9766
-3.1423 -4.6107 -1.9953 0.9766
-2.2709 -5.0966 -1.9953 0.9766
-0.8369 -5.5165 -1.9953 0.9766
-0.3403 -5.5693 -1.9953 0.9766
0.1590 -5.5774 -1.9953 0.9766
0.6571 -5.5408 -1.9953 0.9766
2.1040 -5.1677 -1.9953 0.9766
2.5576 -4.9589 -1.9953 0.9766
2.9908 -4.7103 -1.9953 0.9766
3.4000 -4.4241 -1.9953 0.9766
3.7819 -4.1023 -1.9953 0.9766
4.1336 -3.7477 -1.9953 0.9766
4.7350 -2.9516 -1.9953 0.9766
5.4692 -1.1045 -1.9953 0.9766
5.5461 -0.6111 -1.9953 0.9766
5.5785 -0.1127 -1.9953 0.9766
5.4084 1.3717 -1.9953 0.9766
5.2640 1.8498 -1.9953 0.9766
3.9446 3.9462 -1.9953 0.9766
3.5760 4.2831 -1.9953 0.9766
3.1787 4.5857 -1.9953 0.9766
2.7559 4.8515 -1.9953 0.9766
2.3051 5.0655 -1.9902 0.9766
-0.1062 5.1529 -1.8431 0.9783
-1.0223 5.0516 -1.8431 0.9783
-1.4699 4.9400 -1.8431 0.9783
-1.9057 4.7888 -1.8431 0.9783
-2.7946 4.4791 -1.8880 0.9778
-3.7446 4.1267 -1.9927 0.9766
-4.1039 3.7803 -1.9953 0.9766
-5.0249 1.3643 -1.9953 0.9779
-2.2879 -0.0080 -0.8768 0.9902
-2.3040 -0.2149 -0.8868 0.9901
-4.4640 -2.6801 -1.9953 0.9779
-4.2065 -3.0685 -1.9953 0.9779
-3.9153 -3.4323 -1.9953 0.9779
-3.5927 -3.7687 -1.9953 0.9779
-2.8640 -4.3483 -1.9953 0.9779
-2.0437 -4.7889 -1.9953 0.9779
-0.6995 -5.1595 -1.9953 0.9779
0.2306 -5.2016 -1.9953 0.9779
1.1534 -5.0774 -1.9953 0.9779
2.4595 -4.5892 -1.9953 0.9779
2.8600 -4.3509 -1.9953 0.9779
3.2376 -4.0778 -1.9953 0.9779
3.5892 -3.7719 -1.9953 0.9779
4.2037 -3.0723 -1.9953 0.9779
5.0139 -1.4039 -1.9953 0.9779
5.2067 -0.0230 -1.9953 0.9779
5.1879 0.4427 -1.9953 0.9779
5.1275 0.9048 -1.9953 0.9779
5.0261 1.3596 -1.9953 0.9779
4.8844 1.8036 -1.9953 0.9779
3.9423 3.4013 -1.9953 0.9779
3.6223 3.7402 -1.9953 0.9779
2.8983 4.3255 -1.9953 0.9779
2.4999 4.5673 -1.9953 0.9779
2.0796 4.7682 -1.9935 0.9780
1.6408 4.9227 -1.9885 0.9780
0.6838 4.7607 -1.8431 0.9796
0.2554 4.8028 -1.8431 0.9796
-0.1751 4.8064 -1.8431 0.9796
-1.4443 4.5876 -1.8431 0.9796
-3.8849 3.4667 -1.9953 0.9779
-4.1793 3.1055 -1.9953 0.9779
-4.8536 1.8850 -1.9953 0.9779
-5.1117 0.9904 -1.9953 0.9779
-2.3041 -0.1783 -0.8856 0.9901
-5.0367 -1.3199 -1.9953 0.9779
-4.8985 -1.7650 -1.9953 0.9779
-4.7211 -2.1959 -1.9953 0.9779
-4.2545 -3.0017 -1.9953 0.9779
-3.3053 -4.0231 -1.9953 0.9779
-2.9323 -4.3025 -1.9953 0.9779
-2.5359 -4.5475 -1.9953 0.9779
-1.6854 -4.9264 -1.9953 0.9779
-1.2381 -5.0574 -1.9953 0.9779
-0.3175 -5.1971 -1.9953 0.9779
0.1484 -5.2046 -1.9953 0.9779
0.6132 -5.1705 -1.9953 0.9779
1.5243 -4.9786 -1.9953 0.9779
1.9634 -4.8224 -1.9953 0.9779
2.3867 -4.6275 -1.9953 0.9779
3.1728 -4.1284 -1.9953 0.9779
3.8573 -3.4973 -1.9953 0.9779
4.1546 -3.1384 -1.9953 0.9779
4.6471 -2.3482 -1.9953 0.9779
4.8385 -1.9233 -1.9953 0.9779
5.1037 -1.0307 -1.9953 0.9779
5.1754 -0.5702 -1.9953 0.9779
5.2057 -0.1052 -1.9953 0.9779
5.1942 0.3607 -1.9953 0.9779
5.1412 0.8237 -1.9953 0.9779
5.0469 1.2801 -1.9953 0.9779
4.9122 1.7262 -1.9953 0.9779
4.5262 2.5735 -1.9953 0.9779
4.2780 2.9679 -1.9953 0.9779
3.6810 3.6825 -1.9953 0.9779
2.5717 4.5273 -1.9953 0.9779
2.1556 4.7369 -1.9944 0.9780
1.7191 4.8983 -1.9894 0.9780
1.2318 4.8650 -1.9232 0.9787
0.3312 4.7982 -1.8431 0.9796
-0.0991 4.8086 -1.8431 0.9796
-0.5287 4.7804 -1.8431 0.9796
-0.9547 4.7175 -1.8445 0.9796
-1.3717 4.6098 -1.8431 0.9796
-3.8296 3.5277 -1.9953 0.9779
-2.0546 0.3645 -0.8540 0.9910
-2.0161 -0.1881 -0.8287 0.9913
-2.0621 -0.3807 -0.8582 0.9910
-4.6959 -1.3102 -1.9953 0.9791
-4.3875 -2.1257 -1.9953 0.9791
-3.6660 -3.2138 -1.9953 0.9791
-3.3640 -3.5287 -1.9953 0.9791
-3.0350 -3.8154 -1.9953 0.9791
-2.3069 -4.2949 -1.9953 0.9791
-1.5050 -4.6371 -1.9953 0.9791
-0.6550 -4.8311 -1.9953 0.9791
0.6506 -4.8316 -1.9953 0.9791
1.0800 -4.7541 -1.9953 0.9791
1.5007 -4.6385 -1.9953 0.9791
4.7934 -0.8895 -1.9953 0.9791
4.8537 -0.4573 -1.9953 0.9791
4.8011 0.8472 -1.9953 0.9791
4.7061 1.2731 -1.9953 0.9791
4.5734 1.6888 -1.9953 0.9791
4.1995 2.4763 -1.9953 0.9791
3.9612 2.8419 -1.9953 0.9791
3.6913 3.1847 -1.9953 0.9791
2.7137 4.0501 -1.9953 0.9791
2.3407 4.2766 -1.9953 0.9791
0.2476 4.6558 -1.9082 0.9801
-0.1676 4.6025 -1.8849 0.9803
-0.5789 4.5721 -1.8862 0.9803
-0.9952 4.5470 -1.9050 0.9801
-1.4241 4.5234 -1.9409 0.9797
-1.8670 4.4840 -1.9879 0.9792
-2.2636 4.3051 -1.9907 0.9792
-2.6440 4.0923 -1.9940 0.9792
-3.0012 3.8420 -1.9953 0.9791
-3.6375 3.2460 -1.9953 0.9791
-3.9132 2.9078 -1.9953 0.9791
-4.1575 2.5462 -1.9953 0.9791
-4.5446 1.7650 -1.9953 0.9791
-2.0450 -0.3442 -0.8487 0.9911
-4.4205 -2.0561 -1.9953 0.9791
-2.3744 -4.2580 -1.9953 0.9791
-1.9842 -4.4532 -1.9953 0.9791
-0.7312 -4.8201 -1.9953 0.9791
-0.2973 -4.8662 -1.9953 0.9791
0.1390 -4.8733 -1.9953 0.9791
1.4273 -4.6616 -1.9953 0.9791
1.8384 -4.5154 -1.9953 0.9791
2.6132 -4.1157 -1.9953 0.9791
2.9708 -3.8656 -1.9953 0.9791
3.6118 -3.2746 -1.9953 0.9791
3.8901 -2.9386 -1.9953 0.9791
4.1372 -2.5790 -1.9953 0.9791
4.3513 -2.1987 -1.9953 0.9791
4.6733 -1.3885 -1.9953 0.9791
4.8742 -0.0985 -1.9953 0.9791
4.8138 0.7712 -1.9953 0.9791
4.7256 1.1986 -1.9953 0.9791
4.2381 2.4097 -1.9953 0.9791
4.0056 2.7790 -1.9953 0.9791
3.4466 3.4480 -1.9953 0.9791
2.4080 4.2391 -1.9953 0.9791
2.0193 4.4374 -1.9953 0.9791
0.7575 4.7403 -1.9647 0.9795
0.3221 4.6652 -1.9139 0.9800
-0.0950 4.6113 -1.8877 0.9803
-0.5062 4.5777 -1.8849 0.9803
-2.9401 3.8889 -1.9953 0.9791
-1.4931 0.4054 -0.6743 0.9933
-1.4659 0.1264 -0.6412 0.9936
-1.4678 -0.1369 -0.6425 0.9936
-1.4694 -0.2713 -0.6512 0.9935
-1.4935 -0.4167 -0.6758 0.9933
-3.9253 -2.3566 -1.9953 0.9802
-3.6988 -2.6982 -1.9953 0.9802
-3.1591 -3.3138 -1.9953 0.9802
-2.5183 -3.8235 -1.9953 0.9802
-2.1664 -4.0334 -1.9953 0.9802
-1.4133 -4.3547 -1.9953 0.9802
-1.0183 -4.4637 -1.9953 0.9802
2.1627 -4.0353 -1.9953 0.9802
2.5148 -3.8258 -1.9953 0.9802
3.1560 -3.3167 -1.9953 0.9802
3.4400 -3.0212 -1.9953 0.9802
3.6963 -2.7015 -1.9953 0.9802
3.9231 -2.3602 -1.9953 0.9802
4.4088 -1.2345 -1.9953 0.9802
4.5015 -0.8353 -1.9953 0.9802
4.5581 -0.4295 -1.9953 0.9802
4.5783 -0.0202 -1.9953 0.9802
4.5617 0.3893 -1.9953 0.9802
4.5087 0.7956 -1.9953 0.9802
3.7200 2.6688 -1.9953 0.9802
3.4665 2.9908 -1.9953 0.9802
2.5485 3.8035 -1.9953 0.9802
2.1982 4.0161 -1.9953 0.9802
1.8303 4.1966 -1.9953 0.9802
1.0526 4.4513 -1.9935 0.9802
-0.1660 4.5588 -1.9881 0.9803
-0.9758 4.4582 -1.9890 0.9803
-1.3715 4.3563 -1.9904 0.9803
-2.4845 3.8456 -1.9953 0.9802
-3.1298 3.3416 -1.9953 0.9802
-3.4160 3.0483 -1.9953 0.9802
-1.4632 -0.1132 -0.6396 0.9936
-3.7410 -2.6394 -1.9953 0.9802
-3.4900 -2.9633 -1.9953 0.9802
-3.2111 -3.2635 -1.9953 0.9802
-2.5784 -3.7833 -1.9953 0.9802
-1.8634 -4.1820 -1.9953 0.9802
-1.4820 -4.3319 -1.9953 0.9802
-0.6867 -4.5266 -1.9953 0.9802
0.1305 -4.5765 -1.9953 0.9802
0.9435 -4.4801 -1.9953 0.9802
1.3404 -4.3777 -1.9953 0.9802
1.7264 -4.2404 -1.9953 0.9802
2.0986 -4.0690 -1.9953 0.9802
3.8853 -2.4219 -1.9953 0.9802
4.0863 -2.0648 -1.9953 0.9802
4.4877 -0.9063 -1.9953 0.9802
4.5508 -0.5014 -1.9953 0.9802
4.5774 -0.0925 -1.9953 0.9802
4.5673 0.3172 -1.9953 0.9802
4.5207 0.7243 -1.9953 0.9802
4.3194 1.5179 -1.9953 0.9802
4.1664 1.8980 -1.9953 0.9802
3.9800 2.2629 -1.9953 0.9802
3.5133 2.9356 -1.9953 0.9802
3.2367 3.2380 -1.9953 0.9802
2.6082 3.7628 -1.9953 0.9802
2.2613 3.9809 -1.9953 0.9802
1.5161 4.3200 -1.9953 0.9802
0.3144 4.5537 -1.9893 0.9803
-0.5014 4.5342 -1.9881 0.9803
-2.4235 3.8843 -1.9953 0.9802
-3.0766 3.3906 -1.9953 0.9802
-3.3674 3.1019 -1.9953 0.9802
-1.2707 0.3450 -0.6095 0.9942
-1.2723 0.2257 -0.5981 0.9943
-1.2731 0.1098 -0.5915 0.9944
-1.2738 -0.1188 -0.5922 0.9944
-3.6957 -2.2188 -1.9953 0.9812
-3.4825 -2.5404 -1.9953 0.9812
-3.2414 -2.8416 -1.9953 0.9812
-2.9744 -3.1200 -1.9953 0.9812
-2.0397 -3.7975 -1.9953 0.9812
-1.6920 -3.9647 -1.9953 0.9812
-1.3307 -4.1001 -1.9953 0.9812
-0.5791 -4.2715 -1.9953 0.9812
0.1909 -4.3064 -1.9953 0.9812
0.9549 -4.2035 -1.9953 0.9812
1.3269 -4.1013 -1.9953 0.9812
1.6883 -3.9662 -1.9953 0.9812
2.6804 -3.3759 -1.9953 0.9812
3.2388 -2.8446 -1.9953 0.9812
3.6937 -2.2222 -1.9953 0.9812
4.1510 -1.1623 -1.9953 0.9812
4.2916 -0.4044 -1.9953 0.9812
4.2450 0.7491 -1.9953 0.9812
4.0437 1.4932 -1.9953 0.9812
3.8940 1.8488 -1.9953 0.9812
3.7131 2.1895 -1.9953 0.9812
3.5025 2.5128 -1.9953 0.9812
2.3994 3.5811 -1.9953 0.9812
2.0696 3.7813 -1.9953 0.9812
1.7232 3.9512 -1.9953 0.9812
1.3630 4.0894 -1.9953 0.9812
-0.1567 4.3016 -1.9925 0.9812
-0.9207 4.2066 -1.9933 0.9812
-1.2941 4.1102 -1.9946 0.9812
-1.6570 3.9794 -1.9953 0.9812
-2.9467 3.1461 -1.9953 0.9812
-3.2162 2.8701 -1.9953 0.9812
-1.2704 0.3666 -0.6120 0.9942
-1.2701 0.2461 -0.5989 0.9943
-1.2744 0.1302 -0.5930 0.9944
-1.2612 0.0155 -0.5838 0.9945
-1.2733 -0.2143 -0.5977 0.9943
-3.7303 -2.1602 -1.9953 0.9812
-3.5222 -2.4851 -1.9953 0.9812
-2.0994 -3.7648 -1.9953 0.9812
-0.2629 -4.3026 -1.9953 0.9812
0.1229 -4.3089 -1.9953 0.9812
1.2620 -4.1217 -1.9953 0.9812
1.6255 -3.9924 -1.9953 0.9812
1.9759 -3.8311 -1.9953 0.9812
2.3106 -3.6390 -1.9953 0.9812
3.6581 -2.2803 -1.9953 0.9812
3.8473 -1.9441 -1.9953 0.9812
4.1321 -1.2277 -1.9953 0.9812
4.2253 -0.8533 -1.9953 0.9812
4.2847 -0.4721 -1.9953 0.9812
4.3097 -0.0871 -1.9953 0.9812
4.3002 0.2986 -1.9953 0.9812
4.2563 0.6819 -1.9953 0.9812
4.0668 1.4291 -1.9953 0.9812
3.9227 1.7870 -1.9953 0.9812
3.3078 2.7640 -1.9953 0.9812
3.0475 3.0487 -1.9953 0.9812
2.4557 3.5427 -1.9953 0.9812
2.1291 3.7481 -1.9953 0.9812
1.7854 3.9235 -1.9953 0.9812
0.6802 4.2566 -1.9953 0.9812
-0.0887 4.3037 -1.9926 0.9812
-0.8541 4.2202 -1.9931 0.9812
-1.9456 3.8466 -1.9953 0.9812
-2.8967 3.1923 -1.9953 0.9812
-1.1327 0.3075 -0.5757 0.9948
-1.1410 0.2024 -0.5684 0.9949
-1.1343 -0.0040 -0.5564 0.9950
-1.1442 -0.1067 -0.5637 0.9949
-1.1402 -0.2105 -0.5687 0.9948
-1.1186 -0.4231 -0.5867 0.9947
-3.4875 -2.0938 -1.9953 0.9820
-3.2863 -2.3972 -1.9953 0.9820
-3.0588 -2.6815 -1.9953 0.9820
-2.8068 -2.9443 -1.9953 0.9820
-2.5323 -3.1834 -1.9953 0.9820
-2.2375 -3.3971 -1.9953 0.9820
-1.2557 -3.8691 -1.9953 0.9820
-0.9047 -3.9658 -1.9953 0.9820
-0.5465 -4.0309 -1.9953 0.9820
-0.1839 -4.0636 -1.9953 0.9820
0.1802 -4.0637 -1.9953 0.9820
0.5428 -4.0314 -1.9953 0.9820
1.5932 -3.7427 -1.9953 0.9820
2.2344 -3.3991 -1.9953 0.9820
3.0563 -2.6843 -1.9953 0.9820
3.2841 -2.4002 -1.9953 0.9820
3.4855 -2.0970 -1.9953 0.9820
4.0498 -0.3816 -1.9953 0.9820
4.0677 -0.0179 -1.9953 0.9820
4.0530 0.3458 -1.9953 0.9820
4.0058 0.7069 -1.9953 0.9820
3.9266 1.0622 -1.9953 0.9820
3.8159 1.4091 -1.9953 0.9820
3.6746 1.7446 -1.9953 0.9820
3.5039 2.0662 -1.9953 0.9820
3.3051 2.3712 -1.9953 0.9820
3.0799 2.6572 -1.9953 0.9820
2.8299 2.9220 -1.9953 0.9820
2.5573 3.1633 -1.9953 0.9820
2.2642 3.3793 -1.9953 0.9820
1.6261 3.7285 -1.9953 0.9820
0.9360 3.9586 -1.9953 0.9820
0.2160 4.0620 -1.9953 0.9820
-0.1481 4.0650 -1.9953 0.9820
-0.5109 4.0355 -1.9953 0.9820
-1.2216 3.8800 -1.9953 0.9820
-1.8931 3.6004 -1.9953 0.9820
-2.5041 3.2056 -1.9953 0.9820
-2.7807 2.9689 -1.9953 0.9820
-3.0350 2.7084 -1.9953 0.9820
-3.2650 2.4261 -1.9953 0.9820
-3.4689 2.1245 -1.9953 0.9820
-1.0869 0.5385 -0.5950 0.9946
-1.1443 0.1169 -0.5642 0.9949
-1.1360 0.0140 -0.5573 0.9950
-1.1436 -0.0885 -0.5626 0.9949
-1.1223 -0.4044 -0.5852 0.9947
-3.5201 -2.0384 -1.9953 0.9820
-3.3238 -2.3450 -1.9953 0.9820
-2.8529 -2.8995 -1.9953 0.9820
-2.2909 -3.3613 -1.9953 0.9820
-1.9811 -3.5527 -1.9953 0.9820
-1.3167 -3.8487 -1.9953 0.9820
-0.9673 -3.9511 -1.9953 0.9820
-0.2481 -4.0602 -1.9953 0.9820
0.1159 -4.0661 -1.9953 0.9820
0.8383 -3.9804 -1.9953 0.9820
1.1909 -3.8895 -1.9953 0.9820
2.1804 -3.4340 -1.9953 0.9820
3.4520 -2.1518 -1.9953 0.9820
3.8993 -1.1585 -1.9953 0.9820
4.0433 -0.4455 -1.9953 0.9820
4.0165 0.6435 -1.9953 0.9820
3.9429 1.0000 -1.9953 0.9820
3.3422 2.3187 -1.9953 0.9820
2.8757 2.8769 -1.9953 0.9820
2.3173 3.3431 -1.9953 0.9820
2.0092 3.5369 -1.9953 0.9820
1.6848 3.7024 -1.9953 0.9820
1.3471 3.8382 -1.9953 0.9820
-0.0838 4.0669 -1.9953 0.9820
-0.4471 4.0431 -1.9953 0.9820
-1.1601 3.8988 -1.9953 0.9820
-1.5041 3.7795 -1.9953 0.9820
-1.0322 0.1831 -0.5439 0.9953
-1.0299 -0.0036 -0.5343 0.9954
-1.0313 -0.1904 -0.5441 0.9953
-1.0190 -0.2843 -0.5488 0.9952
-1.0049 -0.3801 -0.5574 0.9952
-0.9753 -0.4725 -0.5622 0.9951
-3.1073 -2.2667 -1.9953 0.9828
-2.6539 -2.7839 -1.9953 0.9828
-2.3944 -3.0100 -1.9953 0.9828
-1.8199 -3.3884 -1.9953 0.9828
-1.5097 -3.5375 -1.9953 0.9828
-1.1873 -3.6583 -1.9953 0.9828
-0.8555 -3.7498 -1.9953 0.9828
-0.5167 -3.8113 -1.9953 0.9828
-0.1739 -3.8422 -1.9953 0.9828
0.1704 -3.8424 -1.9953 0.9828
0.5133 -3.8118 -1.9953 0.9828
0.8520 -3.7506 -1.9953 0.9828
2.1127 -3.2140 -1.9953 0.9828
2.3916 -3.0122 -1.9953 0.9828
2.8898 -2.5381 -1.9953 0.9828
3.1052 -2.2695 -1.9953 0.9828
3.4598 -1.6801 -1.9953 0.9828
3.5962 -1.3641 -1.9953 0.9828
3.7816 -0.7017 -1.9953 0.9828
3.8461 -0.0170 -1.9953 0.9828
3.4745 1.6496 -1.9953 0.9828
3.3130 1.9536 -1.9953 0.9828
3.1251 2.2420 -1.9953 0.9828
1.8466 3.3739 -1.9953 0.9828
1.5376 3.5255 -1.9953 0.9828
0.8851 3.7430 -1.9953 0.9828
-1.7900 3.4043 -1.9953 0.9828
-2.0872 3.2306 -1.9953 0.9828
-3.0872 2.2940 -1.9953 0.9828
-1.0027 0.3894 -0.5580 0.9952
-1.0302 0.1996 -0.5444 0.9953
-1.0313 0.0127 -0.5351 0.9954
-1.0373 -0.0803 -0.5397 0.9953
-1.0334 -0.1739 -0.5437 0.9953
-1.0199 -0.2673 -0.5470 0.9953
-0.9552 -0.5531 -0.5726 0.9950
-3.1427 -2.2173 -1.9953 0.9828
-2.4416 -2.9718 -1.9953 0.9828
-2.1661 -3.1782 -1.9953 0.9828
-1.5654 -3.5132 -1.9953 0.9828
-0.9146 -3.7359 -1.9953 0.9828
-0.2346 -3.8390 -1.9953 0.9828
0.7927 -3.7636 -1.9953 0.9828
1.1260 -3.6777 -1.9953 0.9828
1.4503 -3.5622 -1.9953 0.9828
2.0616 -3.2470 -1.9953 0.9828
3.5742 -1.4207 -1.9953 0.9828
3.6869 -1.0954 -1.9953 0.9828
3.8230 -0.4212 -1.9953 0.9828
3.7977 0.6084 -1.9953 0.9828
3.7281 0.9456 -1.9953 0.9828
3.6286 1.2751 -1.9953 0.9828
2.7191 2.7202 -1.9953 0.9828
1.8997 3.3443 -1.9953 0.9828
1.2737 3.6292 -1.9953 0.9828
0.9441 3.7285 -1.9953 0.9828
0.6069 3.7980 -1.9953 0.9828
-0.0793 3.8454 -1.9953 0.9828
-0.4228 3.8229 -1.9953 0.9828
-0.7629 3.7698 -1.9953 0.9828
-1.4222 3.5736 -1.9953 0.9828
-1.7360 3.4321 -1.9953 0.9828
-0.9249 0.2511 -0.5249 0.9956
-0.9419 0.1671 -0.5240 0.9956
-0.9244 -0.2579 -0.5256 0.9956
-0.8641 -0.5188 -0.5520 0.9954
-2.9432 -2.1470 -1.9953 0.9835
-2.7395 -2.4015 -1.9953 0.9835
-2.5137 -2.6369 -1.9953 0.9835
-1.7238 -3.2094 -1.9953 0.9835
-1.4299 -3.3507 -1.9953 0.9835
-1.1246 -3.4651 -1.9953 0.9835
-0.4894 -3.6100 -1.9953 0.9835
-0.1647 -3.6393 -1.9953 0.9835
2.0011 -3.0443 -1.9953 0.9835
2.2653 -2.8531 -1.9953 0.9835
2.9412 -2.1497 -1.9953 0.9835
3.2771 -1.5914 -1.9953 0.9835
3.4062 -1.2920 -1.9953 0.9835
1.8829 -0.5272 -1.0709 0.9911
1.8839 -0.3496 -1.0494 0.9913
1.8884 0.1611 -1.0380 0.9914
1.8853 0.3327 -1.0485 0.9913
1.8841 0.5097 -1.0690 0.9911
3.1381 1.8505 -1.9953 0.9835
2.5345 2.6169 -1.9953 0.9835
1.7491 3.1957 -1.9953 0.9835
0.5180 3.6061 -1.9953 0.9835
-0.4576 3.6142 -1.9953 0.9835
-0.7789 3.5588 -1.9953 0.9835
-1.0940 3.4749 -1.9953 0.9835
-1.4003 3.3632 -1.9953 0.9835
-1.9770 3.0600 -1.9953 0.9835
-2.2427 2.8710 -1.9953 0.9835
-2.4904 2.6589 -1.9953 0.9835
-2.7182 2.4256 -1.9953 0.9835
-0.8618 0.5278 -0.5535 0.9954
-0.9236 0.2665 -0.5265 0.9956
-0.9472 -0.0733 -0.5203 0.9957
-0.9430 -0.1587 -0.5238 0.9956
-0.9264 -0.2428 -0.5245 0.9956
-0.8962 -0.4168 -0.5413 0.9955
-0.8801 -0.6209 -0.5899 0.9951
-2.7770 -2.3580 -1.9953 0.9835
-2.0517 -3.0104 -1.9953 0.9835
-0.5464 -3.6019 -1.9953 0.9835
-0.2222 -3.6363 -1.9953 0.9835
1.6699 -3.2378 -1.9953 0.9835
2.2199 -2.8886 -1.9953 0.9835
2.4693 -2.6785 -1.9953 0.9835
2.6989 -2.4470 -1.9953 0.9835
2.9069 -2.1959 -1.9953 0.9835
3.0916 -1.9271 -1.9953 0.9835
3.2515 -1.6430 -1.9953 0.9835
3.3854 -1.3457 -1.9953 0.9835
1.8776 -0.0379 -1.0286 0.9915
1.8872 0.3024 -1.0468 0.9913
1.8856 0.4783 -1.0655 0.9912
2.9932 2.0766 -1.9953 0.9835
2.7956 2.3359 -1.9953 0.9835
2.3348 2.7965 -1.9953 0.9835
2.0754 2.9941 -1.9953 0.9835
1.5089 3.3159 -1.9953 0.9835
-0.4004 3.6210 -1.9953 0.9835
-0.7226 3.5707 -1.9953 0.9835
-1.0390 3.4918 -1.9953 0.9835
-1.6443 3.2509 -1.9953 0.9835
-1.9284 3.0908 -1.9953 0.9835
-2.1970 2.9060 -1.9953 0.9835
-2.4481 2.6979 -1.9953 0.9835
-0.8822 0.0761 -0.5112 0.9959
-0.8780 -0.0031 -0.5069 0.9960
-0.8569 -0.3241 -0.5289 0.9958
-0.8383 -0.4061 -0.5378 0.9957
-0.8111 -0.4870 -0.5462 0.9956
-0.8020 -0.5850 -0.5731 0.9954
-2.5988 -2.2782 -1.9953 0.9842
-2.1514 -2.7047 -1.9953 0.9842
-1.9010 -2.8862 -1.9953 0.9842
-1.6353 -3.0446 -1.9953 0.9842
-1.0669 -3.2872 -1.9953 0.9842
-0.4643 -3.4247 -1.9953 0.9842
2.1490 -2.7066 -1.9953 0.9842
2.7902 -2.0393 -1.9953 0.9842
2.9614 -1.7816 -1.9953 0.9842
1.7272 -0.0076 -0.9972 0.9921
1.7403 0.1485 -1.0084 0.9920
1.7379 0.3067 -1.0189 0.9919
1.7291 0.4677 -1.0342 0.9918
1.7012 0.6282 -1.0470 0.9917
2.6167 2.2576 -1.9953 0.9842
2.4043 2.4825 -1.9953 0.9842
1.3816 3.1678 -1.9953 0.9842
0.7953 3.3633 -1.9953 0.9842
-0.4341 3.4286 -1.9953 0.9842
-0.7389 3.3761 -1.9953 0.9842
-1.0379 3.2965 -1.9953 0.9842
-1.6084 3.0589 -1.9953 0.9842
-2.3625 2.5224 -1.9953 0.9842
-0.8031 0.5967 -0.5776 0.9954
-0.8079 0.4948 -0.5470 0.9956
-0.8822 0.0902 -0.5120 0.9959
-0.8821 -0.0683 -0.5108 0.9959
-0.8696 -0.2279 -0.5190 0.9959
-0.8165 -0.4728 -0.5448 0.9957
-0.7998 -0.5643 -0.5651 0.9955
-2.6344 -2.2369 -1.9953 0.9842
-2.1939 -2.6703 -1.9953 0.9842
-1.9463 -2.8558 -1.9953 0.9842
-1.6832 -3.0184 -1.9953 0.9842
