ply
format ascii 1.0
element vertex 1579
property float32 x
property float32 y
property float32 z
property float32 I
end_header
-4.8833 5.8628 -0.0430 0.9699
-5.0683 5.0823 -0.0404 0.9717
-12.2339 -7.6038 -0.0811 0.9440
11.4445 -15.7083 -0.5473 0.9252
12.2428 -13.9823 -0.5233 0.9283
12.7686 -12.1873 -0.4970 0.9318
14.9490 -8.0416 -0.4780 0.9343
3.3024 11.7573 -0.3439 0.9523
-1.3967 16.5349 -0.4673 0.9358
-4.5777 12.4308 -0.3730 0.9484
-6.0705 12.8155 -0.3993 0.9448
-7.6044 12.9225 -0.4222 0.9418
-9.9497 13.8951 -0.4812 0.9339
-4.8814 5.6683 -0.2106 0.9705
-11.4622 -15.3901 -0.5403 0.9261
-2.2995 14.4929 -0.4132 0.9430
-5.8083 12.8021 -0.3958 0.9453
-7.2940 12.8747 -0.4167 0.9425
-10.9727 7.6319 -0.3764 0.9479
-2.6744 -15.0311 -0.7743 0.9407
12.0009 -13.7060 -0.9239 0.9296
12.8757 -10.2550 -0.8348 0.9362
13.8088 -7.4282 -0.7952 0.9391
14.1274 -6.0398 -0.7792 0.9403
14.5516 -4.7333 -0.7760 0.9406
15.2658 -2.0802 -0.7814 0.9402
-2.5539 14.5467 -0.7490 0.9426
-7.5980 12.9116 -0.7598 0.9418
-9.7426 13.6060 -0.8487 0.9352
-12.1664 -7.8421 -0.7341 0.9437
11.4251 -16.2360 -1.0068 0.9236
11.9764 -14.1405 -0.9398 0.9285
12.3509 -12.1828 -0.8798 0.9329
12.9989 -10.7072 -0.8541 0.9348
14.0920 -6.3007 -0.7828 0.9400
14.4750 -4.9730 -0.7762 0.9405
15.2879 -2.3399 -0.7843 0.9399
15.4888 -0.9670 -0.7870 0.9397
3.5374 11.8424 -0.6268 0.9517
-2.2980 14.4834 -0.7437 0.9430
-4.3220 12.3594 -0.6640 0.9489
-5.8039 12.7923 -0.7124 0.9453
-7.2951 12.8765 -0.7505 0.9424
-9.3392 13.5064 -0.8328 0.9363
-4.8845 5.8642 -0.3870 0.9699
-12.2617 -7.6211 -0.7322 0.9438
-12.9740 -7.0787 -1.0837 0.9424
-12.1935 -8.1464 -1.0752 0.9429
-13.4833 -13.0232 -1.3745 0.9276
-12.1606 -14.0558 -1.3628 0.9282
-10.7858 -14.9903 -1.3541 0.9286
-6.3809 -17.2059 -1.3455 0.9290
-2.6638 -14.9715 -1.1150 0.9408
11.9674 -13.6678 -1.3320 0.9297
12.4612 -11.8938 -1.2631 0.9332
12.8399 -10.2265 -1.2036 0.9363
14.2353 -4.6304 -1.0976 0.9417
14.8627 -2.0253 -1.0998 0.9416
16.7355 5.4013 -1.2894 0.9319
17.0607 7.2477 -1.3591 0.9284
-2.5522 14.5372 -1.0822 0.9425
-3.2781 12.1601 -0.9234 0.9507
-6.0610 12.7956 -1.0381 0.9448
-7.5916 12.9007 -1.0975 0.9417
-18.3567 -7.6208 -1.4573 0.9234
-13.7204 -12.8228 -1.3770 0.9274
-6.6618 -17.0957 -1.3453 0.9291
-4.7857 -16.5152 -1.2607 0.9334
-3.0701 -15.7489 -1.1765 0.9377
11.9604 -14.1217 -1.3569 0.9285
12.3996 -12.2309 -1.2770 0.9325
13.5967 -7.6050 -1.1423 0.9394
13.8709 -6.2019 -1.1141 0.9409
14.6687 -3.6115 -1.1077 0.9412
14.8875 -2.2786 -1.1043 0.9414
15.2921 -0.9547 -1.1234 0.9404
15.5905 0.4238 -1.1435 0.9394
16.1228 3.3729 -1.2077 0.9361
3.5552 11.9020 -0.9108 0.9514
-1.1479 16.8972 -1.2418 0.9343
-2.2965 14.4739 -1.0745 0.9429
-4.3189 12.3505 -0.9593 0.9489
-5.7994 12.7825 -1.0292 0.9453
-9.3307 13.4941 -1.2029 0.9363
-10.9308 7.6027 -0.9763 0.9480
-18.5424 -7.3428 -1.4623 0.9231
-17.9434 -2.5536 -1.7400 0.9298
-15.9498 -5.2929 -1.6134 0.9347
-14.6040 -6.3463 -1.5287 0.9380
-11.6992 -7.8162 -1.3508 0.9450
-11.9586 -9.6411 -1.4747 0.9401
-10.9535 -10.5797 -1.4620 0.9406
-9.8947 -11.4368 -1.4519 0.9410
-6.4378 -13.5110 -1.4368 0.9416
-3.9358 -14.4682 -1.4395 0.9415
0.0489 -16.4938 -1.5835 0.9359
3.0434 -16.5353 -1.6141 0.9347
7.6285 -15.7684 -1.6817 0.9320
10.6817 -14.6614 -1.7415 0.9297
11.8971 -13.5875 -1.7338 0.9300
13.3378 -8.7969 -1.5339 0.9378
13.8983 -5.9418 -1.4511 0.9411
14.3079 -4.6540 -1.4445 0.9413
15.2224 -0.6993 -1.4630 0.9406
15.6185 0.6817 -1.5009 0.9391
16.6976 5.3891 -1.6845 0.9319
2.8830 10.2640 -1.0235 0.9581
-1.3737 16.2620 -1.5668 0.9365
-4.5739 12.4204 -1.2707 0.9482
-7.5852 12.8898 -1.4359 0.9417
-9.7245 13.5807 -1.6036 0.9351
-7.7962 7.5646 -1.0429 0.9573
-17.2979 9.4893 -1.8942 0.9238
-19.1697 2.7729 -1.8595 0.9251
-18.0457 -2.2661 -1.7461 0.9295
-17.4469 -3.7999 -1.7143 0.9308
-12.1371 -9.4600 -1.4774 0.9400
-6.6603 -13.4058 -1.4371 0.9416
-5.4335 -13.9436 -1.4367 0.9416
-2.8769 -14.7577 -1.4435 0.9414
-1.6822 -16.2736 -1.5707 0.9364
-0.2219 -16.4690 -1.5812 0.9360
1.2619 -16.5619 -1.5946 0.9354
12.3713 -12.2030 -1.6683 0.9326
13.1679 -8.9990 -1.5312 0.9379
13.6967 -7.6609 -1.5067 0.9389
13.8933 -6.2119 -1.4611 0.9407
14.9044 -2.2812 -1.4476 0.9412
15.8778 1.8614 -1.5348 0.9378
16.2499 3.3995 -1.5938 0.9355
16.8543 5.1353 -1.6915 0.9316
17.6931 9.0946 -1.9099 0.9232
3.5592 11.9154 -1.1939 0.9513
-1.1482 16.9026 -1.6265 0.9342
-2.2623 14.2581 -1.3860 0.9436
-5.6637 12.4833 -1.3160 0.9464
-7.2971 12.8802 -1.4212 0.9422
-10.9239 7.5979 -1.2775 0.9479
-19.2019 3.1007 -1.8674 0.9248
-18.6169 -0.3529 -1.7876 0.9279
-16.8312 -4.9774 -1.6851 0.9319
-14.0968 -7.1001 -1.5153 0.9385
-14.8644 -2.1154 -1.7835 0.9413
-13.8436 -4.5940 -1.7326 0.9429
-10.0486 -8.1013 -1.5332 0.9493
-9.2167 -8.9021 -1.5221 0.9497
-8.3350 -9.6340 -1.5132 0.9500
-7.4076 -10.2952 -1.5066 0.9502
-6.4386 -10.8843 -1.5022 0.9503
-5.4318 -11.3998 -1.5000 0.9504
-1.1927 -13.7443 -1.6388 0.9459
1.2912 -13.9204 -1.6606 0.9452
2.5528 -13.8701 -1.6752 0.9448
3.8211 -13.7244 -1.6923 0.9442
8.8475 -12.1437 -1.7847 0.9413
10.0592 -11.4885 -1.8139 0.9403
12.3708 -9.8529 -1.8786 0.9383
14.7235 -3.3692 -1.7942 0.9410
15.2203 -0.6992 -1.8099 0.9405
15.9446 2.1355 -1.9109 0.9373
16.4255 3.7191 -2.0005 0.9344
16.9144 5.4591 -2.1113 0.9309
2.8824 10.2617 -1.2661 0.9580
1.8730 19.7026 -2.3509 0.9234
0.1031 19.6154 -2.3301 0.9240
-1.3741 16.2669 -1.9392 0.9364
-3.1994 11.8682 -1.4601 0.9517
-4.4873 12.1853 -1.5425 0.9490
-5.9414 12.5430 -1.6486 0.9456
-7.5788 12.8789 -1.7751 0.9416
-4.8611 5.6448 -0.8849 0.9704
-7.7771 7.5461 -1.2872 0.9573
-12.8482 10.4070 -1.9640 0.9356
-13.4431 9.0258 -1.9234 0.9369
-15.6953 2.2703 -1.8838 0.9381
-15.2958 -0.5417 -1.8181 0.9402
-14.4899 -3.1558 -1.7615 0.9420
-13.3282 -5.5332 -1.7142 0.9435
-10.9629 -7.0663 -1.5493 0.9488
-10.1956 -7.9468 -1.5355 0.9493
-9.3734 -8.7602 -1.5240 0.9496
-8.5005 -9.5048 -1.5147 0.9499
-7.5812 -10.1791 -1.5076 0.9502
-5.6194 -11.3107 -1.5002 0.9504
-4.5846 -11.7650 -1.4999 0.9504
-0.1868 -13.8600 -1.6465 0.9457
2.3205 -13.8864 -1.6724 0.9449
4.8578 -13.5333 -1.7080 0.9437
9.8389 -11.6168 -1.8083 0.9405
11.0240 -10.8740 -1.8394 0.9395
12.1682 -10.0229 -1.8726 0.9385
13.0465 -8.9160 -1.8771 0.9383
13.9847 -6.2527 -1.8197 0.9402
14.5953 -3.5934 -1.7855 0.9412
14.8551 -2.2736 -1.7851 0.9413
16.2854 3.4069 -1.9764 0.9352
17.4673 8.9785 -2.3329 0.9239
3.5733 11.9624 -1.4830 0.9510
2.1998 19.6969 -2.3543 0.9233
0.4263 19.6462 -2.3342 0.9239
-2.2112 13.9362 -1.6761 0.9447
-4.2398 12.1244 -1.5257 0.9496
-9.3137 13.4694 -1.9452 0.9362
-11.9663 11.9992 -2.0130 0.9340
-10.8206 7.5261 -1.5657 0.9483
-13.8289 7.8848 -1.8909 0.9379
-15.3554 7.0176 -2.0055 0.9343
-15.6018 5.5039 -1.9652 0.9355
-15.7176 4.0070 -1.9267 0.9368
-15.3502 -0.2910 -1.8237 0.9400
-15.0128 -1.6350 -1.7939 0.9410
-14.5794 -2.9251 -1.7663 0.9419
-14.0568 -4.1569 -1.7412 0.9427
-12.3675 -6.2291 -1.6449 0.9457
-11.0975 -6.8975 -1.5521 0.9487
-12.6773 -1.8042 -1.8143 0.9496
-10.7423 -5.8611 -1.7339 0.9518
-10.0579 -6.7196 -1.7139 0.9523
-8.8718 -7.1525 -1.6147 0.9550
-7.9495 -7.6781 -1.5660 0.9563
-7.1948 -8.3160 -1.5581 0.9565
-3.8200 -10.3006 -1.5566 0.9566
-3.0943 -11.3746 -1.6702 0.9535
-2.0780 -11.6790 -1.6808 0.9532
-1.0295 -11.8637 -1.6873 0.9530
0.0355 -11.9692 -1.6959 0.9528
1.1125 -11.9938 -1.7067 0.9525
2.1968 -11.9359 -1.7196 0.9522
3.2836 -11.7938 -1.7346 0.9517
4.3676 -11.5661 -1.7517 0.9513
8.5577 -9.7736 -1.8406 0.9489
9.5354 -9.1013 -1.8677 0.9481
11.3536 -7.4882 -1.9271 0.9465
12.1767 -6.5502 -1.9591 0.9457
14.1679 -3.2420 -2.0593 0.9430
14.6343 -1.9941 -2.0927 0.9421
15.0048 -0.6893 -2.1283 0.9411
15.2719 0.6666 -2.1659 0.9401
15.4435 3.4968 -2.2436 0.9380
10.2056 13.9407 -2.4480 0.9326
7.6043 15.6271 -2.4624 0.9322
3.5922 9.4474 -1.4321 0.9600
2.8816 10.2589 -1.5098 0.9579
2.9263 15.6972 -2.2624 0.9375
0.0828 15.7676 -2.2341 0.9383
-2.2417 12.7684 -1.8368 0.9490
-4.4840 12.1764 -1.8385 0.9489
-5.9367 12.5332 -1.9650 0.9455
-7.4332 12.6315 -2.0766 0.9425
-7.4476 7.2264 -1.4703 0.9589
-12.5530 6.8863 -2.0287 0.9438
-13.1433 4.3950 -1.9636 0.9456
-13.1897 0.7146 -1.8716 0.9480
-13.0081 -0.4606 -1.8443 0.9488
-12.7366 -1.5994 -1.8188 0.9495
-12.3804 -2.6964 -1.7953 0.9501
-10.8558 -5.6934 -1.7369 0.9517
-10.1920 -6.5694 -1.7181 0.9522
-9.0967 -7.0902 -1.6342 0.9545
-8.0832 -7.5544 -1.5676 0.9563
-7.3366 -8.2035 -1.5594 0.9565
-5.7194 -9.3154 -1.5488 0.9568
-3.2316 -11.1522 -1.6452 0.9542
-2.2684 -11.6366 -1.6798 0.9532
1.9973 -11.9528 -1.7171 0.9522
3.0841 -11.8263 -1.7317 0.9518
4.1690 -11.6144 -1.7484 0.9514
5.2465 -11.3158 -1.7673 0.9509
6.3109 -10.9289 -1.7881 0.9503
7.3557 -10.4530 -1.8110 0.9497
10.3021 -8.4858 -1.8911 0.9475
11.1956 -7.6511 -1.9213 0.9467
13.4872 -4.6337 -2.0206 0.9440
14.0723 -3.4646 -2.0534 0.9431
14.5556 -2.2278 -2.0864 0.9422
14.9443 -0.9330 -2.1216 0.9413
15.2309 0.4140 -2.1589 0.9403
15.4080 1.8063 -2.1981 0.9392
15.4544 3.2330 -2.2371 0.9382
15.3369 4.6729 -2.2717 0.9373
14.6618 7.5364 -2.3358 0.9356
10.4240 13.7585 -2.4458 0.9326
6.4446 16.1446 -2.4630 0.9322
1.7647 15.8009 -2.2527 0.9378
0.3426 15.7869 -2.2374 0.9382
-1.0612 15.6206 -2.2184 0.9387
-2.9752 11.8053 -1.7250 0.9520
-4.2368 12.1156 -1.8186 0.9495
-7.2450 12.7881 -2.0825 0.9423
-9.1096 10.9367 -2.0168 0.9441
-8.0371 6.7318 -1.4855 0.9585
-10.7945 7.5079 -1.8630 0.9483
-12.4531 7.1004 -2.0311 0.9437
-12.8606 5.8775 -2.0035 0.9445
-13.1097 4.6248 -1.9697 0.9454
-13.2812 2.1446 -1.9062 0.9471
-13.2129 0.9340 -1.8768 0.9479
-12.7929 -1.3932 -1.8233 0.9493
-12.4519 -2.4983 -1.7995 0.9500
-10.3245 -6.4170 -1.7224 0.9521
-10.7366 -2.5240 -1.8170 0.9563
-9.9165 -4.3093 -1.7812 0.9571
-6.7898 -7.8479 -1.7096 0.9588
-4.4590 -9.3581 -1.7077 0.9588
0.0312 -10.5139 -1.7321 0.9583
0.9765 -10.5274 -1.7417 0.9580
1.9265 -10.4669 -1.7533 0.9578
2.8764 -10.3313 -1.7667 0.9575
5.6745 -9.4640 -1.8179 0.9563
7.4401 -8.4972 -1.8606 0.9552
9.0668 -7.2214 -1.9095 0.9541
10.4981 -5.6473 -1.9638 0.9528
11.1217 -4.7548 -1.9926 0.9521
11.6735 -3.7971 -2.0223 0.9515
12.1456 -2.7793 -2.0526 0.9507
12.5303 -1.7074 -2.0833 0.9500
12.8200 -0.5889 -2.1142 0.9493
13.0079 0.5677 -2.1450 0.9486
13.0875 1.7529 -2.1753 0.9479
13.0533 2.9556 -2.2048 0.9472
12.9012 4.1638 -2.2333 0.9465
12.2324 6.5442 -2.2854 0.9453
10.3263 9.8111 -2.3465 0.9439
9.4661 10.7612 -2.3611 0.9436
8.5062 11.6193 -2.3723 0.9433
6.3318 13.0121 -2.3839 0.9430
3.5771 9.4075 -1.6580 0.9600
2.8808 10.2561 -1.7550 0.9577
1.2537 13.1878 -2.1823 0.9477
0.0692 13.1680 -2.1693 0.9480
-2.2409 12.7636 -2.1348 0.9488
-3.1950 11.8516 -2.0221 0.9515
-4.3861 11.9104 -2.0909 0.9498
-7.4620 7.2404 -1.7128 0.9587
-11.1048 4.8559 -1.9966 0.9521
-11.3279 3.7880 -1.9677 0.9527
-11.4564 2.7209 -1.9398 0.9534
-11.4933 1.6625 -1.9131 0.9540
-11.4420 0.6199 -1.8877 0.9546
-11.3063 -0.4004 -1.8638 0.9552
-8.9544 -5.7717 -1.7550 0.9577
-8.3459 -6.5051 -1.7432 0.9580
-7.6765 -7.1743 -1.7309 0.9583
-6.9467 -7.7675 -1.7167 0.9586
-6.1188 -8.2157 -1.6876 0.9593
-5.3602 -8.7305 -1.6877 0.9593
-4.6106 -9.2803 -1.7071 0.9589
-3.7727 -9.6817 -1.7118 0.9588
-0.1416 -10.5035 -1.7305 0.9583
1.7518 -10.4836 -1.7510 0.9578
2.7022 -10.3619 -1.7641 0.9575
3.6483 -10.1641 -1.7790 0.9572
4.5852 -9.8894 -1.7958 0.9568
6.4085 -9.1070 -1.8345 0.9559
7.2829 -8.5989 -1.8564 0.9553
9.6780 -6.6139 -1.9311 0.9536
10.3764 -5.8038 -1.9586 0.9529
11.0124 -4.9238 -1.9872 0.9523
11.5779 -3.9777 -2.0168 0.9516
12.0652 -2.9705 -2.0470 0.9509
12.4665 -1.9080 -2.0776 0.9502
13.0812 1.5336 -2.1698 0.9480
13.0684 2.7339 -2.1995 0.9473
12.9381 3.9421 -2.2282 0.9466
12.6873 5.1453 -2.2554 0.9460
12.3143 6.3298 -2.2810 0.9454
11.8191 7.4814 -2.3044 0.9449
8.6895 11.4692 -2.3705 0.9433
6.5437 12.9037 -2.3835 0.9430
4.9560 12.4156 -2.2023 0.9472
3.4264 11.4706 -1.9722 0.9526
2.3754 11.6734 -1.9625 0.9529
-0.8872 13.0605 -2.1565 0.9483
-7.4136 7.4339 -1.7296 0.9583
-10.7150 6.1094 -2.0319 0.9512
-11.0533 5.0515 -2.0021 0.9519
-11.2941 3.9843 -1.9730 0.9526
-11.4398 2.9164 -1.9449 0.9533
-11.4578 0.8099 -1.8923 0.9545
-11.3374 -0.2149 -1.8680 0.9551
-11.1358 -1.2128 -1.8454 0.9556
-10.8574 -2.1783 -1.8243 0.9561
-10.0869 -3.9944 -1.7872 0.9570
-9.0603 -5.6313 -1.7574 0.9577
-9.1911 -3.0501 -1.8202 0.9614
-8.8071 -3.8272 -1.8049 0.9617
-8.3658 -4.5645 -1.7913 0.9620
-6.7358 -6.5059 -1.7602 0.9626
-6.1030 -7.0542 -1.7533 0.9627
-4.7256 -7.9886 -1.7446 0.9629
-1.6293 -9.1573 -1.7483 0.9629
-0.8065 -9.2944 -1.7535 0.9627
0.0278 -9.3666 -1.7606 0.9626
4.2191 -8.7210 -1.8209 0.9613
5.0281 -8.3859 -1.8378 0.9610
5.8153 -7.9818 -1.8562 0.9606
9.2180 -4.9587 -1.9674 0.9583
11.3427 1.5192 -2.1510 0.9545
11.1415 3.5959 -2.2005 0.9535
10.0710 6.6092 -2.2642 0.9522
9.5116 7.5402 -2.2814 0.9518
8.8566 8.4147 -2.2963 0.9515
3.5683 9.3844 -1.8871 0.9600
1.0742 11.2997 -2.1335 0.9549
0.0593 11.2924 -2.1226 0.9551
-0.9445 11.1816 -2.1092 0.9554
-1.9260 10.9705 -2.0936 0.9557
-3.7808 10.2667 -2.0564 0.9564
-4.6358 9.7867 -2.0355 0.9569
-5.4322 9.2311 -2.0132 0.9573
-6.1638 8.6079 -1.9900 0.9578
-4.8570 5.6400 -1.3990 0.9702
-7.4003 7.1805 -1.9381 0.9589
-7.9249 6.4190 -1.9169 0.9593
-9.0276 6.0612 -2.0438 0.9567
-9.4328 5.1746 -2.0223 0.9572
-9.7308 4.2551 -1.9962 0.9577
-9.9441 3.3252 -1.9708 0.9582
-10.0744 2.3926 -1.9463 0.9587
-10.1237 1.4644 -1.9227 0.9592
-10.0944 0.5469 -1.9001 0.9597
-9.9897 -0.3538 -1.8788 0.9601
-9.8126 -1.2322 -1.8589 0.9605
-8.8821 -3.6874 -1.8076 0.9616
-8.4510 -4.4322 -1.7937 0.9619
-7.9657 -5.1344 -1.7813 0.9622
-7.4300 -5.7912 -1.7706 0.9624
-6.2222 -6.9574 -1.7544 0.9627
-4.1261 -8.3050 -1.7431 0.9630
-3.3665 -8.6392 -1.7428 0.9630
-2.5828 -8.9132 -1.7442 0.9629
-1.7789 -9.1252 -1.7475 0.9629
-0.9586 -9.2740 -1.7524 0.9628
-0.1261 -9.3583 -1.7591 0.9626
0.7145 -9.3768 -1.7676 0.9624
1.5588 -9.3285 -1.7777 0.9622
4.0685 -8.7750 -1.8180 0.9614
4.8810 -8.4526 -1.8346 0.9611
5.6726 -8.0612 -1.8527 0.9607
6.4378 -7.6011 -1.8723 0.9603
7.1706 -7.0731 -1.8932 0.9598
7.8652 -6.4785 -1.9153 0.9594
9.1140 -5.0977 -1.9628 0.9584
10.1328 -3.4812 -2.0138 0.9573
10.5395 -2.5948 -2.0402 0.9568
10.8695 -1.6636 -2.0668 0.9562
11.1167 -0.6940 -2.0936 0.9557
11.3093 2.3659 -2.1717 0.9541
11.1770 3.4055 -2.1962 0.9536
10.6038 5.4506 -2.2410 0.9526
10.1630 6.4331 -2.2608 0.9522
8.2549 9.0789 -2.3064 0.9513
7.4420 9.8226 -2.3163 0.9511
6.5536 10.4800 -2.3233 0.9509
5.5998 11.0425 -2.3272 0.9509
4.2409 10.6242 -2.1502 0.9545
3.2708 10.9498 -2.1480 0.9546
2.2734 11.1723 -2.1430 0.9547
1.2608 11.2896 -2.1352 0.9548
0.2452 11.3016 -2.1248 0.9550
-0.7615 11.2096 -2.1118 0.9553
-1.7479 11.0166 -2.0966 0.9556
-4.4829 9.8808 -2.0394 0.9568
-5.2906 9.3384 -2.0174 0.9573
-6.0345 8.7271 -1.9943 0.9577
-6.7093 8.0551 -1.9705 0.9582
-8.9265 6.2086 -2.0438 0.9567
-9.3688 5.3418 -2.0271 0.9571
-10.1206 1.6342 -1.9269 0.9591
-10.1055 0.7143 -1.9042 0.9596
-10.0144 -0.1898 -1.8827 0.9601
-9.3171 -2.7553 -1.8262 0.9612
-8.9550 -3.5462 -1.8104 0.9616
-8.5343 -4.2985 -1.7961 0.9619
-8.5342 -2.0062 -1.8531 0.9648
-7.9142 -3.4392 -1.8240 0.9653
-6.5970 -5.3185 -1.7912 0.9659
-6.0682 -5.8611 -1.7833 0.9661
-4.2610 -7.2031 -1.7690 0.9664
-3.5967 -7.5485 -1.7675 0.9664
-2.9075 -7.8400 -1.7675 0.9664
-1.4688 -8.2552 -1.7724 0.9663
-0.7269 -8.3762 -1.7772 0.9662
0.7828 -8.4396 -1.7916 0.9659
1.5424 -8.3800 -1.8011 0.9658
2.2994 -8.2588 -1.8121 0.9656
3.7879 -7.8298 -1.8386 0.9651
5.2107 -7.1520 -1.8705 0.9645
5.8849 -6.7210 -1.8883 0.9641
7.6946 -5.0750 -1.9484 0.9630
8.2085 -4.4156 -1.9702 0.9626
8.6684 -3.7059 -1.9928 0.9622
9.4040 -2.1519 -2.0392 0.9613
9.6691 -1.3176 -2.0627 0.9609
9.8593 -0.4529 -2.0863 0.9605
9.9703 0.4352 -2.1095 0.9600
9.9404 2.2507 -2.1544 0.9592
9.7943 3.1611 -2.1755 0.9588
9.5591 4.0609 -2.1954 0.9584
8.8224 5.7898 -2.2306 0.9578
7.7449 7.3585 -2.2582 0.9573
7.0888 8.0587 -2.2687 0.9571
3.5490 9.3335 -2.1107 0.9600
1.8239 9.7836 -2.1037 0.9601
-0.8265 9.7848 -2.0757 0.9606
-2.5206 9.3500 -2.0470 0.9612
-3.3189 9.0124 -2.0301 0.9615
-4.0745 8.6018 -2.0119 0.9618
-5.4322 7.5862 -1.9723 0.9626
-4.8577 5.6408 -1.5735 0.9700
-6.5524 6.3578 -1.9299 0.9634
-8.8535 2.9605 -1.9733 0.9626
-9.0228 0.4889 -1.9100 0.9637
-8.9398 -0.3166 -1.8909 0.9641
-8.7911 -1.1039 -1.8729 0.9644
-8.5796 -1.8686 -1.8561 0.9647
-8.3083 -2.6063 -1.8406 0.9650
-7.9804 -3.3130 -1.8265 0.9653
-7.1676 -4.6200 -1.8026 0.9657
-5.0100 -6.7269 -1.7730 0.9663
-4.3800 -7.1339 -1.7695 0.9664
-3.0358 -7.7906 -1.7674 0.9664
-2.3289 -8.0369 -1.7687 0.9664
-0.1136 -8.4312 -1.7823 0.9661
0.6434 -8.4438 -1.7900 0.9660
1.4029 -8.3956 -1.7993 0.9658
2.1608 -8.2857 -1.8100 0.9656
2.9124 -8.1138 -1.8222 0.9654
4.3788 -7.5830 -1.8509 0.9648
5.7633 -6.8047 -1.8849 0.9642
6.4119 -6.3246 -1.9037 0.9638
7.5948 -5.1903 -1.9445 0.9631
8.9999 -3.0920 -2.0115 0.9618
9.6259 -1.4733 -2.0584 0.9610
9.8278 2.9944 -2.1717 0.9589
9.6090 3.8969 -2.1918 0.9585
9.3010 4.7809 -2.2106 0.9581
8.9046 5.6365 -2.2277 0.9578
7.2148 7.9349 -2.2670 0.9571
6.5007 8.5803 -2.2755 0.9569
4.8887 9.6402 -2.2848 0.9568
2.8557 9.5600 -2.1090 0.9600
1.9854 9.7572 -2.1047 0.9601
0.2144 9.8807 -2.0891 0.9604
-0.6663 9.8078 -2.0780 0.9606
-2.3699 9.4036 -2.0499 0.9611
-3.1753 9.0801 -2.0333 0.9614
-5.3169 7.6892 -1.9761 0.9625
-5.9199 7.1073 -1.9552 0.9629
-6.4602 6.4780 -1.9339 0.9633
-8.3152 4.7410 -2.0233 0.9616
-8.6060 3.9331 -2.0001 0.9621
-9.0326 1.4586 -1.9340 0.9633
-9.0307 0.6384 -1.9137 0.9637
-8.9600 -0.1699 -1.8943 0.9640
-7.6729 -3.8646 -1.8160 0.9655
-7.9254 -1.1279 -1.8814 0.9676
-7.1794 -3.1199 -1.8397 0.9683
-6.8292 -3.7261 -1.8284 0.9685
-6.4332 -4.2980 -1.8183 0.9687
-5.0015 -5.7810 -1.7966 0.9691
-4.4538 -6.1899 -1.7922 0.9692
-3.2722 -6.8674 -1.7878 0.9692
-2.6452 -7.1326 -1.7879 0.9692
-1.9986 -7.3467 -1.7894 0.9692
-0.6609 -7.6167 -1.7968 0.9691
0.0228 -7.6703 -1.8027 0.9690
0.7113 -7.6686 -1.8100 0.9689
2.0872 -7.4965 -1.8289 0.9685
2.7662 -7.3254 -1.8403 0.9683
3.4337 -7.0975 -1.8530 0.9681
4.0850 -6.8131 -1.8670 0.9679
4.7157 -6.4726 -1.8821 0.9676
5.8962 -5.6277 -1.9156 0.9671
6.4362 -5.1262 -1.9338 0.9668
7.3914 -3.9761 -1.9725 0.9661
7.7966 -3.3332 -1.9928 0.9658
8.6660 -1.1809 -2.0555 0.9647
8.9150 0.3891 -2.0972 0.9640
8.9298 1.1960 -2.1175 0.9637
8.2143 4.3945 -2.1895 0.9624
7.8409 5.1457 -2.2042 0.9622
7.3930 5.8606 -2.2172 0.9620
5.6416 7.7064 -2.2446 0.9615
4.9406 8.1974 -2.2494 0.9614
4.1926 8.6158 -2.2519 0.9614
3.1456 8.2727 -2.0801 0.9643
2.3910 8.5125 -2.0781 0.9643
1.6172 8.6749 -2.0739 0.9644
0.0460 8.7628 -2.0595 0.9646
-0.7340 8.6891 -2.0494 0.9648
-1.4992 8.5391 -2.0376 0.9650
-2.2418 8.3158 -2.0242 0.9652
-2.9545 8.0229 -2.0094 0.9655
-3.6307 7.6649 -1.9933 0.9658
-4.2645 7.2469 -1.9762 0.9660
-4.8509 6.7745 -1.9582 0.9663
-4.8584 5.6416 -1.7498 0.9699
-5.8648 5.6906 -1.9206 0.9670
-6.7883 5.4984 -2.0531 0.9647
-7.5220 4.1264 -2.0164 0.9654
-7.7799 3.4020 -1.9956 0.9657
-8.0953 1.9226 -1.9555 0.9664
-8.1493 0.4415 -1.9181 0.9670
-8.0822 -0.2862 -1.9007 0.9673
-7.5305 -2.3623 -1.8549 0.9681
-6.5092 -4.1956 -1.8201 0.9687
-6.0781 -4.7375 -1.8112 0.9688
-5.0986 -5.7010 -1.7975 0.9691
-3.3850 -6.8132 -1.7880 0.9692
-2.1186 -7.3112 -1.7890 0.9692
0.5846 -7.6731 -1.8086 0.9689
1.2743 -7.6257 -1.8171 0.9687
1.9615 -7.5218 -1.8269 0.9686
2.6423 -7.3611 -1.8381 0.9684
3.3122 -7.1436 -1.8506 0.9682
3.9668 -6.8695 -1.8643 0.9679
5.7930 -5.7142 -1.9124 0.9671
6.3399 -5.2221 -1.9304 0.9668
7.3114 -4.0894 -1.9689 0.9662
8.3895 -2.0655 -2.0306 0.9651
8.6292 -1.3207 -2.0517 0.9648
8.9042 0.2420 -2.0935 0.9641
8.2745 4.2533 -2.1866 0.9625
7.9152 5.0102 -2.2016 0.9622
7.4807 5.7324 -2.2150 0.9620
6.9744 6.4115 -2.2265 0.9618
6.4006 7.0395 -2.2361 0.9617
5.7647 7.6087 -2.2435 0.9615
5.0731 8.1125 -2.2487 0.9614
4.3331 8.5447 -2.2517 0.9614
3.2906 8.2436 -2.0861 0.9642
2.5313 8.4742 -2.0786 0.9643
0.9771 8.7490 -2.0690 0.9645
0.1903 8.7679 -2.0611 0.9646
-0.5916 8.7084 -2.0514 0.9648
-1.3601 8.5723 -2.0399 0.9650
-2.1074 8.3622 -2.0268 0.9652
-3.5095 7.7353 -1.9963 0.9657
-4.7470 6.8650 -1.9616 0.9663
-5.2914 6.3526 -1.9431 0.9666
-5.7810 5.7969 -1.9241 0.9669
-7.7376 3.5362 -1.9994 0.9656
-8.1483 1.3158 -1.9398 0.9667
-8.1550 0.5765 -1.9214 0.9670
-8.0991 -0.1535 -1.9038 0.9673
-7.2959 -2.8892 -1.8443 0.9683
-6.9633 -3.5072 -1.8324 0.9685
-7.2314 -1.0291 -1.8912 0.9703
-6.8349 -2.2682 -1.8646 0.9707
-6.5635 -2.8522 -1.8529 0.9709
-6.2467 -3.4082 -1.8424 0.9710
-5.8872 -3.9332 -1.8332 0.9712
-5.0517 -4.8793 -1.8185 0.9714
-4.0807 -5.6714 -1.8090 0.9715
-3.5520 -6.0046 -1.8063 0.9716
-2.9987 -6.2935 -1.8050 0.9716
-0.6055 -6.9772 -1.8133 0.9715
0.6512 -7.0204 -1.8255 0.9713
1.2819 -6.9647 -1.8336 0.9712
1.9091 -6.8569 -1.8429 0.9710
3.1371 -6.4846 -1.8651 0.9707
4.3027 -5.9057 -1.8919 0.9703
4.8513 -5.5406 -1.9068 0.9700
5.8584 -4.6660 -1.9392 0.9695
6.7157 -3.6126 -1.9744 0.9690
7.0772 -3.0257 -1.9928 0.9687
8.0535 0.3515 -2.0872 0.9672
7.8641 2.5381 -2.1396 0.9664
6.6418 5.2652 -2.1945 0.9656
5.6441 6.4163 -2.2126 0.9653
5.0621 6.9147 -2.2188 0.9652
4.4321 7.3537 -2.2231 0.9651
3.7606 7.7282 -2.2253 0.9651
2.9764 7.8278 -2.1683 0.9660
2.1449 7.6362 -2.0537 0.9678
1.4510 7.7834 -2.0500 0.9678
0.0413 7.8679 -2.0372 0.9680
-0.6593 7.8056 -2.0282 0.9682
-1.3476 7.6754 -2.0177 0.9683
-2.0164 7.4797 -2.0058 0.9685
-2.6594 7.2215 -1.9925 0.9687
-4.3775 6.1134 -1.9468 0.9694
-4.8591 5.6424 -1.9280 0.9697
-5.4887 5.3257 -1.9802 0.9689
-6.8205 3.7416 -2.0142 0.9684
-7.3611 1.7482 -1.9589 0.9692
-7.4213 1.0735 -1.9415 0.9695
-7.4231 0.4022 -1.9248 0.9698
-7.2575 -0.9114 -1.8939 0.9702
-6.3081 -3.3083 -1.8443 0.9710
-5.9563 -3.8392 -1.8348 0.9711
-5.5641 -4.3368 -1.8266 0.9713
-4.6704 -5.2222 -1.8140 0.9715
-4.1749 -5.6056 -1.8097 0.9715
-2.5311 -6.4953 -1.8049 0.9716
-1.9415 -6.6999 -1.8061 0.9716
-0.7197 -6.9630 -1.8125 0.9715
-0.0946 -7.0196 -1.8177 0.9714
0.5353 -7.0251 -1.8242 0.9713
1.1662 -6.9789 -1.8320 0.9712
1.7943 -6.8806 -1.8411 0.9710
2.4158 -6.7301 -1.8514 0.9709
4.1991 -5.9673 -1.8892 0.9703
4.7525 -5.6113 -1.9039 0.9701
5.2782 -5.2064 -1.9196 0.9698
6.6441 -3.7162 -1.9711 0.9690
7.3351 -2.5200 -2.0082 0.9685
7.8117 -1.1956 -2.0461 0.9679
7.9604 -0.4970 -2.0651 0.9676
8.0451 0.2187 -2.0838 0.9673
8.0134 1.6764 -2.1197 0.9667
7.8937 2.4051 -2.1366 0.9665
7.7039 3.1242 -2.1525 0.9662
7.4443 3.8265 -2.1672 0.9660
7.1161 4.5044 -2.1806 0.9658
5.1727 6.8275 -2.2178 0.9652
3.1761 7.9565 -2.2182 0.9652
2.2707 7.6016 -2.0541 0.9678
0.8769 7.8518 -2.0456 0.9679
-0.5314 7.8222 -2.0300 0.9681
-3.1610 6.9672 -1.9809 0.9689
-3.7424 6.6058 -1.9658 0.9691
-4.2830 6.1940 -1.9498 0.9694
-4.7786 5.7370 -1.9332 0.9696
-6.0819 5.0941 -2.0541 0.9678
-7.3436 1.8721 -1.9622 0.9692
-7.4271 0.5250 -1.9278 0.9697
-7.3822 -0.1399 -1.9117 0.9700
-6.0240 -3.7441 -1.8364 0.9711
-6.0393 -2.6244 -1.8641 0.9730
-5.7504 -3.1374 -1.8544 0.9731
-3.2749 -5.5362 -1.8209 0.9736
-2.2351 -6.0269 -1.8197 0.9736
-1.6885 -6.2070 -1.8210 0.9736
-1.1284 -6.3420 -1.8236 0.9736
-0.5580 -6.4310 -1.8274 0.9735
1.1805 -6.4138 -1.8462 0.9733
2.8851 -5.9636 -1.8754 0.9728
3.4283 -5.7177 -1.8873 0.9727
3.9524 -5.4249 -1.9001 0.9725
4.4535 -5.0863 -1.9138 0.9723
4.9276 -4.7032 -1.9284 0.9721
5.3705 -4.2774 -1.9437 0.9719
5.7784 -3.8111 -1.9596 0.9716
6.1471 -3.3068 -1.9760 0.9714
6.4729 -2.7673 -1.9929 0.9712
7.2758 -0.3342 -2.0619 0.9702
7.1477 2.3069 -2.1262 0.9693
6.9589 2.9563 -2.1404 0.9691
6.3946 4.1966 -2.1653 0.9687
6.0227 4.7744 -2.1757 0.9686
5.5946 5.3155 -2.1847 0.9684
5.1140 5.8138 -2.1920 0.9683
3.4056 6.9986 -2.2034 0.9682
1.3143 7.0504 -2.0303 0.9706
0.0375 7.1312 -2.0188 0.9708
-0.5979 7.0776 -2.0108 0.9709
-1.2225 6.9629 -2.0013 0.9710
-2.4153 6.5587 -1.9786 0.9714
-3.9841 5.5640 -1.9373 0.9720
-4.4307 5.1450 -1.9222 0.9722
-6.8026 0.9840 -1.9458 0.9718
-6.8092 0.3689 -1.9305 0.9720
-6.7632 -0.2395 -1.9158 0.9723
-6.6662 -0.8371 -1.9020 0.9725
-6.0878 -2.5273 -1.8660 0.9730
-5.8065 -3.0453 -1.8561 0.9731
-5.4849 -3.5354 -1.8473 0.9732
-5.1256 -3.9950 -1.8397 0.9733
-4.7312 -4.4217 -1.8333 0.9734
-4.3046 -4.8132 -1.8280 0.9735
-3.3662 -5.4827 -1.8213 0.9736
-2.8602 -5.7570 -1.8198 0.9736
-2.3338 -5.9890 -1.8196 0.9736
-1.7900 -6.1773 -1.8207 0.9736
-0.0872 -6.4688 -1.8314 0.9735
0.4931 -6.4720 -1.8375 0.9734
1.0740 -6.4273 -1.8447 0.9733
1.6519 -6.3343 -1.8532 0.9732
2.2230 -6.1930 -1.8627 0.9730
2.7836 -6.0036 -1.8734 0.9729
5.7063 -3.8997 -1.9566 0.9717
6.0825 -3.4021 -1.9730 0.9714
6.9429 -1.7093 -2.0242 0.9707
7.1285 -1.0910 -2.0415 0.9705
7.2582 -0.4531 -2.0588 0.9702
7.2896 1.5250 -2.1083 0.9695
7.1755 2.1863 -2.1235 0.9693
6.7582 3.4738 -2.1512 0.9689
4.6859 6.1849 -2.1967 0.9683
4.1220 6.5915 -2.2008 0.9682
2.8830 7.2224 -2.2015 0.9682
0.1548 7.1342 -2.0201 0.9708
-1.1088 6.9885 -2.0031 0.9710
-1.7201 6.8253 -1.9926 0.9712
-2.8724 6.3311 -1.9681 0.9715
-3.4032 6.0069 -1.9545 0.9717
-3.8976 5.6367 -1.9400 0.9719
-4.3519 5.2248 -1.9250 0.9721
-5.1403 5.1544 -2.0608 0.9702
-6.6877 -0.7283 -1.9044 0.9724
-6.3654 -1.8824 -1.8791 0.9728
-5.5468 -3.4476 -1.8489 0.9732
-5.9969 -1.4098 -1.8948 0.9745
-5.3221 -2.9038 -1.8648 0.9749
-5.0196 -3.3535 -1.8568 0.9751
-4.3124 -4.1652 -1.8441 0.9752
-3.9128 -4.5226 -1.8394 0.9753
-3.4861 -4.8450 -1.8359 0.9753
-3.0351 -5.1308 -1.8336 0.9754
0.0178 -5.9962 -1.8443 0.9752
0.5556 -5.9895 -1.8502 0.9751
1.0929 -5.9381 -1.8571 0.9750
1.6265 -5.8418 -1.8652 0.9749
2.1527 -5.7006 -1.8742 0.9748
2.6680 -5.5148 -1.8843 0.9747
3.6513 -5.0117 -1.9072 0.9744
4.9528 -3.9448 -1.9475 0.9738
5.3256 -3.5124 -1.9622 0.9737
5.6617 -3.0456 -1.9774 0.9735
6.2104 -2.0201 -2.0087 0.9730
6.4165 -1.4683 -2.0246 0.9728
6.7245 0.9006 -2.0868 0.9720
6.6630 1.5086 -2.1013 0.9718
6.1342 3.2817 -2.1398 0.9713
5.8454 3.8361 -2.1505 0.9712
5.5032 4.3625 -2.1600 0.9710
4.6699 5.3088 -2.1747 0.9708
3.6641 6.0794 -2.1833 0.9707
3.1084 6.3879 -2.1851 0.9707
2.5250 6.6406 -2.1852 0.9707
1.9125 6.8087 -2.1753 0.9708
1.1999 6.4365 -2.0138 0.9730
-1.1174 6.3645 -1.9875 0.9733
-1.6737 6.2085 -1.9778 0.9734
-2.2099 6.0009 -1.9669 0.9736
-2.7211 5.7447 -1.9552 0.9737
-3.6518 5.0998 -1.9293 0.9741
-5.1607 4.1801 -2.0427 0.9726
-5.9431 2.5988 -1.9951 0.9732
-6.1036 2.0410 -1.9795 0.9734
-6.2134 1.4757 -1.9643 0.9736
-6.2730 0.9074 -1.9495 0.9738
-6.2441 -0.2211 -1.9217 0.9742
-6.1579 -0.7733 -1.9089 0.9744
-5.6318 -2.3380 -1.8756 0.9748
-5.3737 -2.8183 -1.8663 0.9749
-4.7467 -3.6997 -1.8511 0.9751
-4.3826 -4.0959 -1.8450 0.9752
-3.9883 -4.4595 -1.8402 0.9753
-1.6590 -5.7250 -1.8333 0.9754
-1.1418 -5.8573 -1.8355 0.9753
-0.6147 -5.9468 -1.8388 0.9753
0.4567 -5.9941 -1.8490 0.9752
0.9944 -5.9509 -1.8558 0.9751
1.5289 -5.8629 -1.8636 0.9750
3.0780 -5.3304 -1.8932 0.9746
3.5642 -5.0651 -1.9050 0.9744
4.0292 -4.7573 -1.9175 0.9742
4.4693 -4.4085 -1.9309 0.9741
4.8807 -4.0202 -1.9449 0.9739
5.2597 -3.5945 -1.9595 0.9737
5.6029 -3.1338 -1.9746 0.9735
5.9065 -2.6409 -1.9900 0.9733
6.5484 -1.0022 -2.0376 0.9727
6.7240 0.1828 -2.0689 0.9722
6.4042 2.5972 -2.1256 0.9715
6.1812 3.1773 -2.1377 0.9713
3.7626 6.0169 -2.1827 0.9707
3.2127 6.3353 -2.1848 0.9707
1.3060 6.4180 -2.0145 0.9730
-0.4402 6.4795 -1.9975 0.9732
-2.6293 5.7953 -1.9574 0.9737
-3.1170 5.5017 -1.9449 0.9739
-3.5720 5.1658 -1.9318 0.9741
-5.0985 4.2704 -2.0456 0.9726
-5.6877 3.2430 -2.0138 0.9730
-5.9081 2.7001 -1.9980 0.9732
-6.0779 2.1441 -1.9823 0.9734
-6.1971 1.5799 -1.9670 0.9736
-6.1773 -0.6727 -1.9112 0.9743
-6.0536 -1.2145 -1.8991 0.9745
-5.8855 -1.7405 -1.8877 0.9746
-5.1349 -3.1915 -1.8596 0.9750
-5.5695 -1.3093 -1.9018 0.9762
-5.4010 -1.7923 -1.8916 0.9763
-5.1933 -2.2568 -1.8822 0.9764
-4.9484 -2.6999 -1.8738 0.9765
-4.6686 -3.1190 -1.8663 0.9766
-4.3559 -3.5117 -1.8599 0.9767
-2.3856 -5.0067 -1.8435 0.9769
0.5168 -5.5721 -1.8601 0.9767
1.0165 -5.5228 -1.8666 0.9766
1.5122 -5.4316 -1.8742 0.9765
2.0008 -5.2985 -1.8826 0.9764
3.3896 -4.6524 -1.9134 0.9760
3.8154 -4.3575 -1.9252 0.9759
4.2169 -4.0249 -1.9377 0.9757
5.2419 -2.8198 -1.9786 0.9752
5.5128 -2.3569 -1.9929 0.9750
5.9303 -1.3570 -2.0222 0.9747
6.0716 -0.8274 -2.0369 0.9745
6.1649 -0.2832 -2.0514 0.9743
6.2084 0.2710 -2.0657 0.9741
6.2005 0.8305 -2.0795 0.9740
5.6450 3.0200 -2.1281 0.9734
5.3771 3.5288 -2.1379 0.9733
5.0605 4.0116 -2.1466 0.9731
4.6977 4.4633 -2.1540 0.9731
3.8467 5.2546 -2.1647 0.9729
3.3664 5.5856 -2.1678 0.9729
2.8557 5.8686 -2.1695 0.9729
2.3197 6.1007 -2.1696 0.9729
0.5697 5.9931 -2.0011 0.9749
0.0315 5.9875 -1.9903 0.9751
-1.5401 5.7131 -1.9669 0.9754
-4.7664 3.8607 -2.0389 0.9745
-5.0559 3.3945 -2.0243 0.9747
-5.8140 0.8410 -1.9527 0.9755
-5.4349 -1.7049 -1.8934 0.9763
-4.9961 -2.6202 -1.8753 0.9765
-4.0779 -3.8111 -1.8553 0.9767
-3.7117 -4.1502 -1.8508 0.9768
-2.9040 -4.7299 -1.8449 0.9769
-2.0136 -5.1673 -1.8434 0.9769
-1.5443 -5.3293 -1.8444 0.9769
-1.0628 -5.4521 -1.8464 0.9769
-0.5721 -5.5346 -1.8495 0.9768
-0.0752 -5.5763 -1.8538 0.9768
1.9118 -5.3260 -1.8810 0.9764
2.3920 -5.1590 -1.8902 0.9763
3.3090 -4.7023 -1.9113 0.9761
4.8731 -3.3303 -1.9620 0.9754
5.1880 -2.9018 -1.9760 0.9753
5.4660 -2.4439 -1.9903 0.9751
5.7041 -1.9597 -2.0048 0.9749
5.8993 -1.4524 -2.0195 0.9747
6.2059 0.7275 -2.0770 0.9740
6.1555 1.2877 -2.0904 0.9738
5.1222 3.9251 -2.1451 0.9732
4.7677 4.3829 -2.1527 0.9731
2.4198 6.0620 -2.1697 0.9729
1.8667 6.2493 -2.1680 0.9729
0.6744 6.0384 -2.0197 0.9747
-3.4896 5.0467 -2.0395 0.9745
-3.9802 4.7785 -2.0672 0.9741
-5.0060 3.4818 -2.0270 0.9746
-5.4658 2.4979 -1.9976 0.9750
-5.7335 -0.6244 -1.9171 0.9760
-5.6213 -1.1278 -1.9058 0.9761
-4.7753 -2.9680 -1.8689 0.9766
-5.3108 -0.7558 -1.9183 0.9775
-5.1938 -1.2210 -1.9080 0.9776
-4.8463 -2.1060 -1.8896 0.9778
-4.3591 -2.9123 -1.8747 0.9780
-4.0681 -3.2797 -1.8687 0.9780
-3.4021 -3.9323 -1.8595 0.9782
-2.2293 -4.6786 -1.8533 0.9782
-1.8021 -4.8592 -1.8533 0.9782
-1.3612 -5.0038 -1.8544 0.9782
-0.4496 -5.1808 -1.8596 0.9782
0.9491 -5.1567 -1.8750 0.9780
1.4116 -5.0701 -1.8821 0.9779
1.8671 -4.9444 -1.8900 0.9778
2.7443 -4.5770 -1.9084 0.9776
3.1596 -4.3368 -1.9188 0.9775
3.5551 -4.0602 -1.9299 0.9773
3.9275 -3.7486 -1.9416 0.9772
4.2736 -3.4038 -1.9538 0.9771
4.5905 -3.0277 -1.9665 0.9769
4.8751 -2.6225 -1.9796 0.9768
5.7461 0.7696 -2.0732 0.9757
5.6877 1.2878 -2.0855 0.9755
5.5808 1.8012 -2.0971 0.9754
4.9727 3.2635 -2.1270 0.9750
3.5541 4.8548 -2.1516 0.9748
3.1100 5.1601 -2.1545 0.9747
2.6380 5.4213 -2.1560 0.9747
2.1429 5.6357 -2.1561 0.9747
1.6294 5.8011 -2.1548 0.9747
1.1014 5.9084 -2.1493 0.9748
-0.4692 5.5539 -1.9932 0.9766
-1.4247 5.2850 -1.9574 0.9770
-1.9071 5.1787 -1.9735 0.9768
-2.9495 5.0122 -2.0797 0.9756
-3.3744 4.7125 -2.0727 0.9757
-3.7630 4.3696 -2.0622 0.9758
-4.4233 3.5829 -2.0356 0.9761
-5.1110 2.2349 -1.9948 0.9766
-5.4120 0.7828 -1.9555 0.9770
-5.3976 -0.1912 -1.9314 0.9773
-4.8843 -2.0277 -1.8912 0.9778
-4.6635 -2.4458 -1.8831 0.9779
-4.4093 -2.8421 -1.8760 0.9780
-3.4676 -3.8773 -1.8602 0.9781
-3.1016 -4.1644 -1.8569 0.9782
-2.7136 -4.4197 -1.8546 0.9782
-2.3060 -4.6416 -1.8534 0.9782
-0.9931 -5.0943 -1.8561 0.9782
-0.5345 -5.1709 -1.8590 0.9782
2.6661 -4.6171 -1.9066 0.9776
3.4840 -4.1136 -1.9278 0.9774
4.5347 -3.0990 -1.9641 0.9769
5.0814 -2.2719 -1.9905 0.9766
5.2999 -1.8208 -2.0040 0.9765
5.2632 2.7054 -2.1162 0.9752
4.7358 3.6291 -2.1336 0.9750
4.4069 4.0512 -2.1407 0.9749
4.0379 4.4410 -2.1464 0.9748
3.1938 5.1072 -2.1541 0.9747
2.7266 5.3767 -2.1559 0.9747
2.2354 5.5999 -2.1562 0.9747
1.7249 5.7745 -2.1552 0.9747
1.1994 5.8943 -2.1510 0.9748
0.6647 5.9515 -2.1415 0.9749
-0.3793 5.5833 -2.0012 0.9765
-0.8620 5.4326 -1.9670 0.9769
-2.3198 5.1130 -2.0078 0.9764
-2.8616 5.0510 -2.0760 0.9756
-3.2984 4.7701 -2.0739 0.9757
-3.6949 4.4360 -2.0646 0.9758
-4.0509 4.0620 -2.0515 0.9759
-4.3692 3.6596 -2.0381 0.9761
-5.2316 1.8456 -1.9839 0.9767
-5.3399 1.3613 -1.9707 0.9769
-5.4266 0.3836 -1.9454 0.9772
-5.3438 -0.5820 -1.9223 0.9774
-5.2413 -1.0516 -1.9117 0.9775
-5.0999 -1.5081 -1.9018 0.9777
-4.7066 -2.3706 -1.8845 0.9779
-4.4584 -2.7710 -1.8772 0.9779
-4.9684 -0.7071 -1.9231 0.9787
-4.7167 -1.5652 -1.9045 0.9789
-4.5382 -1.9721 -1.8962 0.9790
-4.3267 -2.3607 -1.8888 0.9791
-4.0840 -2.7285 -1.8822 0.9792
-3.8121 -3.0734 -1.8765 0.9792
-2.8423 -3.9503 -1.8650 0.9794
-2.4752 -4.1842 -1.8630 0.9794
-2.0901 -4.3865 -1.8621 0.9794
-1.2762 -4.6912 -1.8631 0.9794
-0.4214 -4.8563 -1.8680 0.9793
0.0145 -4.8847 -1.8719 0.9793
0.4523 -4.8764 -1.8768 0.9792
0.8892 -4.8312 -1.8825 0.9792
1.3222 -4.7490 -1.8891 0.9791
2.5682 -4.2833 -1.9139 0.9788
3.9933 -3.1805 -1.9564 0.9784
4.2876 -2.8279 -1.9683 0.9782
5.3269 -0.2447 -2.0435 0.9774
5.0434 2.1425 -2.0999 0.9768
4.6197 3.0318 -2.1175 0.9766
4.3452 3.4446 -2.1249 0.9765
4.0317 3.8306 -2.1312 0.9765
3.6820 4.1858 -2.1363 0.9764
3.2990 4.5065 -2.1403 0.9764
2.8865 4.7893 -2.1429 0.9763
1.9888 5.2305 -2.1444 0.9763
1.0237 5.4915 -2.1407 0.9764
0.5273 5.5467 -2.1352 0.9764
0.0292 5.5490 -2.1265 0.9765
-0.9430 5.3712 -2.0898 0.9769
-2.3306 4.9202 -2.0863 0.9769
-2.7518 4.6763 -2.0793 0.9770
-4.3765 2.9384 -2.0201 0.9777
-2.3016 -0.2890 -0.8889 0.9901
-4.3679 -2.2908 -1.8901 0.9791
-4.1308 -2.6626 -1.8834 0.9792
-3.8642 -3.0118 -1.8775 0.9792
-3.5700 -3.3364 -1.8725 0.9793
-3.2504 -3.6344 -1.8685 0.9793
-0.9310 -4.7758 -1.8646 0.9794
-0.5010 -4.8471 -1.8674 0.9793
0.3719 -4.8807 -1.8758 0.9793
1.6707 -4.6546 -1.8952 0.9790
2.0891 -4.5058 -1.9033 0.9789
2.4952 -4.3211 -1.9122 0.9789
3.2584 -3.8472 -1.9320 0.9786
3.6094 -3.5603 -1.9429 0.9785
4.7422 -2.1203 -1.9907 0.9780
4.9439 -1.6985 -2.0033 0.9779
5.1082 -1.2576 -2.0160 0.9777
5.2329 -0.8009 -2.0287 0.9776
5.3162 -0.3319 -2.0412 0.9774
5.3567 0.1456 -2.0535 0.9773
5.3532 0.6276 -2.0655 0.9772
5.3050 1.1098 -2.0770 0.9771
5.0736 2.0576 -2.0981 0.9768
4.8912 2.5142 -2.1075 0.9767
4.6657 2.9533 -2.1161 0.9766
3.7488 4.1230 -2.1355 0.9764
2.5306 4.9902 -2.1442 0.9763
0.6189 5.5414 -2.1368 0.9764
-1.8047 5.1608 -2.0951 0.9769
-2.2508 4.9610 -2.0877 0.9769
-3.0742 4.4458 -2.0714 0.9771
-3.7728 3.7832 -2.0475 0.9774
-4.0711 3.4099 -2.0351 0.9775
-4.8835 1.7228 -1.9845 0.9781
-2.3037 0.1628 -0.8850 0.9902
-2.2935 -0.0435 -0.8791 0.9902
-2.3026 -0.2508 -0.8876 0.9901
-4.6077 -1.8246 -1.8992 0.9790
-4.1767 -2.5959 -1.8845 0.9792
-2.0966 -0.4929 -0.8815 0.9907
-4.4290 -1.4698 -1.9099 0.9800
-4.0648 -2.2178 -1.8951 0.9802
-3.8376 -2.5639 -1.8889 0.9803
-3.3022 -3.1895 -1.8790 0.9804
-2.9980 -3.4653 -1.8754 0.9804
-2.6723 -3.7140 -1.8726 0.9804
-2.3273 -3.9342 -1.8708 0.9804
-1.9653 -4.1245 -1.8699 0.9804
-1.5887 -4.2838 -1.8699 0.9804
-1.1999 -4.4109 -1.8709 0.9804
-0.3962 -4.5654 -1.8755 0.9804
0.0136 -4.5915 -1.8792 0.9804
0.8355 -4.5397 -1.8892 0.9802
1.2422 -4.4615 -1.8954 0.9802
1.6421 -4.3487 -1.9025 0.9801
2.4108 -4.0208 -1.9187 0.9799
3.4429 -3.2862 -1.9479 0.9796
4.4776 -1.9143 -1.9930 0.9792
4.6583 -1.5152 -2.0048 0.9791
4.8034 -1.0992 -2.0167 0.9789
4.9798 -0.2288 -2.0402 0.9787
5.0082 0.2186 -2.0517 0.9786
4.9408 1.1187 -2.0734 0.9783
3.7585 3.5710 -2.1219 0.9778
3.4319 3.9014 -2.1266 0.9778
2.2815 4.6885 -2.1340 0.9777
1.8532 4.8739 -2.1341 0.9777
1.4093 5.0175 -2.1330 0.9777
0.9541 5.1178 -2.1307 0.9778
-0.4350 5.1500 -2.1153 0.9779
-1.7669 4.7981 -2.0927 0.9781
-3.2737 3.8014 -2.0532 0.9786
-3.8546 3.1222 -2.0302 0.9788
-4.0943 2.7490 -2.0184 0.9789
-4.2982 2.3579 -2.0065 0.9790
-2.0202 -0.2537 -0.8333 0.9912
-2.0866 -0.4544 -0.8740 0.9908
-4.4561 -1.3978 -1.9114 0.9800
-3.8815 -2.5019 -1.8900 0.9802
-3.6316 -2.8306 -1.8845 0.9803
-3.3556 -3.1361 -1.8798 0.9803
-3.0556 -3.4166 -1.8760 0.9804
-2.7337 -3.6704 -1.8731 0.9804
0.3495 -4.5872 -1.8829 0.9803
0.7604 -4.5502 -1.8881 0.9803
1.5693 -4.3720 -1.9011 0.9801
2.3424 -4.0565 -1.9171 0.9800
3.0569 -3.6093 -1.9358 0.9798
4.4407 -1.9855 -1.9908 0.9792
4.6277 -1.5899 -2.0027 0.9791
4.8942 -0.7491 -2.0264 0.9788
4.9701 -0.3103 -2.0381 0.9787
5.0008 0.5863 -2.0607 0.9785
3.4943 3.8430 -2.1258 0.9778
2.7625 4.4175 -2.1324 0.9777
1.0383 5.1027 -2.1312 0.9777
0.5771 5.1671 -2.1279 0.9778
0.1126 5.1872 -2.1235 0.9778
-0.3505 5.1599 -2.1167 0.9779
-1.6889 4.8296 -2.0940 0.9781
-2.1063 4.6425 -2.0865 0.9782
-2.5011 4.4147 -2.0766 0.9783
-3.2139 3.8586 -2.0553 0.9785
-3.5265 3.5362 -2.0440 0.9786
-4.4374 2.0280 -1.9968 0.9791
-4.5739 1.6136 -1.9850 0.9793
-2.1283 0.5426 -0.8989 0.9906
-2.0376 0.3290 -0.8447 0.9911
-1.9951 -0.0378 -0.8167 0.9914
-2.0186 -0.2198 -0.8310 0.9913
-2.0755 -0.4164 -0.8664 0.9909
-4.1409 -2.0857 -1.8976 0.9802
-3.9244 -2.4391 -1.8911 0.9802
-1.4926 -0.4953 -0.6854 0.9932
-4.0141 -1.7443 -1.9074 0.9811
-3.8287 -2.0890 -1.9008 0.9811
-3.6154 -2.4154 -1.8950 0.9812
-3.1120 -3.0058 -1.8856 0.9813
-2.8256 -3.2660 -1.8822 0.9813
-2.5188 -3.5007 -1.8796 0.9814
-1.4976 -4.0381 -1.8770 0.9814
-0.7555 -4.2463 -1.8797 0.9814
-0.3734 -4.3028 -1.8823 0.9813
0.0128 -4.3270 -1.8858 0.9813
0.4006 -4.3183 -1.8901 0.9813
0.7872 -4.2768 -1.8952 0.9812
1.1700 -4.2023 -1.9011 0.9811
1.5464 -4.0952 -1.9078 0.9811
1.9137 -3.9557 -1.9151 0.9810
2.9338 -3.3507 -1.9409 0.9808
3.5192 -2.8029 -1.9608 0.9806
4.0051 -2.1545 -1.9820 0.9804
4.3730 -1.4225 -2.0041 0.9801
4.6698 -0.2145 -2.0373 0.9798
4.6948 0.2049 -2.0480 0.9797
4.6812 0.6270 -2.0584 0.9796
4.5369 1.4643 -2.0777 0.9794
4.4063 1.8719 -2.0864 0.9793
4.2376 2.2670 -2.0945 0.9792
4.0318 2.6459 -2.1017 0.9792
3.7906 3.0049 -2.1081 0.9791
3.5158 3.3404 -2.1135 0.9791
3.2098 3.6490 -2.1180 0.9790
2.1334 4.3842 -2.1249 0.9790
1.3179 4.6919 -2.1239 0.9790
0.4600 4.8392 -2.1185 0.9790
-0.8343 4.7520 -2.1027 0.9792
-1.2515 4.6425 -2.0955 0.9792
-1.6553 4.4950 -2.0876 0.9793
-2.0420 4.3110 -2.0789 0.9794
-3.0687 3.5634 -2.0495 0.9797
-3.6158 2.9287 -2.0279 0.9799
-4.0348 2.2134 -2.0057 0.9801
-1.4923 0.4990 -0.6858 0.9932
-1.4873 0.3532 -0.6662 0.9934
-1.4737 0.2132 -0.6490 0.9935
-1.4449 -0.0512 -0.6301 0.9937
-1.4729 -0.1850 -0.6469 0.9935
-1.4939 -0.4686 -0.6823 0.9932
-3.4218 -2.6670 -1.8907 0.9812
-3.1622 -2.9553 -1.8863 0.9813
-2.8798 -3.2201 -1.8827 0.9813
-2.5766 -3.4596 -1.8800 0.9814
-2.2547 -3.6724 -1.8781 0.9814
-1.5637 -4.0128 -1.8769 0.9814
-1.1991 -4.1381 -1.8777 0.9814
-0.8251 -4.2324 -1.8793 0.9814
-0.4439 -4.2949 -1.8817 0.9813
-0.0583 -4.3250 -1.8851 0.9813
0.7164 -4.2869 -1.8942 0.9812
1.1001 -4.2185 -1.9000 0.9812
3.1835 -3.1402 -1.9488 0.9807
3.7307 -2.5496 -1.9693 0.9805
4.4855 -1.1043 -2.0132 0.9800
4.6866 0.5494 -2.0565 0.9796
4.6412 0.9709 -2.0665 0.9795
4.5566 1.3883 -2.0760 0.9794
4.4332 1.7978 -2.0849 0.9793
4.2714 2.1956 -2.0931 0.9793
4.0723 2.5777 -2.1005 0.9792
3.8375 2.9406 -2.1070 0.9791
3.5687 3.2807 -2.1126 0.9791
2.9387 3.8788 -2.1208 0.9790
2.2050 4.3482 -2.1248 0.9790
0.5397 4.8325 -2.1192 0.9790
-0.3281 4.8303 -2.1100 0.9791
-1.1758 4.6655 -2.0969 0.9792
-1.9724 4.3474 -2.0806 0.9794
-3.0125 3.6167 -2.0514 0.9797
-3.3066 3.3157 -2.0408 0.9798
-3.5707 2.9908 -2.0299 0.9799
-3.8029 2.6451 -2.0189 0.9800
-1.4911 0.3801 -0.6706 0.9933
-1.4609 0.1033 -0.6383 0.9936
-1.4354 -0.0272 -0.6257 0.9938
-1.4710 -0.1602 -0.6449 0.9936
-1.4936 -0.4417 -0.6788 0.9932
-4.0748 -1.6136 -1.9100 0.9811
-3.6969 -2.2978 -1.8970 0.9812
-3.4139 -2.2808 -1.9004 0.9821
-3.1882 -2.5703 -1.8956 0.9821
-2.9393 -2.8390 -1.8916 0.9821
-2.6691 -3.0851 -1.8883 0.9822
-2.0725 -3.5035 -1.8842 0.9822
-1.4148 -3.8150 -1.8834 0.9822
0.3783 -4.0782 -1.8958 0.9821
1.1046 -3.9673 -1.9063 0.9820
1.4597 -3.8654 -1.9126 0.9820
1.8059 -3.7330 -1.9195 0.9819
2.7665 -3.1596 -1.9439 0.9817
3.5573 -2.3462 -1.9725 0.9814
3.7722 -2.0292 -1.9827 0.9813
3.9590 -1.6926 -1.9930 0.9812
4.1160 -1.3388 -2.0035 0.9811
4.3334 -0.5905 -2.0244 0.9809
4.3910 -0.2017 -2.0347 0.9808
4.4132 0.1926 -2.0447 0.9807
4.3991 0.5892 -2.0545 0.9806
4.2610 1.3752 -2.0725 0.9805
4.1373 1.7576 -2.0807 0.9804
3.9780 2.1281 -2.0883 0.9803
3.2986 3.1340 -2.1061 0.9801
1.6253 4.2745 -2.1168 0.9800
1.2361 4.4006 -2.1158 0.9801
0.8369 4.4892 -2.1138 0.9801
-0.3822 4.5245 -2.1018 0.9802
-0.7830 4.4598 -2.0959 0.9802
-1.1748 4.3580 -2.0893 0.9803
-1.5542 4.2204 -2.0818 0.9804
-1.9178 4.0487 -2.0737 0.9804
-2.2625 3.8448 -2.0650 0.9805
-2.5856 3.6109 -2.0558 0.9806
-3.1569 3.0631 -2.0361 0.9808
-1.2479 0.5457 -0.6305 0.9940
-1.2665 0.4235 -0.6181 0.9941
-1.2687 0.0687 -0.5881 0.9944
-1.2752 -0.1601 -0.5949 0.9944
-1.2676 -0.2761 -0.6005 0.9943
-1.2491 -0.5186 -0.6260 0.9941
-3.6487 -1.9136 -1.9071 0.9820
-3.4527 -2.2255 -1.9014 0.9821
-3.2314 -2.5187 -1.8965 0.9821
-2.7202 -3.0416 -1.8888 0.9822
-2.1301 -3.4694 -1.8844 0.9822
-1.1329 -3.9094 -1.8840 0.9822
-0.7794 -3.9983 -1.8856 0.9822
-0.4194 -4.0570 -1.8879 0.9822
0.6764 -4.0480 -1.8997 0.9821
1.0386 -3.9827 -1.9052 0.9820
1.7431 -3.7596 -1.9182 0.9819
2.4041 -3.4164 -1.9337 0.9818
2.7119 -3.2020 -1.9423 0.9817
3.0013 -2.9604 -1.9514 0.9816
3.7348 -2.0889 -1.9808 0.9813
3.9269 -1.7558 -1.9911 0.9812
4.0895 -1.4050 -2.0016 0.9811
4.3190 -0.6610 -2.0225 0.9809
4.3831 -0.2736 -2.0328 0.9808
4.3604 0.9122 -2.0621 0.9806
4.2798 1.3040 -2.0710 0.9805
4.1627 1.6882 -2.0793 0.9804
4.0098 2.0611 -2.0870 0.9803
3.8222 2.4194 -2.0939 0.9803
2.7566 3.6384 -2.1129 0.9801
2.4229 3.8746 -2.1153 0.9801
1.6954 4.2473 -2.1169 0.9800
1.3084 4.3802 -2.1161 0.9801
0.5063 4.5332 -2.1114 0.9801
-0.3079 4.5323 -2.1028 0.9802
-1.1037 4.3794 -2.0905 0.9803
-2.5280 3.6560 -2.0575 0.9806
-2.8315 3.3994 -2.0479 0.9807
-3.1089 3.1175 -2.0380 0.9808
-3.3583 2.8128 -2.0277 0.9809
-3.5779 2.4885 -2.0173 0.9810
-1.2739 0.2057 -0.5973 0.9943
-1.2713 0.0899 -0.5899 0.9944
-1.2626 -0.0239 -0.5846 0.9944
-1.2691 -0.2546 -0.5991 0.9943
-1.2701 -0.3756 -0.6131 0.9942
-1.2543 -0.4967 -0.6245 0.9941
-3.6818 -1.8544 -1.9082 0.9820
-3.4906 -2.1695 -1.9024 0.9820
-1.1438 -0.1628 -0.5667 0.9949
-1.1327 -0.2663 -0.5707 0.9948
-1.1272 -0.3741 -0.5826 0.9947
-1.1040 -0.4797 -0.5904 0.9947
-3.2300 -2.1579 -1.9054 0.9828
-3.0169 -2.4322 -1.9009 0.9829
-2.2523 -3.1302 -1.8916 0.9830
-1.9618 -3.3163 -1.8900 0.9830
-0.6756 -3.7968 -1.8917 0.9830
-0.3338 -3.8468 -1.8941 0.9829
0.3579 -3.8590 -1.9011 0.9829
0.7032 -3.8208 -1.9057 0.9828
1.7077 -3.5300 -1.9235 0.9827
2.0240 -3.3757 -1.9307 0.9826
2.3270 -3.1940 -1.9384 0.9825
2.8835 -2.7522 -1.9553 0.9824
3.5607 -1.9154 -1.9833 0.9821
4.0000 -0.9153 -2.0128 0.9819
4.1388 -0.1901 -2.0323 0.9817
4.1585 0.1815 -2.0418 0.9816
4.0952 0.9272 -2.0596 0.9815
3.8946 1.6545 -2.0756 0.9813
3.5606 2.3367 -2.0891 0.9812
3.1028 2.9480 -2.0994 0.9811
2.5364 3.4647 -2.1063 0.9811
0.4059 4.2696 -2.1038 0.9811
0.0225 4.2811 -2.1000 0.9811
-0.3596 4.2565 -2.0954 0.9811
-1.1056 4.1013 -2.0836 0.9813
-1.4630 3.9727 -2.0766 0.9813
-1.8056 3.8119 -2.0690 0.9814
-2.1308 3.6208 -2.0608 0.9815
-3.2063 2.5971 -2.0240 0.9818
-1.1031 0.4824 -0.5906 0.9947
-1.1268 0.3768 -0.5828 0.9947
-1.1328 0.2690 -0.5711 0.9948
-1.1396 -0.0404 -0.5594 0.9949
-1.1442 -0.1437 -0.5657 0.9949
-1.1295 -0.3543 -0.5807 0.9947
-3.0577 -2.3833 -1.9017 0.9829
-2.3039 -3.0934 -1.8920 0.9830
-1.7138 -3.4494 -1.8893 0.9830
-0.7378 -3.7845 -1.8913 0.9830
-0.3969 -3.8398 -1.8936 0.9829
0.2943 -3.8628 -1.9003 0.9829
0.6400 -3.8300 -1.9048 0.9828
0.9825 -3.7677 -1.9099 0.9828
1.3195 -3.6760 -1.9158 0.9827
2.2725 -3.2294 -1.9370 0.9826
3.0883 -2.5439 -1.9627 0.9823
3.5256 -1.9719 -1.9815 0.9822
3.7059 -1.6569 -1.9912 0.9821
3.9808 -0.9801 -2.0110 0.9819
4.0723 -0.6233 -2.0208 0.9818
4.1315 -0.2579 -2.0305 0.9817
4.1574 0.1130 -2.0401 0.9816
4.1493 0.4864 -2.0493 0.9816
4.1068 0.8591 -2.0581 0.9815
3.9187 1.5892 -2.0742 0.9813
3.7739 1.9399 -2.0814 0.9813
3.3879 2.5962 -2.0937 0.9812
3.1496 2.8954 -2.0986 0.9811
2.8837 3.1716 -2.1027 0.9811
2.5925 3.4218 -2.1058 0.9811
2.2786 3.6437 -2.1080 0.9810
1.5943 3.9940 -2.1095 0.9810
0.8565 4.2092 -2.1070 0.9810
0.0929 4.2817 -2.1008 0.9811
-1.0387 4.1213 -2.0848 0.9812
-1.3984 3.9988 -2.0780 0.9813
-1.7439 3.8438 -2.0705 0.9814
-2.0725 3.6581 -2.0624 0.9814
-2.9300 2.9381 -2.0354 0.9817
-3.5528 2.0257 -2.0061 0.9819
-1.0969 0.5013 -0.5915 0.9946
-1.1238 0.3964 -0.5845 0.9947
-1.1330 0.2888 -0.5735 0.9948
-1.1426 0.1845 -0.5677 0.9949
-1.1432 0.0808 -0.5622 0.9949
-1.1379 -0.2283 -0.5693 0.9948
-1.1313 -0.3345 -0.5787 0.9948
-1.0891 -0.5485 -0.5982 0.9946
-1.0360 -0.1474 -0.5429 0.9953
-1.0231 -0.2405 -0.5453 0.9953
-1.0134 -0.3363 -0.5539 0.9952
-0.9531 -0.5200 -0.5633 0.9951
-2.6371 -2.5471 -1.9020 0.9836
-2.1355 -2.9680 -1.8969 0.9837
-1.8602 -3.1445 -1.8954 0.9837
-0.3165 -3.6472 -1.8992 0.9836
0.0109 -3.6666 -1.9022 0.9836
0.3393 -3.6581 -1.9059 0.9836
0.6665 -3.6214 -1.9102 0.9835
0.9902 -3.5566 -1.9153 0.9835
2.2036 -3.0245 -1.9413 0.9833
2.4750 -2.8267 -1.9491 0.9832
2.7293 -2.6050 -1.9573 0.9831
2.9642 -2.3609 -1.9659 0.9831
3.1776 -2.0958 -1.9747 0.9830
3.3677 -1.8116 -1.9838 0.9829
3.6705 -1.1939 -2.0024 0.9828
3.8600 -0.5260 -2.0210 0.9826
3.9268 0.1714 -2.0391 0.9824
3.8652 0.8752 -2.0559 0.9823
3.6742 1.5609 -2.0710 0.9822
3.3578 2.2036 -2.0836 0.9821
3.1553 2.5013 -2.0889 0.9820
2.9253 2.7794 -2.0933 0.9820
2.6698 3.0351 -2.0970 0.9819
1.7735 3.6446 -2.1027 0.9819
1.4406 3.7886 -2.1028 0.9819
1.0956 3.9007 -2.1019 0.9819
-0.3390 4.0135 -2.0895 0.9820
-0.6948 3.9573 -2.0844 0.9821
-1.0428 3.8684 -2.0785 0.9821
-1.3801 3.7478 -2.0719 0.9822
-2.8102 2.7268 -2.0314 0.9825
-3.0291 2.4536 -2.0223 0.9826
-3.2215 2.1630 -2.0130 0.9827
-1.0130 0.3387 -0.5541 0.9952
-1.0227 0.2429 -0.5453 0.9953
-1.0358 0.1498 -0.5429 0.9953
-1.0370 -0.1302 -0.5422 0.9953
-1.0158 -0.3186 -0.5523 0.9952
-2.4409 -2.7293 -1.8996 0.9836
-1.9118 -3.1139 -1.8956 0.9837
-1.6250 -3.2708 -1.8947 0.9837
-1.3260 -3.4028 -1.8946 0.9837
-1.0168 -3.5089 -1.8952 0.9837
-0.6995 -3.5884 -1.8966 0.9837
0.2790 -3.6617 -1.9051 0.9836
0.6066 -3.6302 -1.9094 0.9836
1.5616 -3.3682 -1.9260 0.9834
2.1520 -3.0582 -1.9400 0.9833
2.9226 -2.4073 -1.9643 0.9831
3.1401 -2.1460 -1.9731 0.9830
3.3346 -1.8651 -1.9821 0.9829
3.6473 -1.2531 -2.0007 0.9828
3.7622 -0.9262 -2.0100 0.9827
3.9025 -0.2436 -2.0285 0.9825
3.9259 0.1067 -2.0374 0.9825
3.8762 0.8109 -2.0544 0.9823
3.8027 1.1586 -2.0623 0.9822
3.6970 1.4993 -2.0697 0.9822
3.3919 2.1470 -2.0826 0.9821
2.9695 2.7299 -2.0926 0.9820
2.7185 2.9899 -2.0964 0.9820
2.4438 3.2255 -2.0994 0.9819
1.8331 3.6147 -2.1026 0.9819
0.8074 3.9676 -2.1005 0.9819
0.4489 4.0191 -2.0980 0.9819
0.0876 4.0366 -2.0946 0.9820
-0.2731 4.0202 -2.0904 0.9820
-0.6299 3.9701 -2.0854 0.9820
-0.9796 3.8871 -2.0796 0.9821
-1.3191 3.7722 -2.0732 0.9822
-1.6455 3.6268 -2.0661 0.9822
-2.2479 3.2508 -2.0504 0.9823
-2.7673 2.7749 -2.0330 0.9825
-2.9909 2.5051 -2.0240 0.9826
-1.0099 0.3563 -0.5556 0.9952
-1.0370 0.0733 -0.5393 0.9953
-1.0376 -0.1130 -0.5415 0.9953
-1.0292 -0.2065 -0.5446 0.9953
-1.0009 -0.3964 -0.5585 0.9952
-0.9687 -0.6021 -0.5917 0.9949
-0.9455 -0.1346 -0.5231 0.9957
-0.9184 -0.3048 -0.5300 0.9956
-0.8782 -0.4792 -0.5479 0.9954
-0.8732 -0.5834 -0.5751 0.9952
-1.7665 -2.9862 -1.9003 0.9843
-1.4919 -3.1311 -1.8996 0.9843
-1.2060 -3.2519 -1.8996 0.9843
-0.6083 -3.4186 -1.9018 0.9843
0.6327 -3.4377 -1.9145 0.9842
0.9399 -3.3758 -1.9192 0.9841
1.5351 -3.1730 -1.9306 0.9841
1.8187 -3.0332 -1.9371 0.9840
2.3471 -2.6806 -1.9514 0.9839
2.8097 -2.2378 -1.9673 0.9838
3.1782 -1.7096 -1.9766 0.9837
1.8727 -0.6091 -1.0786 0.9911
1.8865 -0.4317 -1.0599 0.9912
1.8886 -0.2574 -1.0440 0.9913
1.8829 0.0822 -1.0323 0.9914
1.8865 0.4271 -1.0594 0.9912
1.8734 0.6046 -1.0782 0.9911
3.3373 1.7854 -2.0730 0.9829
2.2583 3.0848 -2.0939 0.9827
1.9751 3.2771 -2.0957 0.9827
1.6750 3.4421 -2.0966 0.9827
1.3606 3.5782 -2.0967 0.9827
-0.3203 3.7919 -2.0842 0.9828
-0.6565 3.7393 -2.0794 0.9828
-1.3045 3.5425 -2.0676 0.9829
-2.8670 2.3222 -2.0207 0.9833
-0.8775 0.4814 -0.5482 0.9954
-0.9015 0.3942 -0.5389 0.9955
-0.9180 0.3070 -0.5302 0.9956
-0.9318 0.2213 -0.5246 0.9956
-0.9453 0.1367 -0.5231 0.9957
-0.9463 0.0513 -0.5190 0.9957
-0.9449 -0.0335 -0.5178 0.9957
-0.9466 -0.1189 -0.5225 0.9957
-0.9357 -0.2038 -0.5245 0.9956
-0.9209 -0.2889 -0.5286 0.9956
-0.9054 -0.3758 -0.5369 0.9955
-0.8833 -0.4632 -0.5463 0.9955
-2.5441 -2.3777 -1.9072 0.9842
-2.3178 -2.5916 -1.9043 0.9843
-2.0744 -2.7852 -1.9021 0.9843
-1.8156 -2.9571 -1.9005 0.9843
-1.5432 -3.1062 -1.8997 0.9843
-1.2593 -3.2316 -1.8996 0.9843
-0.6643 -3.4076 -1.9015 0.9843
-0.3573 -3.4570 -1.9035 0.9843
-0.0469 -3.4801 -1.9062 0.9843
0.2649 -3.4765 -1.9096 0.9842
0.5758 -3.4461 -1.9136 0.9842
1.1865 -3.3056 -1.9236 0.9841
2.0412 -2.9008 -1.9427 0.9840
2.3011 -2.7169 -1.9500 0.9839
2.7704 -2.2819 -1.9658 0.9838
2.9759 -2.0337 -1.9742 0.9837
3.1594 -1.7672 -1.9827 0.9836
1.8878 -0.2889 -1.0460 0.9913
1.8794 0.0511 -1.0297 0.9915
3.2052 2.0289 -2.0776 0.9828
2.8053 2.5789 -2.0871 0.9828
2.5679 2.8243 -2.0907 0.9827
