ply
format ascii 1.0
element vertex 1597
property float32 x
property float32 y
property float32 z
property float32 I
end_header
-3.2838 5.1614 -1.5839 0.9750
-3.9473 5.1281 -1.6755 0.9736
-4.6320 5.0182 -1.7682 0.9722
-5.2758 4.7789 -1.8431 0.9710
-5.7802 4.3636 -1.8752 0.9705
-6.5289 4.0684 -1.9918 0.9687
-7.1608 2.8476 -1.9953 0.9687
-7.5530 1.5290 -1.9953 0.9687
-7.7046 0.1616 -1.9953 0.9687
-7.4720 -1.8855 -1.9953 0.9687
-7.0177 -3.1841 -1.9953 0.9687
-6.3397 -4.3811 -1.9953 0.9687
-5.9233 -4.9296 -1.9953 0.9687
-4.9524 -5.9042 -1.9953 0.9687
-3.8236 -6.6907 -1.9953 0.9687
-3.2111 -7.0053 -1.9953 0.9687
-2.5729 -7.2640 -1.9953 0.9687
-1.9143 -7.4646 -1.9953 0.9687
-0.5565 -7.6860 -1.9953 0.9687
1.4998 -7.5588 -1.9953 0.9687
2.8199 -7.1717 -1.9953 0.9687
3.4488 -6.8913 -1.9953 0.9687
5.1514 -5.7313 -1.9953 0.9687
6.0884 -4.7240 -1.9953 0.9687
6.4857 -4.1616 -1.9953 0.9687
6.8313 -3.5661 -1.9952 0.9687
7.6473 -0.9499 -1.9952 0.9687
7.6944 0.4250 -1.9952 0.9687
7.6257 1.1102 -1.9952 0.9687
5.5310 5.3658 -1.9953 0.9687
3.6134 6.1330 -1.8431 0.9710
3.0515 6.4311 -1.8431 0.9710
2.4652 6.6778 -1.8431 0.9710
1.2386 7.0097 -1.8431 0.9710
0.6079 7.0923 -1.8431 0.9710
-0.0276 7.1183 -1.8431 0.9710
-2.5170 6.6585 -1.8431 0.9710
-3.1013 6.4073 -1.8431 0.9710
-3.0970 5.1646 -1.5592 0.9754
-4.4020 5.0298 -1.7306 0.9728
-5.1475 4.9168 -1.8431 0.9710
-6.7837 3.6562 -1.9953 0.9687
-7.6342 1.0510 -1.9953 0.9687
-7.6976 0.3653 -1.9953 0.9687
-6.8036 -3.6190 -1.9953 0.9687
-6.0516 -4.7711 -1.9953 0.9687
-5.1068 -5.7711 -1.9953 0.9687
-3.9993 -6.5872 -1.9953 0.9687
-0.7596 -7.6686 -1.9953 0.9687
-0.0721 -7.7058 -1.9953 0.9687
1.2993 -7.5958 -1.9953 0.9687
1.9721 -7.4495 -1.9953 0.9687
2.6292 -7.2438 -1.9953 0.9687
3.2653 -6.9801 -1.9953 0.9687
3.8753 -6.6608 -1.9953 0.9687
4.9980 -5.8656 -1.9953 0.9687
6.3734 -4.3318 -1.9953 0.9687
7.4863 -1.8275 -1.9952 0.9687
7.6195 -1.1519 -1.9952 0.9687
7.6919 -0.4672 -1.9952 0.9687
7.7029 0.2213 -1.9952 0.9687
7.6524 0.9080 -1.9952 0.9687
6.5084 4.1261 -1.9953 0.9687
4.6519 6.1415 -1.9948 0.9687
2.0405 6.8196 -1.8431 0.9710
1.4236 6.9745 -1.8431 0.9710
0.1608 7.1165 -1.8431 0.9710
-2.3399 6.7228 -1.8431 0.9710
-3.1356 5.5572 -1.6521 0.9740
-6.6845 3.8344 -1.9953 0.9687
-7.0001 3.2224 -1.9953 0.9687
-7.6037 1.2526 -1.9953 0.9687
-7.5613 -1.4876 -1.9953 0.9687
-7.1763 -2.8084 -1.9953 0.9687
-6.8970 -3.4377 -1.9953 0.9687
-6.1758 -4.6093 -1.9953 0.9687
-5.2578 -5.6340 -1.9953 0.9687
-3.5772 -6.8256 -1.9953 0.9687
-2.9536 -7.1177 -1.9953 0.9687
-2.3065 -7.3529 -1.9953 0.9687
-1.6409 -7.5294 -1.9953 0.9687
1.0978 -7.6276 -1.9953 0.9687
2.4366 -7.3108 -1.9953 0.9687
4.2865 -6.4040 -1.9953 0.9687
7.2249 -2.6805 -1.9952 0.9687
7.6738 0.7052 -1.9952 0.9687
7.5802 1.3874 -1.9952 0.9687
7.4261 2.0585 -1.9952 0.9687
7.2127 2.7131 -1.9952 0.9687
6.9417 3.3461 -1.9952 0.9687
6.6153 3.9524 -1.9953 0.9687
6.2361 4.5271 -1.9953 0.9687
5.3318 5.5639 -1.9953 0.9687
4.8139 6.0176 -1.9953 0.9687
3.3874 6.2607 -1.8431 0.9710
7.0069 0.7605 -1.9952 0.9711
6.9110 1.3829 -1.9952 0.9711
6.7600 1.9943 -1.9952 0.9711
6.5550 2.5897 -1.9953 0.9711
6.2977 3.1645 -1.9953 0.9711
5.9901 3.7140 -1.9953 0.9711
5.6346 4.2339 -1.9953 0.9711
5.2342 4.7200 -1.9953 0.9711
4.7920 5.1683 -1.9953 0.9711
4.3115 5.5755 -1.9953 0.9711
3.0034 5.7763 -1.8431 0.9733
2.4758 6.0213 -1.8431 0.9733
1.9285 6.2183 -1.8431 0.9733
1.3657 6.3656 -1.8431 0.9733
0.7921 6.4621 -1.8431 0.9733
0.2121 6.5070 -1.8431 0.9733
-0.9483 6.4410 -1.8431 0.9733
-1.5195 6.3307 -1.8431 0.9733
-2.0785 6.1698 -1.8431 0.9733
-2.6210 5.9596 -1.8431 0.9733
-3.0598 5.5519 -1.7946 0.9740
-3.4234 5.0789 -1.7339 0.9749
-4.1003 5.0449 -1.8404 0.9733
-6.0783 3.5679 -1.9953 0.9711
-6.9426 1.2151 -1.9953 0.9711
-7.0234 0.5905 -1.9953 0.9711
-7.0480 -0.0387 -1.9953 0.9711
-7.0164 -0.6677 -1.9953 0.9711
-6.9288 -1.2914 -1.9953 0.9711
-6.7859 -1.9047 -1.9953 0.9711
-6.5888 -2.5028 -1.9953 0.9711
-6.0388 -3.6345 -1.9953 0.9711
-5.6902 -4.1590 -1.9953 0.9711
-3.3339 -6.2097 -1.9953 0.9711
-2.1766 -6.7036 -1.9953 0.9711
-1.5695 -6.8711 -1.9953 0.9711
-0.9499 -6.9838 -1.9953 0.9711
-0.3228 -7.0407 -1.9953 0.9711
0.3070 -7.0414 -1.9953 0.9711
0.9343 -6.9859 -1.9953 0.9711
1.5542 -6.8746 -1.9953 0.9711
2.7518 -6.4887 -1.9953 0.9711
4.3726 -5.5277 -1.9953 0.9711
4.8485 -5.1154 -1.9953 0.9711
6.3321 -3.0951 -1.9953 0.9711
6.5831 -2.5175 -1.9953 0.9711
7.0148 -0.6834 -1.9952 0.9711
7.0478 -0.0545 -1.9952 0.9711
7.0246 0.5748 -1.9952 0.9711
6.8104 1.8147 -1.9952 0.9711
6.6212 2.4154 -1.9953 0.9711
6.3792 2.9968 -1.9953 0.9711
5.3573 4.5798 -1.9953 0.9711
4.9271 5.0397 -1.9953 0.9711
4.4576 5.4594 -1.9953 0.9711
3.1552 5.6948 -1.8431 0.9733
1.5337 6.3272 -1.8431 0.9733
0.3842 6.4991 -1.8431 0.9733
-0.7776 6.4639 -1.8431 0.9733
-1.3515 6.3686 -1.8431 0.9733
-3.2550 5.1162 -1.7166 0.9751
-3.8913 5.0554 -1.8060 0.9738
-4.4158 4.7840 -1.8431 0.9733
-4.8611 4.4033 -1.8568 0.9731
-5.6092 4.2345 -1.9896 0.9712
-5.9818 3.7275 -1.9953 0.9711
-6.2907 3.1786 -1.9953 0.9711
-6.5493 2.6044 -1.9953 0.9711
-6.7556 2.0094 -1.9953 0.9711
-7.0466 0.1478 -1.9953 0.9711
-7.0317 -0.4818 -1.9953 0.9711
-6.9606 -1.1076 -1.9953 0.9711
-6.6527 -2.3276 -1.9953 0.9711
-6.4184 -2.9121 -1.9953 0.9711
-4.9934 -4.9742 -1.9953 0.9711
-2.9369 -6.4071 -1.9953 0.9711
-2.3532 -6.6437 -1.9953 0.9711
-1.1344 -6.9562 -1.9953 0.9711
-0.5089 -7.0297 -1.9953 0.9711
0.7491 -7.0082 -1.9953 0.9711
1.3717 -6.9133 -1.9953 0.9711
1.9833 -6.7633 -1.9953 0.9711
4.2248 -5.6415 -1.9953 0.9711
4.7115 -5.2419 -1.9953 0.9711
5.1606 -4.8004 -1.9953 0.9711
6.5142 -2.6908 -1.9953 0.9711
6.7283 -2.0986 -1.9952 0.9711
6.9943 -0.8688 -1.9952 0.9711
6.9745 1.0154 -1.9952 0.9711
6.8560 1.6339 -1.9952 0.9711
6.6828 2.2393 -1.9952 0.9711
6.4563 2.8269 -1.9953 0.9711
5.8507 3.9299 -1.9953 0.9711
4.6004 5.3396 -1.9953 0.9711
4.1047 5.7278 -1.9949 0.9711
2.7909 5.8819 -1.8431 0.9733
1.1328 6.4111 -1.8431 0.9733
-1.7492 6.2711 -1.8431 0.9733
-2.3020 6.0899 -1.8431 0.9733
-3.0970 5.1646 -1.7048 0.9753
-3.6899 5.0655 -1.7741 0.9743
-4.2877 4.8992 -1.8431 0.9733
-5.4645 4.3569 -1.9785 0.9714
-6.4781 2.7768 -1.9953 0.9711
-6.7001 2.1875 -1.9953 0.9711
-6.8686 1.5807 -1.9953 0.9711
-6.9874 -0.9230 -1.9953 0.9711
-6.8771 -1.5430 -1.9953 0.9711
-6.4932 -2.7413 -1.9953 0.9711
-5.9023 -3.8522 -1.9953 0.9711
-5.5349 -4.3637 -1.9953 0.9711
-4.6707 -5.2783 -1.9953 0.9711
-3.1054 -6.3271 -1.9953 0.9711
-2.5282 -6.5791 -1.9953 0.9711
-1.9308 -6.7785 -1.9953 0.9711
-1.3181 -6.9238 -1.9953 0.9711
-0.6948 -7.0138 -1.9953 0.9711
0.5635 -7.0255 -1.9953 0.9711
1.8037 -6.8134 -1.9953 0.9711
2.4047 -6.6252 -1.9953 0.9711
5.0317 -4.9352 -1.9953 0.9711
5.4522 -4.4664 -1.9953 0.9711
6.1595 -3.4257 -1.9953 0.9711
6.4407 -2.8622 -1.9953 0.9711
6.8470 -1.6714 -1.9952 0.9711
6.9689 -1.0535 -1.9952 0.9711
7.0351 -0.4273 -1.9952 0.9711
6.5288 2.6551 -1.9953 0.9711
6.2657 3.2273 -1.9953 0.9711
5.9527 3.7737 -1.9953 0.9711
5.5920 4.2900 -1.9953 0.9711
5.1868 4.7720 -1.9953 0.9711
4.7401 5.2160 -1.9953 0.9711
3.7237 5.9542 -1.9881 0.9712
2.9455 5.8060 -1.8431 0.9733
0.1470 6.5088 -1.8431 0.9733
-0.4346 6.4959 -1.8431 0.9733
-1.0127 6.4312 -1.8431 0.9733
-2.1401 6.1487 -1.8431 0.9733
-2.6804 5.9331 -1.8431 0.9733
-4.5872 4.6199 -1.8431 0.9733
-5.7694 4.0339 -1.9929 0.9712
-6.1137 3.5070 -1.9953 0.9711
-6.4023 2.9472 -1.9953 0.9711
-6.6399 2.3640 -1.9953 0.9711
-6.8244 1.7619 -1.9953 0.9711
-6.9544 1.1457 -1.9953 0.9711
-7.0473 -0.1092 -1.9953 0.9711
-7.0094 -0.7378 -1.9953 0.9711
-6.9156 -1.3605 -1.9953 0.9711
-6.5634 -2.5685 -1.9953 0.9711
-6.3080 -3.1442 -1.9953 0.9711
-5.6484 -4.2157 -1.9953 0.9711
-4.8088 -5.1528 -1.9953 0.9711
-4.3296 -5.5615 -1.9953 0.9711
-3.8159 -5.9258 -1.9953 0.9711
-3.2717 -6.2427 -1.9953 0.9711
-2.1095 -6.7250 -1.9953 0.9711
-1.5008 -6.8865 -1.9953 0.9711
2.8165 -6.4608 -1.9953 0.9711
3.9204 -5.8571 -1.9953 0.9711
4.4276 -5.4837 -1.9953 0.9711
5.3321 -4.6091 -1.9953 0.9711
6.3627 -3.0317 -1.9953 0.9711
6.6079 -2.4516 -1.9953 0.9711
6.8004 -1.8520 -1.9952 0.9711
6.9385 -1.2375 -1.9952 0.9711
7.0480 0.0159 -1.9952 0.9711
4.8765 5.0887 -1.9953 0.9711
4.4028 5.5037 -1.9953 0.9711
3.0981 5.7260 -1.8431 0.9733
2.5747 5.9797 -1.8431 0.9733
1.4704 6.3422 -1.8431 0.9733
0.8984 6.4482 -1.8431 0.9733
6.4491 0.6999 -1.9953 0.9732
6.2219 1.8355 -1.9953 0.9732
6.0332 2.3836 -1.9953 0.9732
5.7963 2.9126 -1.9953 0.9732
5.5132 3.4184 -1.9953 0.9732
4.8175 4.3442 -1.9953 0.9732
4.4105 4.7569 -1.9953 0.9732
3.9683 5.1316 -1.9953 0.9732
3.4907 5.4596 -1.9931 0.9732
2.8606 5.5015 -1.9072 0.9744
2.2787 5.5420 -1.8431 0.9752
1.2570 5.8588 -1.8431 0.9752
0.7290 5.9477 -1.8431 0.9752
0.1952 5.9890 -1.8431 0.9752
-1.3985 5.8267 -1.8431 0.9752
-2.8923 5.2479 -1.8431 0.9752
-3.3492 4.9688 -1.8431 0.9752
-3.7794 4.6500 -1.8431 0.9752
-5.5945 3.2839 -1.9953 0.9732
-6.2646 1.6843 -1.9953 0.9732
-6.3899 1.1184 -1.9953 0.9732
-6.2457 -1.7531 -1.9953 0.9732
-4.4731 -4.6982 -1.9953 0.9732
-3.5664 -5.4187 -1.9953 0.9732
-1.4446 -6.3241 -1.9953 0.9732
-0.2971 -6.4802 -1.9953 0.9732
1.4304 -6.3273 -1.9953 0.9732
2.5327 -5.9721 -1.9953 0.9732
3.5543 -5.4266 -1.9953 0.9732
4.0245 -5.0877 -1.9953 0.9732
4.4626 -4.7081 -1.9953 0.9732
5.2286 -3.8396 -1.9953 0.9732
5.5505 -3.3576 -1.9953 0.9732
6.0590 -2.3171 -1.9953 0.9732
6.2417 -1.7670 -1.9953 0.9732
6.3745 -1.2028 -1.9953 0.9732
6.4564 -0.6290 -1.9953 0.9732
6.4868 -0.0502 -1.9953 0.9732
6.4654 0.5291 -1.9953 0.9732
6.0941 2.2231 -1.9953 0.9732
5.8714 2.7582 -1.9953 0.9732
5.6017 3.2713 -1.9953 0.9732
5.2874 3.7583 -1.9953 0.9732
4.5349 4.6385 -1.9953 0.9732
3.6378 5.3710 -1.9953 0.9732
1.9258 5.6743 -1.8431 0.9752
0.8861 5.9263 -1.8431 0.9752
0.3536 5.9817 -1.8431 0.9752
-0.7157 5.9493 -1.8431 0.9752
-1.2439 5.8617 -1.8431 0.9752
-1.7621 5.7272 -1.8431 0.9752
-2.7524 5.3226 -1.8431 0.9752
-3.2166 5.0557 -1.8431 0.9752
-3.6550 4.7484 -1.8431 0.9752
-4.7912 4.3399 -1.9884 0.9733
-5.1774 3.9085 -1.9953 0.9732
-6.0279 2.3971 -1.9953 0.9732
-6.2178 1.8495 -1.9953 0.9732
-6.3581 1.2871 -1.9953 0.9732
-6.4476 0.7144 -1.9953 0.9732
-6.4856 0.1360 -1.9953 0.9732
-6.4719 -0.4435 -1.9953 0.9732
-6.4065 -1.0194 -1.9953 0.9732
-6.2899 -1.5872 -1.9953 0.9732
-5.6446 -3.1969 -1.9953 0.9732
-5.3367 -3.6880 -1.9953 0.9732
-4.1689 -4.9701 -1.9953 0.9732
-2.7031 -5.8970 -1.9953 0.9732
-2.1659 -6.1148 -1.9953 0.9732
-1.6114 -6.2837 -1.9953 0.9732
-0.4684 -6.4701 -1.9953 0.9732
0.6895 -6.4502 -1.9953 0.9732
1.2625 -6.3629 -1.9953 0.9732
2.3738 -6.0371 -1.9953 0.9732
4.3364 -4.8246 -1.9953 0.9732
4.7498 -4.4182 -1.9953 0.9732
5.1252 -3.9766 -1.9953 0.9732
5.4597 -3.5032 -1.9953 0.9732
5.7506 -3.0019 -1.9953 0.9732
6.4375 -0.7996 -1.9953 0.9732
6.4832 -0.2218 -1.9953 0.9732
6.3103 1.5038 -1.9953 0.9732
5.9423 2.6019 -1.9953 0.9732
5.0406 4.0833 -1.9953 0.9732
4.6560 4.5169 -1.9953 0.9732
4.2342 4.9145 -1.9953 0.9732
2.5687 5.4137 -1.8431 0.9752
1.5652 5.7841 -1.8431 0.9752
0.5117 5.9703 -1.8431 0.9752
-0.5580 5.9661 -1.8431 0.9752
-1.0883 5.8925 -1.8431 0.9752
-1.6100 5.7719 -1.8431 0.9752
-2.6106 5.3936 -1.8431 0.9752
-4.6011 4.3949 -1.9571 0.9737
-5.0670 4.0400 -1.9933 0.9732
-5.7104 3.0778 -1.9953 0.9732
-5.9624 2.5558 -1.9953 0.9732
-6.4798 0.3076 -1.9953 0.9732
-6.4813 -0.2721 -1.9953 0.9732
-6.1776 -1.9795 -1.9953 0.9732
-5.9763 -2.5231 -1.9953 0.9732
-5.4324 -3.5455 -1.9953 0.9732
-4.7154 -4.4550 -1.9953 0.9732
-3.8481 -5.2224 -1.9953 0.9732
-3.3666 -5.5451 -1.9953 0.9732
-2.8581 -5.8235 -1.9953 0.9732
-2.3269 -6.0553 -1.9953 0.9732
-1.7771 -6.2388 -1.9953 0.9732
-1.2131 -6.3726 -1.9953 0.9732
-0.6394 -6.4554 -1.9953 0.9732
-0.0607 -6.4867 -1.9953 0.9732
0.5186 -6.4662 -1.9953 0.9732
2.7487 -5.8758 -1.9953 0.9732
3.2622 -5.6070 -1.9953 0.9732
4.6312 -4.5423 -1.9953 0.9732
5.3651 -3.6465 -1.9953 0.9732
5.6692 -3.1530 -1.9953 0.9732
6.1395 -2.0947 -1.9953 0.9732
6.3019 -1.5383 -1.9953 0.9732
6.3478 1.3363 -1.9953 0.9732
6.2032 1.8976 -1.9953 0.9732
5.4788 3.4733 -1.9953 0.9732
5.1469 3.9485 -1.9953 0.9732
4.7739 4.3921 -1.9953 0.9732
4.3628 4.8007 -1.9953 0.9732
2.2232 5.5644 -1.8431 0.9752
1.1984 5.8711 -1.8431 0.9752
-0.4000 5.9788 -1.8431 0.9752
-0.9321 5.9193 -1.8431 0.9752
-3.3987 4.9351 -1.8431 0.9752
-4.3808 4.4119 -1.9123 0.9743
-4.9532 4.1683 -1.9912 0.9733
-6.4008 1.0545 -1.9953 0.9732
-6.4693 0.4789 -1.9953 0.9732
-6.4863 -0.1005 -1.9953 0.9732
-6.3650 -1.2522 -1.9953 0.9732
-6.2279 -1.8154 -1.9953 0.9732
-5.8058 -2.8939 -1.9953 0.9732
-5.5243 -3.4005 -1.9953 0.9732
-5.1987 -3.8801 -1.9953 0.9732
-4.4259 -4.7426 -1.9953 0.9732
-3.9849 -5.1188 -1.9953 0.9732
-3.5121 -5.4541 -1.9953 0.9732
-2.4863 -5.9916 -1.9953 0.9732
-1.9416 -6.1896 -1.9953 0.9732
0.3473 -6.4777 -1.9953 0.9732
0.9241 -6.4208 -1.9953 0.9732
2.0511 -6.1542 -1.9953 0.9732
4.0751 -5.0472 -1.9953 0.9732
4.5094 -4.6633 -1.9953 0.9732
6.2590 -1.7045 -1.9953 0.9732
6.4624 -0.5645 -1.9953 0.9732
6.4870 0.0146 -1.9953 0.9732
6.4597 0.5936 -1.9953 0.9732
6.3810 1.1679 -1.9953 0.9732
6.2512 1.7328 -1.9953 0.9732
6.0716 2.2839 -1.9953 0.9732
5.2496 3.8109 -1.9953 0.9732
4.4883 4.6836 -1.9953 0.9732
4.0523 5.0656 -1.9953 0.9732
3.0151 5.5725 -1.9488 0.9738
1.8690 5.6932 -1.8431 0.9752
0.8269 5.9348 -1.8431 0.9752
5.9674 0.6477 -1.9953 0.9750
5.7572 1.6984 -1.9953 0.9750
5.5826 2.2056 -1.9953 0.9750
5.1014 3.1631 -1.9953 0.9750
4.7987 3.6058 -1.9953 0.9750
3.6719 4.7483 -1.9953 0.9750
3.2334 5.0572 -1.9953 0.9750
2.7611 5.3102 -1.9895 0.9751
1.1631 5.4212 -1.8431 0.9769
0.1806 5.5417 -1.8431 0.9769
-0.8077 5.4855 -1.8431 0.9769
-2.2321 5.0755 -1.8431 0.9769
-3.6119 4.4439 -1.9036 0.9762
-4.1747 4.2893 -1.9896 0.9751
-4.5538 3.9106 -1.9953 0.9750
-4.8847 3.4885 -1.9953 0.9750
-5.1766 3.0386 -1.9953 0.9750
-5.4272 2.5644 -1.9953 0.9750
-5.6344 2.0697 -1.9953 0.9750
-5.7967 1.5585 -1.9953 0.9750
-5.9127 1.0348 -1.9953 0.9750
-5.9814 0.5029 -1.9953 0.9750
-5.3987 -2.6239 -1.9953 0.9750
-5.1429 -3.0953 -1.9953 0.9750
-1.8537 -5.7091 -1.9953 0.9750
-0.8090 -5.9477 -1.9953 0.9750
-0.2749 -5.9962 -1.9953 0.9750
0.2615 -5.9968 -1.9953 0.9750
0.7957 -5.9495 -1.9953 0.9750
1.3236 -5.8547 -1.9953 0.9750
1.8409 -5.7132 -1.9953 0.9750
2.3436 -5.5261 -1.9953 0.9750
3.7239 -4.7077 -1.9953 0.9750
4.5016 -3.9705 -1.9953 0.9750
4.8381 -3.5528 -1.9953 0.9750
5.1359 -3.1068 -1.9953 0.9750
5.6065 -2.1440 -1.9953 0.9750
5.7755 -1.6350 -1.9953 0.9750
5.8984 -1.1130 -1.9953 0.9750
5.9149 1.0216 -1.9953 0.9750
5.8001 1.5455 -1.9953 0.9750
5.6390 2.0571 -1.9953 0.9750
5.4329 2.5522 -1.9953 0.9750
5.1834 3.0270 -1.9953 0.9750
4.1962 4.2921 -1.9953 0.9750
3.7963 4.6495 -1.9953 0.9750
3.3661 4.9698 -1.9953 0.9750
2.3227 5.2495 -1.9082 0.9761
1.3062 5.3886 -1.8431 0.9769
-0.1682 5.5421 -1.8431 0.9769
-1.1510 5.4239 -1.8431 0.9769
-1.6305 5.2995 -1.8431 0.9769
-2.5469 4.9251 -1.8431 0.9769
-2.9763 4.6781 -1.8431 0.9769
-4.0563 4.3945 -1.9879 0.9751
-4.4457 4.0270 -1.9939 0.9750
-5.0944 3.1745 -1.9953 0.9750
-5.7534 1.7113 -1.9953 0.9750
-5.8832 1.1909 -1.9953 0.9750
-6.0012 0.1258 -1.9953 0.9750
-5.9885 -0.4104 -1.9953 0.9750
-5.9280 -0.9433 -1.9953 0.9750
-5.8201 -1.4686 -1.9953 0.9750
-5.6658 -1.9823 -1.9953 0.9750
-5.4662 -2.4801 -1.9953 0.9750
-4.6138 -3.8397 -1.9953 0.9750
-4.2526 -4.2362 -1.9953 0.9750
-2.0041 -5.6581 -1.9953 0.9750
-0.9661 -5.9242 -1.9953 0.9750
1.6891 -5.7599 -1.9953 0.9750
2.1965 -5.5862 -1.9953 0.9750
2.6864 -5.3678 -1.9953 0.9750
3.5980 -4.8046 -1.9953 0.9750
5.3211 -2.7777 -1.9953 0.9750
5.8669 -1.2687 -1.9953 0.9750
5.9567 -0.7399 -1.9953 0.9750
5.9990 -0.2052 -1.9953 0.9750
5.9933 0.3311 -1.9953 0.9750
5.8390 1.3915 -1.9953 0.9750
5.6914 1.9071 -1.9953 0.9750
5.2616 2.8888 -1.9953 0.9750
4.9828 3.3469 -1.9953 0.9750
3.9180 4.5474 -1.9953 0.9750
3.4964 4.8790 -1.9953 0.9750
0.9648 5.4600 -1.8431 0.9769
0.4735 5.5244 -1.8431 0.9769
-0.0215 5.5446 -1.8431 0.9769
-0.5163 5.5205 -1.8431 0.9769
-1.0071 5.4524 -1.8431 0.9769
-1.9605 5.1865 -1.8431 0.9769
-2.8515 4.7552 -1.8431 0.9769
-4.3336 4.1394 -1.9921 0.9751
-5.2839 2.8479 -1.9953 0.9750
-5.8496 1.3462 -1.9953 0.9750
-5.9958 0.2846 -1.9953 0.9750
-5.9973 -0.2518 -1.9953 0.9750
-5.8569 -1.3141 -1.9953 0.9750
-5.7162 -1.8317 -1.9953 0.9750
-5.5299 -2.3346 -1.9953 0.9750
-5.0267 -3.2807 -1.9953 0.9750
-3.5607 -4.8324 -1.9953 0.9750
-3.1151 -5.1309 -1.9953 0.9750
-2.1531 -5.6031 -1.9953 0.9750
-1.6444 -5.7729 -1.9953 0.9750
-1.1225 -5.8966 -1.9953 0.9750
-0.5917 -5.9733 -1.9953 0.9750
-0.0561 -6.0022 -1.9953 0.9750
0.4799 -5.9833 -1.9953 0.9750
1.5361 -5.8026 -1.9953 0.9750
2.0479 -5.6423 -1.9953 0.9750
3.0186 -5.1882 -1.9953 0.9750
3.4697 -4.8981 -1.9953 0.9750
3.8930 -4.5688 -1.9953 0.9750
5.2457 -2.9175 -1.9953 0.9750
5.6809 -1.9383 -1.9953 0.9750
5.9350 -0.8973 -1.9953 0.9750
5.9914 -0.3639 -1.9953 0.9750
5.8737 1.2365 -1.9953 0.9750
5.7399 1.7559 -1.9953 0.9750
5.0696 3.2139 -1.9953 0.9750
3.1827 5.0892 -1.9953 0.9750
1.1089 5.4326 -1.8431 0.9769
0.6195 5.5099 -1.8431 0.9769
0.1252 5.5432 -1.8431 0.9769
-0.3701 5.5323 -1.8431 0.9769
-0.8624 5.4771 -1.8431 0.9769
-1.8226 5.2365 -1.8431 0.9769
-2.2828 5.0529 -1.8431 0.9769
-3.1448 4.5665 -1.8431 0.9769
-4.5927 3.8649 -1.9953 0.9750
-4.9193 3.4395 -1.9953 0.9750
-5.2067 2.9867 -1.9953 0.9750
-5.4525 2.5100 -1.9953 0.9750
-5.6548 2.0133 -1.9953 0.9750
-5.9696 -0.6283 -1.9953 0.9750
-5.8896 -1.1587 -1.9953 0.9750
-5.7627 -1.6798 -1.9953 0.9750
-5.5898 -2.1875 -1.9953 0.9750
-5.1117 -3.1466 -1.9953 0.9750
-4.4708 -4.0053 -1.9953 0.9750
-4.0954 -4.3884 -1.9953 0.9750
-2.7863 -5.3166 -1.9953 0.9750
-1.7966 -5.7273 -1.9953 0.9750
-0.7496 -5.9555 -1.9953 0.9750
-0.2149 -5.9986 -1.9953 0.9750
0.3214 -5.9939 -1.9953 0.9750
2.8802 -5.2663 -1.9953 0.9750
3.7708 -4.6702 -1.9953 0.9750
4.5411 -3.9253 -1.9953 0.9750
5.1667 -3.0553 -1.9953 0.9750
5.4188 -2.5819 -1.9953 0.9750
6.0025 0.0136 -1.9953 0.9750
5.9044 1.0807 -1.9953 0.9750
5.7843 1.6034 -1.9953 0.9750
5.6181 2.1133 -1.9953 0.9750
5.1529 3.0786 -1.9953 0.9750
4.8575 3.5263 -1.9953 0.9750
3.7496 4.6872 -1.9953 0.9750
3.3163 5.0032 -1.9953 0.9750
2.2479 5.2209 -1.8895 0.9763
0.7651 5.4916 -1.8431 0.9769
5.1892 2.0501 -1.9953 0.9766
4.9854 2.5051 -1.9953 0.9766
3.7935 4.0914 -1.9953 0.9766
3.4132 4.4137 -1.9953 0.9766
3.0056 4.7008 -1.9953 0.9766
2.1137 5.1407 -1.9877 0.9767
1.0811 5.0392 -1.8431 0.9783
0.6270 5.1156 -1.8431 0.9783
0.1679 5.1511 -1.8431 0.9783
-0.2926 5.1456 -1.8431 0.9783
-1.2029 5.0115 -1.8431 0.9783
-1.6454 4.8842 -1.8431 0.9783
-2.0748 4.7178 -1.8431 0.9783
-2.4877 4.5138 -1.8431 0.9783
-3.0088 4.4638 -1.9250 0.9774
-5.4960 0.9619 -1.9953 0.9766
-5.5599 0.4675 -1.9953 0.9766
-5.5794 -0.0307 -1.9953 0.9766
-4.7805 -2.8772 -1.9953 0.9766
-3.4713 -4.3682 -1.9953 0.9766
-2.6392 -4.9158 -1.9953 0.9766
-2.1899 -5.1318 -1.9953 0.9766
-1.7231 -5.3068 -1.9953 0.9766
-0.7520 -5.5286 -1.9953 0.9766
-0.2555 -5.5736 -1.9953 0.9766
1.7112 -5.3106 -1.9953 0.9766
2.1784 -5.1366 -1.9953 0.9766
3.0570 -4.6674 -1.9953 0.9766
3.4615 -4.3759 -1.9953 0.9766
3.8383 -4.0495 -1.9953 0.9766
4.1844 -3.6907 -1.9953 0.9766
4.4971 -3.3024 -1.9953 0.9766
5.2114 -1.9930 -1.9953 0.9766
5.4827 -1.0345 -1.9953 0.9766
5.5532 -0.5410 -1.9953 0.9766
5.5793 -0.0432 -1.9953 0.9766
5.5609 0.4550 -1.9953 0.9766
5.3913 1.4366 -1.9953 0.9766
5.0500 2.3723 -1.9953 0.9766
4.8181 2.8136 -1.9953 0.9766
4.5477 3.2325 -1.9953 0.9766
3.5288 4.3219 -1.9953 0.9766
0.3041 5.1449 -1.8431 0.9783
-1.5156 4.9260 -1.8431 0.9783
-1.9493 4.7710 -1.8431 0.9783
-2.3674 4.5780 -1.8431 0.9783
-2.8474 4.4754 -1.8969 0.9777
-3.3912 4.4057 -1.9882 0.9767
-3.7804 4.0956 -1.9932 0.9766
-4.4531 3.3617 -1.9953 0.9766
-4.9799 2.5163 -1.9953 0.9766
-5.3479 1.5907 -1.9953 0.9766
-5.4686 1.1070 -1.9953 0.9766
-5.5665 -0.3814 -1.9953 0.9766
-5.5102 -0.8768 -1.9953 0.9766
-5.2665 -1.8426 -1.9953 0.9766
-5.0810 -2.3053 -1.9953 0.9766
-4.8549 -2.7497 -1.9953 0.9766
-4.2886 -3.5691 -1.9953 0.9766
-3.1897 -4.5778 -1.9953 0.9766
-1.3860 -5.4046 -1.9953 0.9766
-0.4029 -5.5649 -1.9953 0.9766
2.0417 -5.1925 -1.9953 0.9766
2.4971 -4.9895 -1.9953 0.9766
2.9325 -4.7467 -1.9953 0.9766
3.3445 -4.4660 -1.9953 0.9766
4.0853 -3.8001 -1.9953 0.9766
4.4082 -3.4203 -1.9953 0.9766
4.6959 -3.0131 -1.9953 0.9766
5.1568 -2.1301 -1.9953 0.9766
5.4534 -1.1792 -1.9953 0.9766
5.5762 -0.1908 -1.9953 0.9766
5.5710 0.3077 -1.9953 0.9766
5.2903 1.7727 -1.9953 0.9766
5.1110 2.2379 -1.9953 0.9766
4.3354 3.5120 -1.9953 0.9766
4.0046 3.8850 -1.9953 0.9766
3.6419 4.2270 -1.9953 0.9766
2.8322 4.8072 -1.9953 0.9766
2.3870 5.0306 -1.9912 0.9766
-0.0200 5.1538 -1.8431 0.9783
-0.4799 5.1315 -1.8431 0.9783
-1.3847 4.9644 -1.8431 0.9783
-2.2454 4.6390 -1.8431 0.9783
-3.2392 4.4468 -1.9674 0.9769
-3.6679 4.1910 -1.9916 0.9766
-4.0347 3.8539 -1.9953 0.9766
-5.1282 2.1982 -1.9953 0.9766
-5.5274 0.7610 -1.9953 0.9766
-5.5732 0.2645 -1.9953 0.9766
-5.5746 -0.2340 -1.9953 0.9766
-5.5315 -0.7307 -1.9953 0.9766
-5.3134 -1.7026 -1.9953 0.9766
-5.1402 -2.1701 -1.9953 0.9766
-4.3815 -3.4544 -1.9953 0.9766
-4.0557 -3.8317 -1.9953 0.9766
-3.6975 -4.1785 -1.9953 0.9766
-2.8956 -4.7693 -1.9953 0.9766
-2.4583 -5.0087 -1.9953 0.9766
-1.5285 -5.3660 -1.9953 0.9766
-1.0434 -5.4810 -1.9953 0.9766
-0.5500 -5.5523 -1.9953 0.9766
-0.0522 -5.5792 -1.9953 0.9766
0.9407 -5.4996 -1.9953 0.9766
1.9036 -5.2447 -1.9953 0.9766
2.3642 -5.0538 -1.9953 0.9766
2.8059 -4.8226 -1.9953 0.9766
3.2251 -4.5529 -1.9953 0.9766
3.6187 -4.2468 -1.9953 0.9766
4.8760 -2.7119 -1.9953 0.9766
5.4203 -1.3231 -1.9953 0.9766
5.5168 -0.8340 -1.9953 0.9766
5.5692 -0.3382 -1.9953 0.9766
5.5406 0.6574 -1.9953 0.9766
5.3354 1.6321 -1.9953 0.9766
4.9602 2.5548 -1.9953 0.9766
2.9584 4.7306 -1.9953 0.9766
2.0462 5.1213 -1.9722 0.9768
1.4816 4.9517 -1.8483 0.9783
0.5759 5.1216 -1.8431 0.9783
-1.2529 4.9993 -1.8431 0.9783
-2.5387 4.4994 -1.8475 0.9783
-3.5530 4.2834 -1.9901 0.9766
-4.8398 2.7762 -1.9953 0.9766
-5.2563 1.8714 -1.9953 0.9766
-5.4024 1.3947 -1.9953 0.9766
-5.5643 0.4119 -1.9953 0.9766
-5.5788 -0.0864 -1.9953 0.9766
-5.5489 -0.5841 -1.9953 0.9766
-5.3566 -1.5614 -1.9953 0.9766
-5.1958 -2.0333 -1.9953 0.9766
-4.1557 -3.7231 -1.9953 0.9766
-3.8068 -4.0791 -1.9953 0.9766
-3.4275 -4.4027 -1.9953 0.9766
-3.0208 -4.6910 -1.9953 0.9766
-2.5900 -4.9420 -1.9953 0.9766
-1.6700 -5.3237 -1.9953 0.9766
-0.6967 -5.5358 -1.9953 0.9766
-0.1998 -5.5759 -1.9953 0.9766
1.2847 -5.4296 -1.9953 0.9766
2.6773 -4.8952 -1.9953 0.9766
4.8026 -2.8400 -1.9953 0.9766
5.2310 -1.9408 -1.9953 0.9766
5.4928 -0.9797 -1.9953 0.9766
5.5583 -0.4855 -1.9953 0.9766
5.5794 0.0126 -1.9953 0.9766
5.5560 0.5106 -1.9953 0.9766
5.4883 1.0045 -1.9953 0.9766
4.7897 2.8616 -1.9953 0.9766
3.8604 4.0284 -1.9953 0.9766
2.6547 4.9065 -1.9950 0.9766
1.1640 5.0207 -1.8431 0.9783
0.7112 5.1046 -1.8431 0.9783
5.1762 0.5618 -1.9953 0.9779
5.1054 1.0216 -1.9953 0.9779
4.9938 1.4732 -1.9953 0.9779
4.1625 3.1277 -1.9953 0.9779
3.8667 3.4868 -1.9953 0.9779
2.8047 4.3866 -1.9953 0.9779
2.4019 4.6194 -1.9953 0.9779
1.9770 4.8080 -1.9922 0.9780
1.5315 4.9382 -1.9813 0.9781
1.0332 4.8159 -1.8875 0.9791
-0.2730 4.8017 -1.8431 0.9796
-0.7006 4.7581 -1.8431 0.9796
-1.5355 4.5577 -1.8431 0.9796
-1.9839 4.5110 -1.8885 0.9791
-2.9027 4.3064 -1.9902 0.9780
-3.2826 4.0388 -1.9945 0.9780
-4.2370 3.0260 -1.9953 0.9779
-4.4902 2.6357 -1.9953 0.9779
-4.7076 2.2244 -1.9953 0.9779
-4.8873 1.7953 -1.9953 0.9779
-5.0281 1.3518 -1.9953 0.9779
-5.1287 0.8976 -1.9953 0.9779
-2.2887 -0.0126 -0.8771 0.9902
-2.3039 -0.2192 -0.8869 0.9901
-5.0129 -1.4070 -1.9953 0.9779
-4.8673 -1.8489 -1.9953 0.9779
-4.6828 -2.2760 -1.9953 0.9779
-4.4610 -2.6849 -1.9953 0.9779
-3.5902 -3.7708 -1.9953 0.9779
-3.2393 -4.0763 -1.9953 0.9779
-2.8625 -4.3491 -1.9953 0.9779
-2.4628 -4.5873 -1.9953 0.9779
-1.6079 -4.9521 -1.9953 0.9779
-0.7018 -5.1591 -1.9953 0.9779
0.2268 -5.2017 -1.9953 0.9779
1.1481 -5.0784 -1.9953 0.9779
2.0328 -4.7934 -1.9953 0.9779
2.4526 -4.5928 -1.9953 0.9779
2.8527 -4.3555 -1.9953 0.9779
3.5817 -3.7788 -1.9953 0.9779
4.6777 -2.2864 -1.9953 0.9779
5.0097 -1.4182 -1.9953 0.9779
5.1163 -0.9654 -1.9953 0.9779
5.1820 -0.5048 -1.9953 0.9779
5.2064 -0.0403 -1.9953 0.9779
5.1892 0.4246 -1.9953 0.9779
4.8913 1.7843 -1.9953 0.9779
2.5233 4.5543 -1.9953 0.9779
2.1051 4.7577 -1.9937 0.9780
1.6678 4.9143 -1.9887 0.9780
0.7116 4.7590 -1.8440 0.9796
0.2838 4.8011 -1.8431 0.9796
-0.1459 4.8072 -1.8431 0.9796
-1.0002 4.7136 -1.8465 0.9796
-1.4143 4.5968 -1.8431 0.9796
-2.3212 4.4888 -1.9366 0.9786
-2.7861 4.3792 -1.9890 0.9780
-3.5314 3.8259 -1.9953 0.9779
-3.8589 3.4954 -1.9953 0.9779
-4.4189 2.7536 -1.9953 0.9779
-4.8381 1.9240 -1.9953 0.9779
-4.9905 1.4844 -1.9953 0.9779
-2.3024 0.2551 -0.8877 0.9901
-2.2942 0.0481 -0.8794 0.9902
-2.3036 -0.1578 -0.8848 0.9902
-5.0484 -1.2739 -1.9953 0.9779
-4.9145 -1.7195 -1.9953 0.9779
-4.7414 -2.1513 -1.9953 0.9779
-4.2833 -2.9601 -1.9953 0.9779
-2.9766 -4.2719 -1.9953 0.9779
-2.5834 -4.5205 -1.9953 0.9779
-2.1695 -4.7331 -1.9953 0.9779
-1.7384 -4.9078 -1.9953 0.9779
-1.2934 -5.0434 -1.9953 0.9779
-0.8380 -5.1387 -1.9953 0.9779
2.7365 -4.4295 -1.9953 0.9779
4.1136 -3.1917 -1.9953 0.9779
4.6155 -2.4094 -1.9953 0.9779
4.8122 -1.9878 -1.9953 0.9779
5.2035 -0.1780 -1.9953 0.9779
5.1523 0.7501 -1.9953 0.9779
5.0648 1.2070 -1.9953 0.9779
4.9368 1.6543 -1.9953 0.9779
4.5640 2.5057 -1.9953 0.9779
3.3985 3.9445 -1.9953 0.9779
3.0328 4.2321 -1.9953 0.9779
1.3225 4.8872 -1.9402 0.9785
0.4107 4.7919 -1.8431 0.9796
-0.0186 4.8094 -1.8431 0.9796
-0.8735 4.7294 -1.8431 0.9796
-1.2922 4.6326 -1.8431 0.9796
-2.6678 4.4489 -1.9879 0.9780
-3.0603 4.2013 -1.9919 0.9780
-3.4290 3.9180 -1.9953 0.9779
-4.0710 3.2459 -1.9953 0.9779
-4.5833 2.4703 -1.9953 0.9779
-4.7855 2.0513 -1.9953 0.9779
-4.9495 1.6159 -1.9953 0.9779
-5.0740 1.1677 -1.9953 0.9779
-2.3168 0.3190 -0.8962 0.9900
-2.2997 -0.0965 -0.8821 0.9902
-2.3079 -0.3049 -0.8921 0.9901
-5.0803 -1.1399 -1.9953 0.9779
-4.9583 -1.5888 -1.9953 0.9779
-4.7967 -2.0251 -1.9953 0.9779
-4.5968 -2.4451 -1.9953 0.9779
-4.3601 -2.8457 -1.9953 0.9779
-3.7847 -3.5756 -1.9953 0.9779
-2.7021 -4.4506 -1.9953 0.9779
-1.8676 -4.8601 -1.9953 0.9779
-1.4264 -5.0074 -1.9953 0.9779
-0.9737 -5.1148 -1.9953 0.9779
-0.5132 -5.1812 -1.9953 0.9779
1.3325 -5.0332 -1.9953 0.9779
1.7764 -4.8942 -1.9953 0.9779
2.2062 -4.7161 -1.9953 0.9779
2.6183 -4.5003 -1.9953 0.9779
3.3768 -3.9630 -1.9953 0.9779
4.0277 -3.2994 -1.9953 0.9779
4.3061 -2.9267 -1.9953 0.9779
4.9276 -1.6813 -1.9953 0.9779
5.0581 -1.2347 -1.9953 0.9779
5.1970 -0.3156 -1.9953 0.9779
5.2044 0.1495 -1.9953 0.9779
3.5017 3.8532 -1.9953 0.9779
2.7607 4.4144 -1.9953 0.9779
1.4733 4.9241 -1.9696 0.9782
0.9804 4.8034 -1.8787 0.9792
0.5374 4.7793 -1.8431 0.9796
0.1086 4.8082 -1.8431 0.9796
-2.0364 4.5077 -1.8955 0.9790
-2.9463 4.2782 -1.9906 0.9780
-3.6685 3.6947 -1.9953 0.9779
-3.9837 3.3525 -1.9953 0.9779
-4.2671 2.9835 -1.9953 0.9779
-4.5163 2.5907 -1.9953 0.9779
-4.7296 2.1772 -1.9953 0.9779
-5.0413 1.3015 -1.9953 0.9779
-5.1374 0.8463 -1.9953 0.9779
-2.3039 0.1705 -0.8853 0.9902
-4.8486 -1.8974 -1.9953 0.9779
-3.8780 -3.4743 -1.9953 0.9779
-3.1984 -4.1084 -1.9953 0.9779
-2.8189 -4.3775 -1.9953 0.9779
-2.4169 -4.6117 -1.9953 0.9779
-1.5583 -4.9679 -1.9953 0.9779
-1.1087 -5.0872 -1.9953 0.9779
1.1988 -5.0667 -1.9953 0.9779
1.6463 -4.9395 -1.9953 0.9779
2.0806 -4.7728 -1.9953 0.9779
3.9390 -3.4048 -1.9953 0.9779
4.7003 -2.2396 -1.9953 0.9779
5.0236 -1.3681 -1.9953 0.9779
5.1257 -0.9142 -1.9953 0.9779
5.1868 -0.4530 -1.9953 0.9779
5.2066 0.0118 -1.9953 0.9779
5.1215 0.9374 -1.9953 0.9779
4.8732 1.8331 -1.9953 0.9779
4.4696 2.6704 -1.9953 0.9779
3.9235 3.4226 -1.9953 0.9779
3.6024 3.7592 -1.9953 0.9779
3.2524 4.0657 -1.9953 0.9779
2.8765 4.3398 -1.9953 0.9779
2.4777 4.5793 -1.9953 0.9779
2.0569 4.7771 -1.9932 0.9780
1.6182 4.9294 -1.9882 0.9780
1.1216 4.8378 -1.9031 0.9790
4.7803 0.9565 -1.9953 0.9792
4.6759 1.3794 -1.9953 0.9791
4.5341 1.7913 -1.9953 0.9792
3.8975 2.9286 -1.9953 0.9791
3.3146 3.5749 -1.9953 0.9791
1.8539 4.5088 -1.9953 0.9791
1.4417 4.6486 -1.9919 0.9792
0.5769 4.7068 -1.9408 0.9797
0.1513 4.6435 -1.9015 0.9801
-0.2613 4.5958 -1.8840 0.9803
-0.6721 4.5648 -1.8884 0.9803
-2.7242 4.0416 -1.9948 0.9792
-3.0748 3.7832 -1.9953 0.9791
-3.6985 3.1761 -1.9953 0.9791
-3.9673 2.8333 -1.9953 0.9791
-4.4079 2.0827 -1.9953 0.9791
-4.7079 1.2658 -1.9953 0.9791
-2.0521 0.3592 -0.8526 0.9910
-4.6937 -1.3175 -1.9953 0.9791
-4.5574 -1.7312 -1.9953 0.9791
-4.3847 -2.1311 -1.9953 0.9791
-4.1770 -2.5140 -1.9953 0.9791
-3.9359 -2.8768 -1.9953 0.9791
-3.0330 -3.8167 -1.9953 0.9791
-1.5055 -4.6368 -1.9953 0.9791
-0.6571 -4.8306 -1.9953 0.9791
0.2123 -4.8705 -1.9953 0.9791
0.6463 -4.8321 -1.9953 0.9791
3.0245 -3.8235 -1.9953 0.9791
3.6562 -3.2248 -1.9953 0.9791
3.9294 -2.8855 -1.9953 0.9791
4.6907 -1.3279 -1.9953 0.9792
4.8521 -0.4727 -1.9953 0.9792
4.8750 -0.0377 -1.9953 0.9792
4.8588 0.3976 -1.9953 0.9792
4.8040 0.8297 -1.9953 0.9791
4.5799 1.6707 -1.9953 0.9791
4.4125 2.0729 -1.9953 0.9792
3.7056 3.1678 -1.9953 0.9791
3.4080 3.4860 -1.9953 0.9791
3.0833 3.7762 -1.9953 0.9791
2.7339 4.0364 -1.9953 0.9791
2.3627 4.2643 -1.9953 0.9791
1.9726 4.4582 -1.9953 0.9791
1.1450 4.7239 -1.9893 0.9792
0.7074 4.7310 -1.9578 0.9795
-0.1398 4.6053 -1.8857 0.9803
-0.9652 4.5486 -1.9031 0.9801
-2.6149 4.1100 -1.9937 0.9792
-2.9736 3.8632 -1.9953 0.9791
-3.3066 3.5823 -1.9953 0.9791
-3.6132 3.2729 -1.9953 0.9791
-3.8909 2.9373 -1.9953 0.9791
-2.0767 0.4204 -0.8672 0.9909
-2.0188 0.2237 -0.8313 0.9913
-1.9956 0.0418 -0.8169 0.9914
-2.0104 -0.1378 -0.8247 0.9913
-2.0350 -0.3238 -0.8433 0.9911
-4.4395 -2.0143 -1.9953 0.9791
-4.0106 -2.7716 -1.9953 0.9791
-3.7472 -3.1185 -1.9953 0.9791
-3.1330 -3.7352 -1.9953 0.9791
-2.7871 -3.9999 -1.9953 0.9791
-1.2110 -4.7223 -1.9953 0.9791
-0.7847 -4.8116 -1.9953 0.9791
0.0834 -4.8744 -1.9953 0.9791
0.5182 -4.8475 -1.9953 0.9791
2.5623 -4.1475 -1.9953 0.9791
3.2589 -3.6258 -1.9953 0.9791
4.1031 -2.6328 -1.9953 0.9791
4.3217 -2.2560 -1.9953 0.9791
4.5058 -1.8612 -1.9953 0.9791
4.7650 -1.0304 -1.9953 0.9792
4.8242 0.7023 -1.9953 0.9792
4.6225 1.5489 -1.9953 0.9792
4.4658 1.9554 -1.9953 0.9791
4.2734 2.3462 -1.9953 0.9792
3.7881 3.0687 -1.9953 0.9792
3.4991 3.3946 -1.9953 0.9791
2.4747 4.2003 -1.9953 0.9791
1.6876 4.5713 -1.9943 0.9792
1.2703 4.6944 -1.9904 0.9792
0.8402 4.7555 -1.9764 0.9793
-0.4287 4.5835 -1.8841 0.9803
-1.2643 4.5325 -1.9259 0.9799
-2.8704 3.9405 -1.9953 0.9791
-3.2107 3.6686 -1.9953 0.9791
-3.5253 3.3673 -1.9953 0.9791
-4.2915 2.3130 -1.9953 0.9791
-4.4808 1.9207 -1.9953 0.9791
-4.6344 1.5131 -1.9953 0.9791
-2.0938 0.4819 -0.8794 0.9908
-2.0037 0.0951 -0.8210 0.9914
-2.0205 -0.2669 -0.8341 0.9912
-4.6426 -1.4877 -1.9953 0.9791
-4.4913 -1.8961 -1.9953 0.9791
-4.0825 -2.6645 -1.9953 0.9791
-3.8284 -3.0183 -1.9953 0.9791
-3.5437 -3.3480 -1.9953 0.9791
-3.2307 -3.6509 -1.9953 0.9791
-2.5300 -4.1672 -1.9953 0.9791
-1.7487 -4.5507 -1.9953 0.9791
-0.9117 -4.7891 -1.9953 0.9791
-0.4806 -4.8514 -1.9953 0.9791
-0.0456 -4.8749 -1.9953 0.9791
0.8220 -4.8053 -1.9953 0.9791
1.6633 -4.5826 -1.9953 0.9791
2.4516 -4.2138 -1.9953 0.9791
3.1618 -3.7107 -1.9953 0.9792
3.7713 -3.0894 -1.9953 0.9792
4.0320 -2.7404 -1.9953 0.9791
4.2605 -2.3696 -1.9953 0.9791
4.4550 -1.9798 -1.9953 0.9792
4.6139 -1.5742 -1.9953 0.9792
4.8661 -0.2955 -1.9953 0.9791
4.7705 1.0043 -1.9953 0.9791
4.6619 1.4261 -1.9953 0.9791
4.5159 1.8365 -1.9953 0.9791
4.1174 2.6103 -1.9953 0.9791
3.8680 2.9674 -1.9953 0.9791
3.5877 3.3008 -1.9953 0.9791
3.2787 3.6079 -1.9953 0.9791
2.9436 3.8861 -1.9953 0.9791
2.5850 4.1334 -1.9953 0.9791
2.2057 4.3476 -1.9953 0.9791
1.8088 4.5271 -1.9953 0.9791
1.3948 4.6617 -1.9915 0.9792
0.9714 4.7592 -1.9880 0.9792
-0.3072 4.5925 -1.8838 0.9803
-1.1377 4.5395 -1.9154 0.9800
-2.0005 4.4282 -1.9887 0.9792
-2.3914 4.2383 -1.9917 0.9792
-2.7650 4.0150 -1.9952 0.9792
-3.1125 3.7523 -1.9953 0.9791
-3.4350 3.4595 -1.9953 0.9791
-3.9954 2.7935 -1.9953 0.9791
-4.4284 2.0386 -1.9953 0.9791
-4.5927 1.6352 -1.9953 0.9791
-2.0411 0.3362 -0.8466 0.9911
-2.0119 0.1489 -0.8257 0.9913
-1.9943 -0.0309 -0.8163 0.9914
-2.0181 -0.2124 -0.8305 0.9913
-2.0728 -0.4078 -0.8646 0.9909
-4.5399 -1.7766 -1.9953 0.9791
-4.1516 -2.5556 -1.9953 0.9791
-3.9069 -2.9160 -1.9953 0.9791
-2.9948 -3.8469 -1.9953 0.9791
-2.6394 -4.0988 -1.9953 0.9791
-1.0381 -4.7633 -1.9953 0.9791
-0.1746 -4.8720 -1.9953 0.9791
0.2610 -4.8681 -1.9953 0.9791
0.6945 -4.8254 -1.9953 0.9791
1.1225 -4.7441 -1.9953 0.9791
2.3393 -4.2772 -1.9953 0.9791
3.0625 -3.7931 -1.9953 0.9791
3.3889 -3.5046 -1.9953 0.9791
3.6882 -3.1881 -1.9953 0.9791
4.1963 -2.4815 -1.9953 0.9792
4.4010 -2.0970 -1.9953 0.9792
4.5707 -1.6958 -1.9953 0.9792
4.7994 -0.8560 -1.9953 0.9792
4.8566 -0.4242 -1.9953 0.9791
4.8751 0.0110 -1.9953 0.9792
4.8546 0.4461 -1.9953 0.9792
4.7954 0.8777 -1.9953 0.9791
4.5630 1.7164 -1.9953 0.9792
3.9452 2.8640 -1.9953 0.9791
3.6737 3.2047 -1.9953 0.9792
2.6934 4.0635 -1.9953 0.9791
0.6579 4.7218 -1.9512 0.9796
4.5515 0.4940 -1.9953 0.9802
4.4892 0.8983 -1.9953 0.9802
4.3911 1.2954 -1.9953 0.9802
4.2579 1.6822 -1.9953 0.9802
3.8910 2.4125 -1.9953 0.9802
3.6601 2.7502 -1.9953 0.9802
2.1121 4.0619 -1.9953 0.9802
1.7410 4.2342 -1.9953 0.9802
1.3561 4.3728 -1.9953 0.9802
0.9592 4.4707 -1.9927 0.9802
0.5556 4.5329 -1.9903 0.9803
-0.2590 4.5542 -1.9880 0.9803
-0.6645 4.5134 -1.9882 0.9803
-1.0653 4.4382 -1.9892 0.9803
-3.1932 3.2808 -1.9953 0.9802
-3.9483 2.3176 -1.9953 0.9802
-4.1394 1.9559 -1.9953 0.9802
-1.4916 0.5479 -0.6925 0.9931
-1.4929 0.4014 -0.6737 0.9933
-1.4653 0.1232 -0.6409 0.9936
-1.4266 -0.0078 -0.6217 0.9938
-1.4936 -0.4192 -0.6761 0.9933
-4.1177 -2.0013 -1.9953 0.9802
-3.6962 -2.7016 -1.9953 0.9802
-3.1569 -3.3157 -1.9953 0.9802
-2.8483 -3.5843 -1.9953 0.9802
-2.5170 -3.8242 -1.9953 0.9802
-1.0195 -4.4633 -1.9953 0.9802
-0.6171 -4.5364 -1.9953 0.9802
-0.2096 -4.5734 -1.9953 0.9802
0.6069 -4.5378 -1.9953 0.9802
1.7875 -4.2148 -1.9953 0.9802
2.1566 -4.0385 -1.9953 0.9802
2.5084 -3.8298 -1.9953 0.9802
2.8403 -3.5906 -1.9953 0.9802
3.1495 -3.3228 -1.9953 0.9802
3.4335 -3.0284 -1.9953 0.9802
3.9173 -2.3696 -1.9953 0.9802
4.5781 -0.0354 -1.9953 0.9802
4.3010 1.5690 -1.9953 0.9802
3.4799 2.9749 -1.9953 0.9802
2.8955 3.5463 -1.9953 0.9802
2.2188 4.0046 -1.9953 0.9802
1.8525 4.1867 -1.9953 0.9802
0.6756 4.5181 -1.9910 0.9803
0.2693 4.5562 -1.9891 0.9803
-0.1384 4.5597 -1.9881 0.9803
-0.9473 4.4640 -1.9888 0.9803
-2.7925 3.6279 -1.9953 0.9802
-3.6539 2.7584 -1.9953 0.9802
-1.4744 0.2985 -0.6556 0.9935
-1.4712 0.1630 -0.6451 0.9936
-1.4601 -0.1001 -0.6378 0.9936
-1.4731 -0.2344 -0.6501 0.9935
-1.4906 -0.3761 -0.6700 0.9933
-3.7664 -2.6028 -1.9953 0.9802
-3.2435 -3.2311 -1.9953 0.9802
-2.6173 -3.7563 -1.9953 0.9802
-2.2716 -3.9749 -1.9953 0.9802
-1.9077 -4.1618 -1.9953 0.9802
-1.1373 -4.4347 -1.9953 0.9802
-0.7369 -4.5185 -1.9953 0.9802
-0.3306 -4.5663 -1.9953 0.9802
0.4866 -4.5523 -1.9953 0.9802
0.8910 -4.4907 -1.9953 0.9802
1.2883 -4.3932 -1.9953 0.9802
2.0489 -4.0941 -1.9953 0.9802
2.7443 -3.6645 -1.9953 0.9802
3.0604 -3.4049 -1.9953 0.9802
3.6171 -2.8065 -1.9953 0.9802
3.8532 -2.4724 -1.9953 0.9802
4.3705 -1.3632 -1.9953 0.9802
4.5433 -0.5643 -1.9953 0.9802
4.3410 1.4546 -1.9953 0.9802
4.1938 1.8363 -1.9953 0.9802
3.8004 2.5527 -1.9953 0.9802
2.9883 3.4684 -1.9953 0.9802
2.6668 3.7213 -1.9953 0.9802
1.5855 4.2949 -1.9953 0.9802
0.3899 4.5484 -1.9895 0.9803
-0.8287 4.4868 -1.9885 0.9803
-1.2267 4.3977 -1.9898 0.9803
-2.6956 3.7005 -1.9953 0.9802
-4.0301 2.1721 -1.9953 0.9802
-1.4851 0.3418 -0.6642 0.9934
-1.4733 -0.1946 -0.6477 0.9935
-1.4833 -0.3328 -0.6625 0.9934
-4.2178 -1.7807 -1.9953 0.9802
-3.8339 -2.5023 -1.9953 0.9802
-3.0340 -3.4286 -1.9953 0.9802
-2.3760 -3.9134 -1.9953 0.9802
-1.6422 -4.2735 -1.9953 0.9802
-1.2542 -4.4031 -1.9953 0.9802
-0.8562 -4.4974 -1.9953 0.9802
-0.0428 -4.5780 -1.9953 0.9802
0.3660 -4.5636 -1.9953 0.9802
0.7719 -4.5127 -1.9953 0.9802
1.1716 -4.4258 -1.9953 0.9802
1.9399 -4.1469 -1.9953 0.9802
2.3023 -3.9572 -1.9953 0.9802
3.5416 -2.9012 -1.9953 0.9802
3.7864 -2.5735 -1.9953 0.9802
4.1837 -1.8592 -1.9953 0.9802
4.4476 -1.0857 -1.9953 0.9802
4.5463 0.5394 -1.9953 0.9802
4.3779 1.3392 -1.9953 0.9802
4.2409 1.7247 -1.9953 0.9802
3.0790 3.3881 -1.9953 0.9802
2.4275 3.8816 -1.9953 0.9802
0.9143 4.4794 -1.9924 0.9802
0.5102 4.5377 -1.9901 0.9803
-1.5017 4.3145 -1.9910 0.9803
-1.8829 4.1679 -1.9932 0.9802
-2.2498 3.9873 -1.9953 0.9802
-2.5967 3.7706 -1.9953 0.9802
-3.2258 3.2488 -1.9953 0.9802
-4.1588 1.9144 -1.9953 0.9802
-1.4884 0.5299 -0.6886 0.9931
-1.4916 0.3851 -0.6714 0.9933
-1.4726 0.2426 -0.6504 0.9935
-1.4703 -0.1548 -0.6443 0.9936
-1.4717 -0.2895 -0.6537 0.9935
-4.0975 -2.0423 -1.9953 0.9802
-3.8988 -2.3999 -1.9953 0.9802
-3.6690 -2.7384 -1.9953 0.9802
-3.4099 -3.0549 -1.9953 0.9802
-2.1252 -4.0551 -1.9953 0.9802
-1.7547 -4.2286 -1.9953 0.9802
-1.3703 -4.3684 -1.9953 0.9802
0.2451 -4.5716 -1.9953 0.9802
1.0541 -4.4552 -1.9953 0.9802
1.4476 -4.3433 -1.9953 0.9802
2.1968 -4.0167 -1.9953 0.9802
2.5466 -3.8046 -1.9953 0.9802
3.1825 -3.2911 -1.9953 0.9802
3.7170 -2.6728 -1.9953 0.9802
4.1330 -1.9693 -1.9953 0.9802
4.2923 -1.5925 -1.9953 0.9802
4.4173 -1.2030 -1.9953 0.9802
4.5071 -0.8039 -1.9953 0.9802
4.4118 1.2229 -1.9953 0.9802
4.2851 1.6119 -1.9953 0.9802
4.1241 1.9879 -1.9953 0.9802
2.8599 3.5750 -1.9953 0.9802
2.1786 4.0266 -1.9953 0.9802
1.0329 4.4554 -1.9933 0.9802
0.6303 4.5241 -1.9907 0.9803
4.2853 0.4651 -1.9953 0.9812
4.1343 1.2197 -1.9953 0.9812
4.0089 1.5838 -1.9953 0.9812
2.9307 3.1609 -1.9953 0.9812
2.3220 3.6316 -1.9953 0.9812
1.6392 3.9866 -1.9953 0.9812
0.5242 4.2767 -1.9944 0.9812
0.1402 4.3034 -1.9931 0.9812
-0.2444 4.2973 -1.9924 0.9812
-0.6270 4.2588 -1.9926 0.9812
-1.0051 4.1877 -1.9935 0.9812
-2.0806 3.7751 -1.9953 0.9812
-2.7187 3.3450 -1.9953 0.9812
-3.2702 2.8083 -1.9953 0.9812
-3.5078 2.5052 -1.9953 0.9812
-3.7174 2.1821 -1.9953 0.9812
-1.2674 0.5989 -0.6489 0.9938
-1.2706 0.3416 -0.6090 0.9942
-1.2726 0.2227 -0.5980 0.9943
-1.2729 0.1070 -0.5913 0.9944
-1.2596 -0.0069 -0.5831 0.9945
-1.2739 -0.1212 -0.5923 0.9944
-3.2391 -2.8441 -1.9953 0.9812
-2.9723 -3.1218 -1.9953 0.9812
-2.6818 -3.3747 -1.9953 0.9812
-2.3698 -3.6006 -1.9953 0.9812
-2.0390 -3.7978 -1.9953 0.9812
-1.6918 -3.9646 -1.9953 0.9812
-0.5810 -4.2712 -1.9953 0.9812
-0.1974 -4.3060 -1.9953 0.9812
0.1878 -4.3064 -1.9953 0.9812
0.9505 -4.2044 -1.9953 0.9812
1.3220 -4.1028 -1.9953 0.9812
1.6830 -3.9684 -1.9953 0.9812
2.6742 -3.3807 -1.9953 0.9812
2.9653 -3.1285 -1.9953 0.9812
3.2327 -2.8513 -1.9953 0.9812
3.6882 -2.2310 -1.9953 0.9812
3.8726 -1.8929 -1.9953 0.9812
4.0261 -1.5397 -1.9953 0.9812
4.1475 -1.1742 -1.9953 0.9812
4.2357 -0.7992 -1.9953 0.9812
4.2902 -0.4180 -1.9953 0.9812
4.1651 1.1099 -1.9953 0.9812
3.9014 1.8328 -1.9953 0.9812
3.7223 2.1737 -1.9953 0.9812
3.5134 2.4973 -1.9953 0.9812
3.0133 3.0822 -1.9953 0.9812
2.4172 3.5689 -1.9953 0.9812
2.0890 3.7704 -1.9953 0.9812
1.0154 4.1892 -1.9953 0.9812
0.6374 4.2627 -1.9951 0.9812
-0.1306 4.3024 -1.9924 0.9812
-1.2671 4.1183 -1.9945 0.9812
-1.6303 3.9903 -1.9953 0.9812
-2.6292 3.4158 -1.9953 0.9812
-2.9237 3.1674 -1.9953 0.9812
-3.6584 2.2797 -1.9953 0.9812
-1.2687 0.2568 -0.5992 0.9943
-1.2748 0.1412 -0.5937 0.9944
-1.2630 0.0265 -0.5848 0.9944
-1.2710 -0.0871 -0.5897 0.9944
-1.2741 -0.2027 -0.5972 0.9943
-1.2641 -0.4423 -0.6199 0.9941
-1.2573 -0.5705 -0.6391 0.9939
-3.7507 -2.1243 -1.9953 0.9812
-2.7701 -3.3026 -1.9953 0.9812
-1.7961 -3.9185 -1.9953 0.9812
0.8389 -4.2281 -1.9953 0.9812
1.5774 -4.0115 -1.9953 0.9812
1.9291 -3.8547 -1.9953 0.9812
2.2655 -3.6671 -1.9953 0.9812
2.5838 -3.4502 -1.9953 0.9812
3.1561 -2.9358 -1.9953 0.9812
3.4056 -2.6424 -1.9953 0.9812
3.6279 -2.3278 -1.9953 0.9812
3.9840 -1.6457 -1.9953 0.9812
4.1150 -1.2835 -1.9953 0.9812
4.2131 -0.9110 -1.9953 0.9812
4.3080 -0.1474 -1.9953 0.9812
4.1931 0.9993 -1.9953 0.9812
4.0871 1.3695 -1.9953 0.9812
3.9486 1.7289 -1.9953 0.9812
3.0938 3.0014 -1.9953 0.9812
1.8478 3.8943 -1.9953 0.9812
1.4928 4.0437 -1.9953 0.9812
1.1259 4.1608 -1.9953 0.9812
0.7500 4.2447 -1.9953 0.9812
0.3679 4.2916 -1.9938 0.9812
-0.4008 4.2856 -1.9924 0.9812
-0.7820 4.2336 -1.9928 0.9812
-1.1574 4.1494 -1.9940 0.9812
-1.8780 3.8799 -1.9953 0.9812
-2.2168 3.6968 -1.9953 0.9812
-2.5379 3.4842 -1.9953 0.9812
-3.1170 2.9773 -1.9953 0.9812
-3.5968 2.3756 -1.9953 0.9812
-1.2450 0.5336 -0.6270 0.9940
-1.2689 0.2920 -0.6027 0.9943
-1.2677 0.0602 -0.5875 0.9944
-1.2752 -0.1684 -0.5954 0.9943
-1.2681 -0.4064 -0.6164 0.9941
-3.1333 -2.9602 -1.9953 0.9812
-2.8565 -3.2281 -1.9953 0.9812
-2.5570 -3.4702 -1.9953 0.9812
-2.2370 -3.6846 -1.9953 0.9812
-0.8061 -4.2345 -1.9953 0.9812
0.7268 -4.2488 -1.9953 0.9812
1.4707 -4.0519 -1.9953 0.9812
1.8265 -3.9044 -1.9953 0.9812
2.1677 -3.7258 -1.9953 0.9812
2.4916 -3.5174 -1.9953 0.9812
2.7956 -3.2809 -1.9953 0.9812
3.5650 -2.4230 -1.9953 0.9812
3.9390 -1.7505 -1.9953 0.9812
4.1875 -1.0222 -1.9953 0.9812
4.3087 0.1238 -1.9953 0.9812
4.2180 0.8880 -1.9953 0.9812
4.1219 1.2609 -1.9953 0.9812
3.9929 1.6238 -1.9953 0.9812
3.8320 1.9738 -1.9953 0.9812
3.6406 2.3079 -1.9953 0.9812
3.1722 2.9185 -1.9953 0.9812
2.6027 3.4360 -1.9953 0.9812
2.2856 3.6547 -1.9953 0.9812
1.5993 4.0028 -1.9953 0.9812
0.0972 4.3044 -1.9929 0.9812
-0.6696 4.2524 -1.9926 0.9812
-1.0470 4.1777 -1.9936 0.9812
-1.7747 3.9282 -1.9953 0.9812
-2.7520 3.3177 -1.9953 0.9812
-1.2610 0.5805 -0.6426 0.9939
-1.2631 0.4497 -0.6206 0.9941
-1.2736 0.2098 -0.5975 0.9943
-1.2717 0.0941 -0.5903 0.9944
-1.2619 -0.0196 -0.5842 0.9945
-1.2697 -0.2498 -0.5990 0.9943
-1.2703 -0.3703 -0.6125 0.9942
-3.8579 -1.9229 -1.9953 0.9812
-3.4544 -2.5782 -1.9953 0.9812
-2.3337 -3.6241 -1.9953 0.9812
-2.0009 -3.8180 -1.9953 0.9812
-1.2901 -4.1129 -1.9953 0.9812
-0.9179 -4.2116 -1.9953 0.9812
1.3629 -4.0893 -1.9953 0.9812
2.0683 -3.7818 -1.9953 0.9812
2.3977 -3.5821 -1.9953 0.9812
2.7079 -3.3538 -1.9953 0.9812
3.2610 -2.8188 -1.9953 0.9812
3.4996 -2.5165 -1.9953 0.9812
3.8913 -1.8541 -1.9953 0.9812
4.0413 -1.4994 -1.9953 0.9812
4.2941 -0.3751 -1.9953 0.9812
4.2400 0.7760 -1.9953 0.9812
4.1539 1.1514 -1.9953 0.9812
3.7004 2.2108 -1.9953 0.9812
3.4882 2.5323 -1.9953 0.9812
3.2483 2.8335 -1.9953 0.9812
2.9824 3.1122 -1.9953 0.9812
2.6927 3.3660 -1.9953 0.9812
2.0512 3.7911 -1.9953 0.9812
0.9735 4.1991 -1.9953 0.9812
0.5947 4.2683 -1.9948 0.9812
4.0439 0.4389 -1.9953 0.9820
3.9885 0.7981 -1.9953 0.9820
3.9014 1.1510 -1.9953 0.9820
3.6346 1.8263 -1.9953 0.9820
3.0208 2.7240 -1.9953 0.9820
2.7656 2.9828 -1.9953 0.9820
2.4883 3.2177 -1.9953 0.9820
2.1911 3.4270 -1.9953 0.9820
1.2049 3.8851 -1.9953 0.9820
0.4949 4.0374 -1.9953 0.9820
0.1325 4.0655 -1.9953 0.9820
-0.5925 4.0242 -1.9953 0.9820
-0.9494 3.9553 -1.9953 0.9820
-1.2986 3.8548 -1.9953 0.9820
-1.6375 3.7235 -1.9953 0.9820
-2.2735 3.3729 -1.9953 0.9820
-2.8370 2.9149 -1.9953 0.9820
-3.0859 2.6501 -1.9953 0.9820
-3.5079 2.0591 -1.9953 0.9820
-1.1413 0.1998 -0.5683 0.9949
-1.1347 -0.0062 -0.5566 0.9950
-1.1399 -0.2125 -0.5688 0.9948
-1.1183 -0.4248 -0.5868 0.9947
-1.0867 -0.5281 -0.5927 0.9946
-3.4851 -2.0975 -1.9953 0.9820
-3.0566 -2.6838 -1.9953 0.9820
-2.8048 -2.9459 -1.9953 0.9820
-2.5307 -3.1846 -1.9953 0.9820
-2.2363 -3.3977 -1.9953 0.9820
-0.1863 -4.0633 -1.9953 0.9820
0.1772 -4.0638 -1.9953 0.9820
0.5392 -4.0317 -1.9953 0.9820
1.2475 -3.8716 -1.9953 0.9820
1.5881 -3.7448 -1.9953 0.9820
2.2287 -3.4027 -1.9953 0.9820
2.5235 -3.1902 -1.9953 0.9820
2.7982 -2.9522 -1.9953 0.9820
3.0506 -2.6906 -1.9953 0.9820
3.4804 -2.1053 -1.9953 0.9820
3.6544 -1.7862 -1.9953 0.9820
3.9138 -1.1080 -1.9953 0.9820
3.9971 -0.7542 -1.9953 0.9820
4.0484 -0.3944 -1.9953 0.9820
4.0675 -0.0315 -1.9953 0.9820
4.0083 0.6923 -1.9953 0.9820
3.9305 1.0473 -1.9953 0.9820
3.6816 1.7295 -1.9953 0.9820
3.5125 2.0512 -1.9953 0.9820
3.3154 2.3566 -1.9953 0.9820
2.8435 2.9086 -1.9953 0.9820
2.5726 3.1508 -1.9953 0.9820
1.9713 3.5580 -1.9953 0.9820
0.9582 3.9531 -1.9953 0.9820
0.6015 4.0229 -1.9953 0.9820
-0.1234 4.0658 -1.9953 0.9820
-1.1962 3.8878 -1.9953 0.9820
-1.5384 3.7655 -1.9953 0.9820
-1.8684 3.6131 -1.9953 0.9820
-2.1835 3.4319 -1.9953 0.9820
-2.4811 3.2233 -1.9953 0.9820
-2.7589 2.9890 -1.9953 0.9820
-3.2464 2.4508 -1.9953 0.9820
-1.0895 0.5505 -0.5988 0.9946
-1.1376 0.2303 -0.5693 0.9948
-1.1375 0.0239 -0.5581 0.9949
-1.1243 -0.3934 -0.5843 0.9947
-3.5394 -2.0046 -1.9953 0.9820
-3.3463 -2.3125 -1.9953 0.9820
-2.6140 -3.1165 -1.9953 0.9820
-2.3254 -3.3374 -1.9953 0.9820
-1.6949 -3.6977 -1.9953 0.9820
-1.3581 -3.8342 -1.9953 0.9820
-1.0104 -3.9401 -1.9953 0.9820
-0.6547 -4.0146 -1.9953 0.9820
0.4323 -4.0446 -1.9953 0.9820
0.7917 -3.9898 -1.9953 0.9820
1.1446 -3.9032 -1.9953 0.9820
2.1379 -3.4605 -1.9953 0.9820
2.4382 -3.2558 -1.9953 0.9820
2.9783 -2.7704 -1.9953 0.9820
3.2137 -2.4935 -1.9953 0.9820
3.6059 -1.8823 -1.9953 0.9820
3.7595 -1.5529 -1.9953 0.9820
3.8831 -1.2112 -1.9953 0.9820
4.0366 -0.5014 -1.9953 0.9820
4.0652 -0.1391 -1.9953 0.9820
3.9568 0.9430 -1.9953 0.9820
3.8568 1.2924 -1.9953 0.9820
3.7261 1.6315 -1.9953 0.9820
3.5656 1.9576 -1.9953 0.9820
3.3766 2.2680 -1.9953 0.9820
3.1607 2.5604 -1.9953 0.9820
2.3694 3.3063 -1.9953 0.9820
2.0648 3.5046 -1.9953 0.9820
0.7078 4.0056 -1.9953 0.9820
-0.0158 4.0676 -1.9953 0.9820
-1.0929 3.9181 -1.9953 0.9820
-1.4383 3.8049 -1.9953 0.9820
-1.7722 3.6613 -1.9953 0.9820
-2.0919 3.4885 -1.9953 0.9820
-2.6789 3.0609 -1.9953 0.9820
-2.9414 2.8096 -1.9953 0.9820
-3.1804 2.5358 -1.9953 0.9820
-3.3941 2.2418 -1.9953 0.9820
-1.1055 0.5958 -0.6160 0.9944
-1.1057 0.4740 -0.5901 0.9947
-1.1279 0.3683 -0.5820 0.9947
-1.1405 -0.0479 -0.5599 0.9949
-1.1441 -0.1511 -0.5661 0.9949
-1.1287 -0.3617 -0.5814 0.9947
-1.1011 -0.5857 -0.6118 0.9945
-3.4063 -2.2232 -1.9953 0.9820
-3.1943 -2.5184 -1.9953 0.9820
-2.4129 -3.2747 -1.9953 0.9820
-2.1110 -3.4770 -1.9953 0.9820
-1.7922 -3.6515 -1.9953 0.9820
-0.7607 -3.9959 -1.9953 0.9820
-0.4010 -4.0478 -1.9953 0.9820
0.3252 -4.0546 -1.9953 0.9820
1.3878 -3.8235 -1.9953 0.9820
1.7236 -3.6844 -1.9953 0.9820
2.0456 -3.5158 -1.9953 0.9820
2.6381 -3.0961 -1.9953 0.9820
2.9040 -2.8482 -1.9953 0.9820
3.1466 -2.5777 -1.9953 0.9820
3.7171 -1.6519 -1.9953 0.9820
3.9516 -0.9646 -1.9953 0.9820
4.0219 -0.6080 -1.9953 0.9820
4.0601 -0.2466 -1.9953 0.9820
4.0659 0.1168 -1.9953 0.9820
3.8897 1.1899 -1.9953 0.9820
3.7679 1.5323 -1.9953 0.9820
3.6161 1.8626 -1.9953 0.9820
3.2273 2.4759 -1.9953 0.9820
2.7356 3.0103 -1.9953 0.9820
2.4560 3.2424 -1.9953 0.9820
1.1660 3.8969 -1.9953 0.9820
0.8135 3.9854 -1.9953 0.9820
0.0919 4.0666 -1.9953 0.9820
-0.6327 4.0181 -1.9953 0.9820
-0.9888 3.9456 -1.9953 0.9820
-1.6747 3.7069 -1.9953 0.9820
-1.9989 3.5426 -1.9953 0.9820
-2.3071 3.3501 -1.9953 0.9820
-3.1122 2.6191 -1.9953 0.9820
-3.5283 2.0240 -1.9953 0.9820
-1.0957 0.5044 -0.5917 0.9946
-1.1423 0.1882 -0.5679 0.9949
-1.1443 -0.1204 -0.5644 0.9949
-1.1316 -0.3298 -0.5782 0.9948
-1.0877 -0.5422 -0.5962 0.9946
-3.2598 -2.4330 -1.9953 0.9820
-2.7752 -2.9738 -1.9953 0.9820
-2.4987 -3.2097 -1.9953 0.9820
-2.2022 -3.4199 -1.9953 0.9820
-1.8882 -3.6028 -1.9953 0.9820
-1.2174 -3.8812 -1.9953 0.9820
0.2178 -4.0618 -1.9953 0.9820
0.5795 -4.0261 -1.9953 0.9820
1.2861 -3.8589 -1.9953 0.9820
1.9518 -3.5687 -1.9953 0.9820
2.2626 -3.3803 -1.9953 0.9820
2.5553 -3.1648 -1.9953 0.9820
2.8276 -2.9241 -1.9953 0.9820
3.5012 -2.0704 -1.9953 0.9820
3.6721 -1.7496 -1.9953 0.9820
3.9247 -1.0688 -1.9953 0.9820
4.0044 -0.7142 -1.9953 0.9820
4.0522 -0.3539 -1.9953 0.9820
4.0505 0.3722 -1.9953 0.9820
3.4919 2.0862 -1.9953 0.9820
2.5410 3.1763 -1.9953 0.9820
2.2473 3.3905 -1.9953 0.9820
1.6086 3.7360 -1.9953 0.9820
1.2687 3.8647 -1.9953 0.9820
0.9187 3.9625 -1.9953 0.9820
0.5613 4.0287 -1.9953 0.9820
3.6889 1.0883 -1.9953 0.9828
3.5770 1.4132 -1.9953 0.9828
3.2687 2.0267 -1.9953 0.9828
2.8563 2.5756 -1.9953 0.9828
2.6150 2.8203 -1.9953 0.9828
2.0718 3.2404 -1.9953 0.9828
1.4626 3.5571 -1.9953 0.9828
1.1393 3.6735 -1.9953 0.9828
0.8068 3.7605 -1.9953 0.9828
0.4679 3.8175 -1.9953 0.9828
-0.8977 3.7399 -1.9953 0.9828
-1.2279 3.6448 -1.9953 0.9828
-1.8564 3.3684 -1.9953 0.9828
-2.1497 3.1892 -1.9953 0.9828
-2.9178 2.5057 -1.9953 0.9828
-0.9793 0.4627 -0.5619 0.9951
-1.0072 0.3700 -0.5566 0.9952
-1.0326 0.1807 -0.5438 0.9953
-1.0375 0.0872 -0.5401 0.9953
-1.0303 -0.0057 -0.5345 0.9954
-1.0377 -0.0987 -0.5408 0.9953
-1.0311 -0.1922 -0.5441 0.9953
-0.9627 -0.5794 -0.5829 0.9949
-3.1051 -2.2695 -1.9953 0.9828
-2.3928 -3.0111 -1.9953 0.9828
-1.5096 -3.5375 -1.9953 0.9828
-1.1878 -3.6581 -1.9953 0.9828
