ply
format ascii 1.0
element vertex 1573
property float32 x
property float32 y
property float32 z
property float32 I
end_header
-2.5495 -17.1481 3.0569 0.9320
-1.0151 -17.3624 3.0667 0.9318
2.0384 -16.9066 3.0027 0.9332
-0.4608 11.4717 1.7588 0.9546
-3.5937 11.3068 1.8175 0.9531
-4.6860 11.1789 1.8569 0.9521
-8.7845 11.2135 2.1822 0.9440
-7.8998 -17.4297 2.9316 0.9255
-4.3493 -17.2382 2.7235 0.9306
-1.1756 -17.0711 2.6214 0.9331
0.3473 -16.9909 2.6035 0.9335
1.8616 -16.9112 2.6064 0.9335
-1.0317 11.4417 1.7599 0.9546
-2.0619 11.3875 1.7729 0.9542
-3.1157 11.3320 1.8004 0.9536
-3.8199 5.2933 1.0000 0.9739
-11.4799 11.0716 2.4433 0.9375
-13.3717 10.7712 2.6304 0.9329
-3.8067 -9.6490 1.5891 0.9589
-5.0913 -17.2772 2.7593 0.9297
-3.4376 -17.1902 2.6856 0.9315
-0.3232 -17.0262 2.6088 0.9334
-2.6459 11.3567 1.7864 0.9539
-4.8197 11.1718 1.8639 0.9520
-3.5832 5.4019 0.9931 0.9741
-8.9658 11.2039 2.1983 0.9436
-10.6511 11.1152 2.3584 0.9396
-12.1707 10.6212 2.4746 0.9367
-7.6390 -17.3295 2.9013 0.9262
-5.8541 -17.3174 2.8004 0.9287
-4.1575 -17.2281 2.7150 0.9308
-2.5488 -17.1434 2.6551 0.9323
2.0379 -16.9019 2.6080 0.9334
-1.4940 11.4856 1.5083 0.9544
-3.6151 11.3740 1.5541 0.9530
-6.0029 11.3599 1.6731 0.9495
-12.2455 10.9120 2.1359 0.9360
-14.2292 10.5651 2.3079 0.9310
0.3473 -16.9909 2.2130 0.9337
1.8616 -16.9112 2.2155 0.9337
6.6470 11.2298 1.6993 0.9487
-0.0083 11.4251 1.4878 0.9550
-1.0378 11.5096 1.5049 0.9545
-3.1342 11.3993 1.5395 0.9534
-6.7239 11.3219 1.7148 0.9483
-3.8213 5.2952 0.8503 0.9740
-9.6816 11.1663 1.9245 0.9421
-11.4799 11.0716 2.0769 0.9377
-13.3273 10.7355 2.2285 0.9333
-8.7640 -17.4706 2.5452 0.9242
-3.4376 -17.1902 2.2828 0.9317
-1.8578 -17.1070 2.2408 0.9329
-0.3232 -17.0262 2.2176 0.9336
1.1919 -16.9465 2.2122 0.9338
5.6252 13.4744 1.9014 0.9428
-0.5830 11.5336 1.5038 0.9545
-2.6616 11.4242 1.5275 0.9538
-3.5848 5.4042 0.8445 0.9742
-10.6511 11.1152 2.0047 0.9398
-12.4804 10.8915 2.1571 0.9354
-14.4763 10.5178 2.3301 0.9304
-7.6760 -17.4133 2.4781 0.9261
-4.1575 -17.2281 2.3079 0.9310
-2.5488 -17.1434 2.2570 0.9325
-0.9975 -17.0617 2.2256 0.9334
0.5232 -16.9817 2.2124 0.9338
-0.4706 11.7159 1.2591 0.9539
-1.5168 11.6609 1.2627 0.9538
-2.5774 11.6051 1.2765 0.9533
-3.6702 11.5475 1.3011 0.9524
-6.0703 11.4875 1.3952 0.9491
-3.5384 5.4562 0.6983 0.9742
-8.8831 11.3394 1.5468 0.9437
-10.5443 11.2343 1.6545 0.9399
-14.5737 10.8209 1.9492 0.9296
-4.3218 -17.1291 1.8970 0.9314
-2.7294 -17.1358 1.8633 0.9326
0.3473 -16.9909 1.8249 0.9339
6.6462 11.2284 1.4011 0.9489
-0.0083 11.4251 1.2268 0.9551
-1.0537 11.6853 1.2599 0.9539
-2.1058 11.6299 1.2691 0.9536
-4.3014 11.5143 1.3199 0.9518
-5.5165 11.5166 1.3712 0.9499
-3.8258 5.3015 0.7020 0.9740
-9.7903 11.2917 1.6048 0.9416
-11.4799 11.0716 1.7126 0.9379
-13.6057 10.9597 1.8760 0.9321
-8.6608 -17.2648 2.0741 0.9252
-5.0437 -17.1160 1.9161 0.9307
-0.3232 -17.0262 1.8286 0.9338
1.1919 -16.9465 1.8242 0.9339
5.6033 13.4221 1.5618 0.9432
-0.5919 11.7096 1.2590 0.9539
-2.7023 11.5985 1.2788 0.9532
-4.8197 11.1718 1.3065 0.9522
-6.2191 11.4797 1.4020 0.9488
-9.0665 11.3298 1.5582 0.9433
-7.5856 -17.2082 2.0194 0.9271
-4.1342 -17.1315 1.8924 0.9316
-2.5475 -17.1345 1.8602 0.9327
2.0379 -16.9019 1.8281 0.9338
-3.6702 11.5475 1.0257 0.9525
-3.5470 5.4694 0.5518 0.9742
-10.5601 11.2512 1.3062 0.9399
-12.6035 11.2310 1.4291 0.9345
-7.8976 -17.4249 1.6195 0.9261
-3.4356 -9.8263 0.8812 0.9591
-4.3493 -17.2382 1.5050 0.9311
1.8616 -16.9112 1.4402 0.9340
-1.0537 11.6853 0.9932 0.9540
-2.1058 11.6299 1.0005 0.9537
-3.1821 11.5732 1.0161 0.9530
-4.3014 11.5143 1.0405 0.9519
-5.6101 11.7120 1.0993 0.9492
-6.7994 11.4491 1.1272 0.9479
-9.7903 11.2917 1.2651 0.9418
-13.6067 10.9605 1.4791 0.9323
-8.7640 -17.4706 1.6546 0.9245
-3.8054 -9.6458 0.8778 0.9592
-5.0913 -17.2772 1.5247 0.9302
-3.4376 -17.1902 1.4840 0.9320
-1.8578 -17.1070 1.4567 0.9333
-0.3232 -17.0262 1.4416 0.9339
8.0386 -14.1643 1.3787 0.9367
5.5849 13.3780 1.2272 0.9435
-0.5919 11.7096 0.9925 0.9540
-1.6388 11.6545 0.9963 0.9539
-2.7023 11.5985 1.0081 0.9533
-3.8001 11.5407 1.0286 0.9524
-6.3246 11.6744 1.1240 0.9481
-10.7708 11.2401 1.3178 0.9394
-12.8346 11.2005 1.4420 0.9339
-5.8541 -17.3174 1.5475 0.9292
-2.5488 -17.1434 1.4672 0.9328
2.0379 -16.9019 1.4412 0.9339
-3.6702 11.5475 0.7514 0.9526
-4.6860 11.1789 0.7516 0.9526
-6.1733 11.6824 0.8194 0.9484
-8.9668 11.4462 0.9017 0.9434
-10.7392 11.4420 0.9731 0.9390
-4.3839 -17.3752 1.1112 0.9307
0.3680 -18.0000 1.1164 0.9304
1.9699 -17.8957 1.1164 0.9304
6.6442 11.2250 0.8089 0.9491
-0.0083 11.4251 0.7085 0.9552
-3.1821 11.5732 0.7443 0.9530
-4.3014 11.5143 0.7622 0.9519
-5.6101 11.7120 0.8053 0.9493
-3.8439 5.3266 0.4073 0.9740
-9.7903 11.2917 0.9267 0.9419
-8.7640 -17.4706 1.2120 0.9247
-3.8157 -9.6719 0.6447 0.9592
-3.4650 -17.3268 1.0957 0.9316
-1.8726 -17.2430 1.0755 0.9329
1.2631 -17.9594 1.1164 0.9304
8.0375 -14.1624 1.0098 0.9368
-2.7023 11.5985 0.7385 0.9534
-4.8197 11.1718 0.7545 0.9524
-6.3246 11.6744 0.8233 0.9482
-10.9535 11.4307 0.9817 0.9385
-4.1905 -17.3650 1.1077 0.9309
-1.0055 -17.1973 1.0682 0.9333
0.5544 -17.9952 1.1164 0.9304
2.1551 -17.8743 1.1164 0.9304
-1.5168 11.6609 0.4637 0.9540
-2.5631 11.5409 0.4662 0.9538
-3.5644 5.4963 0.2583 0.9741
-14.4807 -10.1224 0.6967 0.9317
-7.9632 -17.5696 0.7606 0.9257
-4.3921 -17.4076 0.7079 0.9307
0.3888 -19.0203 0.7501 0.9267
8.3981 -16.6803 0.7364 0.9280
6.6432 11.2233 0.5143 0.9491
-0.0083 11.4251 0.4505 0.9553
-2.0941 11.5656 0.4635 0.9540
-3.1821 11.5732 0.4733 0.9531
-4.3014 11.5143 0.4847 0.9520
-5.6101 11.7120 0.5121 0.9493
-3.8518 5.3375 0.2595 0.9740
-9.7903 11.2917 0.5893 0.9419
-11.6088 11.1960 0.6359 0.9375
-13.8974 11.1947 0.7037 0.9311
-5.1317 -17.4145 0.7159 0.9299
-1.8761 -17.2751 0.6852 0.9328
-0.3264 -17.1936 0.6781 0.9335
1.3489 -19.1794 0.7581 0.9259
-0.5919 11.7096 0.4623 0.9541
-1.6388 11.6545 0.4641 0.9540
-2.6873 11.5344 0.4670 0.9537
-4.8197 11.1718 0.4798 0.9525
-3.6086 5.4402 0.2574 0.9742
-9.0665 11.3298 0.5722 0.9436
-12.8887 11.2478 0.6745 0.9338
-7.6760 -17.4133 0.7504 0.9267
-4.1983 -17.3974 0.7057 0.9309
-2.5488 -17.1434 0.6834 0.9330
-1.0073 -17.2294 0.6805 0.9332
0.5921 -19.2192 0.7582 0.9259
2.2813 -18.9206 0.7515 0.9265
-0.2016 5.0177 0.0848 0.9801
-1.5168 11.6609 0.1986 0.9540
-3.6702 11.5475 0.2047 0.9527
-4.6860 11.1789 0.2048 0.9527
-3.5712 5.5068 0.1109 0.9741
-10.7392 11.4420 0.2651 0.9392
-12.6372 11.2610 0.2859 0.9345
-7.9483 -17.5368 0.3252 0.9259
-4.3839 -17.3752 0.3027 0.9308
-1.1850 -17.2068 0.2913 0.9333
-0.0083 11.4251 0.1930 0.9553
-2.0941 11.5656 0.1985 0.9541
-5.6101 11.7120 0.2194 0.9494
-6.7994 11.4491 0.2249 0.9481
-3.8554 5.3426 0.1113 0.9740
-9.7903 11.2917 0.2525 0.9420
-11.6088 11.1960 0.2724 0.9375
-13.8974 11.1947 0.3014 0.9311
-3.8436 -9.7428 0.1769 0.9590
-3.4650 -17.3268 0.2985 0.9318
7.0653 -15.5282 0.2882 0.9340
8.0354 -14.1586 0.2750 0.9369
5.5524 13.3002 0.2435 0.9440
-0.5919 11.7096 0.1980 0.9542
-1.6388 11.6545 0.1988 0.9540
-2.6873 11.5344 0.2001 0.9537
-3.8001 11.5407 0.2052 0.9526
-4.8197 11.1718 0.2055 0.9525
-3.6161 5.4515 0.1105 0.9742
-9.0665 11.3298 0.2451 0.9436
-10.9535 11.4307 0.2674 0.9386
-12.8887 11.2478 0.2890 0.9339
-7.6760 -17.4133 0.3215 0.9267
0.5898 -19.1449 0.3235 0.9262
2.2813 -18.9206 0.3219 0.9266
-0.2016 5.0175 -0.0283 0.9801
-1.5168 11.6609 -0.0662 0.9541
-4.6860 11.1789 -0.0682 0.9527
-6.0703 11.4875 -0.0732 0.9494
-3.5702 5.5053 -0.0369 0.9741
-8.8831 11.3394 -0.0811 0.9440
-10.5601 11.2512 -0.0869 0.9401
-7.9632 -17.5696 -0.1086 0.9257
-4.3839 -17.3752 -0.1009 0.9308
-2.7322 -17.1530 -0.0978 0.9329
0.3888 -19.0203 -0.1071 0.9267
2.1022 -19.0972 -0.1082 0.9260
8.3981 -16.6803 -0.1051 0.9280
6.6412 11.2200 -0.0734 0.9492
-2.0941 11.5656 -0.0662 0.9541
-3.1821 11.5732 -0.0676 0.9531
-4.3014 11.5143 -0.0692 0.9520
-6.7994 11.4491 -0.0750 0.9481
-11.6088 11.1960 -0.0908 0.9375
-8.8368 -17.6155 -0.1110 0.9242
-3.8576 -9.7783 -0.0592 0.9588
-1.8761 -17.2751 -0.0978 0.9329
7.0349 -15.4614 -0.0956 0.9343
-0.5919 11.7096 -0.0660 0.9542
-1.6388 11.6545 -0.0663 0.9540
-4.8197 11.1718 -0.0685 0.9525
-9.0665 11.3298 -0.0817 0.9436
-7.6760 -17.4133 -0.1071 0.9267
-4.1983 -17.3974 -0.1008 0.9309
-1.0073 -17.2294 -0.0972 0.9333
2.2813 -18.9206 -0.1073 0.9266
-0.2016 5.0173 -0.1414 0.9801
-2.5631 11.5409 -0.3329 0.9538
-3.6702 11.5475 -0.3412 0.9527
-4.6860 11.1789 -0.3413 0.9527
-5.9566 11.2722 -0.3590 0.9503
-3.5761 5.5143 -0.1851 0.9740
-10.3622 11.0403 -0.4264 0.9412
-12.6372 11.2610 -0.4766 0.9345
-3.4253 -9.7968 -0.2922 0.9593
-4.3839 -17.3752 -0.5046 0.9308
-2.7321 -17.1530 -0.4891 0.9329
-2.0941 11.5656 -0.3310 0.9541
-3.1821 11.5732 -0.3380 0.9531
-4.3014 11.5143 -0.3461 0.9520
-5.4132 11.3008 -0.3528 0.9511
-3.8663 5.3576 -0.1860 0.9739
-8.8368 -17.6155 -0.5549 0.9242
-3.8741 -9.8201 -0.2973 0.9586
-5.1317 -17.4145 -0.5112 0.9299
-1.8761 -17.2751 -0.4893 0.9328
-0.3264 -17.1936 -0.4842 0.9335
7.0080 -15.4024 -0.4765 0.9345
-1.6388 11.6545 -0.3314 0.9540
-2.6873 11.5344 -0.3335 0.9537
-3.8001 11.5407 -0.3421 0.9525
-4.8197 11.1718 -0.3426 0.9525
-6.1026 11.2646 -0.3607 0.9500
-3.6268 5.4676 -0.1847 0.9741
-8.8966 11.1175 -0.4009 0.9446
-12.8887 11.2478 -0.4817 0.9338
-3.3366 -9.8700 -0.2934 0.9592
2.2813 -18.9206 -0.5366 0.9266
-1.5168 11.6609 -0.5964 0.9540
-3.6702 11.5475 -0.6145 0.9526
-4.6860 11.1789 -0.6147 0.9526
-3.5848 5.5277 -0.3341 0.9740
-2.7321 -17.1530 -0.8809 0.9328
-1.1849 -17.2068 -0.8747 0.9333
0.3888 -19.0203 -0.9648 0.9266
7.1826 -18.1288 -0.9889 0.9249
6.6395 11.2171 -0.6610 0.9491
5.6058 11.7470 -0.6601 0.9492
-0.0083 11.4251 -0.5794 0.9553
-1.0537 11.6853 -0.5950 0.9541
-5.4132 11.3008 -0.6355 0.9511
-6.6720 11.2346 -0.6627 0.9490
-9.6069 11.0801 -0.7437 0.9430
-13.8974 11.1947 -0.9050 0.9310
-8.8367 -17.6155 -0.9995 0.9241
-3.9064 -9.9018 -0.5398 0.9583
-5.1317 -17.4145 -0.9207 0.9299
-3.4650 -17.3268 -0.8961 0.9317
-1.8726 -17.2430 -0.8796 0.9329
-0.3257 -17.1615 -0.8705 0.9336
8.0323 -14.1531 -0.8253 0.9369
-1.6388 11.6545 -0.5969 0.9540
-2.6873 11.5344 -0.6006 0.9537
-4.8197 11.1718 -0.6170 0.9524
-6.1026 11.2646 -0.6497 0.9500
-8.8966 11.1175 -0.7221 0.9446
-10.5690 11.0295 -0.7747 0.9407
-12.8887 11.2478 -0.8675 0.9338
-2.5488 -17.1434 -0.8790 0.9329
2.2813 -18.9206 -0.9665 0.9265
-4.6860 11.1789 -0.8888 0.9525
-5.9566 11.2722 -0.9348 0.9502
-3.5996 5.5506 -0.4851 0.9738
-8.7167 11.1270 -1.0364 0.9449
-12.4007 11.0503 -1.2179 0.9356
-3.4270 -9.8019 -0.7614 0.9592
-4.3493 -17.2382 -1.3035 0.9312
-1.1756 -17.0711 -1.2547 0.9337
0.3888 -19.0203 -1.3949 0.9265
7.1835 -18.1309 -1.4299 0.9248
6.6387 11.2158 -0.9556 0.9491
-0.0083 11.4251 -0.8377 0.9552
-1.0537 11.6853 -0.8603 0.9540
-5.4132 11.3008 -0.9188 0.9510
-9.6069 11.0801 -1.0753 0.9429
-11.3913 10.9862 -1.1604 0.9385
-13.6057 10.9597 -1.2810 0.9323
-8.8368 -17.6155 -1.4450 0.9240
-6.8526 -17.3699 -1.3691 0.9278
-3.4376 -17.1902 -1.2854 0.9321
-1.8578 -17.1070 -1.2617 0.9333
1.3459 -19.1370 -1.4066 0.9259
-8.8966 11.1175 -1.0440 0.9445
-10.5689 11.0295 -1.1201 0.9406
-7.6760 -17.4133 -1.3953 0.9265
-0.9975 -17.0617 -1.2531 0.9337
0.5908 -19.1768 -1.4067 0.9259
2.2813 -18.9206 -1.3974 0.9264
7.3635 -18.0376 -1.4285 0.9248
0.9412 19.1748 -1.8431 0.9258
-2.5224 11.3576 -1.1170 0.9543
-4.6860 11.1789 -1.1637 0.9525
-10.3622 11.0403 -1.4537 0.9410
-12.4007 11.0503 -1.5946 0.9354
-16.3721 10.0262 -1.8431 0.9258
-17.2002 8.5280 -1.8431 0.9258
-17.8915 6.9619 -1.8431 0.9258
-14.6926 -12.3571 -1.8431 0.9258
-12.2667 -14.7681 -1.8431 0.9258
-10.9023 -15.8021 -1.8431 0.9258
-9.4514 -16.7104 -1.8431 0.9258
-7.8976 -17.4249 -1.8367 0.9260
-3.4315 -9.8146 -0.9982 0.9591
-2.7321 -17.1530 -1.6675 0.9326
3.7921 -18.8196 -1.8431 0.9258
7.5105 -14.9173 -1.6034 0.9351
5.5837 11.7006 -1.2447 0.9492
5.0625 18.5182 -1.8431 0.9258
-0.0083 11.4251 -1.0969 0.9551
-1.0312 11.4361 -1.1024 0.9549
-4.2097 11.2688 -1.1549 0.9528
-5.4132 11.3008 -1.2030 0.9509
-6.6720 11.2346 -1.2544 0.9488
-3.9175 5.4286 -0.6427 0.9735
-9.6068 11.0801 -1.4079 0.9428
-11.3913 10.9862 -1.5194 0.9384
-13.6057 10.9597 -1.6773 0.9322
-16.8507 9.1992 -1.8431 0.9258
-18.2157 6.0631 -1.8431 0.9258
-16.1562 -10.3705 -1.8431 0.9258
-14.0596 -13.0729 -1.8431 0.9258
-12.8392 -14.2732 -1.8431 0.9258
-10.1026 -16.3250 -1.8431 0.9258
-6.8526 -17.3699 -1.7927 0.9277
-0.3232 -17.0262 -1.6349 0.9339
3.0474 -18.9544 -1.8431 0.9258
7.9811 -14.0629 -1.5524 0.9371
5.5822 13.3716 -1.3911 0.9434
5.7884 18.3043 -1.8431 0.9258
-2.6446 11.3512 -1.1190 0.9542
-3.7191 11.2946 -1.1416 0.9533
-4.8197 11.1718 -1.1681 0.9523
-6.1026 11.2646 -1.2300 0.9498
-3.6684 5.5303 -0.6371 0.9737
-10.5689 11.0295 -1.4666 0.9405
-12.6181 11.0117 -1.6078 0.9349
-16.4751 9.8561 -1.8431 0.9258
-17.2876 8.3494 -1.8431 0.9258
-17.9627 6.7762 -1.8431 0.9258
-15.6202 -11.1616 -1.8431 0.9258
-12.1131 -14.8944 -1.8431 0.9258
-10.7381 -15.9142 -1.8431 0.9258
-4.1575 -17.2281 -1.7015 0.9313
-2.5488 -17.1434 -1.6639 0.9327
3.9867 -18.7793 -1.8431 0.9258
5.6437 -18.3494 -1.8431 0.9258
6.3557 -15.5690 -1.6144 0.9347
0.7607 15.4974 -1.8431 0.9394
-0.2015 5.0172 -0.5965 0.9800
-3.5920 11.3013 -1.4086 0.9534
-8.7167 11.1270 -1.6790 0.9447
-10.3622 11.0403 -1.7986 0.9408
-11.5842 10.3228 -1.8431 0.9394
-12.4578 9.2498 -1.8431 0.9394
-13.9015 6.8924 -1.8431 0.9394
-14.4602 5.6267 -1.8431 0.9394
-16.7506 -1.2569 -1.9953 0.9346
-16.5720 -2.7440 -1.9953 0.9346
-14.5700 -8.3592 -1.9953 0.9346
-12.7676 -8.9249 -1.8504 0.9392
-11.8748 -9.9872 -1.8431 0.9394
-8.8115 -12.7715 -1.8431 0.9394
-6.4053 -14.1324 -1.8431 0.9394
-3.4405 -9.8404 -1.2383 0.9589
0.3171 -15.5128 -1.8431 0.9394
6.9774 -13.8586 -1.8431 0.9394
13.2862 -10.2772 -1.9953 0.9346
14.1488 -9.0529 -1.9953 0.9346
14.8990 -7.7565 -1.9953 0.9346
15.5306 -6.3985 -1.9953 0.9346
16.0389 -4.9896 -1.9953 0.9346
16.4195 -3.5411 -1.9953 0.9346
16.7873 -0.5712 -1.9953 0.9346
16.7715 0.9264 -1.9953 0.9346
16.6223 2.4167 -1.9953 0.9346
15.9297 5.3280 -1.9953 0.9346
15.3917 6.7258 -1.9953 0.9346
12.0734 11.6781 -1.9953 0.9346
10.9851 12.7072 -1.9953 0.9346
9.8095 13.6352 -1.9953 0.9346
5.5843 11.7018 -1.5402 0.9491
1.3709 15.4553 -1.8431 0.9394
-2.0608 11.3819 -1.3740 0.9545
-4.2097 11.2688 -1.4289 0.9527
-5.4132 11.3008 -1.4884 0.9508
-3.9185 5.4299 -0.7954 0.9734
-14.2272 6.1922 -1.8431 0.9394
-14.7222 4.9002 -1.8431 0.9394
-16.7871 -0.5958 -1.9953 0.9346
-16.4150 -3.5652 -1.9953 0.9346
-16.0321 -5.0132 -1.9953 0.9346
-15.5218 -6.4214 -1.9953 0.9346
-14.8881 -7.7785 -1.9953 0.9346
-11.3632 -10.5657 -1.8431 0.9394
-9.3079 -12.4143 -1.8431 0.9394
-6.9573 -13.8690 -1.8431 0.9394
-3.0426 -15.2149 -1.8431 0.9394
-0.2945 -15.5133 -1.8431 0.9394
2.4630 -15.3193 -1.8431 0.9394
9.5591 -13.8119 -1.9953 0.9346
11.8583 -11.8965 -1.9953 0.9346
15.2664 -7.0056 -1.9953 0.9346
15.8298 -5.6178 -1.9953 0.9346
16.2672 -4.1854 -1.9953 0.9346
16.5754 -2.7197 -1.9953 0.9346
16.7518 -1.2324 -1.9953 0.9346
16.7950 0.2648 -1.9953 0.9346
16.7046 1.7598 -1.9953 0.9346
16.4815 3.2408 -1.9953 0.9346
16.1273 4.6961 -1.9953 0.9346
15.6448 6.1140 -1.9953 0.9346
15.0380 7.4833 -1.9953 0.9346
13.4715 10.0330 -1.9953 0.9346
11.4774 12.2643 -1.9953 0.9346
9.1190 14.1064 -1.9953 0.9346
5.4179 12.9779 -1.6705 0.9449
4.6783 14.7939 -1.8431 0.9394
3.3419 15.1518 -1.8431 0.9394
1.9789 15.3893 -1.8431 0.9394
-0.5793 11.4599 -1.3630 0.9548
-1.6039 11.4060 -1.3682 0.9547
-4.8197 11.1718 -1.4453 0.9522
-6.1026 11.2646 -1.5218 0.9497
-8.8966 11.1175 -1.6914 0.9443
-11.6906 10.2022 -1.8431 0.9394
-13.3154 7.9658 -1.8431 0.9394
-14.5177 5.4766 -1.8431 0.9394
-16.5192 3.0459 -1.9953 0.9346
-16.7248 1.5623 -1.9953 0.9346
-15.1831 -7.1857 -1.9953 0.9346
-12.6245 -9.0209 -1.8431 0.9394
-7.4985 -13.5840 -1.8431 0.9394
-3.3433 -9.8901 -1.2401 0.9588
-3.6399 -15.0832 -1.8431 0.9394
3.2221 -15.1778 -1.8431 0.9394
5.8643 -14.3651 -1.8431 0.9394
0.6309 12.8535 -1.8234 0.9493
-3.5920 11.3013 -1.6802 0.9532
-5.9566 11.2722 -1.8064 0.9498
-9.7117 8.6541 -1.8431 0.9488
-10.4440 7.7546 -1.8431 0.9488
-13.8217 2.6969 -1.9953 0.9447
-14.0809 0.2014 -1.9953 0.9447
-14.0429 -1.0537 -1.9953 0.9447
-13.8932 -2.3004 -1.9953 0.9447
-13.6331 -3.5289 -1.9953 0.9447
-12.7905 -5.8920 -1.9953 0.9447
-12.2148 -7.0079 -1.9953 0.9447
-11.5420 -8.0681 -1.9953 0.9447
-9.1699 -9.2263 -1.8431 0.9488
-8.3115 -10.0065 -1.8431 0.9488
-6.4040 -11.3225 -1.8431 0.9488
-4.3103 -9.5101 -1.4794 0.9587
-0.8937 -12.9773 -1.8431 0.9488
3.6951 -12.4721 -1.8431 0.9488
5.8496 -11.6184 -1.8431 0.9488
7.2147 -11.6204 -1.9380 0.9462
8.4640 -11.2545 -1.9953 0.9447
9.4329 -10.4558 -1.9953 0.9447
11.1386 -8.6160 -1.9953 0.9447
14.0605 0.7767 -1.9953 0.9447
13.9354 2.0261 -1.9953 0.9447
13.3548 4.4668 -1.9953 0.9447
12.9038 5.6386 -1.9953 0.9447
12.3502 6.7657 -1.9953 0.9447
11.6984 7.8389 -1.9953 0.9447
10.9537 8.8498 -1.9953 0.9447
8.2239 11.4312 -1.9953 0.9447
6.5355 11.0413 -1.8179 0.9495
5.5849 11.7031 -1.8373 0.9490
3.4302 12.5475 -1.8431 0.9488
2.2989 12.8032 -1.8431 0.9488
-0.0083 11.4251 -1.6188 0.9549
-4.2097 11.2688 -1.7044 0.9526
-5.4132 11.3008 -1.7754 0.9506
-3.5087 5.9081 -0.9736 0.9726
-3.9448 5.4664 -0.9552 0.9731
-8.5215 9.8283 -1.8431 0.9488
-9.3631 9.0301 -1.8431 0.9488
-10.8169 7.2254 -1.8431 0.9488
-11.4175 6.2331 -1.8431 0.9488
-11.9274 5.1912 -1.8431 0.9488
-12.3585 4.1135 -1.8455 0.9487
-13.7047 3.2395 -1.9953 0.9447
-13.9388 2.0058 -1.9953 0.9447
-14.0735 -0.4994 -1.9953 0.9447
-13.9731 -1.7511 -1.9953 0.9447
-13.7615 -2.9889 -1.9953 0.9447
-13.4406 -4.2028 -1.9953 0.9447
-13.0128 -5.3834 -1.9953 0.9447
-11.8509 -7.6070 -1.9953 0.9447
-11.0993 -8.6116 -1.9905 0.9448
-9.5263 -8.8578 -1.8431 0.9488
-8.6994 -9.6711 -1.8431 0.9488
-6.8452 -11.0613 -1.8431 0.9488
-3.7417 -9.4843 -1.4446 0.9596
-2.8247 -9.5856 -1.4159 0.9604
0.9126 -12.9759 -1.8431 0.9488
5.3872 -11.8399 -1.8431 0.9488
6.4204 -11.3130 -1.8431 0.9488
8.0139 -11.5793 -1.9953 0.9447
9.9414 -9.9735 -1.9953 0.9447
10.7904 -9.0483 -1.9953 0.9447
13.2710 -4.7097 -1.9953 0.9447
13.8961 -2.2801 -1.9953 0.9447
14.0440 -1.0332 -1.9953 0.9447
14.0802 0.2220 -1.9953 0.9447
14.0045 1.4753 -1.9953 0.9447
13.5204 3.9370 -1.9953 0.9447
13.1160 5.1257 -1.9953 0.9447
11.9983 7.3718 -1.9953 0.9447
11.2939 8.4113 -1.9953 0.9447
10.4998 9.3839 -1.9953 0.9447
8.6680 11.0982 -1.9953 0.9447
5.0113 12.0039 -1.8431 0.9488
3.9221 12.4026 -1.8431 0.9488
1.6590 12.9017 -1.8431 0.9488
0.4973 12.8465 -1.8216 0.9494
-0.5793 11.4599 -1.6258 0.9547
-6.1026 11.2646 -1.8152 0.9496
-8.1275 10.1564 -1.8431 0.9488
-9.0000 9.3921 -1.8431 0.9488
-9.8008 8.5531 -1.8431 0.9488
-10.5238 7.6460 -1.8431 0.9488
-12.1709 4.5913 -1.8431 0.9488
-13.8489 2.5536 -1.9953 0.9447
-14.0312 -1.1991 -1.9953 0.9447
-13.8686 -2.4442 -1.9953 0.9447
-13.2148 -4.8664 -1.9953 0.9447
-12.7288 -6.0242 -1.9953 0.9447
-12.1416 -7.1341 -1.9953 0.9447
-10.1952 -8.7564 -1.9042 0.9472
-7.2758 -10.7830 -1.8431 0.9488
-6.2864 -11.3882 -1.8431 0.9488
-4.1897 -9.5046 -1.4717 0.9589
-3.0515 -12.6450 -1.8431 0.9488
-1.9130 -12.8666 -1.8431 0.9488
-0.7592 -12.9858 -1.8431 0.9488
4.9163 -12.0431 -1.8431 0.9488
-3.3889 10.6624 -1.8431 0.9557
-4.3252 10.3181 -1.8431 0.9557
-5.2271 9.8918 -1.8431 0.9557
-3.6367 5.6077 -1.1011 0.9733
-6.8995 8.8073 -1.8431 0.9557
-8.9827 6.6696 -1.8431 0.9557
-9.5411 5.8429 -1.8431 0.9557
-12.0780 -0.9063 -1.9953 0.9521
-10.5057 -6.0274 -1.9953 0.9521
-9.2694 -7.7960 -1.9953 0.9521
-8.5134 -8.5658 -1.9895 0.9522
-7.1825 -8.6471 -1.8518 0.9555
-6.3535 -9.2089 -1.8431 0.9557
-5.5079 -9.7383 -1.8431 0.9557
-4.3055 -9.4995 -1.7182 0.9586
-2.7102 -10.7417 -1.8250 0.9561
-1.7598 -11.0487 -1.8431 0.9557
-0.7686 -11.1615 -1.8431 0.9557
0.2287 -11.1856 -1.8431 0.9557
3.1781 -10.7270 -1.8431 0.9557
4.1210 -10.4012 -1.8431 0.9557
5.0311 -9.9928 -1.8431 0.9557
6.3792 -10.2747 -1.9923 0.9522
8.8819 -8.2344 -1.9953 0.9521
9.5801 -7.4105 -1.9953 0.9521
10.7430 -5.5929 -1.9953 0.9521
11.1985 -4.6137 -1.9953 0.9521
11.5650 -3.5978 -1.9953 0.9521
12.1047 -0.4119 -1.9953 0.9521
11.4862 3.8418 -1.9953 0.9521
10.6222 5.8190 -1.9953 0.9521
9.4211 7.6116 -1.9953 0.9521
7.9209 9.1626 -1.9953 0.9521
4.8185 10.0971 -1.8431 0.9557
3.8999 10.4862 -1.8431 0.9557
2.9503 10.7919 -1.8431 0.9557
0.9885 11.1442 -1.8431 0.9557
-0.0082 11.1879 -1.8431 0.9557
-2.9661 10.7876 -1.8431 0.9557
-4.8332 10.0901 -1.8431 0.9557
-3.5191 5.9255 -1.1353 0.9724
-3.9685 5.4992 -1.1172 0.9729
-7.3292 8.4531 -1.8431 0.9557
-8.0530 7.7666 -1.8431 0.9557
-9.3034 6.2144 -1.8431 0.9557
-11.4772 3.8202 -1.9927 0.9521
-11.9885 1.7252 -1.9953 0.9521
-12.0945 0.6504 -1.9953 0.9521
-12.0180 -1.5061 -1.9953 0.9521
-10.7351 -5.6087 -1.9953 0.9521
-10.1928 -6.5427 -1.9953 0.9521
-9.5695 -7.4246 -1.9953 0.9521
-6.7115 -8.9514 -1.8431 0.9557
-5.8875 -9.5137 -1.8431 0.9557
-0.2123 -11.1859 -1.8431 0.9557
1.7760 -11.0461 -1.8431 0.9557
2.7529 -10.8439 -1.8431 0.9557
3.7079 -10.5556 -1.8431 0.9557
4.6334 -10.1833 -1.8431 0.9557
5.7380 -10.1105 -1.9151 0.9540
6.8926 -9.9592 -1.9953 0.9521
7.7524 -9.3056 -1.9953 0.9521
9.2806 -7.7823 -1.9953 0.9521
11.0080 -5.0514 -1.9953 0.9521
11.4142 -4.0508 -1.9953 0.9521
12.0790 -0.8886 -1.9953 0.9521
12.1102 0.1909 -1.9953 0.9521
12.0450 1.2689 -1.9953 0.9521
11.6287 3.3861 -1.9953 0.9521
11.2808 4.4085 -1.9953 0.9521
10.3196 6.3404 -1.9953 0.9521
9.0307 8.0709 -1.9953 0.9521
8.2759 8.8433 -1.9953 0.9521
7.4552 9.5453 -1.9953 0.9521
6.0737 9.3956 -1.8431 0.9557
4.3101 10.3243 -1.8431 0.9557
3.3733 10.6672 -1.8431 0.9557
1.4269 11.0965 -1.8431 0.9557
0.4328 11.1796 -1.8431 0.9557
-0.5648 11.1737 -1.8431 0.9557
-2.5387 10.8961 -1.8431 0.9557
-4.4319 10.2728 -1.8431 0.9557
-5.3293 9.8372 -1.8431 0.9557
-8.4295 7.3563 -1.8431 0.9557
-10.0746 4.8657 -1.8431 0.9557
-10.9918 4.1466 -1.9353 0.9535
-12.0595 1.1265 -1.9953 0.9521
-11.6935 -3.1560 -1.9953 0.9521
-11.3658 -4.1855 -1.9953 0.9521
-10.9478 -5.1813 -1.9953 0.9521
-9.8546 -7.0417 -1.9953 0.9521
-7.0591 -8.6799 -1.8431 0.9557
-6.2578 -9.2742 -1.8431 0.9557
-5.4068 -9.7948 -1.8431 0.9557
-4.1897 -9.5046 -1.7112 0.9588
-2.6246 -10.8758 -1.8431 0.9557
-1.6453 -11.0663 -1.8431 0.9557
-0.6530 -11.1689 -1.8431 0.9557
0.3445 -11.1826 -1.8431 0.9557
1.3392 -11.1075 -1.8431 0.9557
3.2890 -10.6935 -1.8431 0.9557
-2.9702 9.3451 -1.8431 0.9609
-3.7908 9.0434 -1.8431 0.9609
-4.5814 8.6697 -1.8431 0.9609
-3.6573 5.6394 -1.2634 0.9730
-6.0471 7.7192 -1.8431 0.9609
-6.7107 7.1499 -1.8431 0.9609
-7.8729 5.8456 -1.8431 0.9609
-10.6145 0.1518 -1.9953 0.9577
-10.5858 -0.7943 -1.9953 0.9577
-10.4730 -1.7341 -1.9953 0.9577
-10.2769 -2.6601 -1.9953 0.9577
-9.6417 -4.4415 -1.9953 0.9577
-9.2078 -5.2827 -1.9953 0.9577
-7.4832 -7.5293 -1.9953 0.9577
-5.9178 -8.5774 -1.9587 0.9585
-4.8402 -8.5576 -1.8480 0.9608
-3.2363 -9.2563 -1.8431 0.9609
-2.3989 -9.5078 -1.8431 0.9609
-0.6737 -9.7826 -1.8431 0.9609
1.0729 -9.7468 -1.8431 0.9609
1.9369 -9.6125 -1.8431 0.9609
3.6119 -9.1163 -1.8431 0.9609
4.7445 -9.4236 -1.9831 0.9580
7.1108 -7.8818 -1.9953 0.9577
7.7846 -7.2171 -1.9953 0.9577
8.3965 -6.4949 -1.9953 0.9577
8.9417 -5.7212 -1.9953 0.9577
9.4158 -4.9019 -1.9953 0.9577
10.1362 -3.1533 -1.9953 0.9577
10.3768 -2.2379 -1.9953 0.9577
10.6092 -0.3610 -1.9953 0.9577
10.5049 1.5273 -1.9953 0.9577
9.7272 4.2505 -1.9953 0.9577
8.2572 6.6712 -1.9953 0.9577
7.6301 7.3803 -1.9953 0.9577
6.9423 8.0306 -1.9953 0.9577
5.7265 7.9598 -1.8431 0.9609
4.9947 8.4383 -1.8431 0.9609
4.2232 8.8496 -1.8431 0.9609
1.7330 9.6514 -1.8431 0.9609
0.8664 9.7674 -1.8431 0.9609
-0.8806 9.7661 -1.8431 0.9609
-1.7471 9.6488 -1.8431 0.9609
-2.5996 9.4549 -1.8431 0.9609
-3.5202 5.9275 -1.2958 0.9723
-6.4237 7.4088 -1.8431 0.9609
-7.0581 6.8071 -1.8431 0.9609
-9.6336 4.1929 -1.9748 0.9581
-10.0723 3.3525 -1.9953 0.9577
-10.3309 2.4420 -1.9953 0.9577
-10.5073 1.5120 -1.9953 0.9577
-10.6003 0.5700 -1.9953 0.9577
-10.5332 -1.3200 -1.9953 0.9577
-10.3737 -2.2531 -1.9953 0.9577
-9.8093 -4.0581 -1.9953 0.9577
-5.3005 -8.5651 -1.8932 0.9598
-4.3968 -8.7648 -1.8431 0.9609
-2.7717 -9.4059 -1.8431 0.9609
-1.9229 -9.6154 -1.8431 0.9609
-1.0587 -9.7484 -1.8431 0.9609
4.1583 -9.1392 -1.8873 0.9600
6.0411 -8.7288 -1.9953 0.9577
6.7946 -8.1560 -1.9953 0.9577
8.1340 -6.8208 -1.9953 0.9577
9.2153 -5.2692 -1.9953 0.9577
9.6480 -4.4273 -1.9953 0.9577
10.0040 -3.5503 -1.9953 0.9577
9.5037 4.7293 -1.9953 0.9577
8.5137 6.3406 -1.9953 0.9577
7.9150 7.0738 -1.9953 0.9577
7.2534 7.7508 -1.9953 0.9577
6.5296 8.3603 -1.9939 0.9577
2.9566 9.3493 -1.8431 0.9609
2.1120 9.5755 -1.8431 0.9609
1.2506 9.7256 -1.8431 0.9609
-0.4950 9.7932 -1.8431 0.9609
-1.3654 9.7102 -1.8431 0.9609
-2.2250 9.5500 -1.8431 0.9609
-3.0668 9.3138 -1.8431 0.9609
-3.8843 9.0036 -1.8431 0.9609
-4.6709 8.6218 -1.8431 0.9609
-8.4149 5.0342 -1.8431 0.9609
-8.8299 4.2646 -1.8431 0.9609
-9.9309 3.7463 -1.9950 0.9577
-10.2266 2.8472 -1.9953 0.9577
-10.5696 0.9873 -1.9953 0.9577
-10.6155 0.0419 -1.9953 0.9577
-10.5770 -0.9039 -1.9953 0.9577
-9.5952 -4.5411 -1.9953 0.9577
-9.1526 -5.3778 -1.9953 0.9577
-8.6371 -6.1717 -1.9953 0.9577
-8.0530 -6.9166 -1.9953 0.9577
-5.7859 -8.5748 -1.9443 0.9588
-4.7388 -8.5847 -1.8431 0.9609
-3.1403 -9.2893 -1.8431 0.9609
-0.5723 -9.7890 -1.8431 0.9609
0.3019 -9.8011 -1.8431 0.9609
2.0363 -9.5919 -1.8431 0.9609
3.7061 -9.0783 -1.8431 0.9609
-0.2016 5.0176 -1.0615 0.9797
-1.1247 8.6465 -1.8431 0.9650
-3.1565 5.9732 -1.4281 0.9728
-4.0023 5.1090 -1.3718 0.9738
-5.9672 6.3577 -1.8431 0.9650
-6.7268 4.9946 -1.7710 0.9663
-7.4358 4.5537 -1.8431 0.9650
-8.4290 4.1791 -1.9887 0.9623
-9.0669 2.6258 -1.9953 0.9621
-9.2647 1.8077 -1.9953 0.9621
-9.4130 -0.7063 -1.9953 0.9621
-9.3126 -1.5420 -1.9953 0.9621
-9.1383 -2.3654 -1.9953 0.9621
-8.1876 -4.6974 -1.9953 0.9621
-7.2241 -6.0758 -1.9953 0.9621
-6.6542 -6.6951 -1.9953 0.9621
-4.6418 -8.2068 -1.9930 0.9622
-3.8495 -8.4934 -1.9711 0.9626
-2.9621 -8.4721 -1.8971 0.9640
-1.3715 -8.6108 -1.8431 0.9650
-0.5990 -8.6987 -1.8431 0.9650
0.1782 -8.7175 -1.8431 0.9650
0.9540 -8.6670 -1.8431 0.9650
2.5382 -8.5674 -1.8888 0.9641
4.9789 -8.0194 -1.9953 0.9621
6.3229 -7.0086 -1.9953 0.9621
6.9221 -6.4175 -1.9953 0.9621
8.3726 -4.3588 -1.9953 0.9621
8.7276 -3.5957 -1.9953 0.9621
9.3677 -1.1601 -1.9953 0.9621
9.4338 -0.3210 -1.9953 0.9621
9.1829 2.1848 -1.9953 0.9621
8.2785 4.5351 -1.9953 0.9621
7.8416 5.2545 -1.9953 0.9621
6.7847 6.5626 -1.9953 0.9621
5.2644 7.3175 -1.9055 0.9638
4.4413 7.5034 -1.8431 0.9650
3.7553 7.8692 -1.8431 0.9650
3.0394 8.1724 -1.8431 0.9650
2.2993 8.4107 -1.8431 0.9650
1.5410 8.5821 -1.8431 0.9650
-0.0064 8.7193 -1.8431 0.9650
-2.3116 8.4074 -1.8431 0.9650
-3.0513 8.1680 -1.8431 0.9650
-7.2506 4.8432 -1.8431 0.9650
-7.8396 4.2798 -1.8880 0.9641
-8.6552 3.7671 -1.9953 0.9621
-9.1863 2.1714 -1.9953 0.9621
-9.4258 0.5069 -1.9953 0.9621
-9.4335 -0.3348 -1.9953 0.9621
-9.2244 -2.0034 -1.9953 0.9621
-8.7225 -3.6085 -1.9953 0.9621
-8.3664 -4.3711 -1.9953 0.9621
-5.6626 -7.5524 -1.9953 0.9621
-4.2197 -8.4117 -1.9893 0.9623
-3.3461 -8.4816 -1.9273 0.9634
-2.4929 -8.4596 -1.8642 0.9646
-0.9414 -8.6684 -1.8431 0.9650
0.6117 -8.6978 -1.8431 0.9650
1.3841 -8.6088 -1.8431 0.9650
2.1563 -8.4939 -1.8524 0.9648
3.0530 -8.6912 -1.9472 0.9630
3.9070 -8.5868 -1.9941 0.9622
4.6590 -8.2094 -1.9953 0.9621
6.0418 -7.2523 -1.9953 0.9621
6.6638 -6.6853 -1.9953 0.9621
8.8957 -3.1570 -1.9953 0.9621
9.1415 -2.3520 -1.9953 0.9621
9.3147 -1.5284 -1.9953 0.9621
9.4138 -0.6925 -1.9953 0.9621
9.4381 0.1488 -1.9953 0.9621
9.2619 1.8212 -1.9953 0.9621
9.0629 2.6390 -1.9953 0.9621
8.0426 4.9414 -1.9953 0.9621
7.0381 6.2901 -1.9953 0.9621
5.8036 7.4307 -1.9930 0.9622
4.7336 7.3225 -1.8431 0.9650
4.0625 7.7151 -1.8431 0.9650
3.3591 8.0463 -1.8431 0.9650
1.8780 8.5147 -1.8431 0.9650
0.3373 8.7128 -1.8431 0.9650
-0.4402 8.7082 -1.8431 0.9650
-1.2142 8.6344 -1.8431 0.9650
-1.9785 8.4919 -1.8431 0.9650
-2.7271 8.2819 -1.8431 0.9650
-3.1483 5.8114 -1.3971 0.9733
-4.0850 5.1048 -1.3820 0.9736
-6.5695 5.7331 -1.8431 0.9650
-7.4826 4.4764 -1.8431 0.9650
-8.4778 4.0945 -1.9901 0.9622
-8.8319 3.3317 -1.9953 0.9621
-9.0936 2.5318 -1.9953 0.9621
-9.2830 1.7117 -1.9953 0.9621
-9.3985 0.8779 -1.9953 0.9621
-9.4394 0.0372 -1.9953 0.9621
-8.5322 -4.0380 -1.9953 0.9621
-7.6802 -5.4880 -1.9953 0.9621
-6.5845 -6.7637 -1.9953 0.9621
-5.9558 -7.3233 -1.9953 0.9621
-5.2798 -7.8247 -1.9953 0.9621
-4.5547 -8.2511 -1.9922 0.9622
-2.8631 -8.4695 -1.8898 0.9641
-2.0454 -8.4760 -1.8431 0.9650
-0.5089 -8.7045 -1.8431 0.9650
1.0437 -8.6566 -1.8431 0.9650
2.6428 -8.5926 -1.9003 0.9639
-1.0115 7.7767 -1.8431 0.9683
-2.3754 7.4738 -1.8431 0.9683
-3.1565 5.9733 -1.5878 0.9726
-3.3452 5.1583 -1.4449 0.9751
-7.0265 4.3030 -1.9364 0.9667
-7.6062 3.7712 -1.9953 0.9657
-7.9120 3.0787 -1.9953 0.9657
-8.1547 2.3617 -1.9953 0.9657
-8.3327 1.6259 -1.9953 0.9657
-8.4660 -0.6352 -1.9953 0.9657
-8.3758 -1.3869 -1.9953 0.9657
-7.9968 -2.8511 -1.9953 0.9657
-7.3639 -4.2249 -1.9953 0.9657
-6.9583 -4.8641 -1.9953 0.9657
-6.4974 -5.4646 -1.9953 0.9657
-5.9848 -6.0216 -1.9953 0.9657
-5.4246 -6.5308 -1.9953 0.9657
-4.8213 -6.9880 -1.9953 0.9657
-2.0726 -8.2147 -1.9912 0.9658
-1.3307 -8.3546 -1.9883 0.9658
0.1704 -8.3367 -1.9597 0.9663
3.1271 -7.8928 -1.9953 0.9657
4.4781 -7.2127 -1.9953 0.9657
5.6869 -6.3036 -1.9953 0.9657
6.2258 -5.7719 -1.9953 0.9657
7.5303 -3.9204 -1.9953 0.9657
7.8496 -3.2340 -1.9953 0.9657
8.4848 -0.2887 -1.9953 0.9657
7.4457 4.0789 -1.9953 0.9657
7.0527 4.7259 -1.9953 0.9657
5.5522 6.4225 -1.9953 0.9657
4.9420 6.8693 -1.9888 0.9658
1.3860 7.7187 -1.8431 0.9683
-0.0057 7.8422 -1.8431 0.9683
-2.7444 7.3463 -1.8431 0.9683
-3.1204 5.2541 -1.4362 0.9752
-3.7074 5.1375 -1.4890 0.9743
-4.4254 5.1041 -1.5877 0.9726
-6.5212 4.3560 -1.8431 0.9683
-7.4370 4.0600 -1.9914 0.9658
-8.0553 2.6812 -1.9953 0.9657
-8.4776 0.4559 -1.9953 0.9657
-7.8450 -3.2455 -1.9953 0.9657
-7.1446 -4.5860 -1.9953 0.9657
-5.0929 -6.7926 -1.9953 0.9657
-4.4676 -7.2192 -1.9953 0.9657
-3.8067 -7.5885 -1.9953 0.9657
-3.1156 -7.8974 -1.9953 0.9657
-1.6599 -8.3005 -1.9894 0.9658
-0.1585 -8.3492 -1.9626 0.9663
1.3426 -8.3506 -1.9878 0.9658
2.0852 -8.2140 -1.9917 0.9658
3.5160 -7.7275 -1.9953 0.9657
5.4340 -6.5228 -1.9953 0.9657
7.7161 -3.5408 -1.9953 0.9657
8.3777 -1.3746 -1.9953 0.9657
8.4668 -0.6229 -1.9953 0.9657
8.4886 0.1338 -1.9953 0.9657
8.3302 1.6380 -1.9953 0.9657
8.1512 2.3735 -1.9953 0.9657
7.6006 3.7823 -1.9953 0.9657
5.8010 6.1987 -1.9953 0.9657
5.2232 6.6876 -1.9943 0.9657
3.6538 6.9389 -1.8431 0.9683
2.3645 7.4772 -1.8431 0.9683
1.0002 7.7781 -1.8431 0.9683
-0.3959 7.8322 -1.8431 0.9683
-3.1483 5.8114 -1.5534 0.9732
-3.4192 5.1546 -1.4537 0.9749
-4.0976 5.1205 -1.5413 0.9734
-5.9086 5.1564 -1.8431 0.9683
-7.1742 4.2919 -1.9648 0.9662
-8.1788 2.2771 -1.9953 0.9657
-8.4530 0.7896 -1.9953 0.9657
-8.4898 0.0335 -1.9953 0.9657
-8.4590 -0.7229 -1.9953 0.9657
-8.3610 -1.4735 -1.9953 0.9657
-8.1965 -2.2125 -1.9953 0.9657
-7.9668 -2.9338 -1.9953 0.9657
-7.6738 -3.6318 -1.9953 0.9657
-7.3198 -4.3009 -1.9953 0.9657
-5.9221 -6.0833 -1.9953 0.9657
-5.3566 -6.5866 -1.9953 0.9657
-4.7486 -7.0376 -1.9953 0.9657
-4.1028 -7.4326 -1.9953 0.9657
-3.4245 -7.7685 -1.9953 0.9657
-2.7178 -8.0397 -1.9946 0.9657
-1.9871 -8.2342 -1.9908 0.9658
-1.2440 -8.3669 -1.9880 0.9658
-0.4888 -8.3612 -1.9684 0.9662
0.2567 -8.3334 -1.9595 0.9663
1.0045 -8.3310 -1.9722 0.9661
1.7581 -8.2812 -1.9896 0.9658
2.4950 -8.1120 -1.9946 0.9657
-4.0146 5.1247 -1.6855 0.9735
-4.7065 5.0145 -1.7806 0.9720
-5.3146 4.7358 -1.8431 0.9710
-6.9043 3.4232 -1.9953 0.9687
-7.6651 0.7962 -1.9953 0.9687
-7.7055 0.1102 -1.9953 0.9687
-7.6028 -1.2589 -1.9953 0.9687
-6.9994 -3.2243 -1.9953 0.9687
-6.3162 -4.4152 -1.9953 0.9687
-5.8977 -4.9602 -1.9953 0.9687
-5.4324 -5.4659 -1.9953 0.9687
-4.9240 -5.9281 -1.9953 0.9687
-4.3763 -6.3431 -1.9953 0.9687
-3.7939 -6.7077 -1.9953 0.9687
-2.5434 -7.2745 -1.9953 0.9687
-1.2122 -7.6103 -1.9953 0.9687
-0.5294 -7.6881 -1.9953 0.9687
0.8432 -7.6600 -1.9953 0.9687
1.5222 -7.5544 -1.9953 0.9687
2.1891 -7.3888 -1.9953 0.9687
4.0648 -6.5470 -1.9953 0.9687
4.6318 -6.1589 -1.9953 0.9687
5.1620 -5.7218 -1.9953 0.9687
6.0955 -4.7150 -1.9953 0.9687
6.4912 -4.1533 -1.9953 0.9687
6.8354 -3.5585 -1.9953 0.9687
7.1252 -2.9355 -1.9953 0.9687
7.5330 -1.6246 -1.9953 0.9687
7.6478 -0.9471 -1.9953 0.9687
7.7017 -0.2621 -1.9953 0.9687
7.3083 2.4444 -1.9953 0.9687
6.7585 3.7024 -1.9953 0.9687
6.4019 4.2898 -1.9953 0.9687
5.9943 4.8430 -1.9953 0.9687
5.5391 5.3577 -1.9953 0.9687
3.0658 6.4244 -1.8431 0.9710
2.4813 6.6720 -1.8431 0.9710
1.2581 7.0064 -1.8431 0.9710
-0.0052 7.1184 -1.8431 0.9710
-0.6393 7.0897 -1.8431 0.9710
-2.4911 6.6684 -1.8431 0.9710
-3.1204 5.2541 -1.5822 0.9751
-5.1238 4.9416 -1.8431 0.9710
-5.5436 4.4655 -1.8431 0.9710
-6.3866 4.2660 -1.9886 0.9688
-6.7640 3.6926 -1.9953 0.9687
-7.3119 2.4338 -1.9953 0.9687
-7.4997 1.7728 -1.9953 0.9687
-7.3551 -2.2999 -1.9953 0.9687
-7.1210 -2.9460 -1.9953 0.9687
-6.4852 -4.1628 -1.9953 0.9687
-6.0886 -4.7240 -1.9953 0.9687
-5.1537 -5.7294 -1.9953 0.9687
-4.0553 -6.5530 -1.9953 0.9687
-3.4554 -6.8882 -1.9953 0.9687
-0.1463 -7.7049 -1.9953 0.9687
1.8962 -7.4693 -1.9953 0.9687
2.5540 -7.2707 -1.9953 0.9687
3.8036 -6.7021 -1.9953 0.9687
5.4404 -5.4579 -1.9953 0.9687
6.3225 -4.4059 -1.9953 0.9687
6.6898 -3.8252 -1.9953 0.9687
7.6045 -1.2477 -1.9953 0.9687
7.6638 0.8073 -1.9953 0.9687
7.5614 1.4868 -1.9953 0.9687
7.1776 2.8050 -1.9953 0.9687
6.8992 3.4332 -1.9953 0.9687
6.5659 4.0341 -1.9953 0.9687
6.1805 4.6030 -1.9953 0.9687
5.7459 5.1352 -1.9953 0.9687
5.2656 5.6267 -1.9953 0.9687
1.5332 6.9513 -1.8431 0.9710
0.2754 7.1131 -1.8431 0.9710
-0.3594 7.1094 -1.8431 0.9710
-1.6152 6.9328 -1.8431 0.9710
-2.8198 6.5361 -1.8431 0.9710
-4.0976 5.1205 -1.6980 0.9733
-4.9251 5.1397 -1.8431 0.9710
-5.3633 4.6805 -1.8431 0.9710
-6.9394 3.3515 -1.9953 0.9687
-7.2103 2.7200 -1.9953 0.9687
-7.4240 2.0669 -1.9953 0.9687
-7.6729 0.7167 -1.9953 0.9687
-7.6783 -0.6562 -1.9953 0.9687
-7.4401 -2.0083 -1.9953 0.9687
-7.2316 -2.6630 -1.9953 0.9687
-6.6443 -3.9040 -1.9953 0.9687
-6.2701 -4.4803 -1.9953 0.9687
-5.8461 -5.0210 -1.9953 0.9687
-5.3755 -5.5219 -1.9953 0.9687
-4.8623 -5.9787 -1.9953 0.9687
-3.7242 -6.7467 -1.9953 0.9687
-2.4679 -7.3004 -1.9953 0.9687
-1.8078 -7.4912 -1.9953 0.9687
-1.1333 -7.6225 -1.9953 0.9687
0.2373 -7.7026 -1.9953 0.9687
1.6003 -7.5383 -1.9953 0.9687
2.2655 -7.3657 -1.9953 0.9687
0.3192 6.5027 -1.8431 0.9733
-1.9721 6.2047 -1.8431 0.9733
-2.5170 6.0044 -1.8431 0.9733
-4.4556 4.7472 -1.8431 0.9733
-5.6448 4.1912 -1.9903 0.9712
-6.3147 3.1309 -1.9953 0.9711
-6.7700 1.9606 -1.9953 0.9711
-6.9178 1.3498 -1.9953 0.9711
-7.0105 0.7282 -1.9953 0.9711
-6.9536 -1.1514 -1.9953 0.9711
-6.6389 -2.3670 -1.9953 0.9711
-6.1135 -3.5075 -1.9953 0.9711
-5.3941 -4.5367 -1.9953 0.9711
-4.9685 -4.9991 -1.9953 0.9711
-4.5035 -5.4218 -1.9953 0.9711
-4.0026 -5.8014 -1.9953 0.9711
-3.4699 -6.1349 -1.9953 0.9711
-2.9096 -6.4196 -1.9953 0.9711
1.3922 -6.9093 -1.9953 0.9711
3.1695 -6.2953 -1.9953 0.9711
3.7177 -5.9879 -1.9953 0.9711
5.1686 -4.7918 -1.9953 0.9711
5.5749 -4.3124 -1.9953 0.9711
5.9369 -3.7986 -1.9953 0.9711
6.2517 -3.2547 -1.9953 0.9711
7.0374 0.3887 -1.9953 0.9711
6.9748 1.0141 -1.9953 0.9711
6.4584 2.8222 -1.9953 0.9711
5.0660 4.9002 -1.9953 0.9711
4.1158 5.7209 -1.9951 0.9711
3.4510 5.8303 -1.9180 0.9722
2.8040 5.8758 -1.8431 0.9733
2.2694 6.1022 -1.8431 0.9733
1.7169 6.2801 -1.8431 0.9733
0.5752 6.4851 -1.8431 0.9733
-1.7260 6.2776 -1.8431 0.9733
-2.8126 5.8717 -1.8431 0.9733
-3.0964 5.2138 -1.7167 0.9751
-3.6567 5.0672 -1.7690 0.9744
-4.6862 4.5196 -1.8431 0.9733
-6.1864 3.3773 -1.9953 0.9711
-6.4626 2.8128 -1.9953 0.9711
-6.8592 1.6214 -1.9953 0.9711
-6.9764 1.0039 -1.9953 0.9711
-7.0438 -0.2500 -1.9953 0.9711
-4.2281 -5.6392 -1.9953 0.9711
-2.5866 -6.5564 -1.9953 0.9711
-1.3821 -6.9113 -1.9953 0.9711
-0.7610 -7.0070 -1.9953 0.9711
-0.1338 -7.0469 -1.9953 0.9711
0.4945 -7.0308 -1.9953 0.9711
2.9190 -6.4153 -1.9953 0.9711
6.4059 -2.9396 -1.9953 0.9711
6.8258 -1.7562 -1.9953 0.9711
7.0291 -0.5171 -1.9953 0.9711
6.9157 1.3599 -1.9953 0.9711
6.7671 1.9705 -1.9953 0.9711
6.5646 2.5655 -1.9953 0.9711
6.0052 3.6896 -1.9953 0.9711
5.6527 4.2099 -1.9953 0.9711
5.2552 4.6967 -1.9953 0.9711
4.8160 5.1462 -1.9953 0.9711
3.8156 5.9025 -1.9897 0.9712
2.5082 6.0080 -1.8431 0.9733
1.9630 6.2075 -1.8431 0.9733
0.8304 6.4574 -1.8431 0.9733
0.2518 6.5057 -1.8431 0.9733
-0.9066 6.4471 -1.8431 0.9733
-2.0362 6.1839 -1.8431 0.9733
-2.5790 5.9780 -1.8431 0.9733
-3.0652 5.6578 -1.8216 0.9736
-3.3722 5.0837 -1.7270 0.9750
-4.0396 5.0480 -1.8303 0.9735
-5.6906 4.1345 -1.9913 0.9712
-6.0485 3.6185 -1.9953 0.9711
-6.3468 3.0653 -1.9953 0.9711
-6.7900 1.8904 -1.9953 0.9711
-6.9314 1.2781 -1.9953 0.9711
-7.0177 0.6555 -1.9953 0.9711
-6.9413 -1.2233 -1.9953 0.9711
-6.6140 -2.4356 -1.9953 0.9711
-6.3708 -3.0151 -1.9953 0.9711
-4.9165 -5.0503 -1.9953 0.9711
-3.9423 -5.8426 -1.9953 0.9711
-3.4062 -6.1705 -1.9953 0.9711
-2.2572 -6.6770 -1.9953 0.9711
-1.0365 -6.9716 -1.9953 0.9711
2.6639 -6.5254 -1.9953 0.9711
0.2938 5.9851 -1.8431 0.9752
-0.2016 5.0179 -1.5446 0.9792
-1.8151 5.7108 -1.8431 0.9752
-2.3166 5.5264 -1.8431 0.9752
-2.7996 5.2981 -1.8431 0.9752
-3.2605 5.0276 -1.8431 0.9752
-4.8279 4.3022 -1.9890 0.9733
-6.0456 2.3524 -1.9953 0.9732
-6.4524 0.6702 -1.9953 0.9732
-6.4690 -0.4854 -1.9953 0.9732
-6.4000 -1.0597 -1.9953 0.9732
-6.2802 -1.6256 -1.9953 0.9732
-6.1104 -2.1786 -1.9953 0.9732
-5.8920 -2.7142 -1.9953 0.9732
-4.9647 -4.1755 -1.9953 0.9732
-4.5730 -4.6011 -1.9953 0.9732
-4.1450 -4.9902 -1.9953 0.9732
-2.1410 -6.1236 -1.9953 0.9732
-0.4457 -6.4718 -1.9953 0.9732
0.1326 -6.4857 -1.9953 0.9732
1.2814 -6.3593 -1.9953 0.9732
1.8427 -6.2199 -1.9953 0.9732
2.3895 -6.0310 -1.9953 0.9732
2.9172 -5.7941 -1.9953 0.9732
5.9979 -2.4711 -1.9953 0.9732
6.1942 -1.9270 -1.9953 0.9732
6.3413 -1.3676 -1.9953 0.9732
6.4379 -0.7973 -1.9953 0.9732
6.4833 -0.2206 -1.9953 0.9732
6.4772 0.3578 -1.9953 0.9732
6.4196 0.9333 -1.9953 0.9732
6.3109 1.5015 -1.9953 0.9732
5.6893 3.1167 -1.9953 0.9732
5.3891 3.6111 -1.9953 0.9732
4.6627 4.5101 -1.9953 0.9732
2.0888 5.6164 -1.8431 0.9752
1.5802 5.7801 -1.8431 0.9752
1.0590 5.8979 -1.8431 0.9752
-2.0970 5.6134 -1.8431 0.9752
-2.5887 5.4043 -1.8431 0.9752
-3.0379 5.1153 -1.8299 0.9754
-3.5066 4.8592 -1.8431 0.9752
-5.0458 4.0645 -1.9929 0.9732
-5.3944 3.6033 -1.9953 0.9732
-5.9482 2.5889 -1.9953 0.9732
-6.1551 2.0487 -1.9953 0.9732
-6.3132 1.4923 -1.9953 0.9732
-6.4210 0.9240 -1.9953 0.9732
-6.4778 0.3483 -1.9953 0.9732
-6.4831 -0.2301 -1.9953 0.9732
-6.1915 -1.9361 -1.9953 0.9732
-5.9944 -2.4799 -1.9953 0.9732
-5.7497 -3.0040 -1.9953 0.9732
-4.3384 -4.8230 -1.9953 0.9732
-3.4137 -5.5163 -1.9953 0.9732
-2.9088 -5.7984 -1.9953 0.9732
-1.8337 -6.2226 -1.9953 0.9732
-0.1231 -6.4859 -1.9953 0.9732
0.4551 -6.4711 -1.9953 0.9732
1.0298 -6.4048 -1.9953 0.9732
1.5962 -6.2876 -1.9953 0.9732
2.1499 -6.1205 -1.9953 0.9732
2.6866 -5.9046 -1.9953 0.9732
4.5797 -4.5944 -1.9953 0.9732
4.9707 -4.1682 -1.9953 0.9732
5.6315 -3.2200 -1.9953 0.9732
6.1135 -2.1696 -1.9953 0.9732
6.2824 -1.6164 -1.9953 0.9732
6.4862 0.1022 -1.9953 0.9732
6.3652 1.2516 -1.9953 0.9732
5.8077 2.8901 -1.9953 0.9732
4.8369 4.3228 -1.9953 0.9732
4.4326 4.7365 -1.9953 0.9732
3.5189 5.4434 -1.9937 0.9732
1.2906 5.8516 -1.8431 0.9752
-0.3025 5.9846 -1.8431 0.9752
-0.8344 5.9339 -1.8431 0.9752
-1.3597 5.8360 -1.8431 0.9752
-2.8544 5.2688 -1.8431 0.9752
-3.3124 4.9936 -1.8431 0.9752
-3.7440 4.6787 -1.8431 0.9752
-4.8742 4.2536 -1.9898 0.9733
-5.2482 3.8131 -1.9953 0.9732
-6.0696 2.2897 -1.9953 0.9732
-6.2494 1.7399 -1.9953 0.9732
-6.4590 0.6034 -1.9953 0.9732
-6.4636 -0.5524 -1.9953 0.9732
-6.3887 -1.1259 -1.9953 0.9732
-6.2630 -1.6906 -1.9953 0.9732
-6.0875 -2.2417 -1.9953 0.9732
-5.8636 -2.7751 -1.9953 0.9732
-5.5931 -3.2864 -1.9953 0.9732
-5.2781 -3.7715 -1.9953 0.9732
-4.9212 -4.2267 -1.9953 0.9732
-4.0931 -5.0329 -1.9953 0.9732
-2.6166 -5.9360 -1.9953 0.9732
-2.0775 -6.1455 -1.9953 0.9732
-1.5218 -6.3061 -1.9953 0.9732
0.1998 -6.4840 -1.9953 0.9732
0.7765 -6.4404 -1.9953 0.9732
1.9071 -6.2004 -1.9953 0.9732
0.2719 5.5380 -1.8431 0.9769
-0.2016 5.0180 -1.6694 0.9791
-0.7152 5.4984 -1.8431 0.9769
-1.2021 5.4128 -1.8431 0.9769
-1.6795 5.2842 -1.8431 0.9769
-2.1436 5.1136 -1.8431 0.9769
-4.4797 3.9918 -1.9945 0.9750
-5.8915 1.1495 -1.9953 0.9750
-6.0020 0.0859 -1.9953 0.9750
-5.9220 -0.9806 -1.9953 0.9750
-5.6540 -2.0158 -1.9953 0.9750
-5.4520 -2.5115 -1.9953 0.9750
-4.9198 -3.4391 -1.9953 0.9750
-4.2314 -4.2575 -1.9953 0.9750
-1.9811 -5.6662 -1.9953 0.9750
-1.4685 -5.8202 -1.9953 0.9750
-0.9442 -5.9279 -1.9953 0.9750
-0.4124 -5.9884 -1.9953 0.9750
1.7051 -5.7553 -1.9953 0.9750
3.1662 -5.0996 -1.9953 0.9750
3.6079 -4.7973 -1.9953 0.9750
4.4019 -4.0810 -1.9953 0.9750
4.7479 -3.6726 -1.9953 0.9750
5.0562 -3.2351 -1.9953 0.9750
5.5500 -2.2865 -1.9953 0.9750
5.7316 -1.7831 -1.9953 0.9750
5.8676 -1.2654 -1.9953 0.9750
5.9991 -0.2041 -1.9953 0.9750
5.9934 0.3311 -1.9953 0.9750
4.9866 3.3414 -1.9953 0.9750
4.6691 3.7723 -1.9953 0.9750
4.3145 4.1732 -1.9953 0.9750
3.0556 5.1623 -1.9940 0.9750
1.9328 5.1969 -1.8431 0.9769
0.9799 5.4574 -1.8431 0.9769
-0.0040 5.5447 -1.8431 0.9769
-0.4979 5.5223 -1.8431 0.9769
-0.9879 5.4560 -1.8431 0.9769
-1.4700 5.3463 -1.8431 0.9769
-2.3953 5.0006 -1.8431 0.9769
-3.2447 4.4962 -1.8431 0.9769
-3.8382 4.4268 -1.9476 0.9756
-4.3130 4.1596 -1.9918 0.9751
-5.2686 2.8763 -1.9953 0.9750
-5.5039 2.3955 -1.9953 0.9750
-5.8416 1.3808 -1.9953 0.9750
-5.9988 -0.2129 -1.9953 0.9750
-5.7291 -1.7915 -1.9953 0.9750
-5.3202 -2.7796 -1.9953 0.9750
-5.0515 -3.2425 -1.9953 0.9750
-4.3959 -4.0874 -1.9953 0.9750
-3.6009 -4.8026 -1.9953 0.9750
-3.1587 -5.1043 -1.9953 0.9750
-2.6915 -5.3654 -1.9953 0.9750
-2.2029 -5.5838 -1.9953 0.9750
-1.6967 -5.7578 -1.9953 0.9750
-0.6481 -5.9675 -1.9953 0.9750
-0.1139 -6.0015 -1.9953 0.9750
1.9894 -5.6633 -1.9953 0.9750
2.9627 -5.2204 -1.9953 0.9750
3.4160 -4.9358 -1.9953 0.9750
5.2109 -2.9795 -1.9953 0.9750
5.6569 -2.0076 -1.9953 0.9750
5.8132 -1.4957 -1.9953 0.9750
5.9864 -0.4404 -1.9953 0.9750
6.0018 0.0946 -1.9953 0.9750
5.7632 1.6782 -1.9953 0.9750
5.3739 2.6742 -1.9953 0.9750
5.1144 3.1423 -1.9953 0.9750
4.8141 3.5854 -1.9953 0.9750
4.4756 3.9999 -1.9953 0.9750
4.1015 4.3827 -1.9953 0.9750
3.6948 4.7307 -1.9953 0.9750
1.6718 5.2867 -1.8431 0.9769
1.1942 5.4146 -1.8431 0.9769
0.7072 5.4994 -1.8431 0.9769
-0.2799 5.5376 -1.8431 0.9769
-1.2581 5.4001 -1.8431 0.9769
-1.7342 5.2665 -1.8431 0.9769
-2.1964 5.0911 -1.8431 0.9769
-3.5593 4.4479 -1.8936 0.9763
-4.5224 3.9467 -1.9952 0.9750
-5.1512 3.0817 -1.9953 0.9750
-5.7827 1.6100 -1.9953 0.9750
-5.9031 1.0885 -1.9953 0.9750
-5.9766 0.5583 -1.9953 0.9750
-6.0026 0.0237 -1.9953 0.9750
-5.9808 -0.5111 -1.9953 0.9750
-5.6328 -2.0743 -1.9953 0.9750
-4.8839 -3.4898 -1.9953 0.9750
-4.5536 -3.9110 -1.9953 0.9750
-3.3575 -4.9758 -1.9953 0.9750
-2.9009 -5.2551 -1.9953 0.9750
-0.8828 -5.9373 -1.9953 0.9750
0.1848 -5.9997 -1.9953 0.9750
1.2465 -5.8717 -1.9953 0.9750
1.7646 -5.7373 -1.9953 0.9750
2.2687 -5.5573 -1.9953 0.9750
0.2527 5.1478 -1.8431 0.9783
-0.2016 5.0181 -1.7960 0.9789
-0.6648 5.1109 -1.8431 0.9783
-1.1174 5.0314 -1.8431 0.9783
-1.5612 4.9118 -1.8431 0.9783
-2.4080 4.5569 -1.8431 0.9783
-2.8999 4.4716 -1.9059 0.9776
-3.4294 4.3777 -1.9887 0.9767
-4.4798 3.3262 -1.9953 0.9766
-4.7582 2.9139 -1.9953 0.9766
-5.1998 2.0233 -1.9953 0.9766
-5.3594 1.5521 -1.9953 0.9766
-5.4763 1.0685 -1.9953 0.9766
-5.5497 0.5765 -1.9953 0.9766
-5.5640 -0.4175 -1.9953 0.9766
-5.5046 -0.9115 -1.9953 0.9766
-5.2556 -1.8738 -1.9953 0.9766
-4.8396 -2.7766 -1.9953 0.9766
-3.9332 -3.9574 -1.9953 0.9766
-3.1686 -4.5926 -1.9953 0.9766
-2.7469 -4.8566 -1.9953 0.9766
-1.8415 -5.2669 -1.9953 0.9766
-1.3650 -5.4100 -1.9953 0.9766
-0.8777 -5.5101 -1.9953 0.9766
-0.3833 -5.5664 -1.9953 0.9766
0.1140 -5.5784 -1.9953 0.9766
0.6105 -5.5461 -1.9953 0.9766
1.1021 -5.4696 -1.9953 0.9766
1.5849 -5.3497 -1.9953 0.9766
2.5091 -4.9836 -1.9953 0.9766
4.0917 -3.7934 -1.9953 0.9766
4.4133 -3.4138 -1.9953 0.9766
5.1589 -2.1254 -1.9953 0.9766
5.3277 -1.6574 -1.9953 0.9766
5.4541 -1.1762 -1.9953 0.9766
5.5372 -0.6857 -1.9953 0.9766
5.5710 0.3077 -1.9953 0.9766
5.5215 0.8028 -1.9953 0.9766
5.2914 1.7698 -1.9953 0.9766
5.1127 2.2341 -1.9953 0.9766
4.6351 3.1059 -1.9953 0.9766
4.3400 3.5065 -1.9953 0.9766
4.0104 3.8791 -1.9953 0.9766
3.6490 4.2210 -1.9953 0.9766
3.2585 4.5292 -1.9953 0.9766
1.3591 4.9715 -1.8431 0.9783
0.4554 5.1338 -1.8431 0.9783
-1.3664 4.9695 -1.8431 0.9783
-1.8036 4.8281 -1.8431 0.9783
-2.2265 4.6482 -1.8431 0.9783
-3.6480 4.2074 -1.9914 0.9766
-4.6397 3.0992 -1.9953 0.9766
-4.8973 2.6736 -1.9953 0.9766
-5.2940 1.7621 -1.9953 0.9766
-5.4300 1.2835 -1.9953 0.9766
-5.5227 0.7947 -1.9953 0.9766
-5.5761 -0.1979 -1.9953 0.9766
-5.5363 -0.6938 -1.9953 0.9766
-5.4525 -1.1842 -1.9953 0.9766
-5.3253 -1.6652 -1.9953 0.9766
-5.1558 -2.1330 -1.9953 0.9766
-3.3471 -4.4641 -1.9953 0.9766
-2.9361 -4.7446 -1.9953 0.9766
-1.5771 -5.3520 -1.9953 0.9766
-0.1059 -5.5786 -1.9953 0.9766
0.3915 -5.5658 -1.9953 0.9766
1.8492 -5.2642 -1.9953 0.9766
2.7539 -4.8525 -1.9953 0.9766
3.1753 -4.5879 -1.9953 0.9766
3.5713 -4.2868 -1.9953 0.9766
4.2753 -3.5851 -1.9953 0.9766
4.5777 -3.1900 -1.9953 0.9766
5.0711 -2.3271 -1.9953 0.9766
5.4035 -1.3903 -1.9953 0.9766
5.5059 -0.9034 -1.9953 0.9766
5.5788 0.0879 -1.9953 0.9766
4.4749 3.3327 -1.9953 0.9766
2.5982 4.9342 -1.9942 0.9766
1.5729 4.9739 -1.8655 0.9781
1.1101 5.0330 -1.8431 0.9783
0.6573 5.1119 -1.8431 0.9783
0.1994 5.1501 -1.8431 0.9783
-0.7177 5.1037 -1.8431 0.9783
-1.1695 5.0195 -1.8431 0.9783
-2.0416 4.7324 -1.8431 0.9783
-3.8585 4.0266 -1.9943 0.9766
-4.5140 3.2796 -1.9953 0.9766
-5.0243 2.4266 -1.9953 0.9766
-5.4871 1.0118 -1.9953 0.9766
-5.5795 0.0220 -1.9953 0.9766
-5.3868 -1.4540 -1.9953 0.9766
-5.0433 -2.3868 -1.9953 0.9766
-4.5397 -3.2439 -1.9953 0.9766
-3.5204 -4.3288 -1.9953 0.9766
-3.1208 -4.6252 -1.9953 0.9766
-2.6964 -4.8848 -1.9953 0.9766
-2.2506 -5.1055 -1.9953 0.9766
-1.3089 -5.4239 -1.9953 0.9766
-0.8205 -5.5189 -1.9953 0.9766
-0.3257 -5.5700 -1.9953 0.9766
0.6679 -5.5394 -1.9953 0.9766
1.6403 -5.3330 -1.9953 0.9766
2.1088 -5.1657 -1.9953 0.9766
0.2358 4.8037 -1.8431 0.9796
-0.6204 4.7693 -1.8431 0.9796
-2.3703 4.4855 -1.9441 0.9785
-2.8247 4.3556 -1.9894 0.9780
-3.2082 4.0952 -1.9936 0.9780
-3.5632 3.7964 -1.9953 0.9779
-3.8873 3.4639 -1.9953 0.9779
-4.1804 3.1039 -1.9953 0.9779
-4.4402 2.7192 -1.9953 0.9779
-4.6648 2.3128 -1.9953 0.9779
-4.8523 1.8881 -1.9953 0.9779
-2.3032 0.2392 -0.8874 0.9901
-2.2919 0.0328 -0.8784 0.9902
-2.3040 -0.1729 -0.8854 0.9902
-4.7291 -2.1785 -1.9953 0.9779
-3.6704 -3.6930 -1.9953 0.9779
-2.9568 -4.2857 -1.9953 0.9779
-1.7184 -4.9149 -1.9953 0.9779
-0.8190 -5.1419 -1.9953 0.9779
-0.3577 -5.1944 -1.9953 0.9779
0.1064 -5.2056 -1.9953 0.9779
0.5697 -5.1754 -1.9953 0.9779
1.0285 -5.1041 -1.9953 0.9779
1.9178 -4.8406 -1.9953 0.9779
2.7464 -4.4234 -1.9953 0.9779
3.4877 -3.8659 -1.9953 0.9779
4.1184 -3.1856 -1.9953 0.9779
4.3858 -2.8061 -1.9953 0.9779
4.8141 -1.9834 -1.9953 0.9779
4.9716 -1.5466 -1.9953 0.9779
5.2036 -0.1771 -1.9953 0.9779
5.1987 0.2872 -1.9953 0.9779
4.9378 1.6515 -1.9953 0.9779
4.7710 2.0848 -1.9953 0.9779
4.3254 2.8983 -1.9953 0.9779
4.0500 3.2721 -1.9953 0.9779
3.7424 3.6199 -1.9953 0.9779
3.4051 3.9389 -1.9953 0.9779
3.0407 4.2265 -1.9953 0.9779
1.8104 4.8680 -1.9903 0.9780
1.3371 4.8908 -1.9430 0.9785
0.8585 4.7810 -1.8615 0.9794
0.4249 4.7907 -1.8431 0.9796
-0.4319 4.7901 -1.8431 0.9796
-1.2751 4.6374 -1.8431 0.9796
-2.1555 4.4999 -1.9121 0.9789
-3.4108 3.9339 -1.9953 0.9779
-3.7477 3.6144 -1.9953 0.9779
-4.0548 3.2662 -1.9953 0.9779
-4.5700 2.4949 -1.9953 0.9779
-4.7741 2.0779 -1.9953 0.9779
-5.0671 1.1977 -1.9953 0.9779
-5.1536 0.7416 -1.9953 0.9779
-2.3019 0.1238 -0.8834 0.9902
-4.3817 -2.8126 -1.9953 0.9779
-3.8131 -3.5454 -1.9953 0.9779
-2.7399 -4.4275 -1.9953 0.9779
-2.3346 -4.6539 -1.9953 0.9779
-1.0210 -5.1056 -1.9953 0.9779
-0.5621 -5.1762 -1.9953 0.9779
1.2811 -5.0466 -1.9953 0.9779
1.7256 -4.9124 -1.9953 0.9779
2.1563 -4.7392 -1.9953 0.9779
2.5699 -4.5282 -1.9953 0.9779
2.9630 -4.2813 -1.9953 0.9779
3.6757 -3.6876 -1.9953 0.9779
3.9896 -3.3455 -1.9953 0.9779
4.2718 -2.9768 -1.9953 0.9779
4.7322 -2.1715 -1.9953 0.9779
5.0424 -1.2974 -1.9953 0.9779
5.1379 -0.8430 -1.9953 0.9779
5.1926 -0.3820 -1.9953 0.9779
5.1780 0.5455 -1.9953 0.9779
5.1088 1.0046 -1.9953 0.9779
4.6614 2.3196 -1.9953 0.9779
4.4362 2.7256 -1.9953 0.9779
