ply
format ascii 1.0
element vertex 1595
property float32 x
property float32 y
property float32 z
property float32 I
end_header
-5.6249 -6.7542 -1.8580 0.9647
-4.9550 -7.1675 -1.8419 0.9650
-3.5443 -7.8153 -1.8139 0.9655
-1.3201 -8.3331 -1.7834 0.9661
-0.5673 -8.3846 -1.7764 0.9662
0.9291 -8.2944 -1.7642 0.9665
1.6647 -8.1663 -1.7617 0.9665
2.3883 -7.9843 -1.7616 0.9665
3.0970 -7.7493 -1.7640 0.9665
3.7874 -7.4606 -1.7686 0.9664
5.0860 -6.7062 -1.7791 0.9662
5.6898 -6.2513 -1.7868 0.9660
6.2584 -5.7471 -1.7961 0.9659
7.2749 -4.5988 -1.8193 0.9654
7.7153 -3.9597 -1.8331 0.9652
8.7208 -1.8179 -1.8830 0.9642
8.9386 -1.0412 -1.9022 0.9639
9.0921 -0.2402 -1.9226 0.9635
9.1359 2.2574 -1.9892 0.9623
8.7936 3.9412 -2.0369 0.9614
8.5063 4.7681 -2.0613 0.9609
8.1409 5.5749 -2.0856 0.9605
7.2783 6.0070 -1.9948 0.9622
6.0841 7.1986 -1.9923 0.9622
4.3878 6.2496 -1.6141 0.9693
3.7716 6.5480 -1.5973 0.9696
3.0884 6.6805 -1.5557 0.9704
1.6217 9.7768 -2.0948 0.9603
0.7447 9.9334 -2.1056 0.9601
-0.1473 10.0002 -2.1141 0.9599
-1.9352 9.8585 -2.1237 0.9598
-3.6594 9.3531 -2.1230 0.9598
-4.4724 8.9707 -2.1188 0.9598
-5.2402 8.5079 -2.1122 0.9600
-7.1530 7.9745 -2.2644 0.9571
-7.7873 7.2560 -2.2499 0.9574
-8.3430 6.4824 -2.2333 0.9577
-9.5027 3.9272 -2.1735 0.9588
-9.8385 2.1257 -2.1276 0.9597
-5.3674 7.9193 -2.2484 0.9615
-6.6326 6.7755 -2.2284 0.9618
-7.1678 6.1175 -2.2147 0.9620
-8.3395 3.9042 -2.1641 0.9629
-8.7384 2.3128 -2.1244 0.9635
-8.8306 0.7047 -2.0820 0.9643
-8.7658 -0.0869 -2.0603 0.9646
-8.6307 -0.8613 -2.0385 0.9650
-8.4286 -1.6124 -2.0168 0.9654
-7.8388 -3.0235 -1.9746 0.9661
-7.4595 -3.6743 -1.9543 0.9664
-6.5548 -4.8477 -1.9161 0.9671
-6.0386 -5.3644 -1.8983 0.9674
-5.4861 -5.8313 -1.8817 0.9676
-4.9019 -6.2467 -1.8662 0.9679
-4.2905 -6.6090 -1.8519 0.9681
-3.0039 -7.1707 -1.8272 0.9686
-2.3373 -7.3689 -1.8169 0.9687
-0.9783 -7.5985 -1.8006 0.9690
-0.2938 -7.6301 -1.7946 0.9691
1.7334 -7.3974 -1.7857 0.9693
4.2387 -6.3530 -1.7949 0.9691
5.3429 -5.5379 -1.8085 0.9689
6.3109 -4.5456 -1.8279 0.9685
7.1152 -3.3942 -1.8528 0.9681
7.7290 -2.1059 -1.8827 0.9676
7.9565 -1.4187 -1.8994 0.9673
8.2374 0.0219 -1.9360 0.9667
8.2689 1.5197 -1.9759 0.9660
7.8140 3.7785 -2.0399 0.9650
7.5242 4.5099 -2.0617 0.9646
7.1654 5.2191 -2.0834 0.9642
6.6965 5.8623 -2.0917 0.9641
3.2132 5.9734 -1.5941 0.9725
2.6932 8.2817 -2.0467 0.9648
1.1881 8.7269 -2.0699 0.9645
-0.3885 8.8648 -2.0854 0.9642
-1.1823 8.8138 -2.0900 0.9641
-5.9283 7.4727 -2.2418 0.9616
-6.5394 6.8774 -2.2304 0.9618
-7.0856 6.2275 -2.2171 0.9620
-8.2936 4.0306 -2.1672 0.9628
-8.5443 3.2437 -2.1480 0.9631
-8.8138 1.6377 -2.1069 0.9638
-8.2104 -2.2197 -1.9989 0.9657
-7.5246 -3.5714 -1.9575 0.9664
-6.6348 -4.7592 -1.9190 0.9670
-5.5781 -5.7590 -1.8843 0.9676
-4.3914 -6.5538 -1.8541 0.9681
-1.7710 -7.4921 -1.8093 0.9689
-1.0893 -7.5881 -1.8017 0.9690
-0.4049 -7.6287 -1.7955 0.9691
0.2783 -7.6143 -1.7907 0.9692
0.9564 -7.5453 -1.7875 0.9692
1.6258 -7.4224 -1.7858 0.9693
2.2828 -7.2465 -1.7856 0.9693
4.7160 -6.0341 -1.7999 0.9690
5.7665 -5.1429 -1.8159 0.9687
7.3970 -2.8698 -1.8647 0.9679
7.9234 -1.5319 -1.8967 0.9674
8.2236 -0.0977 -1.9329 0.9668
8.2820 0.6446 -1.9523 0.9664
8.2760 1.3970 -1.9726 0.9661
8.0635 2.9099 -2.0147 0.9654
7.8544 3.6583 -2.0364 0.9650
7.5760 4.3925 -2.0582 0.9647
7.2283 5.1058 -2.0799 0.9643
6.7924 5.7741 -2.0952 0.9640
5.3426 6.5108 -1.9794 0.9660
3.3437 6.0052 -1.6154 0.9722
2.5075 7.3460 -1.8243 0.9686
1.5461 6.3343 -1.5324 0.9736
1.3138 8.7019 -2.0683 0.9645
-0.2595 8.8655 -2.0845 0.9642
-4.0768 7.8880 -2.0868 0.9642
-5.1289 8.0625 -2.2458 0.9615
-5.8234 7.5636 -2.2435 0.9615
-6.4445 6.9779 -2.2324 0.9617
-7.0016 6.3364 -2.2194 0.9619
-7.4898 5.6468 -2.2045 0.9622
-7.9054 4.9174 -2.1881 0.9625
-8.5089 3.3725 -2.1511 0.9631
-8.8360 0.9643 -2.0890 0.9641
-8.5013 -1.3716 -2.0238 0.9652
-7.5883 -3.4674 -1.9608 0.9663
-7.1746 -4.0905 -1.9410 0.9666
-6.2104 -5.2020 -1.9040 0.9673
-5.0947 -6.1176 -1.8711 0.9678
-4.4916 -6.4973 -1.8564 0.9681
-2.5549 -7.3106 -1.8201 0.9687
-1.2002 -7.5763 -1.8028 0.9690
1.5179 -7.4460 -1.7860 0.9693
2.1772 -7.2786 -1.7855 0.9693
3.4461 -6.7882 -1.7892 0.9692
4.6251 -6.0985 -1.7989 0.9690
5.1722 -5.6826 -1.8059 0.9689
5.6864 -5.2218 -1.8144 0.9688
6.6022 -4.1736 -1.8357 0.9684
6.9969 -3.5910 -1.8484 0.9682
7.3451 -2.9732 -1.8623 0.9680
7.6435 -2.3232 -1.8775 0.9677
7.8888 -1.6445 -1.8939 0.9674
8.2769 0.5233 -1.9491 0.9665
8.2815 1.2744 -1.9692 0.9662
8.2200 2.0311 -1.9900 0.9658
7.8931 3.5376 -2.0328 0.9651
7.2894 4.9918 -2.0764 0.9643
5.9237 5.8549 -1.9575 0.9664
5.4284 6.4227 -1.9764 0.9660
3.4691 6.0228 -1.6335 0.9718
2.8179 6.0955 -1.5783 0.9728
1.6486 6.3521 -1.5423 0.9734
1.4389 8.6749 -2.0667 0.9645
0.6604 8.8088 -2.0761 0.9644
-0.1305 8.8640 -2.0835 0.9642
-1.7144 8.7339 -2.0918 0.9641
-3.9632 7.9495 -2.0876 0.9642
-4.9046 7.9631 -2.1980 0.9623
-5.7169 7.6529 -2.2451 0.9615
-7.4154 5.7617 -2.2070 0.9621
-8.1956 4.2818 -2.1732 0.9627
-8.4714 3.5010 -2.1543 0.9630
-8.7909 1.8993 -2.1137 0.9637
-5.4142 6.6246 -2.2152 0.9653
-5.9568 6.0851 -2.2048 0.9654
-6.4415 5.4976 -2.1927 0.9656
-7.2218 4.2061 -2.1639 0.9661
-7.8855 2.0871 -2.1120 0.9669
-7.9688 1.3612 -2.0932 0.9671
-7.6438 -1.4623 -2.0150 0.9684
-7.4104 -2.1195 -1.9956 0.9687
-7.1227 -2.7473 -1.9766 0.9689
-6.7845 -3.3418 -1.9582 0.9692
-6.3996 -3.8993 -1.9403 0.9695
-5.5065 -4.8916 -1.9070 0.9700
-5.0065 -5.3215 -1.8918 0.9703
-1.5208 -6.8783 -1.8239 0.9713
-0.8961 -6.9604 -1.8171 0.9714
-0.2692 -6.9914 -1.8115 0.9715
4.4025 -5.4673 -1.8175 0.9714
4.8924 -5.0710 -1.8244 0.9713
6.5019 -3.1016 -1.8652 0.9707
6.8011 -2.5255 -1.8784 0.9705
7.0530 -1.9217 -1.8927 0.9702
7.2549 -1.2936 -1.9081 0.9700
7.4042 -0.6450 -1.9243 0.9698
7.4983 0.0199 -1.9415 0.9695
6.8095 4.0815 -2.0555 0.9677
6.0836 5.3257 -2.0934 0.9671
4.7377 5.9479 -1.9688 0.9691
2.7400 6.4098 -1.8049 0.9716
1.2239 5.3507 -1.4212 0.9776
-0.3484 7.9510 -2.0606 0.9677
-1.0602 7.9034 -2.0647 0.9676
-3.7681 7.0381 -2.0670 0.9676
-4.7140 7.1777 -2.2234 0.9651
-5.3210 6.7072 -2.2167 0.9652
-6.3670 5.5959 -2.1947 0.9656
-7.1683 4.3157 -2.1664 0.9660
-7.9599 1.4791 -2.0963 0.9671
-7.9863 0.7543 -2.0770 0.9674
-7.9463 0.0367 -2.0575 0.9677
-7.8420 -0.6677 -2.0378 0.9680
-7.6763 -1.3532 -2.0182 0.9683
-7.1730 -2.6476 -1.9797 0.9689
-6.4651 -3.8115 -1.9432 0.9695
-6.0443 -4.3357 -1.9260 0.9697
-5.0898 -5.2549 -1.8942 0.9702
-4.5644 -5.6457 -1.8798 0.9704
-4.0126 -5.9886 -1.8664 0.9707
-3.4384 -6.2822 -1.8543 0.9708
-2.2390 -6.7185 -1.8336 0.9712
-1.6217 -6.8602 -1.8252 0.9713
0.2550 -6.9781 -1.8080 0.9716
1.4903 -6.8038 -1.8034 0.9716
2.0926 -6.6426 -1.8032 0.9716
2.6801 -6.4332 -1.8044 0.9716
3.2494 -6.1767 -1.8071 0.9716
4.3201 -5.5276 -1.8165 0.9714
4.8150 -5.1381 -1.8232 0.9713
6.0987 -3.7324 -1.8513 0.9709
6.7557 -2.6210 -1.8762 0.9705
7.0155 -2.0214 -1.8903 0.9703
7.2257 -1.3970 -1.9055 0.9700
7.3836 -0.7515 -1.9216 0.9698
7.4869 -0.0889 -1.9386 0.9695
7.4479 1.9556 -1.9938 0.9687
7.3134 2.6392 -2.0131 0.9684
7.1166 3.3146 -2.0327 0.9681
6.8574 3.9759 -2.0524 0.9678
6.5362 4.6169 -2.0719 0.9675
4.1674 6.1229 -1.9177 0.9699
2.7798 6.2498 -1.7710 0.9721
2.4624 7.2137 -1.9736 0.9690
0.4779 7.9168 -2.0535 0.9678
-0.9450 7.9160 -2.0641 0.9676
-2.3433 7.6315 -2.0670 0.9676
-4.6068 7.2418 -2.2223 0.9652
-6.2908 5.6931 -2.1968 0.9656
-6.7340 5.0770 -2.1836 0.9658
-7.1130 4.4245 -2.1689 0.9660
-7.6690 3.0396 -2.1359 0.9665
-7.9493 1.5969 -2.0993 0.9671
-7.9866 0.8716 -2.0802 0.9673
-7.9572 0.1524 -2.0606 0.9677
-7.8632 -0.5545 -2.0410 0.9680
-7.7072 -1.2435 -2.0213 0.9683
-7.4923 -1.9092 -2.0019 0.9686
-7.2218 -2.5470 -1.9827 0.9689
-6.8996 -3.1527 -1.9641 0.9691
-5.6616 -4.7423 -1.9122 0.9699
-5.1723 -5.1870 -1.8966 0.9702
-4.1038 -5.9362 -1.8685 0.9706
-3.5329 -6.2379 -1.8562 0.9708
-1.0993 -6.9394 -1.8191 0.9714
1.3914 -6.8254 -1.8036 0.9716
1.9958 -6.6721 -1.8031 0.9716
2.5859 -6.4704 -1.8041 0.9716
3.7099 -5.9265 -1.8103 0.9715
4.2371 -5.5868 -1.8155 0.9714
5.2055 -4.7802 -1.8299 0.9712
5.6403 -4.3170 -1.8390 0.9711
6.0379 -3.8169 -1.8495 0.9709
6.7090 -2.7157 -1.8740 0.9705
6.9766 -2.1205 -1.8880 0.9703
7.1950 -1.4999 -1.9030 0.9701
7.4739 -0.1975 -1.9358 0.9696
7.5297 0.4760 -1.9535 0.9693
7.5269 1.1583 -1.9718 0.9690
7.4639 1.8443 -1.9906 0.9687
7.3394 2.5287 -2.0099 0.9684
7.1528 3.2058 -2.0295 0.9681
6.5925 4.5145 -2.0688 0.9675
5.7239 5.6574 -2.0838 0.9673
4.3259 6.1614 -1.9492 0.9694
3.4746 6.0323 -1.8024 0.9716
2.5106 7.0195 -1.9302 0.9697
0.5926 7.9044 -2.0523 0.9678
-0.1171 7.9511 -2.0589 0.9677
-2.2322 7.6650 -2.0670 0.9676
-2.9070 7.4301 -2.0658 0.9676
-5.1305 6.8679 -2.2196 0.9652
-6.6664 5.1797 -2.1858 0.9657
-7.3792 3.8552 -2.1556 0.9662
-7.6341 3.1549 -2.1388 0.9664
-7.8200 2.4391 -2.1210 0.9667
-4.9061 6.0029 -2.1947 0.9683
-6.2296 4.4187 -2.1621 0.9687
-6.5583 3.8197 -2.1485 0.9689
-6.8265 3.1958 -2.1338 0.9692
-7.2585 1.2399 -2.0846 0.9699
-7.2786 0.5808 -2.0671 0.9701
-7.2385 -0.0718 -2.0493 0.9704
-7.1400 -0.7126 -2.0313 0.9706
-6.2154 -3.0615 -1.9614 0.9716
-5.8673 -3.5750 -1.9450 0.9718
-5.4795 -4.0524 -1.9293 0.9721
-4.1153 -5.2443 -1.8872 0.9727
-3.6065 -5.5553 -1.8750 0.9728
-3.0769 -5.8210 -1.8639 0.9730
-1.9706 -6.2128 -1.8451 0.9733
-0.8260 -6.4154 -1.8311 0.9735
-0.2482 -6.4455 -1.8260 0.9735
0.9008 -6.3641 -1.8196 0.9736
1.4654 -6.2537 -1.8183 0.9737
3.5805 -5.3664 -1.8263 0.9735
4.0577 -5.0391 -1.8315 0.9735
4.5079 -4.6724 -1.8380 0.9734
4.9282 -4.2683 -1.8457 0.9733
5.6674 -3.3562 -1.8646 0.9730
5.9804 -2.8528 -1.8758 0.9728
6.6607 -1.1876 -1.9153 0.9723
6.9029 0.6383 -1.9625 0.9716
5.5435 4.8529 -2.0857 0.9698
4.3084 5.4089 -1.9576 0.9717
3.8354 5.8151 -1.9720 0.9715
3.1594 5.8734 -1.8880 0.9727
2.6907 6.2944 -1.9379 0.9719
2.1951 6.7500 -2.0094 0.9709
1.2180 5.3249 -1.5464 0.9775
0.9663 7.0979 -2.0279 0.9707
0.3288 7.1805 -2.0349 0.9706
-0.3155 7.2000 -2.0402 0.9705
-1.5974 7.0476 -2.0457 0.9704
-2.2214 6.8768 -2.0458 0.9704
-2.8252 6.6450 -2.0441 0.9704
-3.5555 6.6409 -2.1325 0.9692
-4.8213 6.0773 -2.1961 0.9683
-5.7745 5.0752 -2.1763 0.9685
-6.1707 4.5131 -2.1642 0.9687
-6.5090 3.9188 -2.1508 0.9689
-7.0036 2.6588 -2.1207 0.9693
-7.1577 2.0062 -2.1044 0.9696
-7.0144 -1.2365 -2.0163 0.9708
-6.5653 -2.4233 -1.9812 0.9713
-6.2679 -2.9750 -1.9641 0.9716
-5.5450 -3.9775 -1.9318 0.9720
-4.6757 -4.8274 -1.9025 0.9724
-4.1957 -5.1896 -1.8892 0.9726
-3.1641 -5.7810 -1.8657 0.9730
-0.9196 -6.4060 -1.8321 0.9735
-0.3420 -6.4438 -1.8268 0.9735
0.2351 -6.4342 -1.8227 0.9736
1.3744 -6.2748 -1.8185 0.9736
1.9299 -6.1261 -1.8183 0.9737
2.4716 -5.9327 -1.8194 0.9736
2.9963 -5.6955 -1.8219 0.9736
3.5008 -5.4158 -1.8256 0.9735
4.4368 -4.7345 -1.8368 0.9734
4.8622 -4.3364 -1.8443 0.9733
5.9323 -2.9365 -1.8739 0.9729
6.2108 -2.4096 -1.8859 0.9727
6.4458 -1.8573 -1.8990 0.9725
6.6346 -1.2827 -1.9130 0.9723
6.7749 -0.6896 -1.9278 0.9721
6.8647 -0.0816 -1.9435 0.9719
6.8851 1.1622 -1.9767 0.9714
6.8128 1.7889 -1.9940 0.9711
6.4990 3.0270 -2.0296 0.9706
5.1910 5.2820 -2.0965 0.9697
4.4366 5.4067 -1.9799 0.9713
3.9150 5.7520 -1.9697 0.9715
3.2877 5.9046 -1.9132 0.9723
2.7297 6.1373 -1.9015 0.9725
1.5441 6.3262 -1.8435 0.9733
1.0687 7.0786 -2.0266 0.9707
-0.2108 7.2012 -2.0395 0.9705
-0.8556 7.1672 -2.0434 0.9704
-3.3557 6.4927 -2.0690 0.9701
-4.7353 6.1504 -2.1974 0.9682
-5.2453 5.6794 -2.1886 0.9684
-5.7049 5.1629 -2.1782 0.9685
-6.1102 4.6067 -2.1663 0.9687
-6.4581 4.0172 -2.1531 0.9689
-6.7461 3.4006 -2.1387 0.9691
-6.9727 2.7636 -2.1233 0.9693
-7.1370 2.1127 -2.1071 0.9695
-7.2787 0.7943 -2.0728 0.9700
-7.1782 -0.5062 -2.0372 0.9705
-7.0417 -1.1361 -2.0192 0.9708
-6.6092 -2.3309 -1.9840 0.9713
-5.6095 -3.9016 -1.9344 0.9720
-5.1969 -4.3531 -1.9192 0.9722
-4.2754 -5.1338 -1.8913 0.9726
-3.2508 -5.7398 -1.8674 0.9729
-2.1535 -6.1620 -1.8479 0.9732
-1.0131 -6.3954 -1.8331 0.9734
1.2832 -6.2946 -1.8186 0.9736
3.9056 -5.1497 -1.8297 0.9735
4.3649 -4.7956 -1.8357 0.9734
5.1937 -3.9752 -1.8516 0.9732
5.5573 -3.5131 -1.8612 0.9730
5.8832 -3.0194 -1.8720 0.9729
6.4107 -1.9485 -1.8968 0.9725
6.6072 -1.3773 -1.9107 0.9723
6.8995 0.4362 -1.9571 0.9717
6.8915 1.0605 -1.9739 0.9714
6.3001 3.5315 -2.0446 0.9704
6.0111 4.1164 -2.0625 0.9702
5.6668 4.6771 -2.0801 0.9699
5.2644 5.2033 -2.0954 0.9697
3.9935 5.6879 -1.9674 0.9715
2.3862 6.6716 -2.0058 0.9710
1.6462 6.3430 -1.8551 0.9731
0.9117 5.4962 -1.5772 0.9771
-2.0208 6.9390 -2.0460 0.9704
-2.6318 6.7268 -2.0449 0.9704
-4.6481 6.2222 -2.1987 0.9682
-5.1658 5.7591 -2.1901 0.9683
-7.1145 2.2190 -2.1098 0.9695
-3.9847 5.8792 -2.1845 0.9707
-4.4802 5.4818 -2.1776 0.9708
-4.9332 5.0395 -2.1691 0.9709
-5.9999 3.4945 -2.1356 0.9714
-6.4419 2.3390 -2.1080 0.9717
-6.5781 1.7410 -2.0929 0.9719
-6.6574 1.1372 -2.0773 0.9721
-6.4253 -1.2292 -2.0121 0.9730
-6.2387 -1.7843 -1.9958 0.9732
-5.7288 -2.8218 -1.9642 0.9736
-5.4115 -3.2972 -1.9491 0.9738
-3.3356 -5.1381 -1.8842 0.9747
-2.8470 -5.3862 -1.8739 0.9748
-0.2300 -5.9731 -1.8385 0.9753
1.3584 -5.7972 -1.8314 0.9754
1.8714 -5.6526 -1.8314 0.9754
2.3711 -5.4663 -1.8327 0.9754
3.7594 -4.6687 -1.8437 0.9752
4.9205 -3.5442 -1.8652 0.9749
5.4895 -2.6187 -1.8707 0.9749
5.9867 -1.6311 -1.9085 0.9744
6.3400 0.0168 -1.9500 0.9738
6.3621 0.5883 -1.9652 0.9736
6.1237 2.3110 -2.0132 0.9730
5.9406 2.8727 -2.0296 0.9728
5.7057 3.4199 -2.0461 0.9725
3.0397 5.6508 -1.9736 0.9735
2.5367 5.9340 -1.9849 0.9734
2.0061 6.1688 -1.9952 0.9732
0.3002 6.5551 -2.0183 0.9729
-1.4576 6.4308 -2.0281 0.9728
-2.0270 6.2749 -2.0282 0.9728
-2.5781 6.0639 -2.0267 0.9728
-3.3533 6.2633 -2.1852 0.9707
-4.4025 5.5495 -2.1788 0.9708
-4.8628 5.1141 -2.1706 0.9709
-6.5598 1.8386 -2.0954 0.9719
-6.6484 1.2354 -2.0799 0.9721
-6.6805 0.6310 -2.0639 0.9723
-6.6573 0.0307 -2.0477 0.9725
-6.5801 -0.5602 -2.0312 0.9727
-6.0465 -2.2318 -1.9824 0.9734
-5.1169 -3.6704 -1.9369 0.9740
-3.8783 -4.7971 -1.8974 0.9745
-2.9275 -5.3488 -1.8755 0.9748
-1.9095 -5.7298 -1.8576 0.9750
-0.8520 -5.9351 -1.8442 0.9752
0.2179 -5.9635 -1.8355 0.9753
0.7493 -5.9117 -1.8329 0.9754
1.2741 -5.8167 -1.8315 0.9754
3.2442 -5.0189 -1.8381 0.9753
3.6894 -4.7206 -1.8428 0.9752
4.1098 -4.3856 -1.8487 0.9752
4.5025 -4.0156 -1.8556 0.9751
5.9559 -1.7161 -1.9064 0.9744
6.3317 -0.0752 -1.9476 0.9738
6.3619 0.4951 -1.9627 0.9736
6.1485 2.2188 -2.0105 0.9730
5.7474 3.3323 -2.0434 0.9726
5.4697 3.8636 -2.0597 0.9724
5.1420 4.3711 -2.0758 0.9722
4.3307 5.2777 -2.0999 0.9718
3.5840 5.2657 -1.9592 0.9737
3.1184 5.6006 -1.9716 0.9735
2.6203 5.8912 -1.9832 0.9734
2.0939 6.1341 -1.9936 0.9732
1.5431 6.3221 -2.0016 0.9731
-0.1924 6.5727 -2.0225 0.9729
-1.3639 6.4508 -2.0280 0.9728
-2.4901 6.1018 -2.0271 0.9728
-3.2604 6.3084 -2.1841 0.9707
-3.8155 5.9978 -2.1864 0.9707
-4.7911 5.1877 -2.1720 0.9709
-5.2131 4.7178 -2.1626 0.9710
-5.5861 4.2116 -2.1518 0.9711
-5.9073 3.6745 -2.1398 0.9713
-6.5401 1.9360 -2.0979 0.9719
-6.6379 1.3335 -2.0825 0.9721
-6.5962 -0.4652 -2.0339 0.9727
-6.4754 -1.0447 -2.0175 0.9729
-6.3045 -1.6065 -2.0011 0.9731
-5.8232 -2.6609 -1.9692 0.9736
-5.1759 -3.6000 -1.9392 0.9740
-4.3889 -4.4014 -1.9118 0.9743
-3.9517 -4.7451 -1.8993 0.9745
-3.4901 -5.0485 -1.8877 0.9746
-0.9386 -5.9250 -1.8451 0.9752
0.1313 -5.9677 -1.8360 0.9753
1.7062 -5.7041 -1.8313 0.9754
3.1699 -5.0638 -1.8375 0.9753
3.6188 -4.7716 -1.8420 0.9752
4.0434 -4.4424 -1.8476 0.9752
4.8082 -3.6801 -1.8624 0.9750
5.4080 -2.7755 -1.8696 0.9749
5.7032 -2.3085 -1.8924 0.9746
6.1022 -1.2721 -1.9173 0.9743
6.2356 -0.7264 -1.9309 0.9741
6.3488 0.9770 -1.9757 0.9735
6.2862 1.5533 -1.9917 0.9733
6.0057 2.6917 -2.0243 0.9728
5.1985 4.2905 -2.0732 0.9722
4.4049 5.2118 -2.0989 0.9718
3.1963 5.5491 -1.9697 0.9736
2.1810 6.0981 -1.9920 0.9733
0.9094 5.4825 -1.7093 0.9770
0.4901 6.5375 -2.0164 0.9729
-0.0968 6.5725 -2.0218 0.9729
-0.6855 6.5497 -2.0256 0.9728
-1.2699 6.4692 -2.0278 0.9728
-2.4016 6.1383 -2.0274 0.9728
-3.1499 6.3181 -2.1714 0.9709
-5.1478 4.7967 -2.1642 0.9710
-5.5290 4.2960 -2.1536 0.9711
-5.8588 3.7635 -2.1418 0.9713
-6.1347 3.2050 -2.1289 0.9714
-6.3550 2.6263 -2.1150 0.9716
-6.6258 1.4316 -2.0850 0.9720
-3.6614 5.4022 -2.1693 0.9729
-4.1178 5.0384 -2.1630 0.9729
-5.2411 3.7176 -2.1359 0.9733
-5.5232 3.2168 -2.1246 0.9734
-5.7553 2.6943 -2.1124 0.9736
-5.9361 2.1554 -2.0992 0.9737
-6.0650 1.6052 -2.0855 0.9739
-6.1417 1.0491 -2.0711 0.9741
-6.1667 0.4921 -2.0564 0.9743
-6.1408 -0.0609 -2.0413 0.9744
-6.0653 -0.6053 -2.0262 0.9746
-5.7730 -1.6512 -1.9959 0.9750
-5.5606 -2.1448 -1.9811 0.9752
-5.3074 -2.6142 -1.9666 0.9754
-5.0163 -3.0564 -1.9526 0.9755
-4.6902 -3.4687 -1.9391 0.9757
-3.5336 -4.5031 -1.9027 0.9762
-2.1781 -5.1995 -1.8739 0.9765
-1.2077 -5.4623 -1.8596 0.9767
-0.7122 -5.5318 -1.8540 0.9768
-0.2141 -5.5599 -1.8495 0.9768
0.7774 -5.4924 -1.8439 0.9769
1.2648 -5.3976 -1.8428 0.9769
2.2076 -5.0893 -1.8440 0.9769
2.6572 -4.8776 -1.8463 0.9769
3.4987 -4.3449 -1.8543 0.9768
3.8851 -4.0268 -1.8600 0.9767
5.1395 -2.4517 -1.8928 0.9763
5.3680 -1.9933 -1.9034 0.9762
5.5579 -1.5143 -1.9148 0.9760
5.8646 1.0778 -1.9821 0.9752
5.6629 2.1371 -2.0120 0.9748
5.2699 3.1587 -2.0423 0.9744
4.3340 4.5401 -2.0864 0.9739
3.4110 5.1715 -2.0593 0.9742
2.7981 5.2017 -1.9633 0.9754
1.8450 5.6735 -1.9831 0.9752
0.8110 5.9572 -1.9985 0.9750
0.2758 6.0232 -2.0042 0.9749
-0.2645 6.0370 -2.0087 0.9749
-1.3388 5.9066 -2.0132 0.9748
-1.8618 5.7634 -2.0133 0.9748
-4.0462 5.1003 -2.1641 0.9729
-4.4706 4.7016 -2.1566 0.9730
-4.8531 4.2654 -2.1477 0.9731
-5.1908 3.7965 -2.1377 0.9733
-5.4807 3.2997 -2.1265 0.9734
-5.7211 2.7804 -2.1144 0.9735
-6.1328 1.1396 -2.0735 0.9740
-6.1661 0.5824 -2.0588 0.9742
-6.0809 -0.5177 -2.0286 0.9746
-5.9652 -1.0516 -2.0135 0.9748
-5.5979 -2.0662 -1.9835 0.9752
-5.3512 -2.5398 -1.9689 0.9753
-5.0660 -2.9866 -1.9548 0.9755
-4.7454 -3.4039 -1.9412 0.9757
-4.3924 -3.7892 -1.9283 0.9758
-2.7212 -4.9719 -1.8840 0.9764
-2.2551 -5.1710 -1.8752 0.9765
-1.7761 -5.3296 -1.8674 0.9766
-1.2876 -5.4472 -1.8606 0.9767
-0.7929 -5.5234 -1.8548 0.9768
-0.2950 -5.5582 -1.8502 0.9768
0.6977 -5.5040 -1.8442 0.9769
1.6657 -5.2875 -1.8428 0.9769
2.1331 -5.1201 -1.8437 0.9769
2.5854 -4.9145 -1.8459 0.9769
3.4337 -4.3934 -1.8535 0.9768
3.8241 -4.0807 -1.8590 0.9767
4.5240 -3.3595 -1.8731 0.9765
4.8283 -2.9549 -1.8817 0.9764
5.0989 -2.5240 -1.8912 0.9763
5.5298 -1.5933 -1.9129 0.9760
5.6858 -1.0993 -1.9250 0.9759
5.8725 0.9913 -1.9797 0.9752
5.8034 1.5238 -1.9945 0.9750
5.6864 2.0521 -2.0095 0.9748
5.3089 3.0781 -2.0399 0.9745
5.0493 3.5666 -2.0549 0.9743
4.7440 4.0327 -2.0697 0.9741
4.0019 4.8770 -2.0971 0.9738
2.8708 5.1558 -1.9616 0.9754
2.4111 5.4209 -1.9721 0.9753
1.4196 5.8163 -1.9901 0.9751
-1.2527 5.9250 -2.0131 0.9748
-1.7779 5.7901 -2.0134 0.9748
-3.5057 5.5108 -2.1711 0.9728
-3.9737 5.1612 -2.1652 0.9729
-4.4044 4.7690 -2.1579 0.9730
-4.7940 4.3386 -2.1493 0.9731
-5.6855 2.8660 -2.1164 0.9735
-5.8831 2.3318 -2.1036 0.9737
-6.0289 1.7847 -2.0900 0.9738
-6.1642 0.6727 -2.0612 0.9742
-6.1547 0.1179 -2.0462 0.9744
-6.0952 -0.4298 -2.0311 0.9746
-5.8328 -1.4863 -2.0008 0.9749
-5.3939 -2.4647 -1.9713 0.9753
-5.1148 -2.9161 -1.9571 0.9755
-2.7955 -4.9358 -1.8856 0.9764
0.6177 -5.5145 -1.8445 0.9769
1.1075 -5.4328 -1.8430 0.9769
3.3681 -4.4409 -1.8527 0.9768
3.7624 -4.1337 -1.8580 0.9767
4.4716 -3.4225 -1.8718 0.9765
4.7811 -3.0224 -1.8802 0.9764
5.2980 -2.1445 -1.8999 0.9762
5.6633 -1.1806 -1.9230 0.9759
5.7841 -0.6738 -1.9357 0.9758
5.8613 -0.1549 -1.9490 0.9756
5.8935 0.3726 -1.9629 0.9754
5.8793 0.9047 -1.9773 0.9752
5.8179 1.4376 -1.9921 0.9751
5.7087 1.9668 -2.0071 0.9749
5.5515 2.4881 -2.0222 0.9747
4.7966 3.9588 -2.0673 0.9741
4.4542 4.4025 -2.0818 0.9739
4.0698 4.8153 -2.0957 0.9738
0.9061 5.4625 -1.8406 0.9769
-1.1664 5.9420 -2.0129 0.9748
-1.6936 5.8155 -2.0134 0.9748
-2.2704 5.8030 -2.0713 0.9741
-4.3372 4.8354 -2.1592 0.9730
-5.3920 3.4637 -2.1303 0.9733
-4.5411 3.8756 -2.1349 0.9750
-5.1109 2.9767 -2.1151 0.9752
-5.6200 1.4875 -2.0790 0.9756
-5.7201 0.4565 -2.0521 0.9759
-5.6991 -0.0565 -2.0382 0.9761
-5.1716 -1.9948 -1.9822 0.9767
-4.9387 -2.4326 -1.9687 0.9769
-4.3686 -3.2308 -1.9431 0.9772
-3.6784 -3.9098 -1.9197 0.9775
-2.8918 -4.4545 -1.8992 0.9777
-1.5851 -4.9974 -1.8749 0.9780
-1.1281 -5.1021 -1.8686 0.9780
-0.6654 -5.1681 -1.8634 0.9781
0.7266 -5.1331 -1.8539 0.9782
1.6285 -4.9189 -1.8529 0.9782
2.4831 -4.5581 -1.8562 0.9782
3.2686 -4.0592 -1.8637 0.9781
3.9640 -3.4331 -1.8753 0.9780
4.7949 -2.2873 -1.8998 0.9777
5.1813 -1.4117 -1.9204 0.9774
5.4710 0.0145 -1.9565 0.9770
5.3798 1.4965 -1.9969 0.9766
5.2611 1.9855 -2.0109 0.9764
4.8907 2.9314 -2.0391 0.9761
4.6404 3.3799 -2.0530 0.9759
3.6457 4.5769 -2.0925 0.9754
3.2339 4.9030 -2.1004 0.9754
2.7098 5.0376 -2.0456 0.9760
2.1588 5.0502 -1.9641 0.9769
1.7060 5.2460 -1.9727 0.9768
0.7495 5.5051 -1.9868 0.9767
0.2548 5.5648 -1.9921 0.9766
-0.2444 5.5766 -1.9962 0.9766
-0.7431 5.5401 -1.9989 0.9765
-1.2365 5.4553 -2.0003 0.9765
-2.3636 5.5594 -2.1603 0.9747
-2.8526 5.3281 -2.1613 0.9747
-3.7390 4.7131 -2.1514 0.9748
-4.1322 4.3458 -2.1445 0.9748
-4.4873 3.9439 -2.1364 0.9749
-5.0713 3.0532 -2.1169 0.9752
-5.6035 1.5706 -2.0811 0.9756
-5.6853 1.0564 -2.0679 0.9757
-5.7191 0.5402 -2.0543 0.9759
-5.6461 -0.4807 -2.0264 0.9762
-5.2059 -1.9215 -1.9844 0.9767
-4.7160 -2.7803 -1.9577 0.9770
-4.4196 -3.1703 -1.9451 0.9772
-4.0928 -3.5307 -1.9330 0.9773
-3.7383 -3.8595 -1.9215 0.9774
-3.3592 -4.1550 -1.9107 0.9776
-2.9586 -4.4156 -1.9007 0.9777
-2.1052 -4.8273 -1.8833 0.9779
-0.2756 -5.1934 -1.8598 0.9781
0.6520 -5.1438 -1.8542 0.9782
1.1087 -5.0616 -1.8530 0.9782
1.5568 -4.9418 -1.8528 0.9782
2.4161 -4.5927 -1.8558 0.9782
2.8218 -4.3654 -1.8588 0.9782
3.2080 -4.1046 -1.8629 0.9781
3.5720 -3.8117 -1.8681 0.9781
4.9744 -1.9299 -1.9080 0.9776
5.1554 -1.4855 -1.9186 0.9775
5.4022 -0.5498 -1.9419 0.9772
5.4648 -0.0649 -1.9544 0.9771
5.4851 0.4269 -1.9674 0.9769
5.4620 0.9220 -1.9809 0.9767
5.3949 1.4166 -1.9947 0.9766
5.1274 2.3881 -2.0227 0.9763
4.9273 2.8568 -2.0368 0.9761
4.6839 3.3085 -2.0507 0.9759
4.3984 3.7389 -2.0644 0.9758
4.0724 4.1438 -2.0777 0.9756
3.7082 4.5191 -2.0905 0.9755
2.8119 5.0500 -2.0670 0.9757
1.7809 5.2171 -1.9714 0.9769
0.8290 5.4909 -1.9858 0.9767
0.3355 5.5584 -1.9913 0.9766
-0.1633 5.5780 -1.9956 0.9766
-1.6996 5.5350 -2.0706 0.9757
-2.2817 5.5909 -2.1594 0.9747
-2.7756 5.3704 -2.1618 0.9746
-4.7531 3.5835 -2.1287 0.9750
-5.2627 2.6528 -2.1076 0.9753
-5.5857 1.6535 -2.0832 0.9756
-5.7169 0.6239 -2.0565 0.9759
-5.7110 0.1094 -2.0427 0.9760
-5.4210 -1.3814 -2.0005 0.9765
-5.2392 -1.8477 -1.9867 0.9767
-5.0183 -2.2931 -1.9731 0.9768
-4.4699 -3.1089 -1.9471 0.9771
-4.1478 -3.4743 -1.9349 0.9773
-3.7976 -3.8084 -1.9233 0.9774
-3.4223 -4.1094 -1.9124 0.9775
-3.0250 -4.3757 -1.9023 0.9777
-2.6087 -4.6061 -1.8930 0.9778
-1.7317 -4.9551 -1.8771 0.9779
1.0351 -5.0775 -1.8531 0.9782
1.4848 -4.9637 -1.8528 0.9782
1.9235 -4.8130 -1.8535 0.9782
2.7572 -4.4046 -1.8583 0.9782
3.1467 -4.1491 -1.8622 0.9781
3.8581 -3.5428 -1.8731 0.9780
4.1749 -3.1954 -1.8801 0.9779
4.9415 -2.0002 -1.9064 0.9776
5.1286 -1.5588 -1.9168 0.9775
5.2780 -1.1002 -1.9280 0.9774
5.3882 -0.6277 -1.9399 0.9772
5.4847 0.3468 -1.9653 0.9769
5.1557 2.3107 -2.0204 0.9763
4.9627 2.7818 -2.0345 0.9761
4.7263 3.2366 -2.0485 0.9760
4.1280 4.0800 -2.0756 0.9756
3.3725 4.8034 -2.0988 0.9754
2.9161 5.0626 -2.0893 0.9755
0.9002 5.4271 -1.9673 0.9769
0.4161 5.5507 -1.9905 0.9766
-0.5816 5.5572 -1.9982 0.9765
-1.0773 5.4880 -2.0000 0.9765
-2.1993 5.6212 -2.1586 0.9747
-4.3764 4.0779 -2.1391 0.9749
-4.9885 3.2045 -2.1203 0.9751
-5.5666 1.7362 -2.0852 0.9755
-5.6640 1.2237 -2.0722 0.9757
-3.1400 4.6329 -2.1448 0.9763
-3.8933 3.9771 -2.1328 0.9764
-4.2181 3.6000 -2.1251 0.9765
-4.5046 3.1952 -2.1164 0.9766
-4.7506 2.7669 -2.1068 0.9767
-4.9542 2.3193 -2.0963 0.9768
-5.1143 1.8570 -2.0851 0.9770
-5.3013 0.9056 -2.0610 0.9772
-2.3041 0.1839 -0.8858 0.9901
-2.2904 -0.0227 -0.8778 0.9902
-2.3035 -0.2299 -0.8871 0.9901
-5.1494 -0.9851 -2.0091 0.9778
-5.0079 -1.4323 -1.9961 0.9779
-4.8284 -1.8624 -1.9832 0.9781
-4.6130 -2.2722 -1.9706 0.9782
-4.3640 -2.6590 -1.9584 0.9783
-4.0840 -3.0204 -1.9466 0.9785
-3.7756 -3.3540 -1.9353 0.9786
-3.4414 -3.6580 -1.9247 0.9787
-2.7074 -4.1704 -1.9054 0.9789
-2.3132 -4.3763 -1.8970 0.9790
-1.9049 -4.5473 -1.8893 0.9791
-1.4852 -4.6826 -1.8826 0.9792
-1.0572 -4.7817 -1.8767 0.9792
-0.6237 -4.8443 -1.8718 0.9793
0.2484 -4.8599 -1.8648 0.9794
0.6813 -4.8131 -1.8628 0.9794
3.0638 -3.8049 -1.8721 0.9793
3.4009 -3.5250 -1.8770 0.9792
4.0014 -2.8822 -1.8898 0.9791
4.4891 -2.1414 -1.9060 0.9789
5.0203 1.3965 -1.9969 0.9779
4.9072 1.8519 -2.0100 0.9778
4.7527 2.2983 -2.0231 0.9776
4.5575 2.7317 -2.0362 0.9775
4.3222 3.1482 -2.0491 0.9774
3.3912 4.2574 -2.0858 0.9770
1.6035 4.9306 -1.9869 0.9780
1.1466 5.0129 -1.9706 0.9782
0.2365 5.1654 -1.9815 0.9781
-0.6974 5.1992 -2.0103 0.9778
-1.2101 5.3388 -2.0978 0.9768
-1.7233 5.3348 -2.1484 0.9763
-2.1972 5.1681 -2.1521 0.9762
-4.9241 2.3931 -2.0981 0.9768
-2.2883 0.0106 -0.8769 0.9902
-2.3042 -0.1962 -0.8862 0.9901
-5.1686 -0.9111 -2.0113 0.9778
-5.0335 -1.3608 -1.9982 0.9779
-4.8600 -1.7939 -1.9853 0.9781
-4.4066 -2.5979 -1.9603 0.9783
-4.1315 -2.9635 -1.9485 0.9785
-3.8274 -3.3018 -1.9371 0.9786
-3.4973 -3.6107 -1.9264 0.9787
-3.1438 -3.8885 -1.9163 0.9788
-2.3783 -4.3453 -1.8983 0.9790
-1.5540 -4.6631 -1.8836 0.9792
0.1778 -4.8641 -1.8652 0.9794
3.6650 -3.2687 -1.8819 0.9792
3.9567 -2.9382 -1.8886 0.9791
4.2204 -2.5829 -1.8962 0.9790
4.8235 -1.3898 -1.9237 0.9787
5.0505 -0.5141 -1.9455 0.9785
5.1069 -0.0607 -1.9572 0.9784
5.0997 0.8608 -1.9820 0.9781
5.0348 1.3220 -1.9948 0.9779
4.9284 1.7785 -2.0079 0.9778
4.5919 2.6624 -2.0341 0.9775
3.7900 3.8565 -2.0721 0.9771
3.0764 4.5199 -2.0952 0.9769
2.2041 4.9556 -2.0784 0.9770
1.6834 4.9315 -1.9969 0.9779
1.2187 4.9930 -1.9696 0.9782
0.7697 5.0979 -1.9757 0.9782
-0.1515 5.1769 -1.9847 0.9781
-1.1234 5.3134 -2.0812 0.9770
-1.6449 5.3572 -2.1476 0.9763
-3.0061 4.7255 -2.1463 0.9763
-3.7801 4.0929 -2.1351 0.9764
-4.1168 3.7256 -2.1278 0.9765
-4.4160 3.3294 -2.1194 0.9766
-4.8929 2.4664 -2.0998 0.9768
-5.2831 1.0613 -2.0650 0.9772
-2.2936 0.0439 -0.8791 0.9902
-2.3037 -0.1625 -0.8850 0.9902
-5.1868 -0.8368 -2.0134 0.9777
-4.6867 -2.1416 -1.9747 0.9782
-3.5525 -3.5627 -1.9281 0.9787
-3.2026 -3.8456 -1.9178 0.9788
-2.8318 -4.0963 -1.9084 0.9789
-0.7648 -4.8280 -1.8733 0.9793
0.1071 -4.8673 -1.8657 0.9794
2.5850 -4.1294 -1.8669 0.9793
3.6152 -3.3198 -1.8809 0.9792
4.7987 -1.4585 -1.9220 0.9787
5.0377 -0.5868 -1.9436 0.9785
5.1004 -0.1348 -1.9553 0.9784
5.1064 0.7858 -1.9799 0.9781
4.9485 1.7049 -2.0057 0.9778
4.6253 2.5926 -2.0320 0.9775
4.4029 3.0151 -2.0449 0.9774
1.2904 4.9719 -1.9685 0.9782
0.8433 5.0837 -1.9748 0.9782
-0.5405 5.1645 -1.9899 0.9780
-2.0458 5.2290 -2.1518 0.9762
-2.9380 4.7702 -2.1469 0.9763
-3.3454 4.4784 -2.1422 0.9763
-4.6360 2.9781 -2.1116 0.9767
-5.2722 1.1391 -2.0670 0.9772
-3.2930 4.0292 -2.1297 0.9778
-4.2018 2.9804 -2.1084 0.9780
-4.6242 2.1648 -2.0897 0.9782
-4.7753 1.7339 -2.0793 0.9783
-4.8852 1.2930 -2.0683 0.9784
-2.0476 0.3498 -0.8502 0.9911
-1.9928 -0.0198 -0.8156 0.9914
-2.0688 -0.3958 -0.8621 0.9909
-4.6892 -1.3412 -1.9961 0.9791
-4.5230 -1.7446 -1.9841 0.9793
-4.3229 -2.1293 -1.9723 0.9794
-3.2298 -3.4330 -1.9291 0.9798
-2.8956 -3.6900 -1.9197 0.9799
-2.5424 -3.9164 -1.9110 0.9800
-2.1729 -4.1108 -1.9030 0.9801
-1.3958 -4.4005 -1.8894 0.9802
-0.5863 -4.5541 -1.8793 0.9804
1.0423 -4.4484 -1.8699 0.9804
2.1892 -4.0185 -1.8729 0.9804
2.5437 -3.8124 -1.8757 0.9804
2.8802 -3.5769 -1.8795 0.9803
3.1966 -3.3132 -1.8842 0.9803
3.4904 -3.0230 -1.8898 0.9802
4.2155 -2.0110 -1.9116 0.9800
4.3985 -1.6333 -1.9203 0.9799
4.5492 -1.2395 -1.9297 0.9798
4.7476 -0.4136 -1.9504 0.9796
4.7926 0.0127 -1.9615 0.9795
4.8003 0.4439 -1.9730 0.9794
4.7007 1.3076 -1.9969 0.9791
4.4465 2.1502 -2.0214 0.9789
4.2620 2.5545 -2.0337 0.9788
4.0403 2.9429 -2.0457 0.9786
1.5936 4.9004 -2.1090 0.9780
1.1248 4.9174 -2.0645 0.9784
0.2288 4.9964 -2.0470 0.9786
-0.2222 5.0701 -2.0771 0.9783
-0.6930 5.1659 -2.1332 0.9777
-1.6093 4.9818 -2.1427 0.9776
-2.0472 4.8153 -2.1415 0.9776
-2.8642 4.3611 -2.1354 0.9777
-3.5772 3.7621 -2.1247 0.9778
-3.8866 3.4159 -2.1177 0.9779
-4.1608 3.0431 -2.1098 0.9780
-4.3978 2.6477 -2.1009 0.9781
-4.5958 2.2335 -2.0913 0.9782
-2.0163 0.1904 -0.8289 0.9913
-2.0145 -0.1715 -0.8275 0.9913
-4.7129 -1.2741 -1.9981 0.9791
-4.3576 -2.0683 -1.9742 0.9794
-4.1309 -2.4354 -1.9626 0.9795
-3.2820 -3.3885 -1.9307 0.9798
-2.2339 -4.0815 -1.9043 0.9801
-1.8527 -4.2485 -1.8969 0.9802
-1.0594 -4.4816 -1.8848 0.9803
-0.6527 -4.5468 -1.8800 0.9803
-0.2429 -4.5774 -1.8761 0.9804
0.1671 -4.5736 -1.8731 0.9804
0.9776 -4.4633 -1.8700 0.9804
1.3728 -4.3576 -1.8699 0.9804
1.7578 -4.2193 -1.8707 0.9804
2.4873 -3.8479 -1.8752 0.9804
2.8269 -3.6171 -1.8789 0.9804
3.9645 -2.4262 -1.9023 0.9801
4.1829 -2.0705 -1.9102 0.9800
4.5270 -1.3044 -1.9282 0.9798
4.8016 0.3737 -1.9711 0.9794
4.7774 0.8064 -1.9829 0.9793
4.4728 2.0833 -2.0194 0.9789
4.2945 2.4899 -2.0317 0.9788
4.0787 2.8811 -2.0438 0.9786
3.8268 3.2531 -2.0556 0.9785
3.5403 3.6023 -2.0672 0.9784
2.8715 4.2189 -2.0887 0.9782
1.6641 4.8749 -2.1082 0.9780
1.1998 4.9155 -2.0709 0.9784
-0.1480 5.0553 -2.0699 0.9784
-1.0803 5.1094 -2.1374 0.9777
-1.5363 5.0035 -2.1422 0.9776
-2.4002 4.6440 -2.1395 0.9777
-2.8014 4.4037 -2.1361 0.9777
-4.3620 2.7133 -2.1024 0.9780
-4.7307 1.8750 -2.0827 0.9782
-2.0757 0.4170 -0.8665 0.9909
-1.9952 0.0382 -0.8167 0.9914
-2.0109 -0.1418 -0.8251 0.9913
-2.0374 -0.3287 -0.8446 0.9911
-2.1278 -0.5422 -0.8987 0.9906
-4.5807 -1.6155 -1.9880 0.9792
-4.3915 -2.0066 -1.9761 0.9793
-4.1698 -2.3773 -1.9645 0.9795
-3.6384 -3.0477 -1.9425 0.9797
-3.3337 -3.3432 -1.9323 0.9798
-3.0063 -3.6099 -1.9227 0.9799
-2.6590 -3.8463 -1.9138 0.9800
-0.7190 -4.5386 -1.8807 0.9803
-0.3095 -4.5748 -1.8766 0.9804
0.9127 -4.4773 -1.8701 0.9804
1.3093 -4.3770 -1.8698 0.9804
2.4305 -3.8826 -1.8747 0.9804
3.3976 -3.1200 -1.8879 0.9803
3.6750 -2.8128 -1.8941 0.9802
4.3426 -1.7578 -1.9174 0.9800
4.6319 -0.9656 -1.9365 0.9798
4.8020 0.3036 -1.9692 0.9794
4.1163 2.8188 -2.0418 0.9787
3.8701 3.1942 -2.0537 0.9785
3.5891 3.5473 -2.0653 0.9784
3.2750 3.8749 -2.0764 0.9783
2.9302 4.1734 -2.0870 0.9782
2.1563 4.6644 -2.1031 0.9780
1.7342 4.8487 -2.1075 0.9780
1.2752 4.9136 -2.0776 0.9783
0.3732 4.9786 -2.0433 0.9787
-0.0743 5.0426 -2.0640 0.9784
-1.0055 5.1226 -2.1365 0.9777
-1.4629 5.0234 -2.1414 0.9776
-2.3329 4.6794 -2.1400 0.9777
-2.7379 4.4453 -2.1367 0.9777
-3.7899 3.5313 -2.1201 0.9779
-4.3251 2.7783 -2.1039 0.9780
-4.5359 2.3698 -2.0945 0.9781
-4.7068 1.9452 -2.0844 0.9782
-4.8369 1.5086 -2.0737 0.9783
-3.0800 3.7685 -2.1211 0.9790
-3.3955 3.4687 -2.1155 0.9790
-3.6805 3.1412 -2.1088 0.9791
-3.9326 2.7894 -2.1013 0.9792
-1.4867 0.5398 -0.6893 0.9931
-1.4692 -0.1466 -0.6435 0.9936
-1.4689 -0.2810 -0.6518 0.9935
-1.4936 -0.4272 -0.6770 0.9932
-4.0627 -2.0012 -1.9738 0.9804
-3.3323 -2.9602 -1.9426 0.9807
-2.7257 -3.4735 -1.9243 0.9809
-2.3939 -3.6875 -1.9160 0.9810
-1.3151 -4.1461 -1.8957 0.9812
-0.9364 -4.2354 -1.8904 0.9813
-0.1662 -4.3163 -1.8825 0.9813
0.6040 -4.2668 -1.8781 0.9814
1.7149 -3.9536 -1.8782 0.9814
2.7146 -3.3711 -1.8863 0.9813
3.0123 -3.1222 -1.8908 0.9812
3.2886 -2.8482 -1.8960 0.9812
3.7689 -2.2319 -1.9090 0.9811
3.9691 -1.8934 -1.9165 0.9810
4.1403 -1.5375 -1.9248 0.9809
4.4648 -0.3890 -1.9532 0.9806
4.5113 0.4171 -1.9745 0.9804
4.4144 1.2280 -1.9969 0.9802
4.1726 2.0177 -2.0199 0.9800
3.9979 2.3963 -2.0314 0.9799
3.7886 2.7595 -2.0427 0.9798
3.5457 3.1040 -2.0537 0.9796
3.2709 3.4264 -2.0645 0.9795
2.2756 4.2303 -2.0935 0.9793
1.4950 4.5970 -2.1067 0.9791
1.0801 4.7221 -2.1111 0.9791
0.2225 4.8596 -2.1201 0.9790
-0.2134 4.8706 -2.1247 0.9790
-1.5046 4.6577 -2.1332 0.9789
-2.3066 4.3084 -2.1298 0.9789
-2.6784 4.0783 -2.1264 0.9789
-3.0261 3.8144 -2.1220 0.9790
-3.6365 3.1961 -2.1100 0.9791
-4.1169 2.4786 -2.0943 0.9793
-4.3035 2.0915 -2.0853 0.9793
-1.5248 0.5789 -0.7108 0.9929
-1.4691 0.2730 -0.6512 0.9935
-1.4260 0.0066 -0.6215 0.9938
-1.4710 -0.2593 -0.6510 0.9935
-1.4930 -0.4037 -0.6741 0.9933
-3.8834 -2.2895 -1.9647 0.9805
-3.3777 -2.9139 -1.9441 0.9807
-3.0884 -3.1886 -1.9346 0.9808
-2.4489 -3.6548 -1.9173 0.9810
-1.3759 -4.1286 -1.8966 0.9812
-0.6151 -4.2852 -1.8867 0.9813
-0.2290 -4.3146 -1.8830 0.9813
0.9217 -4.2077 -1.8773 0.9814
2.3445 -3.6270 -1.8822 0.9813
3.5021 -2.6006 -1.9011 0.9811
3.9386 -1.9496 -1.9153 0.9810
4.1146 -1.5963 -1.9234 0.9809
4.3741 -0.8457 -1.9416 0.9807
4.5014 -0.0535 -1.9619 0.9805
4.5128 0.3512 -1.9727 0.9804
4.4883 0.7576 -1.9838 0.9803
4.4277 1.1626 -1.9951 0.9802
4.1976 1.9550 -2.0181 0.9800
3.3176 3.3757 -2.0627 0.9796
2.6891 3.9509 -2.0829 0.9794
2.3352 4.1940 -2.0920 0.9793
1.9587 4.4037 -2.1005 0.9792
1.5611 4.5732 -2.1060 0.9791
1.1482 4.7043 -2.1104 0.9791
0.2930 4.8541 -2.1194 0.9790
-1.0124 4.7885 -2.1330 0.9789
-1.4368 4.6793 -2.1333 0.9789
-1.8487 4.5301 -2.1324 0.9789
-2.9714 3.8594 -2.1228 0.9790
-3.5915 3.2503 -2.1111 0.9791
-3.8545 2.9061 -2.1038 0.9792
-4.0832 2.5399 -2.0957 0.9792
-4.2758 2.1553 -2.0868 0.9793
-1.4737 0.2960 -0.6551 0.9935
-1.4710 0.1605 -0.6449 0.9936
-1.4355 0.0275 -0.6257 0.9938
-1.4911 -0.3800 -0.6706 0.9933
-3.6843 -2.5625 -1.9559 0.9806
-2.8297 -3.3978 -1.9271 0.9809
-2.5034 -3.6213 -1.9186 0.9810
-2.1608 -3.8152 -1.9109 0.9811
-1.8042 -3.9784 -1.9038 0.9811
-1.0600 -4.2100 -1.8920 0.9812
-0.6776 -4.2773 -1.8874 0.9813
0.4798 -4.2836 -1.8785 0.9814
0.8605 -4.2209 -1.8774 0.9814
1.5990 -4.0009 -1.8778 0.9814
1.9520 -3.8450 -1.8793 0.9814
2.2910 -3.6598 -1.8817 0.9813
2.6137 -3.4463 -1.8850 0.9813
2.9179 -3.2058 -1.8892 0.9813
3.2014 -2.9398 -1.8942 0.9812
3.9072 -2.0053 -1.9140 0.9810
4.0880 -1.6548 -1.9221 0.9809
4.2387 -1.2883 -1.9308 0.9809
4.3579 -0.9084 -1.9401 0.9808
4.4441 -0.5177 -1.9499 0.9807
4.4948 0.6917 -1.9819 0.9804
4.3489 1.4983 -2.0047 0.9801
4.2216 1.8921 -2.0162 0.9800
4.0585 2.2749 -2.0277 0.9799
3.3635 3.3244 -2.0610 0.9796
2.7442 3.9085 -2.0813 0.9794
2.0212 4.3720 -2.0992 0.9792
1.6268 4.5485 -2.1053 0.9791
0.3634 4.8477 -2.1187 0.9790
-0.9425 4.8012 -2.1324 0.9789
-1.3687 4.6998 -2.1333 0.9789
-2.1813 4.3754 -2.1307 0.9789
-2.9161 3.9036 -2.1235 0.9790
-3.2456 3.6183 -2.1184 0.9790
-4.4084 1.8219 -2.0789 0.9794
-1.2652 0.5923 -0.6466 0.9939
-1.2618 0.4581 -0.6214 0.9941
-1.2730 0.2174 -0.5978 0.9943
-1.2743 -0.1272 -0.5928 0.9944
-1.2705 -0.2431 -0.5988 0.9943
-1.2705 -0.3634 -0.6117 0.9942
-1.2569 -0.4848 -0.6236 0.9941
-3.8278 -1.8854 -1.9751 0.9814
-3.6250 -2.2087 -1.9649 0.9815
-3.3959 -2.5114 -1.9551 0.9816
-3.1425 -2.7916 -1.9457 0.9816
-2.8670 -3.0474 -1.9367 0.9817
-2.5718 -3.2774 -1.9284 0.9818
-1.5918 -3.7999 -1.9070 0.9820
-0.8844 -4.0002 -1.8964 0.9821
-0.5220 -4.0544 -1.8922 0.9821
-0.1570 -4.0776 -1.8888 0.9822
0.2080 -4.0698 -1.8863 0.9822
0.5706 -4.0313 -1.8846 0.9822
1.2791 -3.8635 -1.8838 0.9822
1.6203 -3.7354 -1.8847 0.9822
2.2650 -3.3948 -1.8890 0.9822
2.8450 -2.9488 -1.8967 0.9821
3.1055 -2.6896 -1.9017 0.9821
3.3437 -2.4084 -1.9074 0.9820
4.1394 -0.7381 -1.9463 0.9816
4.2463 0.0113 -1.9656 0.9815
4.2204 0.7756 -1.9863 0.9813
4.1563 1.1561 -1.9969 0.9812
4.0581 1.5315 -2.0077 0.9811
3.7604 2.2539 -2.0293 0.9809
3.0735 3.2197 -2.0604 0.9806
1.4046 4.3192 -2.1024 0.9802
0.6158 4.5235 -2.1132 0.9801
0.2092 4.5694 -2.1173 0.9800
-0.2006 4.5784 -2.1213 0.9800
-1.0147 4.4765 -2.1247 0.9800
-1.4110 4.3680 -2.1247 0.9800
-1.7951 4.2222 -2.1237 0.9800
-2.5123 3.8253 -2.1184 0.9800
-3.1397 3.3019 -2.1091 0.9801
-3.8652 2.3270 -2.0884 0.9803
-1.2788 0.6215 -0.6581 0.9938
-1.2725 -0.2243 -0.5981 0.9943
-1.2706 -0.3435 -0.6093 0.9942
-1.2606 -0.4653 -0.6220 0.9941
-1.2685 -0.6021 -0.6500 0.9938
-3.6598 -2.1576 -1.9665 0.9814
-3.4348 -2.4638 -1.9566 0.9815
-2.6210 -3.2419 -1.9297 0.9818
-2.3111 -3.4491 -1.9218 0.9819
-1.6477 -3.7784 -1.9080 0.9820
-1.2992 -3.8986 -1.9022 0.9820
-0.9428 -3.9885 -1.8971 0.9821
-0.5810 -4.0477 -1.8928 0.9821
-0.2163 -4.0759 -1.8893 0.9822
0.5120 -4.0396 -1.8849 0.9822
0.8708 -3.9756 -1.8839 0.9822
1.2228 -3.8816 -1.8838 0.9822
1.8971 -3.6061 -1.8861 0.9822
2.2149 -3.4265 -1.8886 0.9822
2.8007 -2.9886 -1.8959 0.9821
3.7171 -1.8400 -1.9199 0.9819
4.1250 -0.7975 -1.9448 0.9817
4.2519 0.3309 -1.9741 0.9814
4.2275 0.7136 -1.9845 0.9813
4.1690 1.0947 -1.9952 0.9812
3.9497 1.8396 -2.0168 0.9810
3.7895 2.1971 -2.0276 0.9809
3.5966 2.5405 -2.0383 0.9808
2.8347 3.4545 -2.0685 0.9805
2.5255 3.7106 -2.0776 0.9804
2.1926 3.9378 -2.0862 0.9803
1.8385 4.1337 -2.0941 0.9803
0.6813 4.5125 -2.1125 0.9801
-0.5437 4.5546 -2.1233 0.9800
-1.3474 4.3881 -2.1248 0.9800
-1.7337 4.2483 -2.1239 0.9800
-2.1048 4.0725 -2.1220 0.9800
-2.4571 3.8625 -2.1190 0.9800
-3.3703 3.0501 -2.1040 0.9802
-3.6178 2.7276 -2.0972 0.9802
-3.8333 2.3844 -2.0897 0.9803
-4.0152 2.0240 -2.0814 0.9804
-1.2542 0.4971 -0.6245 0.9941
-1.2748 0.1391 -0.5936 0.9944
-1.2627 0.0242 -0.5846 0.9944
-1.2713 -0.0897 -0.5899 0.9944
-1.2739 -0.2055 -0.5973 0.9943
-1.2637 -0.4457 -0.6202 0.9941
-1.2591 -0.5754 -0.6408 0.9939
-3.6938 -2.1059 -1.9682 0.9814
-3.4730 -2.4156 -1.9582 0.9815
-2.0396 -3.6012 -1.9157 0.9819
-1.3564 -3.8812 -1.9031 0.9820
-0.2756 -4.0734 -1.8898 0.9822
1.5108 -3.7801 -1.8843 0.9822
2.1643 -3.4574 -1.8881 0.9822
2.4690 -3.2554 -1.8912 0.9822
2.7560 -3.0279 -1.8952 0.9821
3.0233 -2.7762 -1.8999 0.9821
3.2689 -2.5020 -1.9055 0.9820
3.4910 -2.2068 -1.9117 0.9820
3.8575 -1.5614 -1.9263 0.9818
4.1099 -0.8567 -1.9433 0.9817
4.2379 -0.1120 -1.9623 0.9815
4.2527 0.2689 -1.9724 0.9814
4.1808 1.0331 -1.9935 0.9812
4.0937 1.4104 -2.0042 0.9811
3.6301 2.4859 -2.0365 0.9808
3.1609 3.1241 -2.0572 0.9806
2.2481 3.9030 -2.0849 0.9803
0.7465 4.5007 -2.1118 0.9801
0.3417 4.5585 -2.1160 0.9801
-0.4774 4.5614 -2.1229 0.9800
-0.8840 4.5036 -2.1244 0.9800
-1.6720 4.2735 -2.1242 0.9800
-2.4014 3.8988 -2.1196 0.9800
-2.7354 3.6618 -2.1157 0.9801
-3.0450 3.3947 -2.1109 0.9801
-3.3272 3.1002 -2.1051 0.9802
-3.8006 2.4414 -2.0909 0.9803
-1.2674 0.2738 -0.6002 0.9943
-2.7176 3.3252 -2.1065 0.9810
-3.2498 2.7736 -2.0957 0.9811
-3.6673 2.1359 -2.0818 0.9813
-1.0931 0.5117 -0.5920 0.9946
-1.1218 0.4073 -0.5854 0.9947
-1.1328 0.2998 -0.5748 0.9948
-1.1417 0.1950 -0.5682 0.9949
-1.1437 0.0913 -0.5628 0.9949
-1.1443 -0.1142 -0.5641 0.9949
-1.1393 -0.2180 -0.5690 0.9948
-1.1319 -0.3238 -0.5775 0.9948
-1.1170 -0.4308 -0.5872 0.9947
-3.2083 -2.3728 -1.9574 0.9824
-2.9697 -2.6381 -1.9485 0.9825
-2.7101 -2.8806 -1.9400 0.9825
-1.5059 -3.5949 -1.9119 0.9828
-1.1751 -3.7047 -1.9065 0.9828
-0.8370 -3.7856 -1.9018 0.9829
-0.4940 -3.8373 -1.8978 0.9829
-0.1486 -3.8596 -1.8946 0.9829
0.1969 -3.8525 -1.8922 0.9830
0.8790 -3.7511 -1.8898 0.9830
1.2109 -3.6575 -1.8899 0.9830
1.8456 -3.3877 -1.8924 0.9830
2.6923 -2.7905 -1.9020 0.9829
2.9384 -2.5449 -1.9068 0.9828
3.5424 -1.6898 -1.9252 0.9827
3.6935 -1.3715 -1.9326 0.9826
3.8170 -1.0400 -1.9406 0.9825
3.9117 -0.6975 -1.9491 0.9825
4.0106 0.0106 -1.9673 0.9823
4.0132 0.3711 -1.9770 0.9822
3.9838 0.7322 -1.9869 0.9821
3.9221 1.0910 -1.9969 0.9820
3.5453 2.1250 -2.0275 0.9818
3.3575 2.4455 -2.0375 0.9817
3.1403 2.7491 -2.0473 0.9816
2.8952 3.0329 -2.0567 0.9815
2.6238 3.2940 -2.0657 0.9814
2.0110 3.7384 -2.0822 0.9813
1.6744 3.9170 -2.0896 0.9812
1.3215 4.0638 -2.0961 0.9811
0.9554 4.1772 -2.1019 0.9811
0.5794 4.2558 -2.1068 0.9810
0.1968 4.2987 -2.1108 0.9810
-0.5735 4.2754 -2.1160 0.9810
-0.9541 4.2091 -2.1171 0.9810
-1.3267 4.1070 -2.1171 0.9810
-1.6879 3.9701 -2.1161 0.9810
-2.0343 3.7997 -2.1142 0.9810
-2.3626 3.5975 -2.1112 0.9810
-2.9534 3.1061 -2.1024 0.9811
-3.2107 2.8219 -2.0967 0.9811
-3.6380 2.1903 -2.0830 0.9813
-1.1400 0.2118 -0.5688 0.9948
-1.1442 0.1081 -0.5638 0.9949
-1.1412 -0.2012 -0.5684 0.9949
-1.1327 -0.3062 -0.5756 0.9948
-1.0908 -0.5177 -0.5923 0.9946
-3.4565 -2.0378 -1.9682 0.9823
-3.0099 -2.5966 -1.9499 0.9824
-2.7535 -2.8429 -1.9414 0.9825
-2.4780 -3.0650 -1.9334 0.9826
-2.1855 -3.2617 -1.9259 0.9827
-0.5499 -3.8309 -1.8984 0.9829
0.4847 -3.8241 -1.8908 0.9830
1.1576 -3.6746 -1.8898 0.9830
2.0965 -3.2433 -1.8944 0.9829
2.3820 -3.0478 -1.8975 0.9829
2.8998 -2.5862 -1.9060 0.9828
3.3340 -2.0404 -1.9174 0.9827
3.6708 -1.4241 -1.9314 0.9826
3.8984 -0.7537 -1.9476 0.9825
4.0072 -0.0476 -1.9658 0.9823
4.0149 0.3125 -1.9754 0.9822
3.7250 1.7350 -2.0157 0.9819
3.5729 2.0716 -2.0259 0.9818
3.3900 2.3946 -2.0359 0.9817
2.9368 2.9883 -2.0552 0.9815
2.6696 3.2533 -2.0643 0.9814
2.3778 3.4935 -2.0729 0.9813
1.7302 3.8901 -2.0884 0.9812
1.3798 4.0422 -2.0951 0.9812
0.6410 4.2455 -2.1061 0.9811
-0.1260 4.3068 -2.1135 0.9810
-0.5112 4.2828 -2.1157 0.9810
-1.6302 3.9947 -2.1164 0.9810
-1.9792 3.8296 -2.1145 0.9810
-3.1708 2.8695 -2.0977 0.9811
-1.0892 0.5490 -0.5983 0.9946
-1.1144 0.4417 -0.5880 0.9947
-1.1312 0.3349 -0.5787 0.9948
-1.1379 0.2286 -0.5693 0.9948
-1.1432 -0.0806 -0.5622 0.9949
-1.1426 -0.1844 -0.5677 0.9949
-1.1238 -0.3963 -0.5845 0.9947
-3.2809 -2.2820 -1.9604 0.9824
-3.0496 -2.5544 -1.9513 0.9824
-2.7965 -2.8045 -1.9427 0.9825
-1.6114 -3.5532 -1.9138 0.9828
-0.9473 -3.7625 -1.9032 0.9829
-0.6057 -3.8237 -1.8990 0.9829
-0.2609 -3.8556 -1.8956 0.9829
0.4292 -3.8312 -1.8911 0.9830
2.0487 -3.2727 -1.8939 0.9829
2.8608 -2.6270 -1.9052 0.9828
3.6474 -1.4764 -1.9301 0.9826
3.7800 -1.1489 -1.9379 0.9826
3.8842 -0.8097 -1.9462 0.9825
4.0030 -0.1058 -1.9642 0.9823
4.0158 0.2539 -1.9738 0.9822
3.7468 1.6793 -2.0140 0.9819
3.5997 2.0178 -2.0242 0.9818
3.4217 2.3432 -2.0343 0.9817
3.2140 2.6526 -2.0441 0.9816
2.7146 3.2119 -2.0629 0.9814
1.7856 3.8624 -2.0873 0.9812
1.4377 4.0197 -2.0941 0.9812
1.0755 4.1441 -2.1001 0.9811
0.7023 4.2342 -2.1053 0.9811
-0.0634 4.3072 -2.1130 0.9810
-0.4489 4.2891 -2.1154 0.9810
-0.8312 4.2346 -2.1168 0.9810
-1.5721 4.0183 -2.1166 0.9810
-1.9237 3.8586 -2.1149 0.9810
-2.2582 3.6665 -2.1123 0.9810
-2.5727 3.4439 -2.1086 0.9810
-2.8642 3.1931 -2.1041 0.9811
-3.1302 2.9167 -2.0987 0.9811
-3.3684 2.6172 -2.0924 0.9812
-3.5770 2.2977 -2.0854 0.9812
-1.1101 0.4587 -0.5892 0.9947
-1.1352 0.2453 -0.5697 0.9948
-2.8257 2.8866 -2.0956 0.9820
-3.0645 2.6154 -2.0901 0.9820
-3.2763 2.3239 -2.0839 0.9821
-1.0080 0.3660 -0.5563 0.9952
-1.0198 0.2699 -0.5473 0.9953
-1.0309 -0.0102 -0.5349 0.9954
-1.0185 -0.2913 -0.5496 0.9952
-1.0033 -0.3870 -0.5579 0.9952
-0.9726 -0.4791 -0.5624 0.9951
-0.9650 -0.5880 -0.5862 0.9949
-2.5665 -2.7279 -1.9431 0.9833
-2.3032 -2.9351 -1.9355 0.9833
-1.1138 -3.5116 -1.9112 0.9835
-0.7934 -3.5887 -1.9067 0.9836
0.5123 -3.6189 -1.8961 0.9837
0.8335 -3.5572 -1.8954 0.9837
1.1483 -3.4685 -1.8954 0.9837
2.3009 -2.8574 -1.9032 0.9836
2.5523 -2.6454 -1.9070 0.9836
2.9979 -2.1593 -1.9167 0.9835
3.1887 -1.8883 -1.9225 0.9834
3.3560 -1.6009 -1.9290 0.9834
3.4984 -1.2991 -1.9360 0.9833
3.6147 -0.9848 -1.9436 0.9833
3.7035 -0.6604 -1.9516 0.9832
3.7640 -0.3279 -1.9601 0.9831
3.7953 0.0101 -1.9689 0.9830
3.7967 0.3511 -1.9780 0.9830
3.7678 0.6925 -1.9874 0.9829
3.7085 1.0316 -1.9969 0.9828
3.4989 1.6919 -2.0162 0.9826
3.3494 2.0076 -2.0258 0.9826
3.1711 2.3098 -2.0352 0.9825
2.9652 2.5958 -2.0445 0.9824
2.4763 3.1088 -2.0619 0.9822
1.8970 3.5266 -2.0774 0.9821
1.5792 3.6943 -2.0843 0.9821
1.2462 3.8321 -2.0905 0.9820
0.9008 3.9384 -2.0959 0.9820
0.5462 4.0120 -2.1005 0.9819
-1.2503 3.8707 -2.1102 0.9818
-1.9174 3.5813 -2.1074 0.9819
-2.2270 3.3910 -2.1046 0.9819
-2.5170 3.1727 -2.1009 0.9819
-2.7846 2.9285 -2.0964 0.9820
-3.0275 2.6609 -2.0910 0.9820
-0.9628 0.5796 -0.5830 0.9949
-0.9748 0.4738 -0.5623 0.9951
-1.0046 0.3814 -0.5575 0.9952
-1.0312 0.1916 -0.5441 0.9953
-1.0377 0.0980 -0.5407 0.9953
-1.0195 -0.2756 -0.5479 0.9953
-0.9786 -0.4645 -0.5620 0.9951
-0.9587 -0.5652 -0.5774 0.9950
-2.8496 -2.4583 -1.9524 0.9832
-2.3471 -2.9031 -1.9367 0.9833
-2.0705 -3.0901 -1.9296 0.9834
-1.4773 -3.3875 -1.9172 0.9835
-1.1652 -3.4965 -1.9120 0.9835
-0.5214 -3.6320 -1.9035 0.9836
-0.1941 -3.6580 -1.9004 0.9836
0.1336 -3.6561 -1.8980 0.9836
2.2584 -2.8896 -1.9026 0.9836
3.1593 -1.9335 -1.9215 0.9834
3.5976 -1.0366 -1.9423 0.9833
3.7922 -0.0450 -1.9674 0.9831
3.7985 0.2956 -1.9765 0.9830
3.7746 0.6371 -1.9859 0.9829
3.6354 1.3119 -2.0050 0.9827
3.3756 1.9572 -2.0243 0.9826
3.2020 2.2618 -2.0337 0.9825
2.5195 3.0705 -2.0605 0.9823
1.3012 3.8118 -2.0895 0.9820
0.6043 4.0023 -2.0998 0.9819
-0.1188 4.0593 -2.1068 0.9819
-0.4818 4.0365 -2.1089 0.9818
-1.8655 3.6094 -2.1078 0.9819
-0.9688 0.6026 -0.5919 0.9949
-0.9685 0.4882 -0.5627 0.9951
-1.0323 0.0198 -0.5356 0.9954
-1.0370 -0.0731 -0.5393 0.9953
-1.0342 -0.1669 -0.5435 0.9953
-0.9521 -0.5428 -0.5685 0.9951
-2.8871 -2.4183 -1.9538 0.9832
-2.6481 -2.6557 -1.9456 0.9832
-2.3905 -2.8705 -1.9379 0.9833
-1.8278 -3.2273 -1.9241 0.9834
-1.5271 -3.3673 -1.9181 0.9835
-1.2164 -3.4806 -1.9128 0.9835
-0.8980 -3.5667 -1.9081 0.9836
-0.5743 -3.6251 -1.9041 0.9836
-0.2473 -3.6557 -1.9008 0.9836
1.0470 -3.5002 -1.8953 0.9837
1.9425 -3.1032 -1.8993 0.9836
2.4726 -2.7166 -1.9057 0.9836
3.3044 -1.6959 -1.9268 0.9834
3.6777 -0.7667 -1.9489 0.9832
3.7475 -0.4365 -1.9573 0.9831
3.7805 0.5818 -1.9843 0.9829
3.7311 0.9219 -1.9938 0.9828
3.6512 1.2580 -2.0034 0.9827
3.5411 1.5871 -2.0131 0.9827
3.4011 1.9065 -2.0227 0.9826
3.0350 2.5049 -2.0415 0.9824
2.8112 2.7785 -2.0505 0.9823
1.9964 3.4660 -2.0750 0.9821
1.6842 3.6431 -2.0821 0.9821
1.0141 3.9074 -2.0942 0.9820
-0.0598 4.0598 -2.1064 0.9819
-0.4231 4.0425 -2.1086 0.9819
-1.4817 3.7871 -2.1097 0.9818
-2.4252 3.2465 -2.1022 0.9819
-2.7003 3.0104 -2.0980 0.9819
-2.9515 2.7502 -2.0929 0.9820
-0.9967 0.4119 -0.5595 0.9952
-2.1492 3.1711 -2.0982 0.9827
-2.4201 2.9611 -2.0946 0.9827
-0.9258 0.2450 -0.5245 0.9956
-0.9472 0.0756 -0.5205 0.9957
-0.9421 -0.0094 -0.5160 0.9957
-0.9473 -0.0945 -0.5214 0.9957
-0.8904 -0.4386 -0.5437 0.9955
-0.8617 -0.5250 -0.5527 0.9954
-2.8794 -2.1294 -1.9615 0.9838
-2.6664 -2.3687 -1.9534 0.9839
-1.9208 -2.9587 -1.9320 0.9840
-1.3548 -3.2340 -1.9204 0.9841
-0.4448 -3.4546 -1.9077 0.9842
-0.1338 -3.4752 -1.9048 0.9843
0.1773 -3.4693 -1.9027 0.9843
0.4865 -3.4370 -1.9012 0.9843
2.1848 -2.7132 -1.9079 0.9842
2.4233 -2.5117 -1.9115 0.9842
2.8456 -2.0497 -1.9208 0.9841
3.3191 -1.2325 -1.9391 0.9840
1.8839 -0.5133 -1.0694 0.9911
1.8842 0.3463 -1.0493 0.9913
1.8831 0.5238 -1.0706 0.9911
2.8051 2.4557 -2.0419 0.9831
2.5849 2.7078 -2.0503 0.9831
2.0768 3.1488 -2.0659 0.9829
1.4924 3.4912 -2.0795 0.9828
1.1775 3.6208 -2.0853 0.9828
0.8510 3.7207 -2.0904 0.9827
0.5160 3.7898 -2.0948 0.9827
0.1753 3.8272 -2.0984 0.9827
-0.8491 3.7462 -2.1039 0.9826
-1.1808 3.6553 -2.1039 0.9826
-1.8108 3.3823 -2.1013 0.9827
-2.1034 3.2028 -2.0987 0.9827
-2.3775 2.9969 -2.0952 0.9827
-3.0654 2.2420 -2.0801 0.9828
-0.8636 0.5200 -0.5521 0.9954
-0.9108 0.3458 -0.5336 0.9956
-0.9408 0.1748 -0.5241 0.9956
-0.9474 0.0895 -0.5212 0.9957
-0.9122 -0.3367 -0.5326 0.9956
-0.8942 -0.4244 -0.5421 0.9955
-0.8670 -0.5111 -0.5512 0.9954
-2.4733 -2.5535 -1.9470 0.9839
-2.2267 -2.7542 -1.9398 0.9840
-1.9646 -2.9321 -1.9331 0.9840
-1.1062 -3.3193 -1.9163 0.9842
-0.8030 -3.3972 -1.9119 0.9842
0.4365 -3.4440 -1.9014 0.9843
0.7425 -3.3897 -1.9006 0.9843
1.0426 -3.3095 -1.9005 0.9843
1.3349 -3.2041 -1.9011 0.9843
1.8877 -2.9204 -1.9046 0.9843
2.6095 -2.3273 -1.9151 0.9842
2.8143 -2.0899 -1.9199 0.9841
2.9984 -1.8350 -1.9254 0.9841
3.1604 -1.5644 -1.9314 0.9840
1.8891 -0.1923 -1.0400 0.9914
3.3329 1.5523 -2.0137 0.9834
3.1951 1.8525 -2.0228 0.9833
2.8386 2.4130 -2.0405 0.9832
2.3825 2.9034 -2.0571 0.9830
0.9047 3.7065 -2.0897 0.9828
-0.1122 3.8338 -2.1007 0.9827
-0.4551 3.8120 -2.1027 0.9826
-1.7618 3.4088 -2.1016 0.9827
-2.5910 2.8055 -2.0917 0.9827
-2.8249 2.5565 -2.0867 0.9828
-0.8639 0.5374 -0.5572 0.9954
-0.8879 0.4476 -0.5446 0.9955
-0.9083 0.3600 -0.5352 0.9956
-0.9228 0.2732 -0.5271 0.9956
-0.9470 -0.0668 -0.5200 0.9957
-0.9438 -0.1523 -0.5236 0.9956
-0.8780 -0.6107 -0.5858 0.9951
-2.7377 -2.2932 -1.9560 0.9838
-1.4495 -3.1962 -1.9221 0.9841
-1.1547 -3.3042 -1.9170 0.9842
-0.8526 -3.3863 -1.9126 0.9842
-0.5453 -3.4421 -1.9088 0.9842
0.6932 -3.4003 -1.9006 0.9843
1.2881 -3.2229 -1.9010 0.9843
1.8447 -2.9469 -1.9042 0.9843
2.1039 -2.7740 -1.9069 0.9842
2.3477 -2.5794 -1.9103 0.9842
2.5745 -2.3641 -1.9144 0.9842
2.7824 -2.1296 -1.9191 0.9841
3.2781 -1.3269 -1.9369 0.9840
1.8859 -0.3931 -1.0551 0.9913
1.8891 -0.2201 -1.0417 0.9914
1.8792 -0.0497 -1.0296 0.9915
1.8861 0.1192 -1.0351 0.9914
1.8877 0.2905 -1.0461 0.9913
1.8860 0.4660 -1.0640 0.9912
1.8905 0.6513 -1.0952 0.9909
3.2193 1.8046 -2.0213 0.9833
