ply
format ascii 1.0
element vertex 1575
property float32 x
property float32 y
property float32 z
property float32 I
end_header
-5.4936 -16.9863 0.3016 0.9311
-4.3418 -19.0949 0.3308 0.9246
2.1440 -15.9904 0.2725 0.9375
19.2298 3.2690 0.3295 0.9249
4.6550 10.3951 0.1924 0.9555
-1.7252 15.0321 0.2556 0.9413
-3.5640 11.8264 0.2086 0.9518
-4.7554 11.8399 0.2155 0.9502
-9.2422 -16.7429 -0.1077 0.9264
-7.4325 -16.8619 -0.1037 0.9289
-4.6034 -19.0811 -0.1105 0.9245
19.3930 3.0348 -0.1105 0.9245
-3.3911 11.8130 -0.0692 0.9520
-4.5699 11.8255 -0.0714 0.9506
-3.0476 5.0021 -0.0330 0.9768
-10.9804 12.3781 -0.0932 0.9360
-6.2888 5.9289 -0.0487 0.9660
-8.1087 -16.6501 -0.1043 0.9286
-6.4483 -16.9266 -0.1020 0.9301
-5.3184 -18.8668 -0.1104 0.9246
-3.1866 -16.9764 -0.0973 0.9332
3.8005 12.5621 -0.0739 0.9489
-1.7482 11.3895 -0.0649 0.9550
-4.0485 11.7913 -0.0702 0.9514
-5.3316 11.9405 -0.0736 0.9490
-3.0207 5.4109 -0.0349 0.9755
-3.0749 4.5102 -0.0307 0.9784
-8.9501 -16.7302 -0.1068 0.9269
-4.3426 -19.0982 -0.1103 0.9246
19.1934 3.2628 -0.1096 0.9251
4.6539 10.3927 -0.0641 0.9555
-3.5634 11.8243 -0.0695 0.9518
-4.7545 11.8377 -0.0718 0.9503
-6.1085 11.9916 -0.0758 0.9476
-7.4338 -16.8649 -0.5190 0.9289
-5.7381 -16.9763 -0.5046 0.9308
-4.6042 -19.0843 -0.5528 0.9244
19.3093 3.0217 -0.5503 0.9248
-4.5691 11.8233 -0.3569 0.9505
-5.9033 11.9758 -0.3760 0.9480
-8.8797 12.0161 -0.4207 0.9420
-6.3012 5.9406 -0.2438 0.9659
-8.1102 -16.6532 -0.5215 0.9286
-6.4494 -16.9296 -0.5101 0.9301
-3.1870 -16.9788 -0.4864 0.9332
3.7998 12.5599 -0.3695 0.9488
-2.9014 11.7787 -0.3416 0.9526
-4.0477 11.7891 -0.3510 0.9513
-3.0218 5.4128 -0.1746 0.9755
-8.1600 11.9689 -0.4079 0.9437
-6.2066 6.3141 -0.2493 0.9652
-15.0015 12.7582 -0.5545 0.9242
-8.9518 -16.7333 -0.5344 0.9269
-4.3433 -19.1015 -0.5516 0.9246
19.1418 3.2540 -0.5467 0.9252
4.6529 10.3903 -0.3203 0.9555
-1.7290 15.0648 -0.4270 0.9411
-6.1073 11.9892 -0.3789 0.9476
-11.1068 -16.4598 -1.0070 0.9236
-7.3635 -16.7053 -0.9258 0.9295
1.9243 -15.9409 -0.8143 0.9377
18.0937 1.1962 -0.9196 0.9299
18.3256 4.5711 -0.9578 0.9271
18.3876 6.3736 -0.9869 0.9250
-1.6522 16.2839 -0.8301 0.9365
-3.3899 11.8087 -0.6231 0.9520
-4.5682 11.8211 -0.6427 0.9505
-8.8778 12.0134 -0.7576 0.9419
-6.3278 5.9656 -0.4410 0.9658
-9.9657 -16.5347 -0.9791 0.9256
-8.1117 -16.6562 -0.9395 0.9285
-6.3884 -16.7693 -0.9101 0.9307
-5.3201 -18.8726 -0.9944 0.9245
17.2093 -9.5656 -0.9985 0.9242
17.6430 -6.0211 -0.9454 0.9281
17.9024 -2.7139 -0.9183 0.9300
18.2341 2.1469 -0.9311 0.9291
18.3254 3.8373 -0.9495 0.9278
18.3317 5.5831 -0.9718 0.9261
3.8093 12.5912 -0.6671 0.9487
-1.7476 11.3856 -0.5842 0.9549
-4.0470 11.7869 -0.6320 0.9513
-5.3296 11.9359 -0.6629 0.9490
-6.1787 6.2857 -0.4470 0.9653
-10.8073 -16.4795 -0.9994 0.9241
-5.4435 -16.8313 -0.8971 0.9316
-4.3441 -19.1048 -0.9936 0.9245
17.0416 -10.3395 -1.0109 0.9233
17.3848 -8.5297 -0.9821 0.9254
17.4643 -6.7118 -0.9488 0.9278
17.7651 -3.3886 -0.9172 0.9301
17.9296 -0.1802 -0.9093 0.9307
18.2703 3.1059 -0.9399 0.9285
18.2861 4.8175 -0.9590 0.9271
-2.4236 11.7453 -0.6082 0.9531
-3.5621 11.8200 -0.6261 0.9518
-6.1061 11.9868 -0.6822 0.9475
-7.3648 -16.7083 -1.3388 0.9294
-5.6848 -16.8185 -1.3017 0.9313
-4.6058 -19.0909 -1.4399 0.9243
17.3610 -5.1968 -1.3288 0.9299
17.5537 -3.5882 -1.3137 0.9307
17.7043 -1.9987 -1.3064 0.9310
18.0340 4.4983 -1.3628 0.9282
18.2467 6.3248 -1.4160 0.9255
-1.5511 15.2875 -1.1267 0.9402
-5.9010 11.9711 -0.9786 0.9479
-6.3477 5.9844 -0.6396 0.9656
-8.1456 -9.2715 -0.9049 0.9517
-8.1131 -16.6593 -1.3586 0.9284
-5.3212 -18.8766 -1.4380 0.9244
-3.1879 -16.9836 -1.2670 0.9330
17.4319 -5.9491 -1.3505 0.9288
17.5460 -4.2876 -1.3244 0.9301
17.8603 2.1029 -1.3186 0.9304
18.3023 7.4133 -1.4479 0.9239
3.8176 12.6187 -0.9666 0.9485
-1.2138 19.2152 -1.4117 0.9257
-1.7473 11.3836 -0.8444 0.9549
-4.0690 11.8511 -0.9187 0.9510
-5.3285 11.9336 -0.9583 0.9489
-6.6383 11.8909 -0.9985 0.9468
-6.1570 6.2636 -0.6440 0.9654
-14.6740 12.4797 -1.4124 0.9256
-8.8851 -16.6087 -1.3811 0.9272
-7.1109 -16.7250 -1.3325 0.9297
-4.3448 -19.1080 -1.4368 0.9244
17.4778 -4.9823 -1.3326 0.9297
17.7758 -0.1786 -1.3034 0.9312
17.9895 1.4272 -1.3232 0.9302
17.9268 3.0475 -1.3333 0.9297
4.6512 10.3866 -0.8341 0.9554
3.7646 10.9260 -0.8473 0.9547
-3.5615 11.8179 -0.9050 0.9517
-6.1049 11.9845 -0.9862 0.9475
-16.8789 6.3735 -1.7321 0.9301
-18.6627 5.2019 -1.8600 0.9251
-19.0111 1.7808 -1.8332 0.9261
-13.9474 -9.9642 -1.6456 0.9334
-11.9707 -12.2951 -1.6475 0.9334
-7.7667 -9.5493 -1.1817 0.9517
-9.6414 -14.2882 -1.6548 0.9331
-8.3589 -15.1428 -1.6606 0.9329
-5.5902 -16.5389 -1.6761 0.9323
-4.0836 -16.9265 -1.6717 0.9324
-2.5977 -17.4815 -1.6967 0.9314
-1.0372 -17.7701 -1.7089 0.9310
0.5545 -17.9309 -1.7223 0.9304
17.3670 -8.8062 -1.8694 0.9247
17.5100 -3.5793 -1.7158 0.9307
17.7350 -2.0022 -1.7135 0.9308
18.2330 6.3200 -1.8526 0.9254
-3.3154 11.5493 -1.1536 0.9529
-4.4930 11.6264 -1.1966 0.9511
-5.7723 11.7101 -1.2534 0.9489
-7.1498 11.7352 -1.3193 0.9463
-10.7614 12.1312 -1.5569 0.9369
-15.4526 10.0692 -1.7707 0.9286
-16.1357 8.5713 -1.7541 0.9292
-18.5147 5.9280 -1.8664 0.9249
-15.1184 -8.1240 -1.6477 0.9334
-10.1652 -13.8942 -1.6528 0.9332
-7.5910 -15.5871 -1.6645 0.9327
-6.2012 -16.2779 -1.6723 0.9324
-4.7520 -16.8575 -1.6815 0.9320
-3.1883 -16.9853 -1.6592 0.9329
-1.7067 -17.6625 -1.7036 0.9312
-0.1272 -17.8783 -1.7164 0.9307
1.2799 -15.5543 -1.4983 0.9392
3.0996 -17.9154 -1.7455 0.9295
17.2861 -9.6083 -1.8987 0.9236
17.3566 -5.9234 -1.7607 0.9290
17.5021 -2.6533 -1.6995 0.9313
3.8328 12.6689 -1.2707 0.9482
-1.2157 19.2446 -1.8513 0.9254
-1.7470 11.3816 -1.1055 0.9548
-3.9803 11.5928 -1.1767 0.9519
-5.2123 11.6734 -1.2274 0.9499
-6.5663 11.7620 -1.2933 0.9473
-9.9184 12.0762 -1.5003 0.9391
-6.1683 6.2751 -0.8448 0.9653
-14.2493 12.1184 -1.7958 0.9276
-15.8609 9.2151 -1.7611 0.9289
-16.9402 6.1433 -1.7300 0.9301
-18.7079 4.9502 -1.8579 0.9252
-19.0145 1.5292 -1.8314 0.9262
-18.7650 -1.8484 -1.8103 0.9270
-18.4392 -3.4966 -1.8018 0.9274
-17.9841 -5.1057 -1.7948 0.9276
-15.4274 -7.5486 -1.6489 0.9333
-14.6724 -8.8805 -1.6465 0.9334
-8.1637 -15.2602 -1.6615 0.9328
-6.8013 -15.9967 -1.6688 0.9325
-5.3765 -16.6243 -1.6774 0.9322
-3.8522 -16.9417 -1.6680 0.9326
-2.3699 -17.5319 -1.6985 0.9314
0.7913 -17.9435 -1.7243 0.9304
2.0954 -15.6281 -1.5138 0.9386
17.3268 -6.6590 -1.7821 0.9281
17.5464 -3.3469 -1.7149 0.9307
17.6413 -1.7569 -1.7020 0.9312
17.8857 1.4190 -1.7225 0.9304
18.0821 4.7638 -1.7952 0.9276
-3.4838 11.5603 -1.1591 0.9526
-5.9717 11.7231 -1.2631 0.9485
-12.8418 7.6887 -1.7779 0.9415
-13.3748 6.4652 -1.7646 0.9419
-15.2799 4.2590 -1.8842 0.9381
-15.5019 2.8628 -1.8725 0.9385
-15.6060 1.4618 -1.8619 0.9388
-15.5937 0.0652 -1.8523 0.9391
-15.2277 -2.6806 -1.8366 0.9396
-14.8790 -4.0134 -1.8306 0.9398
-14.4240 -5.3091 -1.8257 0.9400
-13.8663 -6.5602 -1.8221 0.9401
-11.5072 -8.2209 -1.6799 0.9446
-10.7302 -9.2144 -1.6801 0.9446
-8.6583 -8.8930 -1.4743 0.9512
-7.2980 -8.9730 -1.3739 0.9545
-6.8855 -12.4736 -1.6924 0.9442
-5.7669 -13.0833 -1.6984 0.9440
-3.3832 -14.0232 -1.7135 0.9435
-2.1316 -14.3450 -1.7227 0.9433
-0.8500 -14.5631 -1.7328 0.9429
0.4538 -14.6742 -1.7439 0.9426
1.7715 -14.6754 -1.7559 0.9422
3.0944 -14.5645 -1.7687 0.9418
7.5792 -14.6656 -1.9610 0.9357
13.7393 -10.3952 -2.0465 0.9330
15.6234 -7.9221 -2.0808 0.9319
16.3963 -6.5502 -2.0973 0.9313
17.0160 -5.0935 -2.1099 0.9310
17.4883 -1.9743 -2.0906 0.9316
17.6925 1.1697 -2.1062 0.9311
17.8076 4.4419 -2.1801 0.9287
16.1712 9.0901 -2.2036 0.9280
15.3107 10.5041 -2.2056 0.9279
11.9590 14.1456 -2.2003 0.9281
10.6250 15.1177 -2.1949 0.9283
9.2058 15.9523 -2.1878 0.9285
7.7169 16.6422 -2.1790 0.9288
4.4099 12.2724 -1.5490 0.9488
3.2185 12.3091 -1.5113 0.9500
2.7637 16.4415 -1.9804 0.9350
1.2793 16.5133 -1.9674 0.9355
-1.5052 14.8347 -1.7712 0.9417
-8.8718 12.0054 -1.7732 0.9416
-10.2141 11.5142 -1.8283 0.9399
-9.1969 5.9929 -1.3039 0.9567
-13.6315 5.7485 -1.7573 0.9421
-15.1493 4.8505 -1.8895 0.9379
-15.4217 3.4591 -1.8774 0.9383
-15.5760 2.0590 -1.8663 0.9387
-15.5348 -0.7307 -1.8474 0.9393
-15.3432 -2.1031 -1.8396 0.9395
-15.0408 -3.4493 -1.8330 0.9397
-14.6307 -4.7618 -1.8277 0.9399
-13.4804 -7.2438 -1.8178 0.9402
-11.8135 -7.7787 -1.6802 0.9446
-10.2485 -9.7550 -1.6807 0.9446
-7.8637 -8.9506 -1.4153 0.9531
-7.3811 -10.0887 -1.4849 0.9509
-7.3453 -12.1870 -1.6902 0.9443
-2.6692 -14.2203 -1.7187 0.9434
-1.3995 -14.4830 -1.7284 0.9431
1.2087 -14.6885 -1.7507 0.9424
6.9914 -14.8906 -1.9541 0.9359
8.3597 -14.3273 -1.9704 0.9354
12.1596 -11.9085 -2.0217 0.9337
13.2858 -10.8706 -2.0391 0.9332
14.3224 -9.7257 -2.0565 0.9326
15.2579 -8.4810 -2.0736 0.9321
17.4431 -2.6443 -2.0957 0.9314
17.7499 2.0899 -2.1230 0.9305
17.8500 3.7378 -2.1663 0.9292
17.1474 6.9455 -2.1976 0.9282
16.4946 8.4633 -2.2022 0.9280
15.6946 9.9116 -2.2049 0.9280
12.4982 13.6915 -2.2021 0.9280
11.2049 14.7196 -2.1974 0.9282
3.7193 12.2937 -1.5257 0.9496
3.3958 16.3677 -1.9857 0.9349
1.9117 16.5000 -1.9731 0.9353
-1.0324 16.3433 -1.9452 0.9362
-5.2113 11.6712 -1.5183 0.9498
-6.5650 11.7596 -1.5998 0.9472
-9.8045 11.9376 -1.8350 0.9397
-6.1854 6.2924 -1.0481 0.9651
-11.5715 9.8410 -1.8044 0.9406
-12.3023 8.7002 -1.7898 0.9411
-12.9272 7.5107 -1.7759 0.9416
-13.4442 6.2819 -1.7627 0.9420
-15.3201 4.0538 -1.8824 0.9382
-15.5822 -0.1398 -1.8510 0.9392
-15.1831 -2.8791 -1.8357 0.9396
-14.8185 -4.2070 -1.8298 0.9398
-13.7756 -6.7404 -1.8217 0.9401
-11.3978 -8.3713 -1.6798 0.9446
-10.6088 -9.3555 -1.6802 0.9446
-5.5976 -13.1655 -1.6994 0.9440
-3.2008 -14.0770 -1.7148 0.9435
-1.9444 -14.3838 -1.7241 0.9432
1.9665 -14.6662 -1.7577 0.9421
4.9876 -15.4789 -1.9318 0.9366
6.3978 -15.0930 -1.9473 0.9361
11.6551 -12.3169 -2.0143 0.9340
12.8160 -11.3265 -2.0317 0.9334
14.8721 -9.0233 -2.0663 0.9323
15.7449 -7.7250 -2.0833 0.9318
17.0911 -4.8721 -2.1111 0.9309
17.3971 -3.3184 -2.1038 0.9311
17.5037 -1.7432 -2.0895 0.9316
17.6065 -0.1769 -2.0915 0.9315
17.7659 4.6805 -2.1824 0.9287
16.7913 7.8238 -2.2005 0.9281
16.0532 9.3037 -2.2040 0.9280
15.1721 10.7052 -2.2057 0.9279
13.0181 13.2150 -2.2035 0.9280
11.7683 14.2972 -2.1996 0.9281
8.9903 16.0633 -2.1866 0.9285
3.7630 10.9213 -1.3722 0.9545
2.5448 16.4610 -1.9786 0.9351
1.0609 16.5119 -1.9654 0.9355
-1.4935 13.0135 -1.5560 0.9486
-3.4832 11.5582 -1.4339 0.9525
-4.6735 11.6360 -1.4895 0.9507
-5.9705 11.7208 -1.5625 0.9484
-12.6236 4.7667 -1.9119 0.9469
-12.9247 3.6025 -1.9011 0.9472
-13.2247 1.2388 -1.8820 0.9478
-13.2246 0.0553 -1.8738 0.9480
-13.1260 -1.1189 -1.8666 0.9482
-12.9308 -2.2763 -1.8603 0.9483
-11.2327 -6.5983 -1.8458 0.9487
-9.1717 -7.8762 -1.7129 0.9523
-7.2565 -8.9220 -1.6295 0.9546
-5.8490 -10.5959 -1.7149 0.9523
-1.8059 -12.1529 -1.7408 0.9516
-0.7195 -12.3266 -1.7495 0.9513
0.3837 -12.4084 -1.7590 0.9511
1.4964 -12.3963 -1.7692 0.9508
2.7565 -12.9739 -1.8793 0.9478
9.6081 -10.4250 -2.0088 0.9443
10.5747 -9.5963 -2.0233 0.9439
13.0061 -6.5949 -2.0662 0.9428
14.5580 -2.9758 -2.1054 0.9417
14.8467 -1.6761 -2.1170 0.9414
15.0125 -0.3484 -2.1277 0.9411
15.0519 0.9951 -2.1374 0.9409
14.3977 4.9906 -2.1591 0.9403
12.6189 8.6574 -2.1683 0.9400
10.8753 10.7531 -2.1670 0.9401
7.5981 13.1664 -2.1539 0.9404
6.3737 13.7454 -2.1468 0.9406
2.2890 13.6177 -1.9565 0.9457
1.0608 13.6925 -1.9459 0.9460
-0.1625 13.6521 -1.9345 0.9463
-3.3142 11.5451 -1.7019 0.9526
-4.4913 11.6220 -1.7654 0.9509
-8.5729 9.6641 -1.8304 0.9491
-10.0109 7.8781 -1.8050 0.9498
-12.8086 4.1010 -1.9056 0.9471
-13.1944 1.7442 -1.8858 0.9477
-13.2368 0.5591 -1.8772 0.9479
-12.4331 -4.0465 -1.8526 0.9485
-12.0000 -5.1283 -1.8490 0.9486
-10.8765 -7.1617 -1.8452 0.9487
-8.7149 -8.2952 -1.7048 0.9526
-4.3299 -11.3660 -1.7233 0.9521
-3.3126 -11.7513 -1.7299 0.9519
-2.2621 -12.0515 -1.7374 0.9517
-0.0881 -12.3849 -1.7548 0.9512
2.1361 -12.3463 -1.7753 0.9506
3.5165 -13.1906 -1.9342 0.9463
4.7087 -12.9096 -1.9470 0.9460
7.0216 -12.0340 -1.9741 0.9453
9.1765 -10.7496 -2.0026 0.9445
11.0973 -9.0799 -2.0316 0.9437
12.7092 -7.0643 -2.0602 0.9429
14.7384 -2.2343 -2.1121 0.9416
14.9572 -0.9170 -2.1232 0.9413
15.0508 0.4213 -2.1334 0.9410
15.0166 1.7681 -2.1424 0.9407
14.8533 3.1103 -2.1502 0.9405
14.1417 5.7280 -2.1619 0.9402
13.5984 6.9772 -2.1656 0.9401
12.1608 9.2927 -2.1685 0.9400
10.3038 11.2876 -2.1655 0.9401
9.2410 12.1396 -2.1617 0.9402
8.1032 12.8837 -2.1565 0.9404
6.9019 13.5132 -2.1500 0.9405
5.2184 12.9524 -1.9786 0.9451
3.7186 12.2916 -1.8195 0.9494
2.8113 13.5504 -1.9608 0.9456
-0.8577 13.5778 -1.9277 0.9465
-3.9789 11.5885 -1.7361 0.9517
-5.2103 11.6689 -1.8107 0.9497
-7.3521 10.7839 -1.8493 0.9486
-8.2243 10.0136 -1.8360 0.9490
-9.7326 8.2772 -1.8103 0.9497
-10.9003 6.3330 -1.7862 0.9503
-11.3494 5.3031 -1.7750 0.9506
-12.6743 4.5963 -1.9103 0.9470
-12.9605 3.4295 -1.8996 0.9473
-13.1460 2.2493 -1.8897 0.9475
-13.2309 1.0640 -1.8807 0.9478
-13.2162 -0.1186 -1.8727 0.9480
-12.1955 -4.6718 -1.8504 0.9486
-11.1437 -6.7447 -1.8456 0.9487
-10.4600 -7.6825 -1.8389 0.9489
-8.2833 -8.7347 -1.7056 0.9525
-6.6233 -10.0995 -1.7113 0.9524
-5.7114 -10.6762 -1.7156 0.9523
-4.7520 -11.1768 -1.7208 0.9521
-2.7136 -11.9342 -1.7341 0.9518
-1.6470 -12.1842 -1.7421 0.9515
0.5474 -12.4125 -1.7604 0.9510
1.6608 -12.3865 -1.7707 0.9508
2.9954 -13.2396 -1.9233 0.9466
4.2025 -13.0422 -1.9415 0.9461
5.3839 -12.7010 -1.9546 0.9458
9.7548 -10.3087 -2.0109 0.9443
10.7113 -9.4664 -2.0254 0.9439
11.5944 -8.5350 -2.0399 0.9435
12.3951 -7.5204 -2.0542 0.9431
13.1046 -6.4296 -2.0682 0.9427
13.7147 -5.2708 -2.0818 0.9424
14.2181 -4.0531 -2.0948 0.9420
15.0469 1.1938 -2.1387 0.9408
14.7013 3.8731 -2.1541 0.9404
14.3359 5.1814 -2.1598 0.9403
13.2326 7.6690 -2.1670 0.9401
12.5046 8.8231 -2.1684 0.9400
8.5967 12.5802 -2.1589 0.9403
7.4210 13.2593 -2.1529 0.9405
4.6022 10.2771 -1.5955 0.9555
0.8798 13.6938 -1.9443 0.9461
-0.3417 13.6366 -1.9328 0.9464
-1.4637 12.7536 -1.8189 0.9495
-5.9693 11.7184 -1.8634 0.9483
-10.9200 4.1234 -1.9229 0.9538
-11.4641 1.0739 -1.8969 0.9544
-11.4707 0.0480 -1.8897 0.9546
-10.9790 -2.9615 -1.8733 0.9549
-10.2441 -4.8465 -1.8669 0.9551
-9.2085 -6.5787 -1.8644 0.9552
-6.6074 -8.1239 -1.7251 0.9584
-5.0794 -9.2018 -1.7315 0.9583
-2.4877 -10.3112 -1.7474 0.9579
0.3321 -10.7395 -1.7701 0.9574
1.3132 -10.8789 -1.8052 0.9566
2.4426 -11.4966 -1.9362 0.9535
3.4765 -11.2958 -1.9470 0.9532
4.4949 -11.0046 -1.9583 0.9530
6.4539 -10.1534 -1.9820 0.9524
7.3783 -9.5970 -1.9942 0.9521
8.2550 -8.9568 -2.0066 0.9518
9.8340 -7.4405 -2.0315 0.9512
11.6536 -4.6555 -2.0673 0.9504
12.0867 -3.6180 -2.0784 0.9501
12.4236 -2.5396 -2.0890 0.9499
12.6598 -1.4292 -2.0988 0.9497
12.7917 -0.2968 -2.1079 0.9495
12.8166 0.8473 -2.1160 0.9493
12.5410 3.1282 -2.1293 0.9490
11.8355 5.3263 -2.1381 0.9487
10.7219 7.3559 -2.1420 0.9487
8.3807 9.9130 -2.1385 0.9487
4.7401 10.2226 -1.8563 0.9553
4.0136 11.1696 -1.9553 0.9530
2.9911 11.4392 -1.9478 0.9532
0.9052 11.6839 -1.9306 0.9536
-0.1388 11.6595 -1.9209 0.9538
-4.1086 10.6318 -1.8777 0.9548
-5.0088 10.1612 -1.8663 0.9551
-5.8579 9.6148 -1.8548 0.9554
-7.1691 5.6417 -1.5029 0.9637
-9.1514 5.9632 -1.7994 0.9567
-10.7788 4.5455 -1.9271 0.9537
-11.4785 0.4848 -1.8926 0.9545
-9.4532 -6.2245 -1.8646 0.9552
-7.0613 -8.0373 -1.7625 0.9576
-6.1885 -8.4586 -1.7266 0.9584
-1.9611 -10.4479 -1.7512 0.9578
-1.0267 -10.6250 -1.7585 0.9576
-0.0763 -10.7226 -1.7665 0.9575
4.0631 -11.1398 -1.9534 0.9531
5.0693 -10.7967 -1.9649 0.9528
10.2372 -6.9517 -2.0385 0.9511
12.8192 0.3588 -2.1126 0.9493
12.3820 3.7710 -2.1323 0.9489
11.5563 5.9295 -2.1398 0.9487
10.9917 6.9416 -2.1416 0.9487
10.3324 7.8956 -2.1422 0.9486
9.5849 8.7821 -2.1416 0.9487
8.7565 9.5926 -2.1397 0.9487
7.8554 10.3194 -2.1365 0.9488
6.8906 10.9558 -2.1322 0.9489
5.8718 11.4964 -2.1266 0.9490
3.4296 11.3362 -1.9511 0.9531
-0.7329 11.6020 -1.9151 0.9540
-1.7461 11.3756 -1.8960 0.9544
-2.7494 11.1617 -1.8937 0.9545
-3.7109 10.8081 -1.8825 0.9547
-4.6310 10.3714 -1.8712 0.9550
-5.8168 5.9175 -1.3670 0.9669
-6.5878 5.6026 -1.4247 0.9655
-8.9405 6.3228 -1.8039 0.9566
-9.4146 5.4699 -1.7937 0.9568
-10.6034 4.9545 -1.9281 0.9537
-11.2212 2.9692 -1.9122 0.9540
-11.4644 -0.1028 -1.8887 0.9546
-11.3721 -1.1202 -1.8825 0.9547
-10.9357 -3.1046 -1.8727 0.9550
-10.5956 -4.0590 -1.8692 0.9550
-9.6851 -5.8619 -1.8650 0.9551
-7.5742 -7.9869 -1.8133 0.9564
-6.5013 -8.2118 -1.7254 0.9584
-4.9597 -9.2711 -1.7321 0.9583
-4.1249 -9.7018 -1.7367 0.9582
-2.3531 -10.3488 -1.7484 0.9579
-1.4274 -10.5591 -1.7553 0.9577
-0.4830 -10.6908 -1.7630 0.9575
6.5929 -10.0768 -1.9838 0.9524
7.5107 -9.5078 -1.9961 0.9521
8.3798 -8.8556 -2.0085 0.9518
9.1921 -8.1238 -2.0209 0.9515
9.9399 -7.3170 -2.0333 0.9512
10.6157 -6.4408 -2.0455 0.9509
11.2123 -5.5012 -2.0575 0.9506
12.1425 -3.4614 -2.0800 0.9501
12.4649 -2.3776 -2.0905 0.9499
12.7117 2.1609 -2.1242 0.9491
12.5035 3.2941 -2.1301 0.9489
12.1878 4.4050 -2.1349 0.9488
11.7669 5.4827 -2.1386 0.9487
11.2443 6.5167 -2.1410 0.9487
10.6247 7.4966 -2.1421 0.9487
9.1190 9.2569 -2.1406 0.9487
6.3121 11.2780 -2.1291 0.9490
4.5898 10.2494 -1.8501 0.9555
3.7625 10.9201 -1.9028 0.9543
2.8386 11.4707 -1.9467 0.9532
-0.2919 11.6477 -1.9194 0.9539
-1.3214 11.5133 -1.9092 0.9541
-5.1374 10.0852 -1.8646 0.9552
-9.2939 4.4925 -1.9403 0.9589
-9.6130 3.6299 -1.9314 0.9590
-9.8555 2.7471 -1.9231 0.9592
-10.1187 0.0423 -1.9019 0.9597
-10.0525 -0.8569 -1.8963 0.9598
-9.9107 -1.7446 -1.8915 0.9599
-9.6949 -2.6151 -1.8874 0.9600
-9.0496 -4.2814 -1.8817 0.9601
-8.6249 -5.0664 -1.8801 0.9601
-7.5863 -6.5147 -1.8796 0.9601
-6.9794 -7.1685 -1.8805 0.9601
-6.3119 -7.7606 -1.8802 0.9601
-5.4981 -8.1480 -1.8476 0.9608
-4.5477 -8.2385 -1.7688 0.9624
-3.7518 -8.5116 -1.7484 0.9628
-2.1942 -9.0947 -1.7585 0.9626
-1.3799 -9.2860 -1.7646 0.9625
-0.5491 -9.4076 -1.7713 0.9624
0.3075 -9.9415 -1.8695 0.9603
1.2326 -10.2108 -1.9332 0.9590
2.1485 -10.1122 -1.9431 0.9588
3.0558 -9.9290 -1.9526 0.9586
4.8189 -9.3245 -1.9729 0.9582
5.6607 -8.9055 -1.9834 0.9580
6.4665 -8.4110 -1.9942 0.9577
7.2293 -7.8439 -2.0050 0.9575
7.9424 -7.2075 -2.0159 0.9573
8.5989 -6.5060 -2.0267 0.9571
9.1925 -5.7441 -2.0374 0.9568
10.1674 -4.0618 -2.0579 0.9564
10.8248 -2.2127 -2.0767 0.9560
11.0239 -1.2445 -2.0852 0.9559
11.1486 0.7371 -2.1001 0.9555
11.0712 1.7325 -2.1063 0.9554
10.9000 2.7189 -2.1115 0.9553
10.6360 3.6867 -2.1159 0.9552
9.8384 5.5303 -2.1214 0.9551
8.7056 7.1928 -2.1226 0.9551
8.0263 7.9360 -2.1216 0.9551
5.6165 9.7325 -2.1121 0.9553
3.4911 9.7155 -1.9404 0.9589
2.6029 9.9549 -1.9340 0.9590
-0.1210 10.1648 -1.9107 0.9595
-2.7642 9.6291 -1.8830 0.9600
-5.7937 6.5311 -1.6410 0.9651
-7.0753 5.5679 -1.6923 0.9640
-8.0439 5.2416 -1.8046 0.9617
-9.7616 3.1254 -1.9265 0.9591
-9.9598 2.2340 -1.9186 0.9593
-10.0805 1.3326 -1.9112 0.9595
-10.0900 -0.4746 -1.8986 0.9597
-9.9803 -1.3680 -1.8934 0.9598
-9.7958 -2.2465 -1.8890 0.9599
-9.5385 -3.1044 -1.8854 0.9600
-9.2103 -3.9361 -1.8826 0.9601
-8.8139 -4.7362 -1.8807 0.9601
-8.3521 -5.4995 -1.8796 0.9601
-6.6068 -7.5200 -1.8815 0.9601
-5.8977 -8.0612 -1.8774 0.9602
-4.9430 -8.2012 -1.7998 0.9618
-4.0685 -8.3542 -1.7466 0.9629
-2.5349 -8.9924 -1.7561 0.9627
-1.7293 -9.2128 -1.7619 0.9626
-0.9049 -9.3644 -1.7683 0.9624
0.8399 -10.2074 -1.9251 0.9592
1.7589 -10.1661 -1.9392 0.9589
3.5701 -9.7879 -1.9583 0.9585
4.4509 -9.4797 -1.9684 0.9583
6.1278 -8.6309 -1.9896 0.9578
8.9475 -6.0759 -2.0329 0.9569
9.5023 -5.2818 -2.0434 0.9567
10.7131 -2.6179 -2.0729 0.9561
10.9499 -1.6600 -2.0817 0.9559
11.1157 1.3087 -2.1037 0.9555
10.7598 3.2770 -2.1141 0.9553
10.0377 5.1503 -2.1205 0.9551
8.9733 6.8570 -2.1227 0.9551
7.6058 8.3321 -2.1205 0.9551
6.8245 8.9651 -2.1178 0.9552
5.0884 9.9626 -2.1027 0.9555
1.1772 10.1602 -1.9225 0.9592
-1.5308 9.9735 -1.8966 0.9598
-4.8169 8.6283 -1.8574 0.9606
-5.5364 8.1206 -1.8473 0.9608
-5.8337 5.9347 -1.5642 0.9667
-6.5859 5.6010 -1.6250 0.9654
-7.8557 5.5556 -1.8085 0.9616
-9.3457 4.3668 -1.9389 0.9589
-9.6536 3.5008 -1.9301 0.9591
-9.8848 2.6156 -1.9219 0.9592
-10.0386 1.7176 -1.9143 0.9594
-10.0363 -0.9886 -1.8956 0.9598
-9.8835 -1.8742 -1.8908 0.9599
-9.3587 -3.5852 -1.8837 0.9600
-8.5568 -5.1790 -1.8800 0.9601
-8.0588 -5.9189 -1.8794 0.9601
-6.2067 -7.8397 -1.8795 0.9601
-4.4140 -8.2510 -1.7588 0.9626
-3.6409 -8.5634 -1.7490 0.9628
-1.2583 -9.3084 -1.7655 0.9625
0.4431 -10.0486 -1.8906 0.9599
1.3684 -10.2055 -1.9354 0.9590
3.1885 -9.8952 -1.9541 0.9586
4.9450 -9.2676 -1.9744 0.9581
5.7819 -8.8373 -1.9850 0.9579
7.3377 -7.7544 -2.0066 0.9575
8.0429 -7.1081 -2.0175 0.9573
8.6905 -6.3973 -2.0283 0.9570
9.2743 -5.6270 -2.0390 0.9568
9.7884 -4.8026 -2.0494 0.9566
11.1431 0.8840 -2.1011 0.9555
10.5894 3.8273 -2.1164 0.9552
9.2271 6.5105 -2.1226 0.9551
8.6100 7.3064 -2.1225 0.9551
6.3508 9.2936 -2.1157 0.9552
1.5653 10.1254 -1.9258 0.9592
-0.2545 10.1555 -1.9094 0.9595
-3.7113 9.2404 -1.8717 0.9603
-4.4957 8.8255 -1.8617 0.9605
-7.9191 4.7414 -1.9510 0.9630
-8.2888 4.0066 -1.9460 0.9631
-8.5776 3.2389 -1.9381 0.9632
-8.7981 2.4523 -1.9306 0.9633
-8.9495 1.6527 -1.9237 0.9635
-9.0313 0.8460 -1.9174 0.9636
-9.0438 0.0378 -1.9117 0.9637
-8.9873 -0.7661 -1.9066 0.9638
-8.8630 -1.5602 -1.9023 0.9639
-8.6720 -2.3392 -1.8986 0.9639
-8.4161 -3.0977 -1.8957 0.9640
-8.0973 -3.8309 -1.8935 0.9640
-7.2808 -5.2015 -1.8914 0.9641
-6.7889 -5.8299 -1.8915 0.9641
-6.2454 -6.4146 -1.8924 0.9641
-2.8559 -8.4494 -1.8853 0.9642
-2.0902 -8.6638 -1.8839 0.9642
-1.3296 -8.9475 -1.9121 0.9637
-0.5300 -9.0800 -1.9226 0.9635
0.2827 -9.1398 -1.9329 0.9633
1.1002 -9.1140 -1.9405 0.9632
2.7234 -8.8491 -1.9571 0.9629
3.5169 -8.6101 -1.9660 0.9627
4.2900 -8.3010 -1.9751 0.9625
6.4243 -6.9705 -2.0038 0.9620
7.6321 -5.7746 -2.0230 0.9616
8.1542 -5.0953 -2.0325 0.9615
9.0088 -3.5989 -2.0506 0.9611
9.3322 -2.7935 -2.0591 0.9610
9.7529 -1.1010 -2.0747 0.9607
9.8448 -0.2284 -2.0815 0.9605
9.8552 0.6515 -2.0877 0.9604
9.6293 2.4019 -2.0978 0.9602
9.3939 3.2561 -2.1016 0.9602
9.0788 4.0857 -2.1045 0.9601
8.6867 4.8830 -2.1064 0.9601
8.2211 5.6402 -2.1074 0.9601
7.0866 7.0070 -2.1066 0.9601
2.3017 8.8029 -1.9233 0.9635
0.6980 9.0097 -1.9102 0.9637
-0.1071 9.0011 -1.9028 0.9639
-3.1882 8.2500 -1.8696 0.9645
-3.8920 7.8956 -1.8607 0.9647
-5.1815 7.0116 -1.8429 0.9650
-5.7250 6.4537 -1.8236 0.9653
-8.1451 4.3267 -1.9496 0.9630
-8.4628 3.5688 -1.9414 0.9631
-8.7126 2.7896 -1.9338 0.9633
-8.8934 1.9948 -1.9266 0.9634
-9.0469 0.3821 -1.9140 0.9637
-8.7615 -2.0093 -1.9001 0.9639
-8.5330 -2.7772 -1.8968 0.9640
-8.2408 -3.5218 -1.8943 0.9640
-7.4741 -4.9214 -1.8916 0.9641
-7.0051 -5.5671 -1.8914 0.9641
-6.4831 -6.1710 -1.8920 0.9641
-5.9117 -6.7288 -1.8933 0.9640
-5.2945 -7.2367 -1.8954 0.9640
-4.6356 -7.6912 -1.8982 0.9640
-3.9309 -8.0716 -1.8977 0.9640
-2.4149 -8.5668 -1.8814 0.9643
-1.6566 -8.8253 -1.8981 0.9640
-0.0650 -9.1294 -1.9298 0.9634
2.3805 -8.9295 -1.9534 0.9629
3.9633 -8.4413 -1.9712 0.9626
4.7219 -8.0926 -1.9805 0.9624
6.1420 -7.1949 -1.9996 0.9621
6.7913 -6.6510 -2.0093 0.9619
7.3922 -6.0484 -2.0189 0.9617
8.4262 -4.6836 -2.0378 0.9614
9.2032 -3.1408 -2.0555 0.9610
9.8240 1.1567 -2.0909 0.9604
9.7050 2.0322 -2.0959 0.9603
9.2227 3.7356 -2.1033 0.9601
6.0268 7.9172 -2.1033 0.9601
5.2891 8.4095 -2.1000 0.9602
4.4934 8.7976 -2.0882 0.9604
2.6382 8.7202 -1.9258 0.9634
1.8450 8.8928 -1.9198 0.9635
1.0417 8.9907 -1.9132 0.9637
-0.5662 8.9629 -1.8984 0.9639
-1.3567 8.8392 -1.8903 0.9641
-2.8779 8.3820 -1.8733 0.9644
-4.2791 7.6650 -1.8556 0.9647
-5.5181 6.7187 -1.8378 0.9651
-5.7645 5.8643 -1.7382 0.9669
-6.9992 4.9499 -1.8121 0.9656
-7.9829 4.6381 -1.9516 0.9630
-8.3356 3.8949 -1.9448 0.9631
-8.6145 3.1240 -1.9370 0.9632
-8.8248 2.3351 -1.9296 0.9634
-8.9659 1.5341 -1.9228 0.9635
-8.9733 -0.8839 -1.9059 0.9638
-8.8390 -1.6761 -1.9017 0.9639
-8.6383 -2.4524 -1.8981 0.9640
-7.6571 -4.6345 -1.8919 0.9641
-7.2117 -5.2967 -1.8914 0.9641
-6.7119 -5.9190 -1.8916 0.9641
-6.1611 -6.4969 -1.8926 0.9641
-5.5630 -7.0265 -1.8944 0.9640
-4.2359 -7.9180 -1.8981 0.9640
-3.5130 -8.2626 -1.8979 0.9640
-2.7406 -8.4741 -1.8826 0.9642
1.2207 -9.1043 -1.9417 0.9631
2.0355 -8.9969 -1.9498 0.9630
3.6323 -8.5689 -1.9673 0.9627
4.4018 -8.2496 -1.9765 0.9625
5.8519 -7.4079 -1.9955 0.9621
7.1423 -6.3122 -2.0148 0.9618
8.6771 -4.2573 -2.0430 0.9613
9.3737 -2.6721 -2.0603 0.9609
9.8498 0.7814 -2.0886 0.9604
9.7658 1.6601 -2.0939 0.9603
9.0258 4.2055 -2.1048 0.9601
8.6226 4.9973 -2.1066 0.9601
7.6016 6.4507 -2.1074 0.9601
6.3269 7.6865 -2.1044 0.9601
5.6091 8.2082 -2.1015 0.9602
4.8445 8.6558 -2.0967 0.9603
2.9715 8.6242 -1.9282 0.9634
2.1847 8.8283 -1.9224 0.9635
1.3849 8.9581 -1.9161 0.9636
-1.0215 8.9007 -1.8938 0.9640
-2.5622 8.5021 -1.8770 0.9643
-7.1489 4.2802 -1.9583 0.9663
-7.4729 3.6122 -1.9507 0.9665
-7.7364 2.9213 -1.9435 0.9666
-7.9383 2.2126 -1.9368 0.9667
-8.0777 1.4917 -1.9305 0.9668
-8.1541 0.7638 -1.9248 0.9669
-8.1677 0.0342 -1.9196 0.9670
-8.1189 -0.6921 -1.9150 0.9671
-8.0083 -1.4098 -1.9111 0.9671
-7.8372 -2.1140 -1.9077 0.9672
-7.6071 -2.7999 -1.9051 0.9672
-6.9773 -4.0986 -1.9018 0.9673
-5.6459 -5.7989 -1.9021 0.9673
-5.1108 -6.2839 -1.9037 0.9673
-4.5359 -6.7220 -1.9058 0.9672
-3.9248 -7.1101 -1.9087 0.9672
-3.2818 -7.4452 -1.9122 0.9671
-2.6110 -7.7248 -1.9164 0.9670
-1.2048 -8.1082 -1.9265 0.9669
-0.4791 -8.2083 -1.9324 0.9668
0.9922 -8.2192 -1.9457 0.9666
2.4540 -7.9736 -1.9607 0.9663
3.1675 -7.7548 -1.9687 0.9662
4.5318 -7.1295 -1.9855 0.9659
5.7751 -6.2660 -2.0027 0.9656
6.3377 -5.7514 -2.0114 0.9654
6.8542 -5.1859 -2.0200 0.9653
7.7293 -3.9193 -2.0368 0.9650
8.0793 -3.2276 -2.0447 0.9649
8.5855 -1.7550 -2.0595 0.9646
8.6153 2.1490 -2.0868 0.9642
8.1201 3.6543 -2.0928 0.9641
7.7686 4.3669 -2.0945 0.9640
7.3518 5.0438 -2.0954 0.9640
6.8734 5.6790 -2.0954 0.9640
6.3376 6.2664 -2.0946 0.9640
5.7495 6.8008 -2.0930 0.9641
5.1147 7.2774 -2.0905 0.9641
4.4390 7.6921 -2.0873 0.9642
2.7623 7.6872 -1.9198 0.9670
2.0610 7.8821 -1.9147 0.9671
1.3465 8.0108 -1.9091 0.9672
0.6254 8.0730 -1.9030 0.9673
-2.2007 7.6662 -1.8745 0.9678
-4.0972 6.7249 -1.8508 0.9682
-5.1807 5.8401 -1.8348 0.9684
-6.1925 4.8732 -1.8520 0.9681
-6.9876 4.5532 -1.9601 0.9663
-8.0259 1.8002 -1.9331 0.9668
-8.1696 0.3451 -1.9218 0.9670
-8.1473 -0.3832 -1.9169 0.9670
-8.0629 -1.1052 -1.9127 0.9671
-7.9174 -1.8157 -1.9091 0.9672
-7.7123 -2.5101 -1.9061 0.9672
-7.4491 -3.1834 -1.9039 0.9673
-6.7570 -4.4492 -1.9014 0.9673
-4.1894 -6.9509 -1.9074 0.9672
-3.5595 -7.3090 -1.9107 0.9671
-2.9000 -7.6125 -1.9145 0.9671
-2.2154 -7.8591 -1.9191 0.9670
-1.5104 -8.0466 -1.9242 0.9669
-0.7898 -8.1733 -1.9298 0.9668
0.6779 -8.2383 -1.9427 0.9666
2.1454 -8.0475 -1.9574 0.9664
2.8654 -7.8558 -1.9653 0.9662
3.5686 -7.6007 -1.9734 0.9661
6.6400 -5.4330 -2.0164 0.9654
7.9376 -3.5266 -2.0414 0.9649
8.5002 -2.0771 -2.0565 0.9647
8.6805 -1.3159 -2.0634 0.9646
8.7903 -0.5389 -2.0698 0.9645
8.8280 0.2471 -2.0756 0.9644
8.7926 1.0352 -2.0807 0.9643
8.5023 2.5894 -2.0889 0.9641
7.5373 4.7600 -2.0951 0.9640
7.0846 5.4137 -2.0955 0.9640
6.5727 6.0222 -2.0951 0.9640
6.0063 6.5798 -2.0938 0.9641
0.9332 8.0547 -1.9057 0.9672
0.2112 8.0785 -1.8993 0.9673
-0.5076 8.0362 -1.8925 0.9675
-2.5839 7.5257 -1.8701 0.9678
-3.2305 7.2349 -1.8622 0.9680
-3.8457 6.8886 -1.8542 0.9681
-4.4249 6.4903 -1.8462 0.9682
-4.9640 6.0440 -1.8382 0.9684
-5.9072 5.0239 -1.8225 0.9686
-7.5156 3.5117 -1.9496 0.9665
-7.7701 2.8178 -1.9425 0.9666
-7.9628 2.1070 -1.9358 0.9667
-8.0929 1.3847 -1.9297 0.9668
-8.1601 0.6562 -1.9240 0.9669
-8.1064 -0.7985 -1.9144 0.9671
-7.9869 -1.5145 -1.9105 0.9671
-6.9223 -4.1897 -1.9017 0.9673
-6.5198 -4.7886 -1.9012 0.9673
-6.0679 -5.3511 -1.9014 0.9673
-3.8319 -7.1629 -1.9092 0.9672
-3.1845 -7.4900 -1.9128 0.9671
-1.8131 -7.9741 -1.9219 0.9670
-1.0986 -8.1268 -1.9274 0.9669
-0.3713 -8.2178 -1.9333 0.9668
0.3636 -8.2458 -1.9398 0.9667
3.2713 -7.7171 -1.9699 0.9661
3.9624 -7.4261 -1.9782 0.9660
4.6281 -7.0738 -1.9867 0.9659
5.8607 -6.1935 -2.0040 0.9656
6.4169 -5.6711 -2.0127 0.9654
8.6121 -1.6427 -2.0605 0.9646
8.7523 -0.8717 -2.0672 0.9645
8.8166 0.6995 -2.0786 0.9643
8.7391 1.4856 -2.0834 0.9642
8.3657 3.0236 -2.0906 0.9641
7.7112 4.4691 -2.0947 0.9640
2.6600 7.7200 -1.9191 0.9670
0.5189 8.0765 -1.9021 0.9673
-0.2020 8.0623 -1.8954 0.9674
-0.9161 7.9825 -1.8884 0.9675
-1.6174 7.8384 -1.8810 0.9676
-6.4998 3.8916 -1.9615 0.9692
-6.7967 3.2854 -1.9546 0.9693
-7.0388 2.6578 -1.9481 0.9694
-7.3965 -0.6305 -1.9220 0.9698
-7.2971 -1.2846 -1.9184 0.9698
-6.9334 -2.5520 -1.9129 0.9699
-6.6722 -3.1566 -1.9111 0.9700
-6.3604 -3.7362 -1.9099 0.9700
-5.1467 -5.2861 -1.9102 0.9700
-4.6586 -5.7278 -1.9116 0.9700
-0.4361 -7.4720 -1.9379 0.9695
0.2321 -7.5037 -1.9438 0.9695
0.9026 -7.4773 -1.9501 0.9694
2.2309 -7.2488 -1.9637 0.9691
2.8785 -7.0472 -1.9710 0.9690
3.5083 -6.7885 -1.9785 0.9689
4.1151 -6.4740 -1.9862 0.9688
4.6940 -6.1055 -1.9940 0.9687
5.2399 -5.6854 -2.0019 0.9686
6.2140 -4.7016 -2.0176 0.9683
7.0020 -3.5505 -2.0327 0.9681
7.3163 -2.9228 -2.0399 0.9680
7.9033 -0.8922 -2.0593 0.9677
7.9727 -0.1850 -2.0648 0.9676
7.9145 1.2385 -2.0742 0.9674
7.5936 2.6321 -2.0809 0.9673
7.3370 3.3019 -2.0832 0.9673
7.0189 3.9455 -2.0848 0.9673
6.6421 4.5569 -2.0856 0.9673
5.7259 5.6616 -2.0849 0.9673
4.6219 6.5763 -2.0812 0.9673
1.8639 7.1284 -1.9077 0.9700
1.2182 7.2469 -1.9027 0.9701
0.5660 7.3054 -1.8972 0.9702
-0.7349 7.2427 -1.8849 0.9704
-1.3724 7.1233 -1.8783 0.9705
-1.9943 6.9472 -1.8714 0.9706
-3.1714 6.4336 -1.8572 0.9708
-3.7174 6.1015 -1.8499 0.9709
-4.7041 5.3029 -1.8354 0.9711
-5.9689 4.6972 -1.9666 0.9691
-6.6768 3.5467 -1.9575 0.9692
-7.4404 0.3143 -1.9282 0.9697
-7.4217 -0.3491 -1.9237 0.9698
-7.3463 -1.0070 -1.9199 0.9698
-7.2150 -1.6546 -1.9166 0.9699
-7.0290 -2.2877 -1.9139 0.9699
-6.7898 -2.9017 -1.9118 0.9700
-6.4993 -3.4925 -1.9104 0.9700
-5.7733 -4.5882 -1.9094 0.9700
-4.8713 -5.5446 -1.9110 0.9700
-4.3619 -5.9620 -1.9127 0.9699
-3.8181 -6.3347 -1.9151 0.9699
-3.2435 -6.6600 -1.9180 0.9699
-2.6421 -6.9354 -1.9216 0.9698
-2.0180 -7.1586 -1.9257 0.9697
-0.0534 -7.4973 -1.9412 0.9695
0.6168 -7.4957 -1.9473 0.9694
1.2865 -7.4357 -1.9538 0.9693
1.9507 -7.3171 -1.9607 0.9692
2.6043 -7.1402 -1.9679 0.9691
3.8596 -6.6148 -1.9829 0.9689
4.4510 -6.2691 -1.9907 0.9687
6.4606 -4.3871 -2.0220 0.9682
7.1892 -3.1941 -2.0369 0.9680
7.4709 -2.5496 -2.0439 0.9679
7.6933 -1.8800 -2.0505 0.9678
7.8540 -1.1906 -2.0568 0.9677
7.9510 -0.4875 -2.0625 0.9676
7.9830 0.2234 -2.0677 0.9675
7.9491 0.9359 -2.0724 0.9675
7.8492 1.6436 -2.0764 0.9674
7.6838 2.3401 -2.0797 0.9674
6.8097 4.3005 -2.0853 0.9673
6.4006 4.8910 -2.0857 0.9673
5.9382 5.4408 -2.0853 0.9673
5.4268 5.9450 -2.0841 0.9673
3.6433 7.1331 -2.0739 0.9674
1.4946 7.2038 -1.9049 0.9701
-0.4596 7.2760 -1.8876 0.9703
-2.3421 6.8213 -1.8674 0.9706
-2.9293 6.5603 -1.8602 0.9708
-3.4885 6.2488 -1.8530 0.9709
-4.5066 5.4871 -1.8385 0.9711
-4.9581 5.0440 -1.8313 0.9712
-5.6653 4.8181 -1.9256 0.9697
-6.5470 3.8038 -1.9605 0.9692
-6.8359 3.1941 -1.9536 0.9693
-7.2473 1.9177 -1.9410 0.9695
-7.3678 1.2607 -1.9354 0.9696
-7.4310 0.5976 -1.9302 0.9697
-7.4367 -0.0667 -1.9256 0.9697
-6.6293 -3.2437 -1.9109 0.9700
-5.5315 -4.8781 -1.9096 0.9700
-4.0539 -6.1815 -1.9140 0.9699
-3.4919 -6.5273 -1.9167 0.9699
-2.9015 -6.8243 -1.9200 0.9698
-1.6513 -7.2623 -1.9283 0.9697
0.3309 -7.5035 -1.9447 0.9694
1.6685 -7.3748 -1.9577 0.9692
2.9726 -7.0126 -1.9721 0.9690
3.5993 -6.7456 -1.9796 0.9689
4.2023 -6.4230 -1.9873 0.9688
5.3173 -5.6192 -2.0031 0.9685
6.2789 -4.6221 -2.0187 0.9683
6.6910 -4.0596 -2.0263 0.9682
7.0519 -3.4599 -2.0338 0.9681
7.3579 -2.8278 -2.0409 0.9680
7.6059 -2.1682 -2.0478 0.9678
7.9774 -0.0802 -2.0656 0.9676
7.9716 0.6324 -2.0705 0.9675
7.7622 2.0450 -2.0784 0.9674
7.2940 3.3985 -2.0835 0.9673
4.5342 6.6353 -2.0808 0.9673
3.9192 7.0026 -2.0778 0.9674
3.1920 7.1281 -2.0222 0.9682
0.4696 7.3089 -1.8963 0.9702
-0.1829 7.2985 -1.8903 0.9703
-0.8296 7.2288 -1.8839 0.9704
-1.4652 7.1009 -1.8773 0.9705
-2.0844 6.9166 -1.8704 0.9706
-3.2538 6.3876 -1.8561 0.9708
-5.9529 3.5642 -1.9642 0.9716
-6.6224 1.8459 -1.9462 0.9718
-6.7423 1.2451 -1.9410 0.9719
-6.8095 0.6378 -1.9362 0.9720
-6.7857 -0.5784 -1.9279 0.9721
-6.6955 -1.1787 -1.9246 0.9721
-6.5544 -1.7680 -1.9218 0.9722
-6.3633 -2.3422 -1.9196 0.9722
-6.1240 -2.8973 -1.9179 0.9722
-5.8382 -3.4295 -1.9168 0.9722
-2.7435 -6.2241 -1.9256 0.9721
-1.6015 -6.6381 -1.9331 0.9720
-1.0060 -6.7701 -1.9376 0.9719
-0.3998 -6.8502 -1.9426 0.9719
0.8271 -6.8515 -1.9537 0.9717
3.2108 -6.2128 -1.9798 0.9713
4.7907 -5.1980 -2.0012 0.9710
5.2536 -4.7676 -2.0084 0.9709
6.3934 -3.2419 -2.0293 0.9706
6.6783 -2.6679 -2.0359 0.9705
7.2697 -0.1687 -2.0585 0.9702
7.2717 0.4807 -2.0631 0.9702
7.2138 1.1289 -2.0670 0.9701
7.0961 1.7700 -2.0704 0.9701
6.9193 2.3984 -2.0731 0.9700
6.6848 3.0084 -2.0752 0.9700
4.7332 5.5986 -2.0754 0.9700
4.2115 5.9922 -2.0734 0.9700
3.6561 6.3355 -2.0707 0.9700
1.6995 6.4997 -1.9019 0.9725
0.5163 6.6643 -1.8923 0.9726
-0.0793 6.6647 -1.8869 0.9727
-0.6708 6.6109 -1.8811 0.9728
-1.8215 6.3451 -1.8688 0.9729
-2.3714 6.1364 -1.8624 0.9730
-2.8984 5.8799 -1.8558 0.9731
-3.8681 5.2343 -1.8425 0.9733
-5.4788 4.3115 -1.9737 0.9714
-6.1161 3.2489 -1.9605 0.9716
-6.5554 2.0989 -1.9486 0.9718
-6.6976 1.5023 -1.9432 0.9719
-6.8242 0.2882 -1.9336 0.9720
-6.6207 -1.5184 -1.9229 0.9722
-6.4508 -2.0995 -1.9205 0.9722
-6.2319 -2.6632 -1.9185 0.9722
-5.9656 -3.2057 -1.9172 0.9722
-4.9042 -4.6681 -1.9167 0.9722
-2.9761 -6.1111 -1.9243 0.9721
-2.4239 -6.3628 -1.9275 0.9721
-1.8510 -6.5663 -1.9313 0.9720
-1.2614 -6.7201 -1.9356 0.9720
-0.6593 -6.8225 -1.9404 0.9719
0.5652 -6.8692 -1.9512 0.9718
1.1786 -6.8123 -1.9572 0.9717
1.7866 -6.7017 -1.9635 0.9716
2.3846 -6.5377 -1.9700 0.9715
2.9678 -6.3209 -1.9768 0.9714
6.2566 -3.4777 -2.0264 0.9707
6.5631 -2.9160 -2.0331 0.9706
6.8182 -2.3269 -2.0395 0.9705
7.0192 -1.7152 -2.0456 0.9704
7.1639 -1.0860 -2.0512 0.9703
7.0018 2.1324 -2.0721 0.9700
6.7917 2.7510 -2.0744 0.9700
6.5250 3.3479 -2.0761 0.9700
6.2038 3.9179 -2.0772 0.9700
5.8310 4.4558 -2.0775 0.9700
5.4099 4.9567 -2.0771 0.9700
4.9442 5.4163 -2.0761 0.9700
3.3242 6.5085 -2.0689 0.9701
2.6799 6.6516 -2.0301 0.9706
0.1744 6.6712 -1.8892 0.9726
-2.1395 6.2313 -1.8651 0.9730
-2.6768 5.9949 -1.8586 0.9731
-3.6719 5.3859 -1.8453 0.9733
-4.1223 5.0192 -1.8387 0.9734
-5.3104 4.5163 -1.9735 0.9714
-5.6811 4.0177 -1.9698 0.9715
-5.9964 3.4839 -1.9633 0.9716
-6.2629 2.9264 -1.9570 0.9717
-6.8149 0.5481 -1.9355 0.9720
-6.6779 -1.2663 -1.9242 0.9721
-6.3310 -2.4253 -1.9193 0.9722
-6.0848 -2.9773 -1.9177 0.9722
-5.7923 -3.5058 -1.9167 0.9722
-5.4557 -4.0070 -1.9163 0.9723
-5.0775 -4.4776 -1.9165 0.9722
-3.7204 -5.6730 -1.9205 0.9722
-2.6621 -6.2613 -1.9261 0.9721
-2.0975 -6.4856 -1.9296 0.9721
-1.5145 -6.6607 -1.9337 0.9720
-0.9172 -6.7852 -1.9383 0.9719
-0.3098 -6.8576 -1.9433 0.9719
0.9175 -6.8431 -1.9546 0.9717
1.5284 -6.7554 -1.9607 0.9716
2.1312 -6.6141 -1.9672 0.9715
2.7213 -6.4197 -1.9739 0.9714
3.2939 -6.1733 -1.9808 0.9713
4.3685 -5.5300 -1.9950 0.9711
4.8613 -5.1373 -2.0022 0.9710
5.7365 -4.2228 -2.0165 0.9708
6.4386 -3.1590 -2.0303 0.9706
6.7159 -2.5811 -2.0368 0.9705
6.9403 -1.9784 -2.0430 0.9704
7.1093 -1.3561 -2.0489 0.9704
7.2737 -0.0731 -2.0592 0.9702
7.2669 0.5765 -2.0637 0.9701
7.2002 1.2240 -2.0676 0.9701
7.0737 1.8636 -2.0708 0.9700
6.6455 3.0964 -2.0755 0.9700
5.5951 4.7480 -2.0774 0.9700
4.6586 5.6597 -2.0752 0.9700
4.1316 6.0461 -2.0731 0.9700
3.5717 6.3816 -2.0703 0.9701
2.9774 6.6490 -2.0624 0.9702
2.1926 6.3636 -1.9054 0.9724
1.6133 6.5193 -1.9012 0.9725
0.4284 6.6678 -1.8915 0.9726
-1.3379 6.4837 -1.8742 0.9729
-2.4506 6.1015 -1.8614 0.9730
-2.9739 5.8382 -1.8548 0.9731
-5.4855 3.2843 -1.9665 0.9736
-5.9467 2.2455 -1.9551 0.9737
-6.2186 1.1484 -1.9451 0.9739
-6.2818 0.5884 -1.9406 0.9739
-6.1796 -1.0878 -1.9299 0.9741
-5.6536 -2.6747 -1.9237 0.9742
-5.3900 -3.1662 -1.9227 0.9742
-5.0852 -3.6329 -1.9222 0.9742
-4.7415 -4.0718 -1.9223 0.9742
-4.3613 -4.4795 -1.9230 0.9742
-3.9473 -4.8532 -1.9241 0.9742
-3.5023 -5.1902 -1.9258 0.9741
-2.0135 -5.9570 -1.9341 0.9740
-0.9280 -6.2451 -1.9419 0.9739
-0.3688 -6.3178 -1.9465 0.9739
0.7624 -6.3162 -1.9568 0.9737
1.3260 -6.2411 -1.9625 0.9737
2.9568 -5.7214 -1.9809 0.9734
3.9512 -5.1394 -1.9940 0.9732
4.8326 -4.3855 -2.0072 0.9731
5.2210 -3.9503 -2.0137 0.9730
6.5095 -1.3306 -2.0436 0.9726
6.6184 -0.7472 -2.0486 0.9725
6.6743 0.4412 -2.0574 0.9724
6.6201 1.0360 -2.0610 0.9723
6.5112 1.6241 -2.0641 0.9723
6.3483 2.2005 -2.0666 0.9723
5.8661 3.2974 -2.0698 0.9722
5.5508 3.8082 -2.0705 0.9722
5.1895 4.2877 -2.0705 0.9722
4.7854 4.7316 -2.0699 0.9722
4.3422 5.1361 -2.0687 0.9722
3.3547 5.8132 -2.0644 0.9723
2.8193 6.0801 -2.0614 0.9723
1.5602 5.9667 -1.8969 0.9745
-1.1517 5.9775 -1.8724 0.9748
-2.1806 5.6428 -1.8607 0.9750
-2.6660 5.4084 -1.8546 0.9751
-3.1270 5.1324 -1.8485 0.9752
-3.5674 4.8275 -1.8463 0.9752
-4.1703 4.7011 -1.9329 0.9740
-4.6825 4.4145 -1.9794 0.9734
-5.0467 3.9715 -1.9753 0.9735
-6.1769 1.3855 -1.9471 0.9739
-6.2608 0.8276 -1.9425 0.9739
-6.2960 0.2659 -1.9382 0.9740
-6.1109 -1.4014 -1.9284 0.9741
-5.9547 -1.9380 -1.9261 0.9741
-5.7530 -2.4586 -1.9243 0.9742
-5.2200 -3.4372 -1.9224 0.9742
-4.8926 -3.8883 -1.9222 0.9742
-4.1277 -4.6983 -1.9236 0.9742
-3.6956 -5.0512 -1.9251 0.9741
-2.2369 -5.8717 -1.9326 0.9740
-1.1637 -6.1995 -1.9401 0.9739
-0.6081 -6.2927 -1.9445 0.9739
-0.0451 -6.3375 -1.9493 0.9738
1.6464 -6.1756 -1.9658 0.9736
2.1968 -6.0229 -1.9719 0.9735
2.7334 -5.8217 -1.9782 0.9734
3.2517 -5.5730 -1.9846 0.9734
4.6558 -4.5596 -2.0044 0.9731
5.4263 -3.6848 -2.0174 0.9729
6.4243 1.9566 -2.0656 0.9723
6.2310 2.5238 -2.0678 0.9723
5.9858 3.0713 -2.0693 0.9722
5.6910 3.5940 -2.0703 0.9722
5.3489 4.0874 -2.0706 0.9722
4.9627 4.5470 -2.0702 0.9722
4.5357 4.9688 -2.0693 0.9722
4.0718 5.3490 -2.0677 0.9723
3.5753 5.6845 -2.0655 0.9723
3.0504 5.9724 -2.0627 0.9723
1.2513 6.0312 -1.8946 0.9746
0.1602 6.1275 -1.8853 0.9747
-1.4534 5.9004 -1.8691 0.9749
-2.4619 5.5136 -1.8572 0.9750
-2.9337 5.2550 -1.8512 0.9751
-3.3790 4.9563 -1.8450 0.9752
-3.8514 4.6893 -1.8665 0.9749
-4.5104 4.5885 -1.9790 0.9734
-4.8987 4.1662 -1.9780 0.9734
-5.2338 3.7014 -1.9717 0.9735
-6.1263 1.6211 -1.9492 0.9738
-6.2310 1.0661 -1.9444 0.9739
-6.2870 0.5056 -1.9400 0.9739
-6.2528 -0.6159 -1.9325 0.9740
-6.0269 -1.7110 -1.9270 0.9741
-5.0369 -3.6995 -1.9222 0.9742
-4.6877 -4.1339 -1.9224 0.9742
-4.3023 -4.5368 -1.9231 0.9742
-3.8835 -4.9053 -1.9244 0.9742
-2.9575 -5.5284 -1.9285 0.9741
-2.4568 -5.7784 -1.9313 0.9741
-1.9355 -5.9846 -1.9346 0.9740
-1.3973 -6.1452 -1.9384 0.9740
-0.8461 -6.2589 -1.9426 0.9739
-0.2857 -6.3244 -1.9472 0.9739
0.2796 -6.3410 -1.9523 0.9738
0.8458 -6.3082 -1.9576 0.9737
1.9636 -6.0940 -1.9693 0.9736
3.0333 -5.6847 -1.9818 0.9734
3.5393 -5.4096 -1.9883 0.9733
5.2751 -3.8831 -2.0147 0.9730
5.6178 -3.4085 -2.0211 0.9729
5.9174 -2.9033 -2.0273 0.9728
6.5289 -1.2454 -2.0444 0.9726
6.6772 -0.0671 -2.0539 0.9724
6.6698 0.5292 -2.0579 0.9724
6.4906 1.7100 -2.0645 0.9723
6.0965 2.8406 -2.0687 0.9722
5.5003 3.8809 -2.0705 0.9722
2.7383 6.1150 -2.0608 0.9723
2.1523 6.2467 -2.0322 0.9727
0.9398 6.0793 -1.8921 0.9746
-0.1533 6.1181 -1.8824 0.9747
-0.6958 6.0630 -1.8771 0.9748
-1.7503 5.8079 -1.8657 0.9749
-2.2536 5.6109 -1.8598 0.9750
-2.7356 5.3703 -1.8538 0.9751
-5.0810 3.0421 -1.9685 0.9753
-5.3171 2.5702 -1.9631 0.9754
-5.5105 2.0808 -1.9580 0.9755
-5.7646 1.0646 -1.9486 0.9756
-5.8242 0.5456 -1.9445 0.9756
-5.8384 0.0244 -1.9407 0.9757
-5.8074 -0.4950 -1.9374 0.9757
-5.7317 -1.0090 -1.9345 0.9758
-5.4494 -2.0058 -1.9302 0.9758
-5.2451 -2.4815 -1.9288 0.9758
-5.0007 -2.9375 -1.9278 0.9758
-4.7180 -3.3706 -1.9274 0.9759
-4.3991 -3.7777 -1.9275 0.9759
-3.6620 -4.5025 -1.9292 0.9758
-2.3484 -5.3278 -1.9354 0.9758
-1.8673 -5.5244 -1.9384 0.9757
-0.3418 -5.8563 -1.9500 0.9756
0.7065 -5.8525 -1.9595 0.9755
1.2284 -5.7817 -1.9648 0.9754
1.7435 -5.6650 -1.9702 0.9753
2.2478 -5.5030 -1.9760 0.9753
2.7373 -5.2966 -1.9818 0.9752
3.2080 -5.0469 -1.9878 0.9751
4.8274 -3.6525 -2.0122 0.9748
5.1488 -3.2173 -2.0182 0.9747
5.4305 -2.7536 -2.0239 0.9747
5.6698 -2.2650 -2.0295 0.9746
5.8643 -1.7554 -2.0348 0.9745
6.0121 -1.2290 -2.0398 0.9745
6.0863 -0.6871 -2.0360 0.9745
6.1102 0.9562 -2.0558 0.9743
5.6588 2.5466 -2.0627 0.9742
5.4125 3.0424 -2.0639 0.9742
4.7881 3.9560 -2.0646 0.9742
3.5655 5.0732 -2.0612 0.9742
2.0861 5.8054 -2.0505 0.9743
1.5271 5.8404 -2.0066 0.9749
0.4379 5.6525 -1.8846 0.9764
-2.0162 5.2172 -1.8592 0.9767
-2.4656 5.0018 -1.8537 0.9768
-3.4369 4.6509 -1.9223 0.9759
-3.9618 4.4660 -1.9845 0.9751
-4.3397 4.0913 -1.9825 0.9752
-4.6730 3.6774 -1.9766 0.9752
-5.2216 2.7737 -1.9654 0.9754
-5.6017 1.7935 -1.9551 0.9755
-5.8043 0.7673 -1.9462 0.9756
-5.8379 0.2466 -1.9423 0.9757
-5.8261 -0.2740 -1.9388 0.9757
-5.5239 -1.7978 -1.9310 0.9758
-5.3372 -2.2809 -1.9293 0.9758
-5.1097 -2.7457 -1.9282 0.9758
-4.2007 -3.9984 -1.9278 0.9759
-3.8295 -4.3588 -1.9286 0.9758
-3.0001 -4.9776 -1.9319 0.9758
-0.5637 -5.8335 -1.9481 0.9756
0.4829 -5.8687 -1.9574 0.9755
1.0065 -5.8175 -1.9625 0.9754
2.0344 -5.5776 -1.9735 0.9753
2.5307 -5.3900 -1.9793 0.9752
3.4681 -4.8847 -1.9913 0.9751
3.9015 -4.5703 -1.9974 0.9750
4.6791 -3.8285 -2.0097 0.9748
5.0165 -3.4065 -2.0156 0.9748
5.3155 -2.9545 -2.0215 0.9747
6.1675 0.1726 -2.0509 0.9743
6.1381 0.7227 -2.0544 0.9743
6.0583 1.2686 -2.0575 0.9742
5.9285 1.8056 -2.0600 0.9742
5.7496 2.3288 -2.0620 0.9742
4.1851 4.5847 -2.0634 0.9742
3.7573 4.9358 -2.0620 0.9742
3.2993 5.2458 -2.0600 0.9742
2.3096 5.7324 -2.0543 0.9743
1.1746 5.6616 -1.9220 0.9759
0.6531 5.6373 -1.8864 0.9764
0.1479 5.6597 -1.8820 0.9764
-2.7135 4.8606 -1.8504 0.9768
-3.1697 4.6493 -1.8704 0.9766
-4.1858 4.2582 -1.9848 0.9751
-4.8469 3.4277 -1.9733 0.9753
-5.1184 2.9738 -1.9677 0.9754
-5.3483 2.4990 -1.9623 0.9754
-5.5353 2.0073 -1.9572 0.9755
-5.6782 1.5025 -1.9524 0.9755
-5.7763 0.9883 -1.9480 0.9756
-5.5907 -1.5872 -1.9318 0.9758
-5.2115 -2.5500 -1.9286 0.9758
-4.9614 -3.0029 -1.9277 0.9759
-3.9915 -4.2091 -1.9282 0.9758
-3.6028 -4.5507 -1.9294 0.9758
-3.1858 -4.8578 -1.9310 0.9758
-2.7433 -5.1280 -1.9332 0.9758
-1.7949 -5.5499 -1.9389 0.9757
-1.2956 -5.6980 -1.9424 0.9757
1.8186 -5.6440 -1.9711 0.9753
2.8079 -5.2625 -1.9827 0.9752
3.2756 -5.0065 -1.9887 0.9751
3.7200 -4.7092 -1.9948 0.9750
4.8772 -3.5903 -2.0131 0.9748
5.1929 -3.1507 -2.0190 0.9747
5.8891 -1.6788 -2.0355 0.9745
6.0298 -1.1502 -2.0405 0.9745
6.0990 -0.6074 -2.0374 0.9745
6.0985 1.0367 -2.0563 0.9743
5.9899 1.5781 -2.0590 0.9742
5.6254 2.6211 -2.0629 0.9742
5.0749 3.5808 -2.0646 0.9742
3.4980 5.1189 -2.0609 0.9742
3.0246 5.4041 -2.0586 0.9742
2.5275 5.6442 -2.0557 0.9743
1.4336 5.7931 -1.9837 0.9752
0.3634 5.6558 -1.8839 0.9764
-0.1416 5.6518 -1.8793 0.9765
-0.6429 5.6020 -1.8744 0.9765
-2.5300 4.9667 -1.8528 0.9768
-4.7271 2.8302 -1.9703 0.9769
-5.1286 1.9366 -1.9604 0.9770
-5.2686 1.4685 -1.9559 0.9770
-5.3669 0.9911 -1.9517 0.9771
-5.0767 -1.8686 -1.9345 0.9773
-4.8866 -2.3119 -1.9332 0.9773
-4.3958 -3.1404 -1.9319 0.9773
-3.7699 -3.8720 -1.9325 0.9773
-2.6176 -4.7420 -1.9370 0.9773
-2.1874 -4.9625 -1.9394 0.9772
-0.8011 -5.3910 -1.9490 0.9771
0.1692 -5.4707 -1.9573 0.9770
0.6575 -5.4466 -1.9619 0.9770
1.1430 -5.3797 -1.9668 0.9769
1.6220 -5.2702 -1.9719 0.9768
2.5454 -4.9254 -1.9827 0.9767
2.9825 -4.6922 -1.9882 0.9767
3.3984 -4.4203 -1.9939 0.9766
5.4431 -1.6293 -2.0318 0.9762
5.5793 -1.1405 -2.0365 0.9761
5.6707 -0.6402 -2.0407 0.9760
5.7161 -0.1327 -2.0447 0.9760
5.7150 0.3778 -2.0482 0.9760
5.6672 0.8868 -2.0513 0.9759
5.5728 1.3900 -2.0539 0.9759
5.4324 1.8830 -2.0561 0.9759
5.2472 2.3614 -2.0577 0.9759
5.0186 2.8210 -2.0588 0.9758
3.7152 4.3945 -2.0578 0.9759
2.4134 5.2047 -2.0516 0.9759
1.9372 5.3911 -2.0486 0.9760
1.4440 5.5223 -2.0412 0.9760
0.9261 5.5093 -1.9978 0.9765
0.4102 5.2950 -1.8992 0.9777
-0.0625 5.2490 -1.8772 0.9779
-1.4375 5.0075 -1.8630 0.9781
-1.8728 4.8463 -1.8580 0.9782
-2.3004 4.6667 -1.8606 0.9781
-3.6908 4.1606 -1.9889 0.9767
-4.0354 3.8044 -1.9833 0.9767
-4.6212 3.0113 -1.9725 0.9768
-5.2140 1.6694 -1.9578 0.9770
-5.3302 1.1955 -1.9535 0.9771
-5.3738 -0.7366 -1.9397 0.9772
-4.9723 -2.1250 -1.9337 0.9773
-4.7606 -2.5581 -1.9326 0.9773
-4.5123 -2.9712 -1.9320 0.9773
-3.9138 -3.7253 -1.9323 0.9773
-2.7948 -4.6370 -1.9361 0.9773
-1.9322 -5.0720 -1.9409 0.9772
-1.4749 -5.2322 -1.9440 0.9772
-1.0047 -5.3523 -1.9474 0.9771
-0.5248 -5.4311 -1.9512 0.9771
-0.0389 -5.4679 -1.9554 0.9770
0.4494 -5.4621 -1.9599 0.9770
0.9366 -5.4135 -1.9647 0.9769
1.8924 -5.1882 -1.9749 0.9768
3.2239 -4.5408 -1.9915 0.9766
3.6260 -4.2476 -1.9972 0.9766
4.6594 -3.1640 -2.0141 0.9764
5.1742 -2.2989 -2.0247 0.9762
5.3718 -1.8333 -2.0298 0.9762
5.6373 -0.8546 -2.0390 0.9761
5.7024 -0.3496 -2.0430 0.9760
5.7212 0.1601 -2.0468 0.9760
5.4978 1.6744 -2.0552 0.9759
5.3315 2.1595 -2.0571 0.9759
4.2456 3.8900 -2.0592 0.9758
3.8806 4.2511 -2.0584 0.9758
3.4841 4.5769 -2.0570 0.9759
2.1422 5.3170 -2.0499 0.9759
1.1565 5.5744 -2.0359 0.9761
0.6238 5.3840 -1.9382 0.9772
-1.6892 4.9197 -1.8601 0.9781
-2.1149 4.7365 -1.8550 0.9782
-2.5929 4.6446 -1.9022 0.9777
-3.1344 4.5974 -1.9898 0.9766
-3.5310 4.2992 -1.9895 0.9766
-3.8925 3.9599 -1.9857 0.9767
-4.9769 2.3255 -1.9645 0.9769
-5.1518 1.8683 -1.9597 0.9770
-5.2857 1.3986 -1.9553 0.9770
-5.4356 -0.0488 -1.9439 0.9772
-5.2081 -1.4786 -1.9360 0.9773
-4.8554 -2.3758 -1.9330 0.9773
-4.3541 -3.1979 -1.9319 0.9773
-4.0522 -3.5734 -1.9320 0.9773
-3.7188 -3.9215 -1.9327 0.9773
-2.5555 -4.7769 -1.9373 0.9772
-2.1224 -4.9919 -1.9398 0.9772
-1.6716 -5.1687 -1.9426 0.9772
-0.7303 -5.4026 -1.9496 0.9771
0.2412 -5.4698 -1.9579 0.9770
0.7293 -5.4395 -1.9626 0.9770
1.6918 -5.2504 -1.9726 0.9768
2.1587 -5.0925 -1.9780 0.9768
3.0453 -4.6545 -1.9891 0.9766
3.4577 -4.3771 -1.9947 0.9766
3.8449 -4.0632 -2.0004 0.9765
4.2035 -3.7150 -2.0061 0.9765
4.5304 -3.3349 -2.0117 0.9764
5.0775 -2.4912 -2.0225 0.9763
5.2927 -2.0341 -2.0277 0.9762
5.4659 -1.5582 -2.0325 0.9761
5.5956 -1.0673 -2.0371 0.9761
5.6803 -0.5657 -2.0414 0.9760
5.6562 0.9615 -2.0517 0.9759
4.0402 4.1013 -2.0588 0.9758
2.3443 5.2350 -2.0512 0.9759
1.8657 5.4148 -2.0481 0.9760
0.3386 5.2702 -1.8886 0.9778
-1.9356 4.8192 -1.8572 0.9782
-4.7912 1.8092 -1.9626 0.9783
-5.0153 0.9262 -1.9545 0.9784
-2.3040 0.2158 -0.8868 0.9901
-2.3042 -0.1964 -0.8862 0.9901
-4.9913 -0.8787 -1.9422 0.9785
-4.5693 -2.1618 -1.9371 0.9786
-4.3567 -2.5592 -1.9363 0.9786
-3.8327 -3.2913 -1.9360 0.9786
-3.5251 -3.6207 -1.9365 0.9786
-3.1901 -3.9223 -1.9375 0.9786
-2.8300 -4.1939 -1.9389 0.9786
-2.0449 -4.6393 -1.9429 0.9785
-1.1925 -4.9429 -1.9486 0.9785
0.1581 -5.1113 -1.9597 0.9783
0.6142 -5.0880 -1.9640 0.9783
1.0676 -5.0247 -1.9685 0.9782
1.9520 -4.7790 -1.9783 0.9781
2.7837 -4.3794 -1.9886 0.9780
3.1712 -4.1249 -1.9939 0.9780
3.5355 -3.8361 -1.9992 0.9779
3.8735 -3.5151 -2.0045 0.9778
4.1822 -3.1643 -2.0097 0.9778
4.7010 -2.3837 -2.0199 0.9777
5.0728 -1.5185 -2.0292 0.9776
5.1990 -1.0627 -2.0335 0.9775
5.3250 -0.1236 -2.0412 0.9774
5.2782 0.8260 -2.0473 0.9774
5.1898 1.2945 -2.0498 0.9773
4.8860 2.1988 -2.0533 0.9773
4.6730 2.6268 -2.0543 0.9773
4.1337 3.4154 -2.0549 0.9773
3.8121 3.7692 -2.0544 0.9773
3.4594 4.0920 -2.0534 0.9773
1.8044 5.0215 -2.0448 0.9774
1.3477 5.1542 -2.0416 0.9774
-0.0608 5.1062 -1.9569 0.9784
-0.5048 4.9754 -1.9164 0.9788
-1.3706 4.7744 -1.9036 0.9789
-1.8156 4.6983 -1.9302 0.9787
-2.2892 4.6440 -1.9841 0.9781
-2.7089 4.4462 -1.9952 0.9779
-3.0929 4.1853 -1.9943 0.9780
-4.0580 3.1934 -1.9789 0.9781
-2.3081 0.3051 -0.8922 0.9901
-2.3007 -0.1082 -0.8827 0.9902
-4.9366 -1.1321 -1.9409 0.9785
-4.4515 -2.3921 -1.9366 0.9786
-4.2195 -2.7783 -1.9360 0.9786
-3.6597 -3.4835 -1.9362 0.9786
-3.3361 -3.7973 -1.9370 0.9786
-2.9864 -4.0819 -1.9382 0.9786
-2.6130 -4.3354 -1.9399 0.9785
-0.9390 -5.0023 -1.9505 0.9784
-0.0364 -5.1090 -1.9579 0.9784
0.4199 -5.1029 -1.9621 0.9783
1.3251 -4.9704 -1.9713 0.9782
2.1972 -4.6798 -1.9812 0.9781
2.6122 -4.4770 -1.9864 0.9780
3.0087 -4.2377 -1.9916 0.9780
3.3833 -3.9633 -1.9969 0.9779
3.7329 -3.6558 -2.0022 0.9779
4.8234 -2.1430 -2.0226 0.9776
5.0067 -1.7087 -2.0273 0.9776
5.1502 -1.2585 -2.0317 0.9775
5.3294 0.1492 -2.0431 0.9774
5.1198 1.5593 -2.0510 0.9773
4.5333 2.8629 -2.0547 0.9773
4.2607 3.2558 -2.0549 0.9773
2.8493 4.5303 -2.0509 0.9773
2.4317 4.7610 -2.0487 0.9774
1.5438 5.1028 -2.0430 0.9774
0.6095 5.2607 -2.0295 0.9776
0.1352 5.1745 -1.9837 0.9781
-1.6245 4.7313 -1.9170 0.9788
-2.0841 4.6675 -1.9589 0.9783
-2.5386 4.5473 -1.9958 0.9779
