ply
format ascii 1.0
element vertex 1555
property float32 x
property float32 y
property float32 z
property float32 I
end_header
3.4300 18.8967 3.3865 0.9250
0.0102 11.4170 2.0131 0.9547
-4.2155 11.3216 2.1302 0.9521
-5.4770 11.4618 2.2399 0.9497
-3.8836 5.3892 1.1713 0.9734
-9.7876 11.3007 2.6361 0.9411
-13.8521 11.1641 3.1370 0.9303
-8.6378 -17.3256 3.4136 0.9244
-1.8330 -17.3658 3.0791 0.9315
-0.2740 -17.3074 3.0522 0.9321
4.0791 19.1914 3.4596 0.9234
-0.6717 11.4565 2.0236 0.9545
-1.7011 11.4178 2.0355 0.9542
-2.7510 11.3779 2.0640 0.9536
-3.8395 11.3361 2.1104 0.9525
-4.9603 11.2309 2.1649 0.9514
-3.7688 5.5736 1.1864 0.9730
-12.8843 11.0349 2.9912 0.9334
-4.1128 -9.6460 1.8490 0.9583
-3.9136 -17.1489 3.1016 0.9310
0.7539 -17.2689 3.0479 0.9322
6.6013 -15.5717 2.9822 0.9336
0.0102 11.4167 1.7490 0.9549
-1.0152 11.4488 1.7608 0.9546
-2.0500 11.4100 1.7759 0.9542
-4.2180 11.3281 1.8518 0.9523
-9.7873 11.3003 2.2902 0.9413
-11.6361 11.2312 2.4775 0.9367
-13.5778 10.9430 2.6715 0.9319
-6.7538 -17.2510 2.8381 0.9278
-5.0132 -17.1858 2.7425 0.9301
-3.3733 -17.1245 2.6738 0.9318
-0.2692 -17.0082 2.6059 0.9335
-1.7019 11.4230 1.7693 0.9543
-3.8417 11.3426 1.8346 0.9527
-4.9601 11.2306 1.8808 0.9515
-3.7693 5.5744 1.0309 0.9731
-9.2282 11.3212 2.2375 0.9426
-10.9849 11.2555 2.4094 0.9383
-4.1036 -9.6244 1.6028 0.9585
-3.9126 -17.1447 2.6940 0.9313
-0.7787 -17.0273 2.6112 0.9333
0.7409 -16.9703 2.6022 0.9336
6.5922 -15.5503 2.5874 0.9339
-1.0212 11.5165 1.5056 0.9544
-3.1298 11.4375 1.5442 0.9533
-5.5309 11.5745 1.6705 0.9496
-6.7655 11.4129 1.7277 0.9479
-3.8886 5.3961 0.8661 0.9735
-9.7870 11.2999 1.9467 0.9415
-8.6360 -17.3219 2.5205 0.9249
-3.3734 -17.1249 2.2729 0.9320
-1.8013 -17.0660 2.2347 0.9331
1.2483 -16.9517 2.2134 0.9337
-1.7120 11.4906 1.5128 0.9542
-3.8645 11.4100 1.5687 0.9526
-4.9600 11.2303 1.5987 0.9517
-3.7659 5.5693 0.8755 0.9732
-12.9090 11.0560 2.2133 0.9337
-9.3055 -17.3469 2.5634 0.9237
-4.0949 -9.6040 1.3596 0.9588
-5.5824 -17.2076 2.3558 0.9296
-3.9127 -17.1451 2.2900 0.9315
-2.3213 -17.0855 2.2453 0.9328
-0.7787 -17.0277 2.2197 0.9336
0.7409 -16.9707 2.2120 0.9338
0.0102 11.4162 1.2259 0.9551
-1.0367 11.6920 1.2604 0.9539
-2.0936 11.6524 1.2713 0.9535
-4.3078 11.5694 1.3257 0.9515
-5.5381 11.5896 1.3793 0.9496
-3.8934 5.4028 0.7151 0.9736
-11.6353 11.2304 1.7365 0.9370
-13.8324 11.1482 1.9077 0.9310
-8.5345 -17.1185 2.0540 0.9259
-6.6947 -17.0999 1.9719 0.9288
-1.8014 -17.0664 1.8428 0.9333
-6.3927 11.5576 1.4183 0.9483
-3.7654 5.5686 0.7218 0.9733
-9.3313 11.4477 1.5859 0.9423
-13.0508 11.1775 1.8451 0.9332
-9.1962 -17.1432 2.0890 0.9247
-5.5605 -17.1403 1.9350 0.9301
0.7409 -16.9712 1.8241 0.9339
6.5963 -15.5599 1.8148 0.9343
-3.1774 11.6115 1.0191 0.9528
-4.3077 11.5691 1.0450 0.9517
-9.8963 11.4262 1.2796 0.9411
-11.7657 11.3562 1.3843 0.9365
-14.0692 11.3391 1.5297 0.9300
-8.6365 -17.3229 1.6386 0.9252
-5.0136 -17.1872 1.5156 0.9307
-3.3735 -17.1258 1.4776 0.9323
5.4453 13.3193 1.2181 0.9439
-0.6863 11.7048 0.9925 0.9540
-2.8108 11.6252 1.0125 0.9531
-6.5010 11.7534 1.1370 0.9475
-9.3310 11.4473 1.2502 0.9424
-5.5827 -17.2085 1.5315 0.9299
-2.3214 -17.0863 1.4597 0.9331
0.7410 -16.9716 1.4381 0.9341
6.6032 -15.5762 1.4322 0.9343
-2.0935 11.6518 0.7341 0.9537
-3.1774 11.6112 0.7465 0.9529
-6.8410 11.5402 0.8319 0.9477
-3.9080 5.4230 0.4145 0.9736
-8.6367 -17.3234 1.2003 0.9254
-3.8623 -9.8652 0.6570 0.9584
-0.2917 -18.4275 1.1428 0.9288
5.4302 13.2822 0.8898 0.9441
-0.6863 11.7045 0.7270 0.9541
-1.7380 11.6651 0.7313 0.9538
-4.9596 11.2294 0.7612 0.9520
-13.3297 11.4164 1.0883 0.9321
-9.3063 -17.3484 1.2208 0.9241
-4.0990 -9.6135 0.6481 0.9590
-5.6272 -17.3457 1.1308 0.9295
-3.9441 -17.2827 1.0993 0.9314
-2.3399 -17.2225 1.0778 0.9327
-0.7850 -17.1643 1.0655 0.9335
-1.0367 11.6911 0.4628 0.9541
-3.1597 11.5467 0.4720 0.9532
-5.5377 11.5887 0.5064 0.9499
-3.9141 5.4314 0.2640 0.9736
-14.9738 -9.6465 0.7023 0.9312
-8.7086 -17.4676 0.7696 0.9248
-3.8487 -9.8305 0.4163 0.9586
-3.4005 -17.2627 0.6938 0.9320
-1.8192 -17.2354 0.6834 0.9330
-0.6863 11.7042 0.4623 0.9542
-2.7951 11.5604 0.4690 0.9535
-3.9231 11.5829 0.4822 0.9522
-4.9595 11.2291 0.4840 0.9520
-6.5006 11.7528 0.5296 0.9477
-9.3304 11.4466 0.5823 0.9426
-11.2949 11.5732 0.6377 0.9373
-13.3292 11.4159 0.6920 0.9322
-4.1075 -9.6337 0.4130 0.9589
-5.6378 -17.3785 0.7204 0.9295
-2.3443 -17.2551 0.6866 0.9327
-0.7865 -17.1967 0.6788 0.9334
0.8386 -19.2083 0.7581 0.9259
-1.0366 11.6908 0.1983 0.9541
-2.0818 11.5868 0.1989 0.9540
-3.1596 11.5464 0.2022 0.9532
-5.5375 11.5884 0.2170 0.9499
-6.8406 11.5396 0.2266 0.9477
-14.1270 11.3856 0.3065 0.9300
-14.9759 -9.6478 0.3009 0.9312
-5.0632 -17.3574 0.3054 0.9302
-3.4006 -17.2632 0.2972 0.9320
-1.8193 -17.2358 0.2928 0.9330
-0.3014 -19.0420 0.3217 0.9266
1.4074 -19.1130 0.3237 0.9262
5.3995 13.2070 0.2410 0.9445
-0.6862 11.7039 0.1980 0.9542
-1.7379 11.6645 0.1992 0.9539
-4.9593 11.2288 0.2073 0.9521
-6.5005 11.7524 0.2269 0.9477
-9.3302 11.4463 0.2494 0.9426
-13.3287 11.4155 0.2964 0.9322
-4.1136 -9.6480 0.1772 0.9589
-5.6380 -17.3790 0.3086 0.9295
-3.9516 -17.3158 0.3000 0.9314
-0.7865 -17.1971 0.2908 0.9334
0.8354 -19.1345 0.3235 0.9262
6.5838 -15.5304 0.2849 0.9347
-1.0366 11.6905 -0.0661 0.9541
-2.0818 11.5865 -0.0663 0.9540
-5.5374 11.5881 -0.0723 0.9499
-11.7641 11.3547 -0.0921 0.9367
-3.8439 -9.8184 -0.0594 0.9587
-5.0633 -17.3579 -0.1018 0.9302
-3.4007 -17.2636 -0.0991 0.9320
-1.8193 -17.2363 -0.0976 0.9330
-0.3014 -19.0425 -0.1072 0.9266
1.4098 -19.1454 -0.1081 0.9261
7.7330 -16.8243 -0.1042 0.9286
5.4066 13.2245 -0.0804 0.9445
-0.6862 11.7037 -0.0660 0.9542
-1.7378 11.6642 -0.0664 0.9539
-2.7950 11.5598 -0.0670 0.9535
-3.9229 11.5823 -0.0688 0.9523
-4.9592 11.2285 -0.0691 0.9521
-3.8028 5.6239 -0.0382 0.9732
-9.3299 11.4459 -0.0831 0.9426
-11.1058 11.3793 -0.0895 0.9384
-13.3283 11.4151 -0.0988 0.9322
-9.3843 -17.4939 -0.1118 0.9237
-4.1177 -9.6575 -0.0591 0.9589
6.5575 -15.4684 -0.0946 0.9350
-4.3071 11.5676 -0.3476 0.9518
-5.4334 11.3706 -0.3548 0.9508
-3.9345 5.4597 -0.1895 0.9734
-14.9883 -9.6558 -0.5020 0.9311
-8.7093 -17.4690 -0.5496 0.9249
-3.8414 -9.8118 -0.2967 0.9587
-5.0635 -17.3583 -0.5091 0.9302
-3.4008 -17.2640 -0.4955 0.9320
-1.8194 -17.2367 -0.4880 0.9330
-0.3014 -19.0429 -0.5363 0.9266
5.4096 13.2318 -0.4025 0.9444
-0.6862 11.7034 -0.3301 0.9542
-1.7378 11.6640 -0.3321 0.9539
-3.9228 11.5821 -0.3443 0.9522
-4.9591 11.2282 -0.3456 0.9521
-6.2719 11.3391 -0.3649 0.9495
-9.1547 11.2310 -0.4080 0.9437
-13.3278 11.4147 -0.4941 0.9322
-4.1312 -9.6891 -0.2966 0.9587
-5.6383 -17.3799 -0.5145 0.9295
-0.7865 -17.1980 -0.4848 0.9334
0.0102 11.4142 -0.5789 0.9553
-1.0366 11.6900 -0.5952 0.9541
-3.1594 11.5456 -0.6070 0.9532
-4.3070 11.5673 -0.6260 0.9518
-5.4333 11.3703 -0.6391 0.9508
-9.7090 11.2099 -0.7521 0.9423
-11.5428 11.1411 -0.8136 0.9378
-14.9904 -9.6572 -0.9043 0.9311
-3.8343 -9.7937 -0.5334 0.9588
-3.4008 -17.2645 -0.8924 0.9320
-1.8160 -17.2050 -0.8774 0.9331
1.4099 -19.1463 -0.9736 0.9260
-3.9227 11.5818 -0.6201 0.9522
-4.9590 11.2279 -0.6225 0.9520
-6.2717 11.3388 -0.6571 0.9494
-10.8969 11.1653 -0.7912 0.9394
-13.3273 11.4143 -0.8899 0.9321
-9.3848 -17.4949 -1.0068 0.9236
-4.1476 -9.7276 -0.5363 0.9585
-5.5835 -17.2112 -0.9176 0.9301
-2.3402 -17.2247 -0.8816 0.9327
-0.7851 -17.1664 -0.8715 0.9335
6.5291 -15.4015 -0.8484 0.9352
0.0102 11.4139 -0.8369 0.9553
-2.0932 11.6501 -0.8679 0.9536
-4.3069 11.5670 -0.9050 0.9517
-5.4332 11.3700 -0.9240 0.9507
-3.9713 5.5108 -0.4981 0.9731
-9.7087 11.2095 -1.0873 0.9423
-1.8017 -17.0698 -1.2585 0.9335
-0.3015 -19.0439 -1.3965 0.9265
5.4140 13.2427 -1.0490 0.9442
-0.6862 11.7028 -0.8595 0.9541
-1.7377 11.6634 -0.8646 0.9538
-3.9226 11.5814 -0.8966 0.9521
-3.8161 5.6435 -0.4995 0.9730
-13.0470 11.1742 -1.2595 0.9334
-9.3851 -17.4953 -1.4557 0.9235
-2.3218 -17.0893 -1.2645 0.9332
-0.7789 -17.0315 -1.2501 0.9339
6.5275 -15.3977 -1.2262 0.9351
-3.1090 11.3615 -1.1309 0.9538
-5.4330 11.3697 -1.2098 0.9506
-11.5420 11.1403 -1.5400 0.9376
-15.3530 10.2580 -1.7727 0.9285
-16.8201 7.3178 -1.7610 0.9289
-17.3577 5.7720 -1.7561 0.9291
-19.5174 2.7974 -1.8929 0.9238
-19.6578 1.0434 -1.8899 0.9239
-19.6494 -0.7137 -1.8877 0.9240
-19.4929 -2.4620 -1.8863 0.9241
-19.1895 -4.1899 -1.8857 0.9241
-18.7414 -5.8859 -1.8859 0.9241
-15.2983 -9.8555 -1.7471 0.9295
-14.3842 -11.2014 -1.7503 0.9294
-12.2234 -13.6451 -1.7588 0.9290
-10.9899 -14.7249 -1.7640 0.9288
-9.6645 -15.6987 -1.7699 0.9286
-8.2554 -16.5586 -1.7763 0.9283
-3.8472 -9.8267 -1.0131 0.9585
-5.0146 -17.1907 -1.7192 0.9306
-3.3742 -17.1292 -1.6761 0.9322
3.0976 -18.8543 -1.8344 0.9261
5.4243 13.2680 -1.3761 0.9440
4.0902 19.2435 -1.8887 0.9240
2.3457 19.4373 -1.8796 0.9243
-1.7006 11.4143 -1.1079 0.9547
-2.7503 11.3750 -1.1235 0.9541
-16.6109 7.8248 -1.7628 0.9289
-17.1929 6.2934 -1.7577 0.9291
-19.6274 1.6309 -1.8908 0.9239
-19.3072 -3.6151 -1.8858 0.9241
-18.3644 -6.9914 -1.8865 0.9241
-16.1069 -9.7082 -1.8055 0.9272
-13.7128 -12.0537 -1.7528 0.9293
-12.6140 -13.2618 -1.7571 0.9291
-11.4130 -14.3752 -1.7622 0.9289
-10.1175 -15.3854 -1.7678 0.9287
-4.1732 -9.7878 -1.0215 0.9581
-5.5838 -17.2121 -1.7372 0.9299
-2.3218 -17.0897 -1.6558 0.9330
0.7889 -18.0706 -1.7365 0.9299
2.5288 -18.9062 -1.8313 0.9262
6.3820 -15.0544 -1.5698 0.9364
2.8223 15.5489 -1.8772 0.9383
-2.0484 11.4010 -1.3760 0.9544
-3.1090 11.3612 -1.3992 0.9537
-6.7113 11.3214 -1.5634 0.9484
-3.9735 5.5139 -0.8073 0.9730
-13.7099 5.9646 -1.7760 0.9416
-14.1554 4.7070 -1.7720 0.9417
-15.9295 2.2832 -1.9115 0.9372
-16.0488 0.8518 -1.9091 0.9373
-15.9197 -2.0107 -1.9061 0.9374
-15.3065 -4.8072 -1.9058 0.9374
-14.8233 -6.1563 -1.9066 0.9374
-14.2264 -7.4602 -1.9081 0.9373
-13.4761 -8.6816 -1.9042 0.9375
-11.7376 -9.1404 -1.7672 0.9418
-9.9655 -11.1247 -1.7741 0.9416
-8.9550 -11.9984 -1.7784 0.9415
-6.7181 -13.4751 -1.7886 0.9412
-2.9401 -14.9253 -1.8070 0.9406
-1.6029 -15.1855 -1.8138 0.9403
1.1303 -15.3501 -1.8283 0.9399
6.5353 -14.2185 -1.8588 0.9389
9.7769 -14.0034 -2.0287 0.9335
12.2021 -12.1347 -2.0442 0.9330
13.2827 -11.0365 -2.0514 0.9328
14.2615 -9.8400 -2.0582 0.9326
15.1288 -8.5546 -2.0645 0.9324
15.8759 -7.1908 -2.0703 0.9322
16.9802 -4.2749 -2.0799 0.9319
17.5276 -1.1931 -2.0869 0.9317
17.5837 0.3758 -2.0892 0.9316
17.4929 1.9444 -2.0907 0.9316
17.2556 3.4985 -2.0914 0.9315
16.3515 6.5064 -2.0904 0.9316
14.9049 9.2901 -2.0862 0.9317
11.8449 12.8318 -2.0744 0.9321
10.6257 13.8020 -2.0691 0.9322
9.3254 14.6530 -2.0632 0.9324
7.9561 15.3785 -2.0567 0.9326
1.8884 15.6483 -1.8723 0.9385
-4.9586 11.2270 -1.4579 0.9518
-3.8311 5.6657 -0.8124 0.9728
-10.5785 10.8391 -1.7991 0.9408
-12.2560 8.7293 -1.7874 0.9412
-13.5368 6.3767 -1.7775 0.9415
-14.0186 5.1315 -1.7733 0.9416
-15.5799 4.1707 -1.9158 0.9371
-15.8622 2.7594 -1.9125 0.9372
-16.0225 1.3313 -1.9098 0.9373
-16.0602 -0.1033 -1.9078 0.9374
-15.4421 -4.3475 -1.9056 0.9374
-14.9977 -5.7097 -1.9063 0.9374
-14.4384 -7.0298 -1.9076 0.9374
-13.7679 -8.2984 -1.9095 0.9373
-11.9990 -8.7811 -1.7662 0.9419
-11.1868 -9.8333 -1.7692 0.9418
-8.2407 -12.5315 -1.7816 0.9414
-7.1104 -13.2549 -1.7867 0.9412
-4.1958 -9.8407 -1.2708 0.9578
-4.6718 -14.4007 -1.7984 0.9408
0.6704 -15.3562 -1.8258 0.9400
4.7715 -14.8127 -1.8486 0.9392
7.3888 -13.8426 -1.8639 0.9388
9.3419 -14.2703 -2.0260 0.9336
10.6193 -13.4325 -2.0340 0.9334
11.8197 -12.4784 -2.0417 0.9331
14.8517 -8.9937 -2.0624 0.9325
15.6399 -7.6549 -2.0684 0.9323
16.8333 -4.7769 -2.0785 0.9319
17.2259 -3.2624 -2.0826 0.9318
17.4762 -1.7153 -2.0859 0.9317
1.1862 13.1108 -1.8652 0.9482
0.0102 11.4131 -1.6171 0.9549
-4.2147 11.3195 -1.7114 0.9524
-6.5537 11.0556 -1.8210 0.9494
-8.3609 9.6534 -1.8095 0.9497
-9.8864 7.9680 -1.7991 0.9500
-10.5305 7.0359 -1.7945 0.9501
-11.0898 6.0540 -1.7902 0.9502
-11.5608 5.0296 -1.7863 0.9503
-13.4446 1.9270 -1.9244 0.9466
-13.4424 -1.6978 -1.9198 0.9467
-12.5160 -5.1981 -1.9203 0.9467
-12.0105 -6.2982 -1.9216 0.9467
-11.4118 -7.3518 -1.9234 0.9466
-9.2109 -8.5975 -1.7853 0.9504
-6.6321 -10.7731 -1.7925 0.9502
-4.7159 -9.4591 -1.4976 0.9582
-1.3471 -12.7623 -1.8183 0.9495
2.1017 -12.7923 -1.8368 0.9490
3.2458 -12.5975 -1.8432 0.9488
5.4708 -11.9026 -1.8561 0.9485
9.2152 -10.9666 -2.0296 0.9438
10.1884 -10.1321 -2.0359 0.9436
11.0843 -9.2098 -2.0419 0.9434
13.2281 -5.9915 -2.0576 0.9430
13.7384 -4.7975 -2.0619 0.9429
14.1372 -3.5591 -2.0656 0.9428
14.6288 0.3127 -2.0732 0.9426
14.5514 1.6175 -2.0745 0.9426
14.3532 2.9101 -2.0751 0.9426
13.6022 5.4124 -2.0743 0.9426
13.0562 6.5999 -2.0729 0.9426
10.8005 9.7836 -2.0648 0.9428
6.1298 11.8486 -1.8902 0.9475
5.0342 12.3137 -1.8849 0.9477
2.7489 12.9331 -1.8734 0.9480
-0.6715 11.4524 -1.6255 0.9547
-2.7502 11.3744 -1.6581 0.9538
-6.2274 11.2588 -1.8230 0.9493
-3.8350 5.6716 -0.9701 0.9727
-8.9021 9.1214 -1.8059 0.9498
-10.9124 6.3874 -1.7916 0.9502
-11.4133 5.3764 -1.7876 0.9503
-13.5251 1.1238 -1.9230 0.9466
-13.3154 -2.4932 -1.9194 0.9467
-12.6637 -4.8212 -1.9199 0.9467
-12.1901 -5.9351 -1.9211 0.9467
-11.6221 -7.0051 -1.9227 0.9467
-10.9635 -8.0233 -1.9250 0.9466
-9.7800 -8.5967 -1.8450 0.9488
-7.8428 -9.8783 -1.7871 0.9503
-6.9455 -10.5618 -1.7911 0.9502
-4.0242 -9.4382 -1.4538 0.9594
-3.2946 -10.1557 -1.5128 0.9578
-2.8433 -12.4589 -1.8107 0.9497
-1.7258 -12.7027 -1.8164 0.9495
-0.5876 -12.8478 -1.8223 0.9494
0.5629 -12.8922 -1.8284 0.9492
1.7167 -12.8345 -1.8347 0.9490
8.8741 -11.2250 -2.0274 0.9438
9.8712 -10.4213 -2.0338 0.9437
10.7938 -9.5276 -2.0399 0.9435
11.6336 -8.5508 -2.0457 0.9433
12.3825 -7.4985 -2.0511 0.9432
14.0165 -3.9775 -2.0644 0.9428
14.3387 -2.7156 -2.0678 0.9427
14.5432 -1.4274 -2.0705 0.9427
0.0101 11.2696 -1.8566 0.9553
-1.9811 11.0262 -1.8455 0.9556
-4.7873 10.0183 -1.8292 0.9560
-7.9025 7.6275 -1.8093 0.9565
-8.5309 6.8755 -1.8050 0.9566
-9.0899 6.0734 -1.8010 0.9566
-9.9926 4.3473 -1.7952 0.9568
-11.4391 2.6988 -1.9362 0.9535
-11.7121 -0.4254 -1.9307 0.9536
-11.6223 -1.4679 -1.9299 0.9536
-10.8210 -4.4941 -1.9303 0.9536
-10.3830 -5.4448 -1.9314 0.9536
-9.8641 -6.3547 -1.9330 0.9535
-9.2678 -7.2172 -1.9351 0.9535
-5.7257 -9.3007 -1.7993 0.9567
-4.6783 -9.3837 -1.7273 0.9584
-3.0799 -10.5583 -1.8119 0.9564
2.7914 -10.8339 -1.8431 0.9557
6.0644 -10.5876 -2.0101 0.9517
7.9062 -9.4088 -2.0246 0.9514
8.7373 -8.6890 -2.0300 0.9513
10.1921 -7.0322 -2.0399 0.9510
12.3381 -1.9569 -2.0580 0.9506
12.5126 0.2674 -2.0618 0.9505
12.2753 2.4888 -2.0634 0.9505
12.0039 3.5739 -2.0633 0.9505
9.9673 7.5254 -2.0574 0.9506
9.2435 8.3732 -2.0546 0.9507
8.4461 9.1498 -2.0514 0.9508
7.5823 9.8488 -2.0476 0.9509
5.2530 10.1536 -1.8833 0.9547
4.3158 10.5564 -1.8788 0.9548
3.3482 10.8715 -1.8740 0.9549
1.3554 11.2317 -1.8637 0.9552
-0.6584 11.2282 -1.8529 0.9554
-1.6525 11.0916 -1.8474 0.9556
-5.3638 9.6975 -1.8257 0.9561
-6.9632 8.5425 -1.8156 0.9563
-8.3283 7.1329 -1.8064 0.9565
-8.9110 6.3468 -1.8023 0.9566
-9.8571 4.6433 -1.7950 0.9568
-11.5697 2.0126 -1.9346 0.9535
-11.5127 -2.1557 -1.9296 0.9536
-9.4756 -6.9344 -1.9344 0.9535
-8.8301 -7.7618 -1.9368 0.9535
-8.0861 -8.5014 -1.9329 0.9535
-6.7805 -8.5403 -1.7964 0.9568
-5.9969 -9.1193 -1.7980 0.9567
-4.0079 -9.4000 -1.6834 0.9594
-3.2389 -9.9838 -1.7291 0.9583
-1.4872 -10.9467 -1.8199 0.9562
-0.5061 -11.0668 -1.8250 0.9561
5.6294 -10.5466 -1.9694 0.9527
6.7062 -10.2441 -2.0171 0.9516
8.4665 -8.9383 -2.0282 0.9513
9.2539 -8.1683 -2.0334 0.9512
11.1614 -5.4629 -2.0471 0.9509
11.6258 -4.4536 -2.0509 0.9508
11.9962 -3.4042 -2.0543 0.9507
12.4417 -1.2212 -2.0595 0.9506
1.7712 9.7579 -1.8641 0.9604
0.8914 9.8526 -1.8595 0.9605
-0.8693 9.8037 -1.8499 0.9607
-2.5842 9.4435 -1.8403 0.9609
-4.1994 8.7882 -1.8307 0.9611
-4.0340 5.5979 -1.2969 0.9723
-6.3302 7.3087 -1.8174 0.9614
-6.9414 6.6998 -1.8133 0.9615
-7.9889 5.3377 -1.8059 0.9616
-10.2229 1.4653 -1.9411 0.9588
-10.2272 -1.2917 -1.9376 0.9589
-10.0695 -2.1986 -1.9373 0.9589
-9.5218 -3.9545 -1.9379 0.9589
-8.1527 -6.3487 -1.9422 0.9588
-6.9121 -7.7160 -1.9471 0.9587
-6.1924 -8.2970 -1.9460 0.9587
-5.2237 -8.4852 -1.8729 0.9603
-3.5136 -8.9747 -1.8116 0.9615
-2.7048 -9.2726 -1.8155 0.9614
-1.8711 -9.4988 -1.8197 0.9614
-1.0187 -9.6511 -1.8241 0.9613
-0.1540 -9.7277 -1.8286 0.9612
3.2923 -9.2629 -1.8478 0.9608
4.4181 -9.6123 -1.9884 0.9579
5.3172 -9.2831 -2.0108 0.9574
7.6409 -7.5987 -2.0255 0.9571
8.3067 -6.9019 -2.0300 0.9570
8.9077 -6.1460 -2.0342 0.9569
9.4385 -5.3370 -2.0381 0.9568
10.2705 -3.5865 -2.0448 0.9567
10.7713 -1.7084 -2.0499 0.9566
10.9210 0.2334 -2.0532 0.9565
10.7128 2.1720 -2.0546 0.9565
10.4761 3.1190 -2.0545 0.9565
8.0713 7.3113 -2.0470 0.9566
7.3765 7.9911 -2.0441 0.9567
6.6236 8.6036 -2.0409 0.9568
5.3752 8.4460 -1.8817 0.9601
4.5913 8.8746 -1.8781 0.9601
3.7733 9.2294 -1.8741 0.9602
2.9283 9.5080 -1.8700 0.9603
2.0635 9.7085 -1.8656 0.9604
0.3038 9.8715 -1.8563 0.9606
-0.5766 9.8338 -1.8516 0.9607
-4.7063 8.5087 -1.8277 0.9612
-3.8685 5.7211 -1.2981 0.9723
-4.9706 6.0980 -1.4787 0.9685
-6.7431 6.9092 -1.8147 0.9615
-7.3168 6.2666 -1.8107 0.9615
-8.2819 4.8477 -1.8037 0.9617
-9.7249 3.5598 -1.9465 0.9587
-10.1779 1.7705 -1.9418 0.9588
-10.3141 -0.0664 -1.9387 0.9589
-9.6345 -3.6679 -1.9377 0.9589
-6.4443 -8.1168 -1.9480 0.9587
-4.5515 -8.4847 -1.8098 0.9616
-3.7775 -8.8595 -1.8103 0.9616
-2.9784 -9.1808 -1.8142 0.9615
-2.1523 -9.4313 -1.8183 0.9614
-1.3054 -9.6085 -1.8226 0.9613
-0.4441 -9.7106 -1.8271 0.9612
0.4251 -9.7361 -1.8318 0.9611
5.8693 -8.9658 -2.0142 0.9573
8.7142 -6.4050 -2.0328 0.9569
10.1538 -3.8897 -2.0438 0.9567
10.4752 -2.9726 -2.0467 0.9566
10.7116 -2.0286 -2.0491 0.9566
10.8607 -1.0660 -2.0512 0.9566
1.5729 8.6653 -1.8616 0.9646
0.0078 8.7677 -1.8533 0.9648
-0.7726 8.7134 -1.8491 0.9649
-1.5433 8.5897 -1.8448 0.9649
-2.2981 8.3981 -1.8405 0.9650
-4.4695 5.1605 -1.4431 0.9725
-6.1830 5.9678 -1.8164 0.9655
-8.4740 3.6867 -1.9534 0.9629
-8.7578 2.9122 -1.9509 0.9630
-9.1172 1.3068 -1.9469 0.9630
-8.9823 -1.9612 -1.9434 0.9631
-8.7720 -2.7549 -1.9435 0.9631
-7.7400 -4.9863 -1.9462 0.9631
-6.1624 -6.8791 -1.9522 0.9629
-4.8559 -7.8878 -1.9580 0.9628
-4.1297 -8.2833 -1.9565 0.9629
-0.1370 -8.6569 -1.8301 0.9652
1.4101 -8.5827 -1.8385 0.9651
2.2338 -8.6699 -1.8925 0.9641
3.9602 -8.6159 -2.0044 0.9620
4.7238 -8.2470 -2.0090 0.9619
6.7826 -6.7451 -2.0220 0.9616
7.3717 -6.1251 -2.0259 0.9616
8.3724 -4.7342 -2.0331 0.9614
9.1071 -3.1802 -2.0390 0.9613
9.3657 -2.3579 -2.0415 0.9613
9.5484 -1.5144 -2.0436 0.9612
9.6533 -0.6571 -2.0452 0.9612
9.6261 1.0700 -2.0473 0.9612
8.9985 3.5806 -2.0472 0.9612
7.1561 6.4823 -2.0410 0.9613
6.5412 7.0861 -2.0385 0.9613
5.8699 7.6246 -2.0340 0.9614
4.7682 7.4924 -1.8773 0.9643
4.0738 7.8743 -1.8740 0.9644
0.2699 8.7702 -1.8547 0.9648
-0.5124 8.7393 -1.8505 0.9648
-3.4013 6.1494 -1.4854 0.9717
-3.8733 5.7282 -1.4617 0.9721
-4.2138 5.1695 -1.4097 0.9731
-6.0059 6.1539 -1.8176 0.9655
-6.5185 5.5828 -1.8142 0.9655
-7.5116 4.3968 -1.8398 0.9650
-8.6705 3.1738 -1.9517 0.9630
-9.1740 0.7623 -1.9459 0.9631
-9.0371 -1.6921 -1.9435 0.9631
-8.8500 -2.4916 -1.9434 0.9631
-8.2711 -4.0271 -1.9446 0.9631
-7.4340 -5.4404 -1.9472 0.9630
-6.9258 -6.0878 -1.9491 0.9630
-5.7479 -7.2397 -1.9540 0.9629
-4.3775 -8.1605 -1.9575 0.9628
-3.5965 -8.4351 -1.9383 0.9632
-1.1622 -8.5539 -1.8247 0.9653
-0.3953 -8.6425 -1.8288 0.9652
1.1522 -8.6143 -1.8371 0.9651
1.9426 -8.5941 -1.8625 0.9646
2.8522 -8.8541 -1.9663 0.9627
3.6979 -8.7230 -2.0027 0.9620
5.2133 -7.9636 -2.0120 0.9618
6.5736 -6.9400 -2.0206 0.9617
7.1809 -6.3385 -2.0246 0.9616
7.7322 -5.6832 -2.0284 0.9615
8.2227 -4.9794 -2.0320 0.9615
8.6480 -4.2327 -2.0352 0.9614
9.2875 -2.6356 -2.0407 0.9613
9.6269 -0.9449 -2.0447 0.9612
1.4131 7.7852 -1.8596 0.9680
0.7115 7.8647 -1.8559 0.9681
-1.3878 7.7244 -1.8445 0.9683
-2.0671 7.5539 -1.8406 0.9683
-3.3998 5.7352 -1.5669 0.9730
-3.7373 5.1861 -1.5024 0.9741
-6.6072 4.4146 -1.8676 0.9679
-7.3160 3.9938 -1.9590 0.9663
-8.0885 1.9083 -1.9532 0.9664
-8.2885 -0.3011 -1.9493 0.9665
-8.2260 -1.0390 -1.9487 0.9665
-7.6584 -3.1806 -1.9490 0.9665
-7.3471 -3.8528 -1.9498 0.9665
-6.5544 -5.1041 -1.9524 0.9664
-5.5542 -6.2002 -1.9564 0.9664
-4.9851 -6.6793 -1.9588 0.9663
-3.0523 -7.7964 -1.9678 0.9662
-1.6200 -8.2241 -1.9700 0.9661
-0.8805 -8.3422 -1.9715 0.9661
0.6164 -8.3706 -1.9726 0.9661
1.3694 -8.3354 -1.9853 0.9659
2.1169 -8.2158 -1.9940 0.9657
2.8488 -8.0151 -1.9992 0.9657
3.5599 -7.7451 -2.0034 0.9656
4.8995 -7.0176 -2.0115 0.9654
6.6195 -5.5001 -2.0227 0.9653
7.8755 -3.5671 -2.0319 0.9651
8.1724 -2.8538 -2.0344 0.9651
8.5665 -1.3587 -2.0385 0.9650
8.5160 1.7266 -2.0422 0.9649
8.3278 2.4794 -2.0421 0.9649
8.0717 3.2118 -2.0417 0.9649
7.7499 3.9175 -2.0409 0.9649
6.4210 5.8165 -2.0362 0.9650
5.2711 6.8467 -2.0308 0.9651
3.6575 7.0698 -1.8707 0.9678
2.3348 7.5810 -1.8643 0.9679
1.6461 7.7445 -1.8608 0.9680
0.9468 7.8452 -1.8572 0.9681
0.2426 7.8825 -1.8534 0.9681
-0.4607 7.8565 -1.8496 0.9682
-1.1573 7.7678 -1.8458 0.9682
-2.5088 7.4074 -1.8380 0.9684
-3.5121 5.1940 -1.4736 0.9746
-5.4089 5.5422 -1.8201 0.9687
-7.1841 4.2051 -1.9564 0.9664
-8.0305 2.1498 -1.9538 0.9664
-8.1829 1.4235 -1.9521 0.9664
-8.2712 0.6873 -1.9506 0.9665
-8.2540 -0.7929 -1.9488 0.9665
-7.9801 -2.2467 -1.9484 0.9665
-5.7347 -6.0292 -1.9556 0.9664
-3.2820 -7.6974 -1.9667 0.9662
-2.5863 -7.9722 -1.9698 0.9661
-1.8647 -8.1710 -1.9697 0.9661
-1.1290 -8.3095 -1.9709 0.9661
2.6063 -8.0910 -1.9978 0.9657
4.6846 -7.1560 -2.0102 0.9655
5.3148 -6.7227 -2.0141 0.9654
5.9045 -6.2335 -2.0179 0.9653
6.4486 -5.6921 -2.0215 0.9653
7.3815 -4.4700 -2.0281 0.9652
8.0803 -3.0954 -2.0336 0.9651
8.3337 -2.3649 -2.0359 0.9650
8.5196 -1.6135 -2.0379 0.9650
8.6365 -0.8477 -2.0395 0.9650
1.2816 7.0605 -1.8580 0.9708
0.6454 7.1339 -1.8546 0.9708
-1.2596 7.0106 -1.8442 0.9710
-2.4760 6.6499 -1.8372 0.9711
-3.3576 5.6640 -1.7048 0.9732
-3.7371 5.1859 -1.6550 0.9739
-4.4058 5.0869 -1.7424 0.9726
-5.0607 4.8846 -1.8211 0.9714
-6.2990 4.2087 -1.9615 0.9692
-6.9442 3.0211 -1.9608 0.9692
-7.1784 2.3870 -1.9587 0.9692
-7.3560 1.7355 -1.9569 0.9693
-7.1950 -2.2597 -1.9526 0.9693
-6.6828 -3.5044 -1.9538 0.9693
-6.3469 -4.0889 -1.9548 0.9693
-5.5278 -5.1597 -1.9579 0.9692
-5.0505 -5.6379 -1.9598 0.9692
-4.5325 -6.0729 -1.9620 0.9692
-3.9776 -6.4612 -1.9645 0.9691
-2.7740 -7.0856 -1.9702 0.9690
-2.1342 -7.3165 -1.9733 0.9690
-0.8028 -7.6053 -1.9801 0.9689
-0.1213 -7.6605 -1.9837 0.9688
1.9224 -7.4612 -1.9949 0.9687
3.8512 -6.7237 -2.0062 0.9685
5.5232 -5.4926 -2.0168 0.9683
6.0007 -4.9859 -2.0200 0.9683
6.4312 -4.4373 -2.0230 0.9682
7.4044 -2.5856 -2.0307 0.9681
7.6130 -1.9166 -2.0326 0.9681
7.8440 -0.5339 -2.0357 0.9680
7.8643 0.1681 -2.0367 0.9680
7.7130 1.5638 -2.0377 0.9680
7.0195 3.5483 -2.0365 0.9680
6.2694 4.7335 -2.0340 0.9681
5.8172 5.2694 -2.0322 0.9681
4.7778 6.2060 -2.0279 0.9682
4.0189 6.3149 -1.9381 0.9695
2.7262 6.6682 -1.8652 0.9707
2.1170 6.8737 -1.8622 0.9707
1.4928 7.0232 -1.8591 0.9708
-0.4180 7.1287 -1.8489 0.9709
-1.6719 6.9146 -1.8419 0.9710
-2.8632 6.4828 -1.8350 0.9711
-3.5120 5.1938 -1.6234 0.9744
-4.1598 5.1033 -1.7047 0.9732
-4.9152 5.0362 -1.8221 0.9713
-7.1063 2.6013 -1.9594 0.9692
-7.4423 1.2946 -1.9559 0.9693
-7.5451 -0.0485 -1.9536 0.9693
-7.5081 -0.7212 -1.9529 0.9693
-7.4125 -1.3879 -1.9526 0.9693
-7.2590 -2.0437 -1.9526 0.9693
-7.0489 -2.6836 -1.9529 0.9693
-6.7835 -3.3028 -1.9535 0.9693
-6.4650 -3.8967 -1.9544 0.9693
-5.2148 -5.4826 -1.9591 0.9692
-4.7100 -5.9324 -1.9613 0.9692
-4.1670 -6.3367 -1.9637 0.9691
-1.6976 -7.4386 -1.9755 0.9690
-1.0290 -7.5735 -1.9789 0.9689
0.3346 -7.6636 -1.9861 0.9688
3.0168 -7.1162 -2.0013 0.9686
6.2927 -4.6252 -2.0221 0.9682
6.6898 -4.0511 -2.0249 0.9682
7.0336 -3.4426 -2.0276 0.9682
1.1713 6.4528 -1.8566 0.9731
0.0058 6.5365 -1.8504 0.9732
-0.5763 6.4998 -1.8473 0.9732
-1.1519 6.4113 -1.8441 0.9733
-1.7163 6.2720 -1.8408 0.9733
-2.2651 6.0833 -1.8377 0.9734
-2.7940 5.8470 -1.8345 0.9734
-3.2989 5.5650 -1.8314 0.9735
-5.4027 4.3543 -1.9644 0.9716
-6.0947 3.3271 -1.9657 0.9715
-6.7386 1.5898 -1.9600 0.9716
-6.7504 -1.4739 -1.9560 0.9717
-6.5923 -2.0704 -1.9561 0.9717
-6.1227 -3.2107 -1.9572 0.9717
-5.8147 -3.7460 -1.9581 0.9717
-4.1511 -5.5619 -1.9647 0.9716
-3.6426 -5.9169 -1.9670 0.9715
-2.5398 -6.4872 -1.9722 0.9715
1.7582 -6.8238 -1.9949 0.9711
3.5205 -6.1464 -2.0052 0.9710
4.0616 -5.8174 -2.0085 0.9709
4.5717 -5.4406 -2.0118 0.9709
5.0466 -5.0187 -2.0149 0.9708
5.4822 -4.5551 -2.0178 0.9708
6.5173 -2.9519 -2.0254 0.9707
7.0851 -1.1238 -2.0308 0.9706
7.1395 0.7936 -2.0336 0.9706
7.0412 1.4276 -2.0339 0.9706
6.4085 3.2394 -2.0328 0.9706
6.0909 3.7964 -2.0318 0.9706
5.7243 4.3219 -2.0305 0.9706
5.3117 4.8116 -2.0289 0.9706
4.3635 5.6678 -2.0249 0.9707
3.8252 6.0106 -2.0169 0.9708
2.4907 6.0922 -1.8632 0.9730
0.2012 6.5371 -1.8515 0.9732
-0.3822 6.5179 -1.8483 0.9732
-0.9605 6.4466 -1.8451 0.9733
-2.0836 6.1518 -1.8387 0.9734
-2.6196 5.9312 -1.8356 0.9734
-3.4621 5.1200 -1.7497 0.9746
-4.0765 5.0011 -1.8265 0.9735
-4.4996 4.6104 -1.8237 0.9736
-5.1826 4.4387 -1.9317 0.9720
-5.9950 3.5091 -1.9665 0.9715
-6.5092 2.3827 -1.9623 0.9716
-6.6899 1.7909 -1.9606 0.9716
-6.8791 -0.6608 -1.9564 0.9717
-6.7916 -1.2717 -1.9561 0.9717
-6.6510 -1.8725 -1.9560 0.9717
-5.2011 -4.5718 -1.9604 0.9716
-4.7766 -5.0220 -1.9621 0.9716
-4.3139 -5.4335 -1.9640 0.9716
-3.2873 -6.1280 -1.9686 0.9715
-0.9417 -6.9313 -1.9802 0.9713
0.3061 -7.0116 -1.9868 0.9712
0.9320 -6.9683 -1.9902 0.9712
2.1631 -6.7151 -1.9972 0.9711
4.4048 -5.5718 -2.0107 0.9709
5.3412 -4.7146 -2.0168 0.9708
5.7485 -4.2252 -2.0197 0.9708
7.1424 -0.7010 -2.0317 0.9706
0.5427 5.9988 -1.8526 0.9751
0.0054 6.0139 -1.8498 0.9751
-0.5304 5.9810 -1.8468 0.9752
-1.5798 5.7730 -1.8409 0.9753
-2.0852 5.6001 -1.8380 0.9753
-3.8932 4.4950 -1.8290 0.9754
-4.6029 4.4427 -1.9676 0.9736
-4.9918 4.0231 -1.9719 0.9735
-5.6159 3.0658 -1.9680 0.9736
-6.0598 2.0151 -1.9642 0.9736
-6.2106 1.4653 -1.9627 0.9736
-6.3671 -0.2313 -1.9597 0.9737
-6.2225 -1.3587 -1.9590 0.9737
-6.0768 -1.9085 -1.9591 0.9737
-5.0331 -3.9194 -1.9621 0.9737
-4.6667 -4.3560 -1.9635 0.9736
-4.2631 -4.7589 -1.9652 0.9736
-3.3563 -5.4518 -1.9691 0.9736
-2.3396 -5.9760 -1.9739 0.9735
-1.7996 -6.1692 -1.9766 0.9735
-1.2438 -6.3141 -1.9794 0.9734
-0.6765 -6.4093 -1.9823 0.9734
-0.1022 -6.4539 -1.9853 0.9733
0.4748 -6.4474 -1.9885 0.9733
2.1755 -6.1208 -1.9980 0.9732
5.0410 -4.1886 -2.0159 0.9729
6.3891 -1.6085 -2.0265 0.9728
6.5116 -1.0328 -2.0279 0.9728
6.5814 -0.4480 -2.0290 0.9728
6.5608 0.7293 -2.0304 0.9728
6.4704 1.3119 -2.0307 0.9727
5.8892 2.9770 -2.0297 0.9728
5.5977 3.4889 -2.0288 0.9728
4.8821 4.4224 -2.0261 0.9728
4.4643 4.8363 -2.0244 0.9728
2.8881 5.5824 -1.9332 0.9740
0.7220 5.9829 -1.8536 0.9751
0.1851 6.0142 -1.8507 0.9751
-0.8839 5.9326 -1.8449 0.9752
-1.9180 5.6629 -1.8390 0.9753
-3.7545 4.6060 -1.8277 0.9754
-4.8656 4.1672 -1.9704 0.9735
-5.2194 3.7175 -1.9709 0.9735
-5.9987 2.1958 -1.9648 0.9736
-6.2839 1.0932 -1.9618 0.9737
-6.3410 -0.6091 -1.9593 0.9737
-6.2605 -1.1722 -1.9590 0.9737
-6.1309 -1.7261 -1.9590 0.9737
-5.7288 -2.7893 -1.9598 0.9737
-5.4594 -3.2906 -1.9606 0.9737
-4.7935 -4.2136 -1.9630 0.9736
-4.4020 -4.6281 -1.9646 0.9736
-3.5163 -5.3472 -1.9684 0.9736
-1.9821 -6.1099 -1.9757 0.9735
-0.8672 -6.3830 -1.9813 0.9734
-0.2947 -6.4447 -1.9843 0.9734
0.8580 -6.4146 -1.9906 0.9733
2.5381 -5.9871 -2.0001 0.9732
3.0669 -5.7458 -2.0033 0.9731
4.0515 -5.1248 -2.0094 0.9730
4.9115 -4.3353 -2.0150 0.9730
5.2855 -3.8849 -2.0176 0.9729
6.1456 -2.3542 -2.0242 0.9728
6.3365 -1.7981 -2.0259 0.9728
0.0050 5.5630 -1.8492 0.9768
-1.4618 5.3421 -1.8410 0.9769
-1.9297 5.1827 -1.8383 0.9770
-2.8119 4.7435 -1.8330 0.9770
-3.2457 4.5039 -1.8454 0.9769
-3.8681 4.4661 -1.9639 0.9754
-4.2740 4.1252 -1.9745 0.9753
-4.6241 3.7268 -1.9741 0.9753
-5.4291 2.3620 -1.9681 0.9754
-5.6135 1.8667 -1.9664 0.9754
-5.8482 0.8382 -1.9638 0.9754
-5.8969 0.3130 -1.9629 0.9754
-4.9654 -3.1989 -1.9634 0.9754
-4.6628 -3.6311 -1.9645 0.9754
-4.3231 -4.0353 -1.9658 0.9754
-3.9490 -4.4083 -1.9673 0.9754
-3.5431 -4.7472 -1.9690 0.9753
-2.6485 -5.3123 -1.9731 0.9753
-1.6663 -5.7122 -1.9779 0.9752
-1.1515 -5.8457 -1.9805 0.9752
-0.0946 -5.9739 -1.9860 0.9751
0.4394 -5.9671 -1.9889 0.9751
0.9714 -5.9128 -1.9918 0.9751
2.0127 -5.6629 -1.9977 0.9750
2.5136 -5.4687 -2.0007 0.9749
3.8884 -4.6274 -2.0091 0.9748
4.6607 -3.8726 -2.0143 0.9748
4.9934 -3.4453 -2.0166 0.9748
5.5376 -2.5082 -2.0207 0.9747
6.0177 -0.9544 -2.0253 0.9746
6.0626 0.6739 -2.0276 0.9746
5.9790 1.2122 -2.0279 0.9746
5.8469 1.7408 -2.0279 0.9746
5.6675 2.2551 -2.0276 0.9746
5.1729 3.2242 -2.0261 0.9746
4.8620 3.6708 -2.0250 0.9746
3.2600 5.1225 -2.0183 0.9747
2.7793 5.3722 -2.0106 0.9748
1.1604 5.4593 -1.8553 0.9767
0.6678 5.5335 -1.8527 0.9768
0.1712 5.5631 -1.8501 0.9768
-0.3253 5.5481 -1.8474 0.9768
-1.3023 5.3860 -1.8419 0.9769
-1.7749 5.2406 -1.8392 0.9769
-2.2321 5.0539 -1.8365 0.9770
-4.5125 3.8648 -1.9749 0.9753
-5.1162 2.9947 -1.9706 0.9753
-5.3578 2.5239 -1.9687 0.9753
-5.5568 2.0340 -1.9670 0.9754
-5.8217 1.0127 -1.9642 0.9754
-5.9036 -0.0380 -1.9624 0.9754
-5.8751 -0.5644 -1.9619 0.9754
-5.8005 -1.0861 -1.9616 0.9754
-5.6804 -1.5992 -1.9616 0.9754
-5.5158 -2.0999 -1.9619 0.9754
-5.3078 -2.5843 -1.9623 0.9754
-4.4407 -3.9034 -1.9653 0.9754
-4.0778 -4.2872 -1.9668 0.9754
-3.6821 -4.6379 -1.9684 0.9753
-2.3299 -5.4645 -1.9746 0.9753
-1.3250 -5.8061 -1.9796 0.9752
-0.8028 -5.9091 -1.9823 0.9752
0.2608 -5.9747 -1.9879 0.9751
0.7940 -5.9363 -1.9908 0.9751
1.3224 -5.8504 -1.9938 0.9750
1.8418 -5.7176 -1.9967 0.9750
2.3480 -5.5387 -1.9997 0.9750
3.7468 -4.7394 -2.0082 0.9749
5.1931 -3.1448 -2.0181 0.9747
5.4585 -2.6716 -2.0201 0.9747
5.8563 -1.6619 -2.0235 0.9747
5.9853 -1.1335 -2.0249 0.9746
0.4664 5.1554 -1.8511 0.9783
0.0046 5.1696 -1.8487 0.9783
-0.4560 5.1424 -1.8462 0.9783
-0.9117 5.0742 -1.8436 0.9783
-2.6751 4.5127 -1.8760 0.9780
-4.3013 3.4666 -1.9755 0.9768
-5.2231 1.7368 -1.9684 0.9769
-5.3536 1.2631 -1.9671 0.9769
-5.4419 0.7800 -1.9660 0.9769
-5.4874 0.2913 -1.9651 0.9769
-5.4489 -0.6882 -1.9640 0.9769
-5.3653 -1.1715 -1.9639 0.9769
-5.2395 -1.6455 -1.9639 0.9769
-2.8918 -4.6974 -1.9726 0.9768
-2.4637 -4.9416 -1.9746 0.9768
-2.0152 -5.1473 -1.9767 0.9768
-1.5497 -5.3127 -1.9790 0.9768
-1.0709 -5.4364 -1.9814 0.9767
-0.5823 -5.5172 -1.9840 0.9767
-0.0879 -5.5545 -1.9866 0.9767
0.9031 -5.4966 -1.9920 0.9766
1.8707 -5.2631 -1.9975 0.9766
3.2105 -4.5984 -2.0055 0.9765
3.6125 -4.2990 -2.0081 0.9764
3.9865 -3.9644 -2.0105 0.9764
4.3292 -3.5971 -2.0128 0.9764
5.1425 -2.3292 -2.0188 0.9763
5.4828 -1.3803 -2.0219 0.9763
5.5874 -0.8862 -2.0231 0.9763
5.6607 0.1210 -2.0248 0.9762
5.5510 1.1255 -2.0255 0.9762
5.4284 1.6162 -2.0254 0.9762
4.8029 2.9936 -2.0239 0.9762
3.8317 4.1509 -2.0201 0.9763
3.0277 4.7574 -2.0166 0.9763
2.1217 5.1895 -2.0049 0.9765
1.5441 5.0136 -1.8760 0.9780
1.0781 5.0720 -1.8543 0.9782
0.6205 5.1414 -1.8519 0.9782
0.1591 5.1694 -1.8495 0.9783
-0.3023 5.1560 -1.8470 0.9783
-0.7601 5.1015 -1.8445 0.9783
-2.0753 4.6987 -1.8369 0.9784
-2.5014 4.5223 -1.8481 0.9783
-3.0373 4.4918 -1.9390 0.9772
-3.4921 4.2842 -1.9765 0.9768
-3.8643 3.9595 -1.9785 0.9768
-4.4965 3.2026 -1.9742 0.9768
-4.9847 2.3481 -1.9704 0.9769
-5.1701 1.8925 -1.9688 0.9769
-5.3979 -1.0107 -1.9639 0.9769
-5.2862 -1.4883 -1.9639 0.9769
-5.1329 -1.9542 -1.9641 0.9769
-4.7067 -2.8369 -1.9653 0.9769
-4.1320 -3.6320 -1.9673 0.9769
-3.7941 -3.9889 -1.9687 0.9769
-2.1672 -5.0829 -1.9760 0.9768
0.2425 -5.5549 -1.9884 0.9767
2.1821 -5.1473 -1.9993 0.9765
2.6362 -4.9388 -2.0020 0.9765
3.4810 -4.4032 -2.0072 0.9764
3.8647 -4.0801 -2.0097 0.9764
4.2183 -3.7234 -2.0121 0.9764
4.5386 -3.3359 -2.0143 0.9764
5.5575 -1.0525 -2.0227 0.9763
5.6321 -0.5528 -2.0238 0.9762
0.4351 4.8093 -1.8505 0.9795
0.0043 4.8229 -1.8482 0.9796
-0.4254 4.7980 -1.8459 0.9796
-0.8507 4.7348 -1.8435 0.9796
-1.6909 4.5412 -1.8570 0.9795
-2.1588 4.5178 -1.9188 0.9788
-3.0218 4.1932 -1.9807 0.9781
-3.3844 3.9076 -1.9810 0.9781
-4.0163 3.2370 -1.9768 0.9781
-4.5192 2.4670 -1.9731 0.9782
-4.7174 2.0524 -1.9715 0.9782
-5.0004 1.1797 -1.9688 0.9782
-5.0830 0.7286 -1.9678 0.9782
-2.2984 -0.0835 -0.8814 0.9902
-2.3016 -0.2907 -0.8890 0.9901
-5.0118 -1.0943 -1.9659 0.9783
-4.7384 -1.9679 -1.9662 0.9783
-4.5451 -2.3834 -1.9667 0.9783
-4.3159 -2.7804 -1.9674 0.9782
-3.7570 -3.5068 -1.9695 0.9782
-3.4315 -3.8306 -1.9708 0.9782
-3.0784 -4.1247 -1.9723 0.9782
-1.8816 -4.8061 -1.9779 0.9781
-0.9998 -5.0752 -1.9823 0.9781
0.3813 -5.1778 -1.9896 0.9780
1.2987 -5.0405 -1.9947 0.9779
1.7455 -4.9108 -1.9973 0.9779
2.1794 -4.7416 -1.9998 0.9779
2.9948 -4.2894 -2.0048 0.9778
4.3249 -2.9840 -2.0136 0.9777
4.5781 -2.5887 -2.0155 0.9777
4.7948 -2.1718 -2.0172 0.9777
5.2470 0.5832 -2.0231 0.9776
5.0603 1.5066 -2.0233 0.9776
4.9051 1.9518 -2.0231 0.9776
4.7103 2.3810 -2.0226 0.9776
4.4775 2.7907 -2.0218 0.9777
3.2105 4.1702 -2.0168 0.9777
2.8232 4.4361 -2.0151 0.9777
2.4139 4.6659 -2.0132 0.9777
1.9830 4.8505 -2.0082 0.9778
0.5788 4.7961 -1.8513 0.9795
-1.1296 4.6719 -1.8419 0.9796
-2.8942 4.2802 -1.9801 0.9781
-3.2674 4.0085 -1.9818 0.9781
-3.9192 3.3566 -1.9775 0.9781
-4.1988 2.9906 -1.9755 0.9782
-4.4448 2.6017 -1.9737 0.9782
-4.8287 1.7675 -1.9705 0.9782
-4.9639 1.3288 -1.9692 0.9782
-5.0598 0.8802 -1.9681 0.9782
-4.9379 -1.3902 -1.9659 0.9783
-4.7947 -1.8254 -1.9661 0.9783
-4.3964 -2.6499 -1.9672 0.9783
-3.8593 -3.3924 -1.9691 0.9782
-3.1994 -4.0298 -1.9718 0.9782
-2.4366 -4.5421 -1.9753 0.9782
-2.0236 -4.7461 -1.9772 0.9781
-1.1504 -5.0411 -1.9815 0.9781
0.6889 -5.1503 -1.9913 0.9780
3.6046 -3.8054 -2.0087 0.9778
3.9340 -3.4725 -2.0109 0.9778
4.2324 -3.1109 -2.0129 0.9778
4.4974 -2.7235 -2.0149 0.9777
4.7265 -2.3134 -2.0166 0.9777
0.8698 4.7920 -1.9933 0.9792
0.0042 4.6398 -1.8990 0.9801
-0.8197 4.5621 -1.8971 0.9802
-1.2423 4.5397 -1.9263 0.9799
-1.6829 4.5196 -1.9738 0.9794
-2.4722 4.1704 -1.9842 0.9793
-3.1703 3.6604 -1.9819 0.9793
-3.4806 3.3594 -1.9798 0.9793
-3.7627 3.0326 -1.9779 0.9793
-4.2343 2.3115 -1.9744 0.9794
-4.4203 1.9231 -1.9729 0.9794
-2.0970 0.4948 -0.8818 0.9907
-2.0207 0.2896 -0.8355 0.9912
-1.9995 -0.0726 -0.8189 0.9914
-2.0869 -0.4557 -0.8743 0.9908
-4.5869 -1.4405 -1.9677 0.9794
-4.2594 -2.2336 -1.9684 0.9794
-4.0446 -2.6056 -1.9691 0.9794
-3.5206 -3.2862 -1.9711 0.9794
-2.1553 -4.3231 -1.9771 0.9793
-1.7627 -4.5025 -1.9789 0.9793
-0.5092 -4.8239 -1.9853 0.9793
-0.0769 -4.8556 -1.9875 0.9792
0.7892 -4.8034 -1.9923 0.9792
1.2160 -4.7195 -1.9947 0.9792
3.1537 -3.7530 -2.0063 0.9790
4.0470 -2.7923 -2.0124 0.9790
4.6530 -1.6248 -2.0171 0.9789
4.9247 -0.3352 -2.0202 0.9789
4.9365 0.1055 -2.0209 0.9789
4.9084 0.5456 -2.0213 0.9789
4.8407 0.9814 -2.0215 0.9789
4.1887 2.6108 -2.0201 0.9789
2.2588 4.3662 -2.0120 0.9790
-2.3461 4.2416 -1.9838 0.9793
-3.0606 3.7548 -1.9826 0.9793
-3.3798 3.4631 -1.9805 0.9793
-3.9339 2.8019 -1.9767 0.9793
-2.0140 0.1674 -0.8271 0.9913
-1.9918 -0.0128 -0.8152 0.9914
-2.0166 -0.1937 -0.8292 0.9913
-2.0647 -0.3866 -0.8597 0.9910
-4.3239 -2.1052 -1.9683 0.9794
-3.6165 -3.1789 -1.9707 0.9794
-3.3205 -3.4910 -1.9719 0.9794
-2.9979 -3.7759 -1.9732 0.9794
-1.8958 -4.4463 -1.9783 0.9793
-1.4930 -4.6023 -1.9803 0.9793
-1.0776 -4.7221 -1.9823 0.9793
-0.6528 -4.8047 -1.9845 0.9793
0.2120 -4.8554 -1.9891 0.9792
0.6451 -4.8229 -1.9915 0.9792
1.0741 -4.7518 -1.9939 0.9792
1.9060 -4.4961 -1.9987 0.9791
2.6810 -4.0953 -2.0033 0.9791
3.6816 -3.2497 -2.0098 0.9790
4.4225 -2.1646 -2.0152 0.9789
4.6013 -1.7627 -2.0167 0.9789
4.7433 -1.3460 -2.0180 0.9789
4.8471 -0.9180 -2.0191 0.9789
4.9119 -0.4821 -2.0200 0.9789
0.8200 4.5177 -2.0011 0.9802
0.0041 4.5737 -1.9933 0.9802
-0.4034 4.5497 -1.9906 0.9803
-0.8070 4.4918 -1.9889 0.9803
-2.3246 3.9215 -1.9868 0.9803
-3.7722 2.5204 -1.9772 0.9804
-1.4737 0.2112 -0.6488 0.9935
-1.4537 0.0772 -0.6344 0.9937
-1.4939 -0.4692 -0.6824 0.9932
-4.1736 -1.7333 -1.9695 0.9805
-4.0032 -2.0992 -1.9700 0.9805
-3.5690 -2.7793 -1.9714 0.9805
-3.3085 -3.0882 -1.9724 0.9804
-3.0216 -3.3731 -1.9736 0.9804
-2.3775 -3.8619 -1.9765 0.9804
-2.0251 -4.0620 -1.9781 0.9804
-1.6561 -4.2302 -1.9799 0.9804
-0.8797 -4.4659 -1.9837 0.9803
-0.0722 -4.5608 -1.9879 0.9803
0.7411 -4.5111 -1.9924 0.9803
1.1419 -4.4320 -1.9946 0.9802
1.5345 -4.3173 -1.9969 0.9802
1.9157 -4.1679 -1.9991 0.9802
2.2824 -3.9848 -2.0013 0.9802
2.6317 -3.7693 -2.0035 0.9801
2.9605 -3.5232 -2.0056 0.9801
3.5464 -2.9466 -2.0095 0.9801
3.7985 -2.6208 -2.0112 0.9801
4.6321 0.0990 -2.0192 0.9800
4.6057 0.5120 -2.0196 0.9800
4.4418 1.3224 -2.0198 0.9800
4.1347 2.0901 -2.0191 0.9800
3.9305 2.4498 -2.0185 0.9800
3.6948 2.7896 -2.0176 0.9800
3.4294 3.1065 -2.0166 0.9800
3.1367 3.3980 -2.0154 0.9800
2.4793 3.8958 -2.0125 0.9801
-0.2675 4.5616 -1.9915 0.9803
-0.6727 4.5150 -1.9894 0.9803
-1.4631 4.3199 -1.9877 0.9803
-2.2073 3.9906 -1.9875 0.9803
-3.4497 2.9545 -1.9795 0.9804
-3.6962 2.6327 -1.9777 0.9804
-3.9132 2.2905 -1.9761 0.9804
-4.0989 1.9309 -1.9747 0.9804
-1.4881 0.5447 -0.6906 0.9931
-1.4714 0.2560 -0.6509 0.9935
-4.0637 -1.9786 -1.9698 0.9805
-3.6499 -2.6711 -1.9711 0.9805
-2.8171 -3.5482 -1.9745 0.9804
-2.4911 -3.7882 -1.9759 0.9804
-2.1450 -3.9985 -1.9775 0.9804
-1.7812 -4.1776 -1.9792 0.9804
-1.4027 -4.3239 -1.9811 0.9804
1.0087 -4.4624 -1.9939 0.9802
1.7897 -4.2217 -1.9984 0.9802
2.5170 -3.8449 -2.0028 0.9801
2.8530 -3.6088 -2.0049 0.9801
3.1667 -3.3432 -2.0069 0.9801
3.4557 -3.0503 -2.0088 0.9801
3.7174 -2.7323 -2.0107 0.9801
3.9497 -2.3918 -2.0123 0.9801
4.4512 -1.2631 -2.0165 0.9800
4.5485 -0.8614 -2.0175 0.9800
4.6091 -0.4524 -2.0184 0.9800
0.7731 4.2594 -2.0038 0.9811
0.3894 4.3044 -2.0006 0.9811
0.0039 4.3149 -1.9973 0.9812
-2.1892 3.6929 -1.9872 0.9813
-3.0800 2.9728 -1.9815 0.9813
-3.3301 2.6839 -1.9798 0.9813
-1.2685 0.0673 -0.5880 0.9944
-1.2659 -0.0460 -0.5864 0.9944
-1.2752 -0.1611 -0.5950 0.9944
-1.2688 -0.3985 -0.6156 0.9942
-3.7718 -1.9779 -1.9714 0.9814
-3.5814 -2.3072 -1.9720 0.9814
-3.3626 -2.6185 -1.9728 0.9814
-3.1170 -2.9095 -1.9737 0.9814
-2.2396 -3.6380 -1.9775 0.9813
-1.9076 -3.8262 -1.9790 0.9813
-1.5600 -3.9845 -1.9807 0.9813
-0.0680 -4.2949 -1.9883 0.9812
0.6978 -4.2475 -1.9925 0.9812
1.0751 -4.1728 -1.9946 0.9812
1.4447 -4.0646 -1.9967 0.9812
1.8034 -3.9236 -1.9988 0.9811
2.1485 -3.7510 -2.0009 0.9811
2.7865 -3.3160 -2.0049 0.9811
3.0741 -3.0571 -2.0068 0.9811
3.3375 -2.7731 -2.0086 0.9811
3.5746 -2.4663 -2.0102 0.9810
3.7832 -2.1392 -2.0118 0.9810
4.1086 -1.4347 -2.0144 0.9810
4.2225 -1.0630 -2.0155 0.9810
4.3478 -0.2959 -2.0172 0.9810
4.3581 0.0931 -2.0177 0.9810
4.3332 0.4817 -2.0181 0.9810
4.2733 0.8664 -2.0183 0.9810
4.1789 1.2442 -2.0183 0.9810
4.0508 1.6118 -2.0180 0.9810
3.2268 2.9229 -2.0153 0.9810
2.6528 3.4457 -2.0129 0.9810
1.2758 4.1425 -2.0064 0.9811
-0.6347 4.2600 -1.9937 0.9812
-1.3805 4.0760 -1.9920 0.9812
-1.7368 3.9325 -1.9899 0.9812
-2.0786 3.7580 -1.9879 0.9812
-3.4818 2.4799 -1.9787 0.9813
-1.2612 0.4617 -0.6217 0.9941
-1.2706 0.3401 -0.6089 0.9942
-1.2728 0.1058 -0.5912 0.9944
-1.2711 -0.2380 -0.5986 0.9943
-1.2706 -0.3577 -0.6110 0.9942
-1.2580 -0.4789 -0.6231 0.9941
-3.6483 -2.1990 -1.9718 0.9814
-3.4388 -2.5166 -1.9725 0.9814
-2.9397 -3.0907 -1.9744 0.9814
-2.6539 -3.3427 -1.9756 0.9814
-2.3467 -3.5686 -1.9770 0.9814
-2.0205 -3.7666 -1.9785 0.9813
-1.6778 -3.9350 -1.9801 0.9813
-0.9535 -4.1781 -1.9837 0.9813
-0.5775 -4.2506 -1.9856 0.9813
-0.1962 -4.2895 -1.9876 0.9813
0.5705 -4.2650 -1.9918 0.9812
0.9497 -4.2015 -1.9939 0.9812
1.3221 -4.1044 -1.9960 0.9812
1.6848 -3.9743 -1.9981 0.9812
2.3692 -3.6191 -2.0023 0.9811
2.9805 -3.1466 -2.0062 0.9811
3.7167 -2.2507 -2.0113 0.9810
4.0631 -1.5565 -2.0140 0.9810
4.1881 -1.1885 -2.0152 0.9810
4.3365 -0.4256 -2.0170 0.9810
0.7294 4.0183 -2.0033 0.9820
0.0036 4.0762 -1.9995 0.9820
-0.3597 4.0562 -1.9975 0.9820
-0.7194 4.0040 -1.9955 0.9820
-1.0727 3.9199 -1.9935 0.9821
-1.4167 3.8047 -1.9915 0.9821
-2.3667 3.2842 -1.9857 0.9821
-2.6479 3.0572 -1.9839 0.9821
-3.1437 2.5337 -1.9806 0.9822
-3.3547 2.2414 -1.9791 0.9822
-1.1098 0.6058 -0.6202 0.9944
-1.1438 0.1639 -0.5668 0.9949
-1.1348 -0.2478 -0.5698 0.9948
-1.1095 -0.4608 -0.5893 0.9947
-1.0962 -0.5749 -0.6072 0.9945
-3.3817 -2.1786 -1.9732 0.9822
-3.1750 -2.4725 -1.9740 0.9822
-2.9431 -2.7471 -1.9748 0.9822
-2.6877 -3.0003 -1.9759 0.9822
-2.4108 -3.2301 -1.9771 0.9822
-1.8009 -3.6122 -1.9799 0.9822
-1.4726 -3.7614 -1.9814 0.9822
-0.4251 -4.0278 -1.9867 0.9821
-0.0642 -4.0536 -1.9886 0.9821
0.2980 -4.0471 -1.9906 0.9821
1.0146 -3.9376 -1.9946 0.9820
1.3632 -3.8353 -1.9966 0.9820
3.1482 -2.6158 -2.0077 0.9819
3.3716 -2.3263 -2.0093 0.9819
3.7365 -1.6924 -2.0121 0.9819
3.8749 -1.3531 -2.0133 0.9819
4.0575 -0.6435 -2.0152 0.9819
4.1001 -0.2791 -2.0159 0.9819
4.0298 0.8170 -2.0169 0.9818
3.8200 1.5200 -2.0167 0.9818
3.6684 1.8544 -2.0163 0.9819
3.4874 2.1737 -2.0157 0.9819
2.5020 3.2499 -2.0118 0.9819
1.8819 3.6376 -2.0090 0.9819
0.8494 3.9960 -2.0039 0.9820
-1.6392 3.7114 -1.9902 0.9821
-1.9618 3.5469 -1.9882 0.9821
-2.2683 3.3545 -1.9863 0.9821
-2.5561 3.1359 -1.9845 0.9821
-3.0675 2.6272 -1.9811 0.9822
-1.0920 0.5144 -0.5921 0.9946
-1.1212 0.4104 -0.5857 0.9947
-1.1328 0.3032 -0.5752 0.9948
-1.1439 0.0950 -0.5630 0.9949
-1.1349 -0.0073 -0.5567 0.9950
-1.1442 -0.1099 -0.5639 0.9949
-1.1398 -0.2134 -0.5688 0.9948
-1.0864 -0.5289 -0.5927 0.9946
-3.2470 -2.3762 -1.9737 0.9822
-2.5057 -3.1560 -1.9767 0.9822
-1.9075 -3.5559 -1.9794 0.9822
-1.2472 -3.8445 -1.9825 0.9822
-0.9000 -3.9438 -1.9843 0.9821
-0.5451 -4.0121 -1.9861 0.9821
-0.1852 -4.0486 -1.9880 0.9821
0.1769 -4.0529 -1.9899 0.9821
1.2476 -3.8730 -1.9959 0.9820
1.9198 -3.5967 -1.9999 0.9820
3.2998 -2.4254 -2.0088 0.9819
3.5056 -2.1229 -2.0103 0.9819
3.6835 -1.8029 -2.0117 0.9819
3.8320 -1.4680 -2.0129 0.9819
4.0359 -0.7644 -2.0149 0.9819
0.3475 3.8415 -2.0010 0.9828
-1.0142 3.7064 -1.9935 0.9828
-2.5044 2.8915 -1.9845 0.9829
-2.7501 2.6544 -1.9828 0.9829
-2.9736 2.3966 -1.9813 0.9829
-3.1733 2.1202 -1.9799 0.9829
-0.9907 0.4310 -0.5605 0.9951
-1.0230 0.2413 -0.5453 0.9953
-1.0359 0.1485 -0.5429 0.9953
-1.0359 0.0550 -0.5382 0.9953
-1.0370 -0.1310 -0.5422 0.9953
-3.1993 -2.0611 -1.9744 0.9830
-3.0037 -2.3391 -1.9750 0.9830
-2.7843 -2.5989 -1.9759 0.9830
-2.5426 -2.8383 -1.9769 0.9830
-2.2805 -3.0556 -1.9780 0.9830
-2.0001 -3.2489 -1.9793 0.9830
-0.7397 -3.7549 -1.9854 0.9829
-0.4021 -3.8092 -1.9871 0.9829
0.2818 -3.8271 -1.9908 0.9829
0.6227 -3.7903 -1.9927 0.9828
1.2888 -3.6261 -1.9965 0.9828
1.6087 -3.5000 -1.9983 0.9828
2.4848 -2.9570 -2.0037 0.9827
2.7410 -2.7258 -2.0054 0.9827
3.3724 -1.9069 -2.0099 0.9827
3.5313 -1.5995 -2.0111 0.9827
3.8343 -0.6081 -2.0140 0.9827
3.8745 -0.2637 -2.0147 0.9827
3.8836 0.0830 -2.0152 0.9826
3.8079 0.7720 -2.0157 0.9826
3.7238 1.1087 -2.0156 0.9826
3.4666 1.7523 -2.0151 0.9826
3.2955 2.0541 -2.0146 0.9827
2.8758 2.6050 -2.0130 0.9827
2.6306 2.8498 -2.0120 0.9827
2.3646 3.0714 -2.0109 0.9827
2.0798 3.2680 -2.0096 0.9827
1.7787 3.4381 -2.0082 0.9827
1.4638 3.5804 -2.0067 0.9827
1.1376 3.6937 -2.0051 0.9827
-0.2254 3.8446 -1.9979 0.9828
-0.5670 3.8056 -1.9960 0.9828
-0.9034 3.7363 -1.9942 0.9828
-1.8553 3.3542 -1.9885 0.9829
-2.4176 2.9659 -1.9850 0.9829
-2.6703 2.7361 -1.9834 0.9829
-2.9014 2.4850 -1.9818 0.9829
-3.1093 2.2146 -1.9803 0.9829
-0.9573 0.5604 -0.5755 0.9950
-1.0074 0.3688 -0.5566 0.9952
-1.0327 0.1797 -0.5438 0.9953
-1.0375 0.0862 -0.5401 0.9953
-1.0377 -0.0997 -0.5408 0.9953
-1.0044 -0.3824 -0.5576 0.9952
-0.9745 -0.4745 -0.5623 0.9951
-0.9630 -0.5804 -0.5833 0.9949
-3.0719 -2.2481 -1.9748 0.9830
-2.8602 -2.5142 -1.9756 0.9830
-2.0958 -3.1870 -1.9788 0.9830
-1.4982 -3.5137 -1.9816 0.9829
-0.8512 -3.7301 -1.9848 0.9829
-0.1751 -3.8287 -1.9883 0.9829
0.1673 -3.8326 -1.9902 0.9829
0.8474 -3.7489 -1.9939 0.9828
1.1796 -3.6619 -1.9958 0.9828
1.5030 -3.5454 -1.9977 0.9828
1.8150 -3.4003 -1.9996 0.9828
2.6576 -2.8057 -2.0049 0.9827
3.1188 -2.2923 -2.0080 0.9827
3.3132 -2.0064 -2.0094 0.9827
3.6215 -1.3873 -2.0119 0.9827
0.3291 3.6379 -2.0006 0.9835
-0.3221 3.6321 -1.9971 0.9835
-1.2689 3.4080 -1.9918 0.9836
-1.8511 3.1227 -1.9883 0.9836
-2.3727 2.7395 -1.9850 0.9836
-2.8175 2.2708 -1.9820 0.9836
-0.8732 0.5834 -0.5752 0.9952
-0.9321 0.2199 -0.5246 0.9956
-0.9462 0.0502 -0.5190 0.9957
-0.9449 -0.0343 -0.5179 0.9957
-0.9208 -0.2892 -0.5286 0.9956
-0.9053 -0.3760 -0.5369 0.9955
-2.4094 -2.6897 -1.9778 0.9837
-1.6141 -3.2375 -1.9814 0.9836
-0.7008 -3.5574 -1.9859 0.9836
-0.3809 -3.6088 -1.9875 0.9836
-0.0575 -3.6315 -1.9892 0.9836
0.2670 -3.6253 -1.9910 0.9836
0.5898 -3.5902 -1.9927 0.9835
0.9086 -3.5265 -1.9945 0.9835
1.2207 -3.4344 -1.9963 0.9835
1.5236 -3.3148 -1.9981 0.9835
1.8148 -3.1684 -1.9999 0.9835
2.8175 -2.3410 -2.0063 0.9834
3.1930 -1.8055 -2.0090 0.9834
3.3433 -1.5143 -2.0102 0.9834
1.9090 -0.6666 -1.1075 0.9908
1.8874 -0.2993 -1.0466 0.9913
1.8892 0.2100 -1.0411 0.9914
1.8855 0.3823 -1.0537 0.9913
1.8800 0.5597 -1.0743 0.9911
3.2817 1.6589 -2.0140 0.9834
2.4905 2.6980 -2.0111 0.9834
2.2387 2.9079 -2.0100 0.9834
1.9692 3.0942 -2.0088 0.9834
1.3860 3.3902 -2.0060 0.9834
1.0772 3.4977 -2.0045 0.9834
0.7603 3.5770 -2.0029 0.9835
0.4378 3.6275 -2.0012 0.9835
-0.5370 3.6044 -1.9960 0.9835
-1.1669 3.4454 -1.9924 0.9835
-1.7576 3.1776 -1.9888 0.9836
-2.0323 3.0055 -1.9871 0.9836
-0.8681 0.5081 -0.5509 0.9954
-0.9126 0.3341 -0.5323 0.9956
-0.9251 0.2477 -0.5245 0.9956
-0.9417 -0.0061 -0.5158 0.9957
-0.9474 -0.0910 -0.5213 0.9957
-0.9406 -0.1761 -0.5241 0.9956
-0.9106 -0.3467 -0.5337 0.9956
-0.8917 -0.4341 -0.5432 0.9955
-0.8635 -0.5204 -0.5522 0.9954
-2.9112 -2.1304 -1.9758 0.9837
-2.2461 -2.8291 -1.9785 0.9837
-1.7097 -3.1871 -1.9809 0.9836
-1.4195 -3.3293 -1.9823 0.9836
-1.1177 -3.4452 -1.9838 0.9836
-0.4884 -3.5947 -1.9869 0.9836
-0.1659 -3.6271 -1.9886 0.9836
0.8026 -3.5510 -1.9939 0.9835
1.1172 -3.4683 -1.9957 0.9835
1.4235 -3.3578 -1.9975 0.9835
2.0011 -3.0567 -2.0010 0.9835
2.2677 -2.8684 -2.0027 0.9835
2.5166 -2.6568 -2.0043 0.9834
2.7456 -2.4235 -2.0058 0.9834
1.8843 -0.3569 -1.0504 0.9913
0.6193 3.4117 -2.0019 0.9841
-0.3055 3.4454 -1.9970 0.9842
-0.9114 3.3305 -1.9936 0.9842
-1.4863 3.1103 -1.9902 0.9842
-1.7564 2.9628 -1.9886 0.9842
-2.4725 2.3865 -1.9840 0.9843
-0.7957 0.5317 -0.5525 0.9956
-0.8625 0.2868 -0.5248 0.9958
-0.8812 0.1263 -0.5139 0.9959
-0.8818 -0.1114 -0.5132 0.9959
-0.8643 -0.2714 -0.5230 0.9958
-0.8512 -0.3535 -0.5321 0.9958
-0.7994 -0.5150 -0.5490 0.9956
-2.5042 -2.3374 -1.9777 0.9843
-2.0509 -2.7479 -1.9796 0.9843
-1.7986 -2.9216 -1.9808 0.9843
-0.9627 -3.3002 -1.9848 0.9842
-0.6649 -3.3755 -1.9863 0.9842
-0.3614 -3.4240 -1.9878 0.9842
-0.0545 -3.4454 -1.9895 0.9842
0.2533 -3.4394 -1.9911 0.9842
0.5596 -3.4060 -1.9928 0.9842
0.8619 -3.3454 -1.9945 0.9842
1.1579 -3.2579 -1.9962 0.9842
1.9843 -2.8420 -2.0012 0.9841
2.4615 -2.4479 -2.0043 0.9841
1.7086 -0.5966 -1.0449 0.9917
1.7313 -0.4359 -1.0307 0.9918
1.7312 0.0370 -0.9997 0.9920
1.7635 0.7017 -1.0958 0.9913
2.9581 1.8438 -2.0125 0.9840
2.1229 2.7575 -2.0092 0.9841
1.8673 2.9342 -2.0080 0.9841
1.5971 3.0871 -2.0068 0.9841
1.0216 3.3172 -2.0040 0.9841
-0.2025 3.4539 -1.9976 0.9841
-0.5094 3.4192 -1.9959 0.9842
-0.8117 3.3572 -1.9942 0.9842
-1.3931 3.1542 -1.9908 0.9842
-1.9283 2.8517 -1.9875 0.9842
-2.4007 2.4598 -1.9845 0.9842
-2.6087 2.2343 -1.9831 0.9843
-0.8004 0.5701 -0.5674 0.9955
-0.8410 0.3962 -0.5367 0.9957
-0.8687 0.2326 -0.5192 0.9959
-0.8822 0.0733 -0.5111 0.9959
-0.8822 -0.0847 -0.5117 0.9959
-0.8665 -0.2440 -0.5197 0.9959
-0.8565 -0.3261 -0.5291 0.9958
-0.8378 -0.4079 -0.5380 0.9957
-0.8022 -0.5871 -0.5739 0.9954
-2.1317 -2.6849 -1.9793 0.9843
-1.8847 -2.8660 -1.9804 0.9843
-1.6225 -3.0245 -1.9816 0.9843
-1.0606 -3.2692 -1.9843 0.9843
-0.4634 -3.4108 -1.9873 0.9842
0.4575 -3.4202 -1.9923 0.9842
1.0598 -3.2901 -1.9957 0.9842
2.8005 -2.0584 -2.0066 0.9841
2.9748 -1.8014 -2.0079 0.9841
3.1254 -1.5297 -2.0090 0.9841
1.7266 -0.4900 -1.0362 0.9917
