ply
format ascii 1.0
element vertex 1593
property float32 x
property float32 y
property float32 z
property float32 I
end_header
11.3623 7.6139 0.5393 0.9467
9.6465 7.7978 0.4891 0.9516
8.3238 8.0593 0.4569 0.9547
7.0726 8.1935 0.4268 0.9576
3.9356 8.2783 0.3614 0.9640
1.9273 5.2095 0.2190 0.9780
1.4212 5.2391 0.2141 0.9785
1.6811 9.4824 0.3797 0.9622
-0.0306 8.9561 0.3532 0.9648
-0.8124 8.7234 0.3455 0.9655
-2.8208 10.1239 0.4144 0.9588
-8.6501 9.8837 0.5179 0.9488
-10.4624 9.9922 0.5705 0.9437
-15.6292 10.3189 0.7385 0.9278
-10.5064 -8.3002 0.5280 0.9478
-9.5802 -15.8235 0.7294 0.9286
-7.8329 -16.0114 0.7028 0.9311
-3.1489 -16.6739 0.6691 0.9343
0.8213 -10.0349 0.3970 0.9605
2.9566 -17.1104 0.6847 0.9329
6.0914 -10.4234 0.4760 0.9528
11.8496 7.5616 0.5543 0.9453
5.2109 8.3932 0.3895 0.9612
4.1225 8.1933 0.3617 0.9639
3.3975 8.5878 0.3642 0.9637
1.5241 5.1585 0.2121 0.9787
1.7470 8.7148 0.3505 0.9650
1.0395 9.5513 0.3788 0.9623
0.1695 8.9346 0.3524 0.9649
-0.6143 8.7022 0.3440 0.9657
-1.4360 8.9030 0.3556 0.9645
-4.2735 9.3617 0.4058 0.9596
-15.2988 10.6000 0.7339 0.9282
-10.2323 -8.4624 0.2243 0.9483
-10.9903 -15.6755 0.3234 0.9263
-7.4158 -16.0598 0.2988 0.9317
3.3619 -17.1574 0.2953 0.9324
2.7868 -9.5857 0.1686 0.9609
16.0703 3.8071 0.2790 0.9361
8.3217 8.0573 0.1957 0.9547
7.0709 8.1915 0.1828 0.9576
5.9662 8.3102 0.1728 0.9599
4.9516 8.3890 0.1646 0.9618
3.9330 8.2730 0.1547 0.9640
1.4246 5.2516 0.0919 0.9785
1.6808 9.4805 0.1626 0.9622
-0.0306 8.9543 0.1513 0.9648
-0.8122 8.7217 0.1480 0.9656
-1.6464 8.9312 0.1534 0.9643
-2.8202 10.1218 0.1775 0.9588
-3.8660 10.2342 0.1848 0.9572
-5.5330 9.2292 0.1818 0.9579
-7.0734 9.7115 0.2029 0.9531
-8.6476 9.8808 0.2218 0.9488
-10.4652 9.9949 0.2444 0.9438
-8.3872 6.6855 0.1812 0.9580
-15.6225 10.3145 0.3163 0.9278
-18.3512 7.8597 0.3372 0.9232
-10.5214 -8.3121 0.2265 0.9478
-6.1967 -16.1905 0.2928 0.9330
-4.6348 -16.3583 0.2872 0.9342
-3.1574 -16.7187 0.2874 0.9342
-0.1305 -16.7822 0.2835 0.9351
0.8177 -9.9897 0.1693 0.9607
2.9572 -17.1139 0.2934 0.9329
2.6893 -10.0870 0.1763 0.9591
4.8723 -10.3648 0.1934 0.9552
6.0320 -10.3217 0.2019 0.9533
11.8458 7.5593 0.2374 0.9453
6.2313 8.2817 0.1751 0.9594
4.1216 8.1916 0.1549 0.9640
3.3968 8.5861 0.1560 0.9637
1.5261 5.1654 0.0910 0.9787
1.0393 9.5494 0.1623 0.9623
-1.4481 5.6865 0.0991 0.9768
-5.3137 9.3308 0.1814 0.9580
-8.2266 9.8355 0.2166 0.9500
-10.0429 10.0309 0.2398 0.9448
-15.2925 10.5956 0.3143 0.9283
-10.2442 -8.4723 -0.0748 0.9482
-4.8935 -8.5066 -0.0553 0.9615
-7.4877 -16.2156 -0.1006 0.9310
-4.2532 -16.4026 -0.0954 0.9345
-2.8385 -17.1237 -0.0977 0.9329
-1.2494 -16.6653 -0.0941 0.9353
0.2458 -16.8260 -0.0947 0.9349
3.3625 -17.1609 -0.0985 0.9324
2.7853 -9.5803 -0.0562 0.9609
5.1655 -10.3786 -0.0653 0.9547
6.0787 -9.8869 -0.0653 0.9546
13.4805 7.3808 -0.0865 0.9404
11.3554 7.6092 -0.0770 0.9468
9.6412 7.7935 -0.0698 0.9516
8.2916 8.0281 -0.0650 0.9549
4.9506 8.3872 -0.0548 0.9618
3.9305 8.2676 -0.0516 0.9640
0.8296 9.6204 -0.0544 0.9621
-0.0305 8.9225 -0.0502 0.9649
-1.6459 8.9281 -0.0511 0.9643
-2.8196 10.1196 -0.0591 0.9588
-3.8651 10.2320 -0.0616 0.9572
-4.4650 9.2287 -0.0577 0.9598
-8.6451 9.8780 -0.0739 0.9488
-5.5177 2.9722 -0.0353 0.9752
-18.3317 7.8514 -0.1123 0.9233
-10.6214 -8.3911 -0.0762 0.9473
-9.5558 -15.7831 -0.1039 0.9289
-3.1659 -16.7637 -0.0961 0.9340
-0.1305 -16.7855 -0.0945 0.9351
0.8135 -9.9394 -0.0561 0.9609
2.6877 -10.0810 -0.0587 0.9591
6.3822 -17.4847 -0.1048 0.9283
4.8703 -10.3605 -0.0645 0.9552
6.0318 -10.3215 -0.0673 0.9533
11.8421 7.5569 -0.0791 0.9454
8.6323 7.9915 -0.0662 0.9540
4.1207 8.1899 -0.0516 0.9640
3.3961 8.5843 -0.0520 0.9637
1.0391 9.5476 -0.0541 0.9623
0.1694 8.9311 -0.0503 0.9649
-0.6141 8.6987 -0.0491 0.9657
-1.4483 5.6873 -0.0330 0.9768
-6.7178 9.6709 -0.0663 0.9540
-8.2243 9.8328 -0.0722 0.9500
-5.1688 2.9353 -0.0335 0.9765
-7.0213 3.1950 -0.0434 0.9696
-12.7741 -7.1810 -0.4126 0.9430
-10.2402 -8.4690 -0.3742 0.9482
-10.9952 -15.6826 -0.5393 0.9262
-4.8947 -8.5087 -0.2764 0.9615
-7.5034 -16.2495 -0.5040 0.9309
-5.8023 -16.2399 -0.4856 0.9333
-4.2540 -16.4059 -0.4772 0.9344
-2.5985 -15.6762 -0.4474 0.9384
-1.2496 -16.6686 -0.4707 0.9353
3.3632 -17.1644 -0.4925 0.9324
2.7837 -9.5749 -0.2808 0.9609
4.0060 -10.2561 -0.3100 0.9569
6.0766 -9.8834 -0.3267 0.9546
13.4759 7.3783 -0.4326 0.9404
11.3519 7.6069 -0.3848 0.9468
5.9422 8.2768 -0.2869 0.9600
-0.8119 8.7182 -0.2466 0.9656
-1.6453 8.9251 -0.2555 0.9643
-2.8190 10.1175 -0.2957 0.9588
-8.6426 9.8751 -0.3695 0.9488
-3.9513 3.7738 -0.1539 0.9784
-4.0412 3.2213 -0.1455 0.9795
-4.2532 2.8081 -0.1435 0.9798
-5.3865 2.9015 -0.1723 0.9758
-18.2508 7.8167 -0.5591 0.9236
-11.4883 -15.6296 -0.5462 0.9253
-7.9271 -16.2041 -0.5079 0.9304
-2.9533 -15.6381 -0.4481 0.9383
2.6861 -10.0750 -0.2936 0.9591
11.8384 7.5545 -0.3954 0.9454
10.0369 7.7484 -0.3570 0.9505
8.6300 7.9894 -0.3312 0.9540
6.2284 8.2779 -0.2917 0.9594
5.1900 8.3596 -0.2771 0.9614
4.1199 8.1882 -0.2581 0.9640
3.3954 8.5826 -0.2599 0.9637
1.7460 8.7096 -0.2501 0.9651
1.0389 9.5457 -0.2704 0.9623
0.1694 8.9293 -0.2515 0.9649
-0.6139 8.6970 -0.2455 0.9657
-1.4485 5.6881 -0.1653 0.9768
-3.5946 10.2008 -0.3045 0.9576
-5.3127 9.3289 -0.3023 0.9580
-6.7160 9.6684 -0.3315 0.9540
-8.2220 9.8300 -0.3608 0.9500
-3.9524 3.9477 -0.1573 0.9779
-4.1744 2.8923 -0.1430 0.9799
-6.6996 3.0486 -0.2073 0.9710
-12.4962 -7.0248 -0.7270 0.9442
-10.8101 -7.4205 -0.6650 0.9488
-9.0028 -7.4456 -0.5925 0.9543
-7.7591 -7.6826 -0.5537 0.9572
-6.8292 -8.0930 -0.5370 0.9585
-10.9977 -15.6861 -0.9715 0.9261
-7.5049 -16.2529 -0.9079 0.9308
-4.2549 -16.4092 -0.8597 0.9344
0.2488 -17.0251 -0.8635 0.9341
1.0457 -10.0138 -0.5106 0.9605
3.3639 -17.1679 -0.8872 0.9323
4.0069 -10.2584 -0.5585 0.9568
5.1679 -10.3834 -0.5882 0.9546
8.6697 -9.6852 -0.6592 0.9493
10.4162 -9.7276 -0.7228 0.9445
15.5176 -9.9978 -0.9362 0.9287
13.1322 7.1901 -0.7593 0.9418
11.0629 7.4132 -0.6754 0.9481
9.3933 7.5931 -0.6126 0.9528
7.0406 8.1565 -0.5464 0.9578
5.9409 8.2749 -0.5166 0.9600
4.9484 8.3836 -0.4937 0.9618
1.9519 5.2760 -0.2853 0.9777
1.6798 9.4749 -0.4880 0.9622
-0.0306 8.9490 -0.4538 0.9648
-1.6431 8.9132 -0.4596 0.9644
-4.4369 9.1705 -0.5166 0.9600
-5.5289 9.2224 -0.5453 0.9578
-7.0677 9.7038 -0.6088 0.9531
-8.6401 9.8723 -0.6653 0.9488
-3.8036 3.6327 -0.2667 0.9792
-3.9185 3.1235 -0.2541 0.9801
-4.1699 2.7531 -0.2534 0.9802
-5.2769 2.8425 -0.3040 0.9763
-18.2954 7.8358 -1.0094 0.9234
-11.1953 -7.3218 -0.6784 0.9478
-9.5343 -7.5322 -0.6162 0.9525
-11.4909 -15.6332 -0.9840 0.9252
-9.5885 -15.8372 -0.9389 0.9285
-7.9287 -16.2074 -0.9150 0.9303
-6.2005 -16.2006 -0.8797 0.9329
-4.6376 -16.3683 -0.8628 0.9341
-2.8607 -15.1480 -0.7818 0.9401
-0.1320 -16.9842 -0.8614 0.9342
3.7594 -10.2994 -0.5560 0.9570
6.0109 -10.2856 -0.6042 0.9534
9.9753 -9.7429 -0.7072 0.9457
13.7347 7.1252 -0.7847 0.9399
11.5368 7.3621 -0.6941 0.9467
9.7815 7.5513 -0.6267 0.9517
8.6278 7.9873 -0.5963 0.9540
7.3630 8.1537 -0.5572 0.9570
6.2270 8.2760 -0.5252 0.9594
5.1888 8.3577 -0.4989 0.9614
1.5269 5.1680 -0.2733 0.9786
1.0387 9.5438 -0.4869 0.9623
-4.2735 9.3617 -0.5219 0.9596
-5.2735 9.2602 -0.5404 0.9582
-6.7143 9.6659 -0.5969 0.9540
-3.7914 3.7868 -0.2718 0.9788
-4.0620 2.8144 -0.2506 0.9804
-6.5365 2.9744 -0.3642 0.9716
-8.9032 -7.3632 -0.8471 0.9547
-3.6965 -8.0052 -0.6465 0.9653
-2.9766 -8.3311 -0.6487 0.9651
-1.4045 -8.4731 -0.6297 0.9661
0.9109 -8.7226 -0.6430 0.9654
1.7241 -8.7990 -0.6574 0.9647
2.5566 -8.7938 -0.6715 0.9639
4.5043 -9.0501 -0.7412 0.9603
6.8911 -9.2422 -0.8453 0.9548
8.3255 -9.3007 -0.9153 0.9512
12.4296 -9.6823 -1.1552 0.9388
9.4060 2.2283 -0.7088 0.9620
8.6335 2.8808 -0.6673 0.9642
13.1277 7.1876 -1.0974 0.9417
11.0595 7.4109 -0.9761 0.9480
9.3907 7.5910 -0.8854 0.9527
7.0641 8.1837 -0.7927 0.9576
4.9641 8.4101 -0.7160 0.9616
3.9229 8.2516 -0.6699 0.9640
0.8248 9.5649 -0.7039 0.9622
-0.0306 8.9473 -0.6560 0.9648
-1.5736 8.5360 -0.6364 0.9658
-2.8179 10.1132 -0.7698 0.9588
-3.8626 10.2252 -0.8014 0.9571
-4.4358 9.1684 -0.7468 0.9600
-5.0432 8.4122 -0.7192 0.9614
-3.6505 4.1711 -0.4064 0.9780
-3.6739 3.5088 -0.3725 0.9798
-3.8041 3.0323 -0.3567 0.9807
-4.1074 2.7119 -0.3609 0.9805
-5.1869 2.7940 -0.4320 0.9766
-13.0288 -6.9451 -1.0825 0.9425
-10.9450 -7.1580 -0.9589 0.9489
-6.7540 -7.6497 -0.7482 0.9599
-3.9855 -8.1469 -0.6650 0.9643
-3.1421 -8.2096 -0.6445 0.9654
-4.6385 -16.3715 -1.2476 0.9340
-1.6200 -8.5779 -0.6401 0.9656
-1.3586 -13.9311 -1.0263 0.9454
-0.0677 -8.7044 -0.6382 0.9657
0.7100 -8.6740 -0.6381 0.9657
2.9596 -17.1279 -1.2745 0.9327
2.3829 -8.9380 -0.6782 0.9636
3.2224 -8.8281 -0.6891 0.9630
5.3905 -9.2240 -0.7833 0.9581
6.4377 -9.0500 -0.8143 0.9564
9.6423 -9.4177 -0.9883 0.9474
11.8692 -9.6803 -1.1230 0.9404
14.5126 -9.8167 -1.2847 0.9321
11.5332 7.3598 -1.0032 0.9466
7.3612 8.1517 -0.8053 0.9569
5.2052 8.3841 -0.7236 0.9612
4.1181 8.1848 -0.6718 0.9639
3.3941 8.5791 -0.6765 0.9637
1.5324 5.1866 -0.3965 0.9785
1.7453 8.7062 -0.6511 0.9650
1.0439 9.5916 -0.7074 0.9620
-0.6137 8.6935 -0.6390 0.9656
-1.4489 5.6896 -0.4305 0.9767
-3.5930 10.1963 -0.7927 0.9576
-4.2741 9.3630 -0.7547 0.9596
-4.7848 8.4021 -0.7090 0.9620
-8.2173 9.8244 -0.9391 0.9499
-3.6537 3.6493 -0.3786 0.9795
-3.9613 2.7446 -0.3534 0.9809
-4.8691 2.7652 -0.4106 0.9778
-6.3736 2.9003 -0.5134 0.9723
-10.4808 -7.1944 -1.2205 0.9502
-8.8360 -7.3076 -1.1008 0.9550
-6.3886 -7.5708 -0.9510 0.9610
-5.3894 -7.6870 -0.9013 0.9630
1.7100 -8.7270 -0.8538 0.9649
4.4294 -8.8996 -0.9544 0.9608
6.8584 -9.1983 -1.1015 0.9549
12.2956 -9.5780 -1.4963 0.9393
15.5958 -10.0481 -1.7811 0.9282
8.0404 2.6828 -0.8138 0.9665
13.1232 7.1852 -1.4364 0.9417
9.3881 7.5889 -1.1590 0.9526
7.0624 8.1818 -1.0376 0.9575
5.9594 8.3008 -0.9810 0.9598
3.9203 8.2462 -0.8766 0.9640
-0.0306 8.9455 -0.8588 0.9647
-0.7821 8.3983 -0.8098 0.9667
-1.6013 8.6862 -0.8480 0.9651
-3.8617 10.2229 -1.0491 0.9570
-4.4348 9.1662 -0.9776 0.9599
-4.8074 8.0188 -0.8976 0.9631
-3.4899 3.9876 -0.5087 0.9789
-3.5570 3.3971 -0.4722 0.9804
-3.7005 2.9497 -0.4543 0.9812
-4.0568 2.6784 -0.4667 0.9807
-5.1111 2.7532 -0.5574 0.9769
-18.3113 5.9711 -1.8491 0.9255
-18.7650 2.5743 -1.8184 0.9267
-18.7833 0.8815 -1.8053 0.9272
-18.6663 -0.7946 -1.7937 0.9277
-18.4171 -2.4450 -1.7836 0.9281
-17.5370 -5.6343 -1.7684 0.9287
-13.0182 -6.9395 -1.4163 0.9424
-9.3009 -7.3479 -1.1380 0.9535
-5.7031 -7.7589 -0.9245 0.9620
-4.8632 -8.0326 -0.9015 0.9630
-2.3320 -8.2307 -0.8213 0.9662
4.1581 -8.8455 -0.9384 0.9615
5.1837 -8.8702 -0.9863 0.9596
6.4155 -9.0188 -1.0626 0.9565
9.6548 -9.4298 -1.2957 0.9472
9.7540 2.0814 -0.9575 0.9607
8.0557 3.3030 -0.8359 0.9656
11.5296 7.3575 -1.3131 0.9465
8.6524 8.0101 -1.1320 0.9537
7.3594 8.1497 -1.0542 0.9568
5.2041 8.3822 -0.9472 0.9611
3.3934 8.5773 -0.8856 0.9636
1.7450 8.7045 -0.8523 0.9650
1.0437 9.5897 -0.9261 0.9620
0.1683 8.8739 -0.8521 0.9650
-0.6136 8.6917 -0.8365 0.9656
-1.3247 8.2131 -0.7987 0.9671
-4.2747 9.3643 -0.9883 0.9595
-3.5011 4.1858 -0.5239 0.9783
-3.6598 3.0537 -0.4576 0.9810
-6.1813 2.8128 -0.6520 0.9731
-18.5473 4.6996 -1.8369 0.9260
-18.7916 1.3040 -1.8084 0.9271
-18.7081 -0.3772 -1.7964 0.9276
-6.4376 -7.6288 -1.1857 0.9606
-2.8852 -8.0752 -1.0186 0.9660
-2.0796 -8.0201 -0.9842 0.9672
-1.3567 -8.1842 -0.9854 0.9671
0.1229 -8.4123 -0.9994 0.9667
1.6911 -8.6309 -1.0447 0.9652
2.5154 -8.6521 -1.0703 0.9644
3.5425 -9.0697 -1.1566 0.9615
4.4721 -8.9854 -1.1922 0.9604
5.4836 -8.9189 -1.2437 0.9587
6.7785 -9.0912 -1.3470 0.9553
8.2662 -9.2344 -1.4722 0.9513
12.3948 -9.6552 -1.8663 0.9387
16.4160 -6.8145 -2.1113 0.9309
18.0682 -2.2730 -2.1632 0.9293
18.3255 -0.6546 -2.1782 0.9288
18.4251 0.9910 -2.1918 0.9284
8.8963 2.1076 -1.0860 0.9638
7.7040 2.5706 -0.9647 0.9678
13.1186 7.1827 -1.7766 0.9415
11.0527 7.4064 -1.5804 0.9478
9.3855 7.5868 -1.4336 0.9525
6.8623 7.9500 -1.2475 0.9586
5.7907 8.0657 -1.1794 0.9608
3.1631 8.5501 -1.0829 0.9639
-0.7830 8.4075 -1.0030 0.9666
-2.8167 10.1089 -1.2465 0.9586
-4.4338 9.1641 -1.2093 0.9598
-4.8295 8.0558 -1.1157 0.9629
-3.2027 3.6594 -0.5777 0.9806
-3.6046 2.8733 -0.5476 0.9816
-4.9512 2.6671 -0.6680 0.9776
-15.0076 4.8938 -1.8751 0.9384
-15.2751 3.5086 -1.8617 0.9388
-15.4257 2.1162 -1.8495 0.9392
-15.4606 0.7256 -1.8385 0.9396
-15.3818 -0.6548 -1.8288 0.9399
-15.1914 -2.0167 -1.8204 0.9401
-14.8922 -3.3524 -1.8132 0.9404
-13.9795 -5.9154 -1.8031 0.9407
-12.7876 -6.8165 -1.7213 0.9433
-9.2182 -7.2825 -1.3955 0.9538
-6.7119 -7.6020 -1.2046 0.9600
-5.7039 -7.7601 -1.1440 0.9619
-4.7417 -7.8318 -1.0875 0.9638
-2.2722 -8.0198 -0.9901 0.9670
-0.8051 -8.2554 -0.9853 0.9671
-0.0646 -8.3138 -0.9876 0.9671
1.4660 -8.4843 -1.0227 0.9659
2.2868 -8.5776 -1.0545 0.9649
4.1398 -8.8065 -1.1559 0.9616
6.4155 -9.0187 -1.3147 0.9564
7.8093 -9.1271 -1.4269 0.9528
11.8550 -9.6687 -1.8172 0.9402
14.3149 -9.6830 -2.0529 0.9328
15.3785 -8.5072 -2.0876 0.9317
16.9452 -5.7362 -2.1251 0.9305
17.5337 -4.2345 -2.1426 0.9299
18.4153 0.5776 -2.1886 0.9285
9.3767 2.0008 -1.1389 0.9621
7.1509 7.9188 -1.2674 0.9579
4.1164 8.1813 -1.0879 0.9638
3.3736 8.5274 -1.0893 0.9637
1.5399 5.2121 -0.6456 0.9783
1.0380 9.5382 -1.1397 0.9621
-0.6135 8.6900 -1.0348 0.9655
-1.4493 5.6912 -0.6976 0.9766
-4.2753 9.3656 -1.2229 0.9594
-4.7914 8.4136 -1.1501 0.9617
-15.3990 2.4649 -1.8525 0.9391
-15.4626 1.0730 -1.8412 0.9395
-15.4121 -0.3107 -1.8311 0.9398
-11.2482 -6.3232 -1.8283 0.9492
-10.3073 -7.0753 -1.7714 0.9507
-7.7361 -7.6599 -1.5425 0.9570
-6.5195 -7.7260 -1.4324 0.9600
-3.6828 -7.9755 -1.2447 0.9651
-2.1009 -8.1024 -1.1860 0.9667
-1.3759 -8.3005 -1.1921 0.9666
-0.6250 -8.3365 -1.1845 0.9668
0.1218 -8.3332 -1.1808 0.9669
1.6897 -8.6235 -1.2451 0.9651
4.4396 -8.9201 -1.4118 0.9605
6.7991 -9.1188 -1.6117 0.9551
11.3774 -8.8627 -2.0434 0.9434
12.9747 -6.8028 -2.0757 0.9425
13.6319 -5.6588 -2.0913 0.9421
14.1836 -4.4501 -2.1063 0.9417
14.6223 -3.1868 -2.1205 0.9413
15.2021 0.8177 -2.1571 0.9403
15.1363 2.1821 -2.1668 0.9401
8.6115 2.0401 -1.2539 0.9649
11.0492 7.4041 -1.8846 0.9477
9.3828 7.5847 -1.7095 0.9524
8.0734 7.8169 -1.5922 0.9556
5.2130 7.2611 -1.2665 0.9645
4.8214 8.1684 -1.3440 0.9624
3.0910 8.3551 -1.2622 0.9646
1.5832 8.9302 -1.2851 0.9640
0.8243 9.5592 -1.3595 0.9620
-0.0297 8.6907 -1.2314 0.9655
-0.7838 8.4168 -1.1977 0.9664
-0.9840 5.3377 -0.7690 0.9783
-2.6487 9.5060 -1.3982 0.9609
-3.4595 9.1583 -1.3871 0.9612
-4.2294 8.7418 -1.3760 0.9615
-2.6022 4.3405 -0.7171 0.9798
-2.6616 3.6542 -0.6405 0.9819
-3.9103 2.5817 -0.6639 0.9812
-4.8837 2.6307 -0.7860 0.9778
-13.1262 0.6160 -1.8619 0.9483
-12.9169 -1.7148 -1.8462 0.9487
-12.3311 -3.9617 -1.8351 0.9490
-11.3897 -6.0714 -1.8288 0.9492
-10.7354 -7.0210 -1.8175 0.9495
-9.3465 -7.3839 -1.6877 0.9530
-5.6766 -7.7230 -1.3581 0.9620
-4.8570 -8.0222 -1.3287 0.9628
-3.9355 -8.0447 -1.2689 0.9645
-3.0888 -8.0705 -1.2244 0.9657
-2.3263 -8.2106 -1.2092 0.9661
-1.5576 -8.2480 -1.1893 0.9667
-0.8067 -8.2723 -1.1777 0.9670
-0.0658 -8.4590 -1.1986 0.9664
0.6862 -8.3836 -1.1918 0.9666
1.4684 -8.4977 -1.2219 0.9658
2.2901 -8.5899 -1.2596 0.9647
3.1639 -8.6678 -1.3074 0.9634
11.1358 -9.0821 -2.0360 0.9436
12.7947 -7.0779 -2.0718 0.9426
14.0558 -4.7582 -2.1026 0.9418
14.5235 -3.5075 -2.1170 0.9414
15.0995 -0.8781 -2.1431 0.9407
15.1978 0.4766 -2.1544 0.9404
7.5422 2.3304 -1.1185 0.9686
12.6715 6.5736 -2.0226 0.9440
11.5223 7.3528 -1.9367 0.9463
9.7703 7.5427 -1.7489 0.9514
7.1491 7.9169 -1.5114 0.9578
5.4529 7.2472 -1.2851 0.9640
5.0556 8.1432 -1.3581 0.9620
4.1155 8.1796 -1.2974 0.9637
1.5432 5.2230 -0.7717 0.9782
1.0378 9.5363 -1.3592 0.9620
-0.6133 8.6882 -1.2341 0.9654
-1.4495 5.6920 -0.8322 0.9766
-4.0409 8.8522 -1.3788 0.9615
-2.6136 3.7626 -0.6491 0.9817
-2.8106 3.3602 -0.6207 0.9825
-3.0369 3.0332 -0.6082 0.9828
-3.3341 2.7819 -0.6152 0.9826
-3.7435 2.5937 -0.6453 0.9818
-4.5889 2.6060 -0.7477 0.9789
-6.0083 2.7341 -0.9353 0.9737
-13.0589 2.0903 -1.8739 0.9480
-9.7877 -5.5022 -1.8497 0.9555
-8.6239 -7.1322 -1.8436 0.9556
-7.4632 -7.3896 -1.7302 0.9583
-4.5246 -7.8654 -1.4948 0.9639
-3.7076 -8.0293 -1.4569 0.9648
-2.8867 -8.0796 -1.4134 0.9658
-1.3669 -8.2462 -1.3770 0.9667
-0.6239 -8.3218 -1.3748 0.9667
0.1212 -8.2964 -1.3669 0.9669
0.8866 -8.4902 -1.4063 0.9660
1.6694 -8.5200 -1.4303 0.9654
2.5128 -8.6430 -1.4828 0.9642
3.4258 -8.7707 -1.5512 0.9625
4.4431 -8.9271 -1.6427 0.9604
5.5189 -8.9764 -1.7359 0.9582
6.6829 -8.9629 -1.8418 0.9557
8.9713 -8.3782 -2.0222 0.9515
9.7512 -7.5959 -2.0363 0.9511
10.4616 -6.7402 -2.0502 0.9508
11.0951 -5.8173 -2.0638 0.9505
11.6444 -4.8337 -2.0770 0.9502
12.1030 -3.7974 -2.0897 0.9499
12.4651 -2.7167 -2.1017 0.9496
12.7255 -1.6009 -2.1129 0.9493
12.8803 -0.4601 -2.1232 0.9491
12.9263 0.6953 -2.1326 0.9489
8.5401 2.0232 -1.4458 0.9650
7.3197 2.4424 -1.2712 0.9692
7.2717 3.1734 -1.3070 0.9683
10.6256 5.8177 -1.9956 0.9521
10.0703 6.7481 -1.9970 0.9520
9.3802 7.5825 -1.9870 0.9523
8.0713 7.8148 -1.8508 0.9555
6.8590 7.9461 -1.7293 0.9583
5.2121 7.2599 -1.4723 0.9644
4.3472 7.3651 -1.4089 0.9659
3.9126 8.2300 -1.5012 0.9637
1.5198 8.5726 -1.4343 0.9653
-0.0297 8.6889 -1.4314 0.9654
-0.7847 8.4261 -1.3941 0.9663
-0.9663 5.2417 -0.8781 0.9786
-3.1622 8.3712 -1.4742 0.9644
-4.0985 8.4712 -1.5503 0.9626
-2.4172 3.3188 -0.6764 0.9835
-2.8947 2.7646 -0.6594 0.9839
-3.2085 2.5575 -0.6759 0.9835
-3.8255 2.5257 -0.7552 0.9816
-4.8625 2.6192 -0.9099 0.9779
-11.0033 3.5881 -1.9066 0.9542
-11.2207 2.5773 -1.8966 0.9544
-11.3947 0.5348 -1.8792 0.9548
-11.3524 -0.4833 -1.8719 0.9550
-11.2254 -1.4902 -1.8655 0.9551
-11.0155 -2.4798 -1.8601 0.9553
-9.9105 -5.2829 -1.8501 0.9555
-8.7932 -6.9468 -1.8461 0.9556
-3.0771 -8.0398 -1.4182 0.9657
-2.2935 -8.0950 -1.3861 0.9665
-0.8175 -8.3833 -1.3876 0.9664
-0.0644 -8.2910 -1.3659 0.9669
1.4686 -8.4992 -1.4209 0.9656
3.1789 -8.7091 -1.5273 0.9631
7.6889 -8.9864 -1.9483 0.9532
8.7662 -8.5619 -2.0187 0.9515
9.5622 -7.7987 -2.0328 0.9512
10.2908 -6.9609 -2.0467 0.9509
11.5152 -5.0852 -2.0737 0.9502
12.8517 -0.7474 -2.1208 0.9492
9.1614 1.9549 -1.5432 0.9627
7.4140 2.2908 -1.2783 0.9690
9.5961 7.4082 -1.9971 0.9520
8.4026 7.7789 -1.8864 0.9546
5.4587 7.2549 -1.4957 0.9639
5.0545 8.1413 -1.5787 0.9619
3.2960 8.3312 -1.4760 0.9643
1.5438 5.2252 -0.8976 0.9782
-0.6132 8.6865 -1.4346 0.9653
-0.8441 5.2331 -0.8732 0.9787
-2.2114 3.8832 -0.7362 0.9820
-2.3631 3.4019 -0.6824 0.9833
-2.5742 3.0777 -0.6610 0.9839
-3.1053 2.5910 -0.6663 0.9837
-4.5563 2.5875 -0.8632 0.9790
-5.9985 2.7296 -1.0857 0.9736
-10.9352 3.8387 -1.9092 0.9541
-11.1745 2.8314 -1.8991 0.9543
-8.6555 -4.8657 -1.8663 0.9604
-8.1826 -5.6168 -1.8655 0.9604
-7.6486 -6.3256 -1.8656 0.9604
-4.5927 -7.9837 -1.7312 0.9632
0.1225 -8.3849 -1.5762 0.9664
1.6765 -8.5563 -1.6388 0.9651
4.3132 -8.6662 -1.8195 0.9614
5.3736 -8.7400 -1.9284 0.9591
7.1190 -7.9529 -2.0062 0.9575
8.5237 -6.6397 -2.0308 0.9570
10.1531 -4.2147 -2.0663 0.9562
10.8521 -2.3651 -2.0877 0.9558
11.0712 -1.3928 -2.0974 0.9556
11.2324 0.6042 -2.1143 0.9552
7.1876 3.1367 -1.4740 0.9686
9.2172 5.0466 -1.9752 0.9581
8.7347 5.8531 -1.9763 0.9581
8.1770 6.6100 -1.9763 0.9581
5.2113 7.2587 -1.6796 0.9643
3.9100 8.2245 -1.7117 0.9636
1.4882 8.3942 -1.6024 0.9659
0.7309 8.4756 -1.5990 0.9660
-0.0297 8.6872 -1.6329 0.9653
-0.7960 8.5473 -1.6135 0.9657
-0.9662 5.2413 -1.0017 0.9785
-3.0615 8.1047 -1.6284 0.9654
-2.1427 3.5741 -0.7833 0.9832
-2.4649 2.8164 -0.7035 0.9849
-3.1337 2.4979 -0.7533 0.9838
-4.8847 2.6312 -1.0429 0.9777
-9.6959 3.1618 -1.9169 0.9593
-10.0144 1.3739 -1.8999 0.9597
-9.9171 -1.3166 -1.8804 0.9601
-9.7350 -2.1915 -1.8756 0.9602
-9.4806 -3.0459 -1.8717 0.9603
-9.1561 -3.8744 -1.8687 0.9603
-8.7639 -4.6717 -1.8667 0.9604
-8.3068 -5.4326 -1.8656 0.9604
-7.2104 -6.8266 -1.8663 0.9604
-4.7706 -7.8796 -1.7313 0.9632
-3.0848 -8.0599 -1.6221 0.9655
-2.2993 -8.1151 -1.5854 0.9663
-1.5446 -8.1790 -1.5645 0.9667
-0.8021 -8.2245 -1.5532 0.9669
0.6844 -8.3613 -1.5769 0.9664
1.4735 -8.5275 -1.6266 0.9654
2.3172 -8.6915 -1.6907 0.9641
3.1710 -8.6874 -1.7383 0.9631
4.1120 -8.7475 -1.8168 0.9614
5.0932 -8.7152 -1.8973 0.9597
6.1267 -8.6127 -1.9867 0.9579
7.6711 -7.4923 -2.0155 0.9573
9.5523 -5.2842 -2.0519 0.9565
10.0424 -4.4348 -2.0634 0.9563
10.4544 -3.5390 -2.0746 0.9561
11.0249 -1.6384 -2.0950 0.9556
7.3947 2.2848 -1.4547 0.9690
7.1700 2.9398 -1.4566 0.9690
9.3256 4.8379 -1.9747 0.9581
7.7128 7.1403 -1.9756 0.9581
4.1138 8.1760 -1.7203 0.9634
1.7041 8.5009 -1.6296 0.9653
0.1644 8.6663 -1.6292 0.9653
-1.4499 5.6936 -1.1043 0.9764
-2.8837 8.1834 -1.6309 0.9653
-3.7034 8.1128 -1.6762 0.9644
-2.6490 2.6459 -0.7037 0.9849
-6.0381 2.7476 -1.2469 0.9734
-9.6344 3.3821 -1.9192 0.9593
-9.8515 2.4962 -1.9102 0.9595
-9.9914 1.5993 -1.9019 0.9597
-10.0406 -0.2024 -1.8876 0.9600
-7.3281 -5.0303 -1.8788 0.9643
-6.8498 -5.6650 -1.8789 0.9643
-6.3197 -6.2574 -1.8799 0.9643
-5.1123 -7.2917 -1.8824 0.9642
-2.8169 -7.8841 -1.7697 0.9664
-2.0873 -8.0499 -1.7579 0.9666
0.1229 -8.4106 -1.7780 0.9662
1.6381 -8.3602 -1.8008 0.9658
3.3272 -8.5183 -1.9331 0.9633
4.1511 -8.3405 -1.9693 0.9626
4.9137 -7.9920 -1.9831 0.9624
5.6384 -7.5621 -1.9939 0.9622
6.3257 -7.0667 -2.0048 0.9620
6.9695 -6.5087 -2.0157 0.9618
8.1022 -5.2201 -2.0373 0.9614
8.5800 -4.4986 -2.0478 0.9612
8.9917 -3.7326 -2.0579 0.9610
9.3329 -2.9282 -2.0676 0.9608
9.5994 -2.0921 -2.0768 0.9606
9.7880 -1.2314 -2.0853 0.9605
9.8959 -0.3535 -2.0931 0.9603
9.9212 0.5336 -2.1002 0.9602
9.8628 1.4218 -2.1064 0.9601
8.5377 2.0226 -1.8547 0.9648
7.2599 2.4224 -1.6178 0.9692
8.1304 4.4515 -1.9593 0.9628
7.2124 5.8302 -1.9604 0.9628
6.0506 7.0096 -1.9573 0.9629
4.2940 7.2749 -1.7857 0.9661
1.4316 5.2774 -1.1559 0.9779
0.7039 8.1625 -1.7318 0.9671
-0.7701 8.2696 -1.7556 0.9666
-3.0371 8.0399 -1.8167 0.9655
-3.8362 7.9289 -1.8619 0.9646
-2.1167 3.5308 -0.8702 0.9833
-2.2109 3.0355 -0.7938 0.9848
-2.3893 2.7300 -0.7669 0.9853
-2.6250 2.5070 -0.7673 0.9853
-3.0656 2.4436 -0.8287 0.9841
-8.6585 2.8234 -1.9251 0.9635
-8.8394 2.0304 -1.9171 0.9636
-8.9513 1.2280 -1.9098 0.9637
-8.9940 0.4221 -1.9032 0.9639
-8.9680 -0.3818 -1.8974 0.9640
-8.8740 -1.1781 -1.8923 0.9641
-8.7134 -1.9615 -1.8879 0.9641
-8.4876 -2.7269 -1.8844 0.9642
-7.8481 -4.1835 -1.8799 0.9643
-7.4392 -4.8653 -1.8789 0.9643
-6.9745 -5.5100 -1.8788 0.9643
-6.4571 -6.1134 -1.8796 0.9643
-5.2764 -7.1784 -1.8832 0.9642
-3.0089 -7.8617 -1.7794 0.9662
-1.5472 -8.1926 -1.7624 0.9665
3.1018 -8.4977 -1.9122 0.9637
4.7272 -8.0890 -1.9804 0.9624
5.4603 -7.6759 -1.9912 0.9622
6.8128 -6.6540 -2.0130 0.9618
7.4199 -6.0515 -2.0239 0.9616
8.8951 -3.9281 -2.0554 0.9610
9.2543 -3.1328 -2.0652 0.9608
9.5399 -2.3040 -2.0745 0.9607
9.7483 -1.4487 -2.0832 0.9605
9.8853 1.1999 -2.1049 0.9601
7.3895 2.2832 -1.6349 0.9689
7.1917 2.9487 -1.6430 0.9687
8.2263 4.2675 -1.9589 0.9628
7.8173 4.9885 -1.9602 0.9628
6.8032 6.2982 -1.9597 0.9628
4.1129 8.1743 -1.9343 0.9633
3.2946 8.3277 -1.8931 0.9640
1.7038 8.4991 -1.8323 0.9652
0.8862 8.1429 -1.7314 0.9671
0.1643 8.6646 -1.8318 0.9652
-0.6129 8.6829 -1.8400 0.9650
-0.8431 5.2271 -1.1192 0.9786
-1.4182 5.5690 -1.2147 0.9768
-2.8252 8.0173 -1.7968 0.9658
-3.6627 8.0237 -1.8644 0.9646
-2.1537 3.7818 -0.9199 0.9824
-2.1799 3.1382 -0.8077 0.9845
-2.5494 2.5464 -0.7617 0.9854
-2.9459 2.4580 -0.8110 0.9844
-8.8006 2.2299 -1.9191 0.9636
-6.1965 -5.1247 -1.8898 0.9675
-5.1928 -6.1537 -1.8924 0.9675
-4.0269 -7.0002 -1.8980 0.9674
-3.3926 -7.3470 -1.9019 0.9673
-1.3294 -8.0197 -1.9105 0.9671
-0.6071 -8.0980 -1.9086 0.9672
0.1194 -8.1741 -1.9213 0.9670
0.8543 -8.1808 -1.9331 0.9668
3.7435 -7.5215 -1.9746 0.9661
6.2612 -5.8473 -2.0135 0.9654
7.2710 -4.6846 -2.0328 0.9651
8.0608 -3.3462 -2.0512 0.9648
8.5975 -1.8738 -2.0680 0.9645
8.8752 0.4774 -2.0889 0.9641
8.8203 1.2715 -2.0944 0.9640
8.6908 2.0589 -2.0991 0.9640
7.3095 2.4390 -1.8110 0.9688
8.2053 3.5809 -2.1041 0.9639
6.8844 4.6132 -1.9477 0.9665
4.8198 6.7134 -1.9423 0.9666
3.5341 7.4338 -1.9345 0.9667
1.4240 8.0322 -1.9172 0.9670
0.6983 8.0975 -1.9102 0.9672
-0.0277 8.0954 -1.9026 0.9673
-0.7475 8.0268 -1.8946 0.9674
-1.5526 5.5723 -1.3595 0.9765
-2.8098 7.4384 -1.8688 0.9679
-2.0925 3.4904 -0.9564 0.9834
-2.1975 3.0171 -0.8772 0.9848
-3.0231 2.4098 -0.9086 0.9842
-3.7877 2.5008 -1.0667 0.9815
-4.9131 2.6465 -1.3116 0.9773
-7.8143 2.5482 -1.9317 0.9668
-7.9809 1.8331 -1.9245 0.9669
-8.0848 1.1091 -1.9179 0.9670
-8.1261 0.3814 -1.9119 0.9671
-7.8787 -1.7736 -1.8980 0.9674
-7.0992 -3.7843 -1.8907 0.9675
-6.7297 -4.4012 -1.8898 0.9675
-6.3093 -4.9845 -1.8897 0.9675
-5.8410 -5.5301 -1.8904 0.9675
-4.7732 -6.4938 -1.8941 0.9674
-4.1807 -6.9051 -1.8971 0.9674
-3.5542 -7.2652 -1.9009 0.9673
2.8638 -7.8459 -1.9630 0.9663
4.2544 -7.2800 -1.9817 0.9659
5.5357 -6.4698 -2.0012 0.9656
7.1559 -4.8404 -2.0304 0.9651
7.9752 -3.5219 -2.0490 0.9648
8.2932 -2.8074 -2.0578 0.9647
8.7280 -1.2971 -2.0738 0.9644
8.8393 -0.5140 -2.0809 0.9643
8.8773 0.2784 -2.0874 0.9642
8.8410 1.0731 -2.0931 0.9641
8.7302 1.8629 -2.0980 0.9640
7.4184 2.2921 -1.8248 0.9686
8.2875 3.3980 -2.1051 0.9639
6.9854 4.4576 -1.9475 0.9665
4.9707 6.6064 -1.9431 0.9666
4.3534 7.0120 -1.9398 0.9667
3.7018 7.3572 -1.9356 0.9667
1.5645 5.2952 -1.2977 0.9776
1.6048 8.0053 -1.9189 0.9670
0.8802 8.0875 -1.9120 0.9671
0.1537 8.1023 -1.9046 0.9673
-0.8429 5.2260 -1.2441 0.9785
-2.6458 7.5084 -1.8710 0.9678
-3.2900 7.2073 -1.8620 0.9680
-2.1751 3.1313 -0.8961 0.9845
-2.3384 2.7957 -0.8566 0.9851
-2.5108 2.5078 -0.8340 0.9855
-2.8912 2.4124 -0.8850 0.9846
-3.5632 2.4688 -1.0188 0.9823
-4.6017 2.6133 -1.2437 0.9785
-6.0463 -4.1504 -1.8988 0.9702
-5.2138 -5.1624 -1.8997 0.9701
-3.0925 -6.6973 -1.9100 0.9700
-2.4875 -6.9622 -1.9142 0.9699
-0.5575 -7.4357 -1.9306 0.9697
0.7799 -7.4685 -1.9442 0.9694
1.4494 -7.3973 -1.9517 0.9693
2.1129 -7.2675 -1.9596 0.9692
2.7651 -7.0792 -1.9678 0.9691
3.4009 -6.8332 -1.9763 0.9690
4.6029 -6.1733 -1.9938 0.9687
6.5879 -4.2445 -2.0291 0.9681
6.9696 -3.6542 -2.0376 0.9680
7.2973 -3.0292 -2.0457 0.9679
7.5675 -2.3743 -2.0535 0.9678
7.9237 -0.9968 -2.0678 0.9675
8.0053 -0.2860 -2.0740 0.9674
7.9689 1.1488 -2.0846 0.9673
7.6653 2.5577 -2.0923 0.9672
6.2337 4.1772 -1.9429 0.9695
5.8189 4.7037 -1.9373 0.9696
4.8831 5.6570 -1.9349 0.9696
4.3529 6.0630 -1.9325 0.9696
3.7877 6.4171 -1.9293 0.9697
3.1930 6.7163 -1.9255 0.9697
2.5742 6.9581 -1.9209 0.9698
1.4359 5.2933 -1.4201 0.9776
0.6316 7.3248 -1.9036 0.9701
-0.6767 7.2665 -1.8896 0.9703
-0.9656 5.2380 -1.3791 0.9782
-2.5470 6.7426 -1.8662 0.9707
-2.1670 2.9753 -0.9530 0.9849
-6.4875 2.7786 -1.8273 0.9713
-7.1134 2.3196 -1.9372 0.9696
-7.2674 1.6693 -1.9307 0.9697
-7.3867 -0.3144 -1.9143 0.9699
-7.1833 -1.6171 -1.9064 0.9700
-6.7626 -2.8616 -1.9013 0.9701
-6.4748 -3.4514 -1.8997 0.9701
-6.1380 -4.0143 -1.8989 0.9702
-5.7546 -4.5462 -1.8988 0.9702
-4.3526 -5.9217 -1.9029 0.9701
-3.2400 -6.6231 -1.9090 0.9700
-2.0192 -7.1266 -1.9178 0.9699
-1.3784 -7.2987 -1.9232 0.9698
1.2823 -7.4207 -1.9498 0.9694
1.9477 -7.3055 -1.9576 0.9692
2.6032 -7.1318 -1.9657 0.9691
4.4586 -6.2678 -1.9916 0.9687
5.0230 -5.8705 -2.0004 0.9686
6.0405 -4.9265 -2.0182 0.9683
6.4843 -4.3862 -2.0269 0.9682
6.8790 -3.8054 -2.0355 0.9680
7.5055 -2.5407 -2.0516 0.9678
7.8931 -1.1730 -2.0661 0.9676
7.9911 -0.4647 -2.0725 0.9675
8.0231 0.2516 -2.0783 0.9674
7.9882 0.9696 -2.0835 0.9673
7.7178 2.3846 -2.0915 0.9672
7.4839 3.0685 -2.0943 0.9671
7.1788 3.7242 -2.0940 0.9671
5.4892 5.0817 -1.9368 0.9696
5.0097 5.5477 -1.9354 0.9696
3.9321 6.3335 -1.9302 0.9697
2.7310 6.9030 -1.9221 0.9698
0.7961 7.3151 -1.9052 0.9701
-0.5144 7.2869 -1.8914 0.9703
-0.8427 5.2249 -1.3703 0.9784
-1.4082 5.5299 -1.4775 0.9767
-2.1129 3.7102 -1.1055 0.9825
-2.3259 2.7808 -0.9387 0.9851
-2.4778 2.4748 -0.9067 0.9856
-3.5536 2.4622 -1.1194 0.9823
-4.5876 2.6053 -1.3660 0.9784
-6.0140 2.7366 -1.7108 0.9731
-7.0660 2.4804 -1.9390 0.9695
-7.2342 1.8330 -1.9323 0.9696
-7.3455 1.1758 -1.9261 0.9697
-7.3995 0.5135 -1.9205 0.9698
-5.1900 -4.2923 -1.9066 0.9724
-4.3484 -5.1531 -1.9088 0.9724
-3.8749 -5.5268 -1.9108 0.9723
-3.3705 -5.8591 -1.9135 0.9723
-2.8386 -6.1473 -1.9168 0.9722
-2.2828 -6.3893 -1.9207 0.9722
-1.7070 -6.5830 -1.9252 0.9721
-1.1150 -6.7267 -1.9303 0.9721
0.7148 -6.8451 -1.9483 0.9718
1.3280 -6.7777 -1.9552 0.9717
4.2097 -5.6460 -1.9937 0.9711
4.7164 -5.2688 -2.0019 0.9710
5.6237 -4.3807 -2.0181 0.9708
6.0161 -3.8760 -2.0260 0.9707
7.0924 -1.5457 -2.0549 0.9703
7.2240 -0.9088 -2.0612 0.9702
7.2964 -0.2606 -2.0669 0.9701
7.3086 0.3931 -2.0720 0.9700
7.2600 1.0466 -2.0765 0.9700
7.1506 1.6940 -2.0803 0.9699
6.9811 2.3294 -2.0834 0.9699
6.7528 2.9470 -2.0858 0.9698
4.8928 4.7373 -1.9280 0.9721
3.9643 5.5218 -1.9243 0.9721
1.3330 4.9138 -1.4413 0.9791
0.8779 4.9525 -1.4239 0.9793
-0.0228 6.6828 -1.8919 0.9726
-1.5441 5.5417 -1.6286 0.9764
-2.3268 6.1596 -1.8640 0.9730
-1.9783 4.0888 -1.2859 0.9813
-2.1045 3.5105 -1.1587 0.9831
-2.1509 2.9531 -1.0342 0.9849
-2.5258 2.4123 -0.9887 0.9856
-4.8901 2.6341 -1.5724 0.9772
-6.6647 1.5308 -1.9359 0.9720
-6.7553 0.9268 -1.9303 0.9721
-6.7933 0.3188 -1.9253 0.9721
-6.7122 -0.8911 -1.9169 0.9722
-6.5944 -1.4845 -1.9135 0.9723
-4.4617 -5.0534 -1.9084 0.9724
-3.4994 -5.7799 -1.9128 0.9723
-2.4239 -6.3332 -1.9197 0.9722
-1.8527 -6.5391 -1.9241 0.9721
-1.2645 -6.6955 -1.9290 0.9721
0.5610 -6.8535 -1.9467 0.9718
1.7841 -6.6918 -1.9606 0.9716
2.3837 -6.5305 -1.9680 0.9715
2.9691 -6.3161 -1.9757 0.9714
3.5355 -6.0498 -1.9836 0.9713
4.0782 -5.7329 -1.9917 0.9712
5.0742 -4.9560 -2.0080 0.9709
5.5188 -4.5010 -2.0160 0.9708
5.9220 -4.0058 -2.0240 0.9707
6.2802 -3.4741 -2.0318 0.9706
7.0505 -1.7027 -2.0533 0.9703
7.1966 -1.0695 -2.0597 0.9702
7.2839 -0.4236 -2.0655 0.9701
7.2779 0.8834 -2.0754 0.9700
7.0291 2.1718 -2.0827 0.9699
6.5441 3.3949 -2.0870 0.9698
6.2040 3.9590 -2.0834 0.9699
4.9982 4.6272 -1.9282 0.9721
4.5619 5.0518 -1.9269 0.9721
4.0882 5.4335 -1.9249 0.9721
3.0466 6.0551 -1.9189 0.9722
1.9378 4.8981 -1.4912 0.9783
0.7260 6.6706 -1.8995 0.9725
0.1268 6.6873 -1.8935 0.9726
-0.4694 6.6491 -1.8870 0.9727
-0.8426 5.2238 -1.4979 0.9782
-1.4037 5.5123 -1.6103 0.9766
-2.1905 6.2163 -1.8658 0.9730
-2.7261 5.9719 -1.8584 0.9731
-2.0252 3.5563 -1.1586 0.9831
-3.5798 2.4803 -1.2329 0.9821
-4.6259 2.6270 -1.5060 0.9781
-6.2698 2.8530 -1.9501 0.9718
-6.4776 2.2739 -1.9435 0.9719
-6.7376 1.0785 -1.9316 0.9720
-4.7935 -3.9643 -1.9133 0.9743
-4.4218 -4.3782 -1.9139 0.9743
-3.1121 -5.4099 -1.9196 0.9742
-2.1072 -5.8977 -1.9263 0.9741
-1.5754 -6.0754 -1.9305 0.9741
-1.0289 -6.2068 -1.9351 0.9740
-0.4716 -6.2906 -1.9403 0.9739
0.0924 -6.3257 -1.9459 0.9739
1.2242 -6.2476 -1.9582 0.9737
1.7834 -6.1341 -1.9648 0.9736
2.3323 -5.9713 -1.9718 0.9735
2.8668 -5.7599 -1.9789 0.9734
4.3394 -4.8477 -2.0012 0.9731
4.7729 -4.4573 -2.0086 0.9730
6.1174 -2.5394 -2.0372 0.9727
6.3399 -1.9892 -2.0438 0.9726
6.5118 -1.4192 -2.0499 0.9725
6.6599 0.9601 -2.0696 0.9722
6.5586 1.5537 -2.0731 0.9722
6.4023 2.1363 -2.0759 0.9721
5.9303 3.2469 -2.0795 0.9721
5.6184 3.7649 -2.0802 0.9721
4.5027 4.3597 -1.9277 0.9741
4.0776 4.7239 -1.9194 0.9742
2.3186 4.8771 -1.6610 0.9777
1.8141 4.9035 -1.6081 0.9784
-0.0210 6.1373 -1.8877 0.9746
-0.9652 5.2357 -1.6375 0.9780
-1.5398 5.5262 -1.7645 0.9763
-2.1394 5.6636 -1.8621 0.9750
-2.0114 3.3551 -1.2032 0.9838
-2.1413 2.9400 -1.1187 0.9849
-3.0147 2.4031 -1.1858 0.9840
-5.6051 3.0193 -1.9582 0.9737
-6.0148 1.9614 -1.9459 0.9739
-6.1482 1.4122 -1.9403 0.9739
-6.2696 0.2942 -1.9305 0.9741
-6.2573 -0.2664 -1.9263 0.9741
-4.5181 -4.2776 -1.9137 0.9743
-4.1205 -4.6669 -1.9149 0.9743
-3.6905 -5.0209 -1.9166 0.9743
-3.2312 -5.3370 -1.9190 0.9742
-2.7458 -5.6128 -1.9219 0.9742
-2.2375 -5.8462 -1.9254 0.9741
-1.1668 -6.1784 -1.9339 0.9740
-0.0491 -6.3215 -1.9444 0.9739
2.1962 -6.0167 -1.9700 0.9736
2.7346 -5.8173 -1.9771 0.9735
3.2553 -5.5703 -1.9844 0.9734
3.7537 -5.2769 -1.9918 0.9733
4.6676 -4.5588 -2.0068 0.9731
5.7714 -3.1927 -2.0287 0.9728
6.0540 -2.6735 -2.0356 0.9727
6.2889 -2.1289 -2.0422 0.9726
6.6061 -0.9817 -2.0542 0.9724
6.6766 0.8104 -2.0686 0.9722
6.5891 1.4060 -2.0723 0.9722
6.2498 2.5625 -2.0776 0.9721
6.0006 3.1130 -2.0792 0.9721
4.1832 4.6324 -1.9198 0.9742
3.7492 4.9828 -1.9180 0.9742
1.9374 4.8971 -1.6198 0.9782
0.6665 6.1241 -1.8948 0.9745
0.1165 6.1410 -1.8892 0.9746
-0.4312 6.1076 -1.8832 0.9747
-0.8424 5.2226 -1.6271 0.9781
-2.0140 5.7153 -1.8638 0.9750
-2.5072 5.4924 -1.8570 0.9750
-1.9848 3.4853 -1.2337 0.9834
-2.4398 2.4369 -1.0606 0.9857
-3.6372 2.5201 -1.3610 0.9817
-5.5408 3.1466 -1.9599 0.9737
-6.1194 1.5505 -1.9417 0.9739
-6.2650 0.4347 -1.9316 0.9741
-6.2649 -0.1263 -1.9273 0.9741
-4.4488 -3.6793 -1.9190 0.9760
-4.1037 -4.0633 -1.9196 0.9760
-3.3204 -4.7359 -1.9226 0.9759
-2.8876 -5.0196 -1.9249 0.9759
-2.4313 -5.2653 -1.9278 0.9759
-1.4611 -5.6349 -1.9350 0.9758
2.1599 -5.5298 -1.9734 0.9753
2.6541 -5.3326 -1.9800 0.9752
3.1304 -5.0916 -1.9868 0.9751
4.7806 -3.7240 -2.0143 0.9748
5.1111 -3.2930 -2.0211 0.9747
5.4022 -2.8325 -2.0276 0.9746
5.8553 -1.8371 -2.0399 0.9745
6.1214 -0.7701 -2.0508 0.9743
6.1881 0.3328 -2.0599 0.9742
6.0506 1.4334 -2.0669 0.9741
5.9058 1.9706 -2.0695 0.9741
5.4697 2.9947 -2.0728 0.9741
5.1820 3.4724 -2.0735 0.9740
4.8480 3.9189 -2.0722 0.9741
3.8212 4.4269 -1.9439 0.9757
3.3537 4.6713 -1.9115 0.9761
2.9194 4.9460 -1.9091 0.9761
1.3367 4.9275 -1.6971 0.9787
0.8778 4.9514 -1.6715 0.9790
0.4883 5.6630 -1.8894 0.9763
-1.5073 5.4098 -1.8668 0.9766
-2.1131 2.9013 -1.1931 0.9850
-2.4849 2.3732 -1.1422 0.9856
-5.1933 2.7974 -1.9608 0.9754
-5.4061 2.3154 -1.9549 0.9755
-5.5754 1.8181 -1.9493 0.9756
-5.7803 0.7930 -1.9394 0.9757
-5.8045 -0.2471 -1.9312 0.9758
-5.7491 -0.7632 -1.9278 0.9758
-5.5068 -1.7692 -1.9226 0.9759
-4.1932 -3.9700 -1.9194 0.9760
-3.4247 -4.6592 -1.9221 0.9759
-1.5860 -5.5979 -1.9340 0.9758
0.4794 -5.8571 -1.9534 0.9755
2.0339 -5.5721 -1.9717 0.9753
3.0131 -5.1560 -1.9851 0.9751
3.9094 -4.5691 -1.9988 0.9750
4.3168 -4.2162 -2.0058 0.9749
5.3332 -2.9503 -2.0260 0.9746
5.5930 -2.4699 -2.0323 0.9746
5.8086 -1.9663 -2.0384 0.9745
6.0988 -0.9063 -2.0495 0.9743
6.1702 -0.3588 -2.0545 0.9743
6.0790 1.2972 -2.0662 0.9741
5.9467 1.8374 -2.0689 0.9741
5.5346 2.8712 -2.0726 0.9741
4.5629 4.2242 -2.0669 0.9741
3.9777 4.4049 -1.9729 0.9753
2.5785 5.1247 -1.9069 0.9761
1.4540 4.9213 -1.7058 0.9786
0.6154 5.6544 -1.8906 0.9763
0.1076 5.6713 -1.8855 0.9764
-0.8979 5.5666 -1.8743 0.9765
-1.3870 5.4467 -1.8683 0.9766
-1.8618 5.2835 -1.8621 0.9767
-2.3228 5.0882 -1.8592 0.9767
-2.2176 2.6513 -1.1490 0.9855
-2.4027 2.3999 -1.1288 0.9858
-2.8627 2.3886 -1.2393 0.9844
-3.6580 2.5345 -1.4793 0.9814
-5.1334 2.9152 -1.9623 0.9754
-5.3569 2.4376 -1.9563 0.9755
-3.4730 -4.1157 -1.9258 0.9774
-3.0941 -4.4132 -1.9274 0.9774
-1.8209 -5.0966 -1.9354 0.9773
-1.3610 -5.2486 -1.9390 0.9772
-0.4071 -5.4307 -1.9475 0.9771
0.5685 -5.4443 -1.9575 0.9770
1.5369 -5.2865 -1.9688 0.9769
2.0091 -5.1437 -1.9748 0.9768
3.3324 -4.4693 -1.9936 0.9766
3.7303 -4.1672 -2.0001 0.9765
4.1007 -3.8296 -2.0065 0.9764
4.7463 -3.0579 -2.0191 0.9763
5.5786 -1.2158 -2.0418 0.9760
5.6784 -0.7144 -2.0466 0.9760
5.7320 -0.2048 -2.0511 0.9759
5.7385 0.3087 -2.0551 0.9759
5.6977 0.8214 -2.0586 0.9758
5.6096 1.3289 -2.0616 0.9758
5.4749 1.8268 -2.0640 0.9758
5.2945 2.3106 -2.0658 0.9758
5.0700 2.7759 -2.0670 0.9757
4.4965 3.6348 -2.0676 0.9757
2.7066 4.5855 -1.9041 0.9776
2.2829 4.8020 -1.9014 0.9777
1.3167 4.8539 -1.7985 0.9789
0.8653 4.8808 -1.7726 0.9792
0.4531 5.2542 -1.8859 0.9778
-0.4864 5.2231 -1.8759 0.9780
-1.9966 3.3304 -1.3886 0.9836
-2.0910 2.8709 -1.2701 0.9850
-3.1055 2.4754 -1.4202 0.9833
-5.0319 2.1551 -1.9576 0.9770
-5.1906 1.6926 -1.9524 0.9771
-5.3832 0.7385 -1.9431 0.9772
-5.4073 -0.2302 -1.9354 0.9773
-4.7494 -2.5317 -1.9247 0.9774
-4.5029 -2.9449 -1.9241 0.9774
-4.2217 -3.3352 -1.9240 0.9774
-3.5636 -4.0362 -1.9255 0.9774
-3.1914 -4.3418 -1.9270 0.9774
-2.3735 -4.8519 -1.9316 0.9773
-1.9337 -5.0524 -1.9346 0.9773
-0.5283 -5.4170 -1.9464 0.9771
-0.0424 -5.4558 -1.9511 0.9771
0.4462 -5.4520 -1.9562 0.9770
1.4172 -5.3156 -1.9673 0.9769
1.8920 -5.1834 -1.9732 0.9768
3.6331 -4.2462 -1.9984 0.9765
4.0108 -3.9173 -2.0049 0.9765
4.3584 -3.5547 -2.0113 0.9764
4.6730 -3.1610 -2.0175 0.9763
4.9517 -2.7392 -2.0236 0.9762
5.3906 -1.8248 -2.0352 0.9761
5.7229 -0.3328 -2.0500 0.9759
5.7413 0.1801 -2.0541 0.9759
5.7123 0.6934 -2.0578 0.9759
5.6360 1.2026 -2.0609 0.9758
5.3438 2.1911 -2.0654 0.9758
4.5769 3.5333 -2.0677 0.9757
3.8615 4.2762 -2.0604 0.9758
3.3592 4.4646 -1.9980 0.9765
2.3907 4.7515 -1.9021 0.9777
1.9080 4.8229 -1.8548 0.9782
1.4323 4.8478 -1.8077 0.9788
0.9766 4.8719 -1.7769 0.9791
0.5709 5.2459 -1.8871 0.9778
0.0998 5.2626 -1.8823 0.9779
-0.8335 5.1677 -1.8719 0.9780
-1.2879 5.0576 -1.8663 0.9781
-2.1708 2.5953 -1.2099 0.9857
-2.9925 2.4969 -1.3937 0.9836
-5.1547 1.8095 -1.9536 0.9771
-5.3683 0.8593 -1.9442 0.9772
-5.4135 -0.1091 -1.9363 0.9773
-3.2482 -3.8493 -1.9302 0.9787
-2.5162 -4.3739 -1.9337 0.9786
-1.7025 -4.7652 -1.9392 0.9786
-1.2723 -4.9068 -1.9425 0.9785
-0.8306 -5.0105 -1.9463 0.9785
-0.3805 -5.0756 -1.9505 0.9784
1.4354 -4.9373 -1.9704 0.9782
1.8760 -4.8029 -1.9760 0.9782
2.3042 -4.6296 -1.9817 0.9781
3.1096 -4.1706 -1.9936 0.9780
3.4802 -3.8878 -1.9996 0.9779
4.1409 -3.2257 -2.0115 0.9778
5.2894 -0.6654 -2.0430 0.9774
5.3385 -0.1907 -2.0471 0.9774
5.2227 1.2373 -2.0568 0.9773
5.0969 1.7007 -2.0591 0.9772
4.7194 2.5840 -2.0619 0.9772
4.4710 2.9960 -2.0625 0.9772
3.5114 4.0679 -2.0593 0.9772
2.6752 4.5323 -2.0168 0.9777
1.7219 4.6544 -1.9018 0.9790
0.8596 4.8485 -1.8870 0.9791
0.4221 4.8950 -1.8828 0.9792
-0.0168 4.9016 -1.8784 0.9792
-0.4550 4.8862 -1.8806 0.9792
-0.9080 4.9253 -1.9193 0.9788
-1.8496 4.8963 -2.0057 0.9778
-2.2773 4.7070 -2.0038 0.9779
-2.4784 2.3670 -1.3133 0.9854
-3.0736 2.4500 -1.5063 0.9833
-4.2909 2.8330 -1.9704 0.9782
-4.5144 2.4318 -1.9650 0.9783
-4.8503 1.5816 -1.9551 0.9784
-2.3161 0.3177 -0.8959 0.9900
-2.2999 -0.0979 -0.8821 0.9902
-4.9229 -1.1082 -1.9337 0.9786
-4.2117 -2.7545 -1.9285 0.9787
-3.9487 -3.1196 -1.9285 0.9787
-3.3330 -3.7750 -1.9298 0.9787
-2.9847 -4.0607 -1.9313 0.9786
-2.6127 -4.3153 -1.9332 0.9786
-1.8080 -4.7240 -1.9384 0.9786
-0.4937 -5.0630 -1.9494 0.9784
-0.0396 -5.0984 -1.9539 0.9784
0.4169 -5.0940 -1.9586 0.9783
2.6150 -4.4747 -1.9861 0.9780
3.0133 -4.2359 -1.9921 0.9780
4.0647 -3.3151 -2.0100 0.9778
4.6160 -2.5536 -2.0216 0.9777
4.8388 -2.1368 -2.0271 0.9776
5.0233 -1.7005 -2.0323 0.9775
5.1677 -1.2480 -2.0373 0.9775
5.3303 -0.3100 -2.0461 0.9774
5.3467 0.1677 -2.0500 0.9773
5.2475 1.1197 -2.0562 0.9773
5.1324 1.5858 -2.0586 0.9773
4.9747 2.0397 -2.0604 0.9772
4.7756 2.4774 -2.0617 0.9772
3.9487 3.6556 -2.0621 0.9772
3.6042 3.9912 -2.0608 0.9772
3.2239 4.2848 -2.0549 0.9773
2.8031 4.5151 -2.0366 0.9775
2.3049 4.5810 -1.9652 0.9783
1.3987 4.7341 -1.8917 0.9791
0.9684 4.8306 -1.8880 0.9791
-0.3446 4.8811 -1.8752 0.9793
-0.7928 4.9155 -1.9080 0.9789
-1.2617 4.9544 -1.9592 0.9783
-1.7400 4.9378 -2.0063 0.9778
-1.9890 3.4926 -1.5402 0.9829
-2.0585 2.9635 -1.3828 0.9847
-2.1602 2.5826 -1.2903 0.9857
-2.3938 2.3909 -1.2965 0.9856
-2.9434 2.4560 -1.4691 0.9837
-4.2294 2.9304 -1.9718 0.9782
-4.6580 2.1196 -1.9612 0.9783
-4.8166 1.6908 -1.9562 0.9784
-4.9367 1.2509 -1.9516 0.9784
-5.0178 0.8032 -1.9474 0.9785
-2.2939 -0.0462 -0.8792 0.9902
-3.8928 -2.6722 -1.9325 0.9798
-3.3562 -3.3232 -1.9331 0.9798
-3.0476 -3.6115 -1.9340 0.9798
-2.7148 -3.8722 -1.9355 0.9798
-2.3604 -4.1033 -1.9374 0.9797
-1.5969 -4.4696 -1.9425 0.9797
-0.7789 -4.6986 -1.9493 0.9796
-0.3568 -4.7589 -1.9532 0.9796
0.4979 -4.7678 -1.9620 0.9795
0.9240 -4.7158 -1.9668 0.9794
1.7575 -4.4996 -1.9771 0.9793
2.1583 -4.3365 -1.9825 0.9793
2.9116 -3.9050 -1.9936 0.9792
3.8750 -3.0185 -2.0103 0.9790
4.5722 -1.8980 -2.0261 0.9788
4.9945 0.2686 -2.0471 0.9786
4.7624 1.5891 -2.0548 0.9785
4.6049 2.0096 -2.0563 0.9785
3.9104 3.1610 -2.0579 0.9785
2.9272 4.0773 -2.0542 0.9785
2.1438 4.5095 -2.0436 0.9787
1.2709 4.6847 -1.9866 0.9792
-1.3193 4.7351 -2.0118 0.9790
-1.7351 4.5932 -2.0095 0.9790
-2.1334 4.4095 -2.0048 0.9791
-2.0898 2.8692 -1.4528 0.9848
-2.4841 2.3725 -1.4059 0.9853
-3.0767 2.4525 -1.6103 0.9831
-4.2308 2.2790 -1.9668 0.9794
-4.5471 1.4828 -1.9574 0.9795
-2.0936 0.4809 -0.8792 0.9908
-2.0207 0.2772 -0.8348 0.9912
-2.0035 0.0940 -0.8209 0.9914
-2.0205 -0.2682 -0.8342 0.9912
-2.0910 -0.4707 -0.8772 0.9908
-4.5025 -1.4465 -1.9355 0.9798
-4.3520 -1.8415 -1.9341 0.9798
-3.9517 -2.5844 -1.9325 0.9798
-3.7050 -2.9270 -1.9325 0.9798
-3.1272 -3.5419 -1.9338 0.9798
-2.8002 -3.8097 -1.9351 0.9798
-2.4510 -4.0483 -1.9369 0.9798
-2.0820 -4.2560 -1.9391 0.9797
-1.6959 -4.4310 -1.9418 0.9797
-1.2954 -4.5720 -1.9449 0.9797
-0.4630 -4.7473 -1.9522 0.9796
-0.0372 -4.7798 -1.9563 0.9796
0.3908 -4.7749 -1.9608 0.9795
0.8177 -4.7324 -1.9655 0.9795
1.2403 -4.6522 -1.9705 0.9794
3.1734 -3.7089 -1.9978 0.9791
4.5258 -1.9986 -2.0249 0.9788
4.9272 -0.7322 -2.0387 0.9787
4.9826 -0.2898 -2.0427 0.9787
4.9972 0.1567 -2.0462 0.9786
4.7956 1.4817 -2.0543 0.9785
4.4618 2.3146 -2.0572 0.9785
3.6892 3.4154 -2.0576 0.9785
3.3679 3.7295 -2.0567 0.9785
2.6422 4.2558 -2.0502 0.9786
2.2456 4.4632 -2.0448 0.9786
1.3804 4.6719 -1.9938 0.9792
0.5189 4.7679 -1.9629 0.9795
-0.3425 4.8523 -1.9909 0.9792
-2.0356 4.4593 -2.0062 0.9790
-2.4190 4.2478 -2.0006 0.9791
-2.3943 2.3914 -1.3850 0.9855
-4.1814 2.3746 -1.9681 0.9794
-4.5153 1.5851 -1.9586 0.9795
-2.0106 0.1395 -0.8249 0.9913
-1.9954 -0.0402 -0.8168 0.9914
-3.4234 -2.8313 -1.9361 0.9808
-2.5540 -3.6428 -1.9389 0.9808
-2.2205 -3.8600 -1.9407 0.9808
-1.8690 -4.0475 -1.9429 0.9807
-1.5020 -4.2039 -1.9455 0.9807
-1.1222 -4.3279 -1.9485 0.9807
-0.7324 -4.4184 -1.9519 0.9806
-0.3355 -4.4746 -1.9556 0.9806
0.0657 -4.4958 -1.9596 0.9806
0.8685 -4.4322 -1.9684 0.9805
2.3895 -3.8865 -1.9883 0.9803
2.7343 -3.6671 -1.9936 0.9802
3.3608 -3.1386 -2.0041 0.9801
3.6371 -2.8332 -2.0093 0.9801
3.8855 -2.5034 -2.0144 0.9800
4.2895 -1.7806 -2.0241 0.9799
4.4413 -1.3935 -2.0286 0.9799
4.5576 -0.9933 -2.0329 0.9799
4.6371 -0.5834 -2.0369 0.9798
4.6790 -0.1671 -2.0405 0.9798
4.6826 0.2519 -2.0437 0.9797
4.5748 1.0838 -2.0490 0.9797
4.3162 1.8836 -2.0524 0.9797
4.1327 2.2627 -2.0534 0.9797
3.6650 2.9626 -2.0539 0.9796
3.3849 3.2774 -2.0534 0.9797
2.0146 4.2377 -2.0449 0.9797
0.3997 4.6348 -2.0274 0.9799
-0.0159 4.6436 -2.0238 0.9799
-0.8393 4.5527 -2.0176 0.9800
-1.6292 4.3130 -2.0093 0.9801
-2.2212 2.5380 -1.4699 0.9854
-4.1422 1.7741 -1.9639 0.9805
-1.4508 0.0681 -0.6330 0.9937
-1.4487 -0.0617 -0.6319 0.9937
-1.4835 -0.3340 -0.6627 0.9934
-1.4936 -0.4799 -0.6837 0.9932
-3.7180 -2.4316 -1.9361 0.9808
-3.4858 -2.7539 -1.9361 0.9808
-3.2266 -3.0548 -1.9364 0.9808
-2.9421 -3.3322 -1.9373 0.9808
-2.6344 -3.5840 -1.9385 0.9808
-2.3057 -3.8083 -1.9402 0.9808
-1.9585 -4.0034 -1.9423 0.9807
-1.5951 -4.1677 -1.9449 0.9807
-1.2183 -4.2999 -1.9477 0.9807
-0.8307 -4.3989 -1.9510 0.9807
0.3674 -4.4886 -1.9627 0.9805
0.7686 -4.4479 -1.9672 0.9805
2.3004 -3.9364 -1.9870 0.9803
2.9798 -3.4826 -1.9975 0.9802
3.5705 -2.9120 -2.0080 0.9801
3.8261 -2.5881 -2.0131 0.9800
4.5319 -1.0945 -2.0319 0.9799
4.6207 -0.6867 -2.0359 0.9798
4.6720 -0.2717 -2.0396 0.9798
4.5966 0.9808 -2.0484 0.9797
4.4952 1.3889 -2.0505 0.9797
3.9726 2.5351 -2.0538 0.9796
3.7305 2.8799 -2.0539 0.9796
3.4577 3.2010 -2.0536 0.9796
3.1566 3.4956 -2.0527 0.9797
2.1102 4.1941 -2.0462 0.9797
1.7231 4.3555 -2.0414 0.9798
0.9166 4.5726 -2.0324 0.9799
0.5036 4.6269 -2.0284 0.9799
0.0881 4.6449 -2.0247 0.9799
-0.7374 4.5719 -2.0183 0.9800
-1.9109 4.1860 -2.0054 0.9801
-2.2712 3.9882 -2.0002 0.9802
-2.0500 2.9512 -1.5660 0.9844
-2.8888 2.4103 -1.6397 0.9837
-3.7238 2.5801 -1.9744 0.9804
-4.1038 1.8674 -1.9650 0.9805
-1.4908 0.3778 -0.6703 0.9933
-1.4361 -0.0290 -0.6260 0.9938
-3.4541 -2.3711 -1.9393 0.9817
-2.7039 -3.2043 -1.9407 0.9817
-2.0939 -3.6399 -1.9437 0.9817
-1.7623 -3.8164 -1.9458 0.9816
-1.0580 -4.0801 -1.9511 0.9816
-0.6904 -4.1651 -1.9543 0.9816
0.0619 -4.2371 -1.9615 0.9815
1.1907 -4.0956 -1.9743 0.9814
2.5744 -3.4527 -1.9935 0.9812
3.1633 -2.9541 -2.0035 0.9811
3.6560 -2.3555 -2.0131 0.9810
3.8607 -2.0242 -2.0178 0.9810
4.0350 -1.6750 -2.0223 0.9809
4.1773 -1.3106 -2.0265 0.9809
4.2861 -0.9341 -2.0305 0.9809
4.3604 -0.5485 -2.0343 0.9808
4.3993 -0.1571 -2.0376 0.9808
4.4023 0.2368 -2.0407 0.9808
4.3692 0.6299 -2.0434 0.9807
4.3002 1.0187 -2.0456 0.9807
4.1958 1.4000 -2.0474 0.9807
3.8842 2.1266 -2.0498 0.9807
3.6795 2.4656 -2.0502 0.9807
3.4446 2.7844 -2.0502 0.9807
3.1814 3.0803 -2.0498 0.9807
2.8922 3.3506 -2.0488 0.9807
2.5796 3.5931 -2.0475 0.9807
2.2464 3.8058 -2.0456 0.9807
1.5297 4.1348 -2.0407 0.9808
1.1524 4.2481 -2.0375 0.9808
0.7668 4.3255 -2.0334 0.9808
0.3767 4.3687 -2.0297 0.9809
-0.0150 4.3774 -2.0263 0.9809
-0.4051 4.3501 -2.0223 0.9809
-1.1673 4.1896 -2.0132 0.9810
-2.6956 2.5744 -1.7254 0.9837
-1.2451 0.5333 -0.6270 0.9940
-1.2675 0.4133 -0.6171 0.9941
-1.2689 0.2915 -0.6026 0.9943
-1.2676 0.0595 -0.5874 0.9944
-1.2752 -0.1693 -0.5954 0.9943
-1.2684 -0.2855 -0.6018 0.9943
-1.2681 -0.4074 -0.6165 0.9941
-1.2467 -0.5275 -0.6266 0.9941
-3.5064 -2.2932 -1.9394 0.9817
-3.0429 -2.8810 -1.9397 0.9817
-2.7746 -3.1425 -1.9405 0.9817
-1.8467 -3.7749 -1.9452 0.9816
-1.5040 -3.9296 -1.9476 0.9816
-1.1486 -4.0539 -1.9504 0.9816
-0.7831 -4.1468 -1.9534 0.9816
-0.0329 -4.2353 -1.9605 0.9815
3.0945 -3.0223 -2.0022 0.9811
3.3603 -2.7406 -2.0071 0.9811
3.6002 -2.4353 -2.0120 0.9810
3.9943 -1.7639 -2.0212 0.9809
4.3451 -0.6457 -2.0334 0.9808
4.4049 0.1381 -2.0400 0.9808
4.3809 0.5318 -2.0427 0.9807
3.9304 2.0390 -2.0496 0.9807
3.7337 2.3826 -2.0502 0.9807
3.2498 3.0086 -2.0499 0.9807
2.9669 3.2855 -2.0491 0.9807
2.6599 3.5352 -2.0478 0.9807
2.3316 3.7555 -2.0461 0.9807
1.2478 4.2233 -2.0385 0.9808
0.8639 4.3094 -2.0344 0.9808
0.4746 4.3611 -2.0306 0.9808
0.0830 4.3784 -2.0271 0.9809
-0.3078 4.3604 -2.0234 0.9809
-1.4429 4.0947 -2.0096 0.9810
-2.1379 3.7542 -1.9998 0.9811
-2.4586 3.5394 -1.9948 0.9812
-3.7026 2.1027 -1.9709 0.9814
-1.2581 0.5725 -0.6398 0.9939
-1.2703 0.3219 -0.6066 0.9942
-1.2740 0.2039 -0.5972 0.9943
-1.2711 0.0882 -0.5898 0.9944
-1.2629 -0.0255 -0.5847 0.9944
-3.0514 -2.5236 -1.9423 0.9825
-2.8144 -2.7867 -1.9428 0.9825
-2.5554 -3.0282 -1.9436 0.9825
-1.9787 -3.4396 -1.9464 0.9825
-0.9996 -3.8548 -1.9534 0.9824
-0.6522 -3.9347 -1.9564 0.9824
-0.2987 -3.9839 -1.9597 0.9824
2.1236 -3.4540 -1.9889 0.9821
2.7170 -3.0352 -1.9982 0.9820
3.2286 -2.5150 -2.0075 0.9819
3.8045 -1.5793 -2.0206 0.9818
3.9382 -1.2356 -2.0246 0.9818
4.1487 0.2231 -2.0380 0.9817
4.0519 0.9599 -2.0426 0.9816
3.6595 2.0036 -2.0465 0.9816
3.2453 2.6233 -2.0469 0.9816
2.9973 2.9021 -2.0465 0.9816
1.7860 3.7569 -2.0405 0.9816
1.0862 4.0041 -2.0351 0.9817
0.7231 4.0787 -2.0319 0.9817
0.3553 4.1199 -2.0284 0.9817
-2.6703 3.0511 -1.9889 0.9821
-3.3607 2.2188 -1.9754 0.9822
-1.1053 0.5954 -0.6158 0.9944
-1.1440 0.1569 -0.5664 0.9949
-1.1411 0.0536 -0.5603 0.9949
-1.1286 -0.3626 -0.5815 0.9947
-1.1018 -0.5873 -0.6124 0.9945
-3.3139 -2.1673 -1.9423 0.9825
-3.1070 -2.4546 -1.9423 0.9825
-2.8759 -2.7228 -1.9426 0.9825
-2.6222 -2.9699 -1.9434 0.9825
-2.3478 -3.1941 -1.9445 0.9825
-2.0547 -3.3937 -1.9460 0.9825
-1.7450 -3.5671 -1.9479 0.9825
-1.4211 -3.7130 -1.9501 0.9824
-0.7398 -3.9176 -1.9556 0.9824
-0.3876 -3.9745 -1.9588 0.9824
1.3831 -3.7892 -1.9786 0.9822
1.7199 -3.6587 -1.9831 0.9821
2.3544 -3.3097 -1.9924 0.9821
2.9194 -2.8513 -2.0017 0.9820
3.9076 -1.3228 -2.0236 0.9818
4.0956 -0.6086 -2.0310 0.9817
4.1403 -0.2408 -2.0343 0.9817
4.1283 0.5011 -2.0399 0.9816
4.0714 0.8688 -2.0421 0.9816
3.8580 1.5818 -2.0453 0.9816
3.7031 1.9210 -2.0463 0.9816
2.5062 3.3308 -2.0447 0.9816
2.1969 3.5386 -2.0431 0.9816
1.8702 3.7170 -2.0410 0.9816
1.1760 3.9803 -2.0359 0.9817
0.8145 4.0632 -2.0327 0.9817
0.4476 4.1128 -2.0293 0.9817
0.0783 4.1288 -2.0256 0.9818
-0.2902 4.1112 -2.0217 0.9818
-0.6549 4.0605 -2.0175 0.9818
-1.0128 3.9771 -2.0131 0.9819
-2.3200 3.3398 -1.9947 0.9820
-2.6029 3.1119 -1.9901 0.9821
-3.3120 2.2947 -1.9765 0.9822
-1.1330 0.2871 -0.5733 0.9948
-1.1431 0.0793 -0.5621 0.9949
-3.0910 -2.1218 -1.9450 0.9832
-2.4195 -2.8672 -1.9462 0.9832
-1.8733 -3.2564 -1.9489 0.9832
-1.5764 -3.4140 -1.9508 0.9832
-1.2666 -3.5452 -1.9530 0.9832
-0.9461 -3.6489 -1.9555 0.9832
-0.6173 -3.7242 -1.9584 0.9831
-0.2827 -3.7704 -1.9615 0.9831
0.7310 -3.7309 -1.9723 0.9830
1.0635 -3.6581 -1.9763 0.9830
2.0082 -3.2662 -1.9891 0.9829
2.5686 -2.8695 -1.9979 0.9828
2.8209 -2.6344 -2.0023 0.9828
3.0516 -2.3771 -2.0067 0.9827
