ply
format ascii 1.0
element vertex 1595
property float32 x
property float32 y
property float32 z
property float32 I
end_header
11.6112 -9.2967 2.2787 0.9416
12.7268 8.2908 2.3269 0.9404
10.6501 8.3832 2.0764 0.9466
8.9661 8.4593 1.8884 0.9513
7.5537 8.5260 1.7450 0.9550
6.3304 8.5821 1.6337 0.9578
2.5149 8.8233 1.4055 0.9636
1.6877 8.8611 1.3819 0.9642
0.0815 8.7960 1.3476 0.9650
-3.9199 8.3683 1.4157 0.9633
-4.9261 8.4552 1.4991 0.9612
-6.5085 9.1749 1.7233 0.9555
-7.8827 9.2367 1.8602 0.9520
-9.5080 9.3097 2.0385 0.9476
-15.1746 8.4176 2.6584 0.9322
-8.6991 -8.7282 1.6047 0.9515
-11.0917 -16.0471 2.5403 0.9243
-7.4141 -16.3444 2.3371 0.9302
-3.0127 -8.6155 1.1885 0.9639
-4.1270 -16.3725 2.1987 0.9342
-2.6412 -16.6349 2.1933 0.9343
-1.1244 -16.5119 2.1552 0.9354
6.9609 -17.4613 2.4478 0.9270
17.0203 -8.7685 2.4932 0.9257
12.2013 8.3096 1.9223 0.9422
10.1550 8.3362 1.7109 0.9484
2.3597 8.9724 1.2081 0.9633
1.5255 9.0106 1.1901 0.9638
-0.0988 8.8016 1.1462 0.9651
-1.5639 8.1246 1.0774 0.9672
-2.3435 8.1612 1.1057 0.9663
-3.1721 8.2005 1.1450 0.9652
-4.0693 8.2432 1.1971 0.9636
-5.6147 9.1983 1.4033 0.9575
-6.8092 9.1934 1.4898 0.9549
-8.2308 9.2537 1.6127 0.9513
-9.8534 9.2601 1.7608 0.9469
-9.5705 -16.1184 2.4411 0.9272
-7.8031 -16.3050 2.3539 0.9297
-2.9890 -16.6187 2.1988 0.9342
0.0168 -17.2040 2.2403 0.9330
1.5031 -16.5729 2.1670 0.9351
8.1161 -16.8741 2.4383 0.9273
10.1005 -16.9352 2.5677 0.9235
16.1611 -10.7199 2.5254 0.9248
16.7098 -9.0466 2.4744 0.9262
7.5980 8.5759 1.4920 0.9548
6.3768 8.6450 1.3989 0.9576
2.6234 5.3406 0.7748 0.9763
-0.4574 5.6915 0.7435 0.9772
-1.3905 8.1164 1.0723 0.9673
-6.5567 9.2428 1.4757 0.9553
-13.8815 9.4141 2.1842 0.9346
-11.2015 -16.2060 2.1155 0.9238
-9.1436 -16.1441 1.9923 0.9281
-7.4544 -16.4333 1.9377 0.9300
-2.6420 -16.6401 1.8092 0.9345
-1.1248 -16.5170 1.7777 0.9356
0.3691 -17.1833 1.8456 0.9332
8.5592 -16.8997 2.0342 0.9266
14.7010 8.1926 1.8072 0.9345
12.1950 8.3052 1.5844 0.9424
10.1503 8.3323 1.4102 0.9485
8.8080 8.6582 1.3263 0.9515
6.2342 8.8247 1.1602 0.9575
3.2370 8.9611 1.0231 0.9624
1.5250 9.0078 0.9810 0.9639
0.7116 9.0771 0.9777 0.9640
-0.0988 8.7989 0.9449 0.9652
-1.5567 8.0872 0.8844 0.9674
-3.1625 8.1756 0.9413 0.9653
-5.7235 9.3767 1.1796 0.9568
-8.3581 9.3969 1.3504 0.9507
-11.1684 8.7558 1.5239 0.9445
-6.1499 -16.4941 1.8903 0.9316
-4.4828 -16.3616 1.8217 0.9340
-1.4640 -16.5013 1.7789 0.9355
2.7216 -9.8575 1.0981 0.9597
6.5284 -17.4049 1.9961 0.9279
8.1189 -16.8801 2.0114 0.9274
16.9747 5.4186 1.9134 0.9308
12.7132 8.2819 1.6293 0.9408
7.7302 8.7252 1.2517 0.9542
6.4647 8.7642 1.1694 0.9571
2.6205 5.3348 0.6382 0.9764
3.4426 8.9518 1.0299 0.9622
0.0815 8.7905 0.9440 0.9653
-0.4572 5.6891 0.6129 0.9773
-1.3839 8.0782 0.8801 0.9676
-2.1523 8.1191 0.9020 0.9668
-3.8483 8.2154 0.9742 0.9642
-8.0529 9.4362 1.3321 0.9513
-7.6272 6.2361 1.0579 0.9611
-9.1468 -16.1498 1.5712 0.9282
-7.4569 -16.4387 1.5281 0.9301
0.3692 -17.1886 1.4554 0.9333
4.9942 -16.7434 1.4791 0.9323
10.1456 8.3285 1.1112 0.9487
8.8530 8.7024 1.0509 0.9514
7.4253 8.7354 0.9705 0.9550
6.2319 8.8215 0.9143 0.9576
0.7075 9.0243 0.7663 0.9643
-0.0988 8.7961 0.7447 0.9653
-1.5532 8.0693 0.6956 0.9676
-2.3274 8.1052 0.7139 0.9667
-3.1501 8.1435 0.7392 0.9656
-5.0353 8.2492 0.8181 0.9619
-8.4509 9.5011 1.0764 0.9502
-9.8440 9.2512 1.1435 0.9472
-10.9168 8.5586 1.1743 0.9458
-13.5334 8.7785 1.3655 0.9373
-17.1405 7.1762 1.5730 0.9281
-7.8581 -16.4201 1.5410 0.9295
-6.1519 -16.4995 1.4907 0.9318
-2.9962 -16.6588 1.4328 0.9343
1.5040 -16.5833 1.4096 0.9353
3.0289 -16.6534 1.4329 0.9343
5.0634 -8.4897 0.8368 0.9611
7.5442 -8.6588 0.9722 0.9549
11.6133 -9.2983 1.2594 0.9420
9.2067 8.6864 1.0715 0.9505
6.4623 8.7609 0.9216 0.9572
2.6198 5.3332 0.5030 0.9764
3.4225 8.8996 0.8072 0.9624
2.5514 8.9513 0.7880 0.9633
-3.8294 8.1752 0.7642 0.9644
-9.6872 9.4852 1.1477 0.9470
-12.8371 8.7058 1.3130 0.9396
-8.8144 -8.8439 0.7743 0.9512
-9.1500 -16.1554 1.1513 0.9283
-7.3429 -16.1875 1.1022 0.9312
-2.6484 -16.6802 1.0473 0.9346
-1.1254 -16.5272 1.0272 0.9358
3.3873 -16.6751 1.0551 0.9341
4.9958 -16.7489 1.0838 0.9324
14.9014 8.3043 1.0578 0.9339
12.3630 8.4197 0.9275 0.9418
10.1409 8.3246 0.8136 0.9488
8.8256 8.6755 0.7674 0.9516
7.4484 8.7626 0.7132 0.9550
4.9651 8.5607 0.6137 0.9611
2.5163 5.3994 0.3694 0.9764
3.2349 8.9553 0.5904 0.9626
-0.0987 8.7934 0.5453 0.9654
-0.8988 8.8953 0.5544 0.9648
-1.9360 10.0580 0.6352 0.9598
-2.9010 10.1028 0.6518 0.9588
-4.4732 9.0612 0.6266 0.9603
-5.0399 8.2567 0.5998 0.9620
-6.9834 9.4287 0.7276 0.9541
-9.8393 9.2468 0.8373 0.9473
-13.3481 8.6584 0.9866 0.9382
-9.5807 -16.1355 1.1637 0.9276
-7.8364 -16.3746 1.1257 0.9298
-6.0578 -16.2471 1.0752 0.9329
-2.9971 -16.6640 1.0499 0.9344
1.5045 -16.5885 1.0329 0.9354
3.0299 -16.6587 1.0500 0.9344
8.0038 -9.1864 0.7555 0.9523
16.8939 5.3928 1.0997 0.9314
12.8880 8.3958 0.9538 0.9402
6.4599 8.7576 0.6748 0.9573
3.4404 8.9459 0.5943 0.9623
2.5516 8.9520 0.5772 0.9634
1.8524 9.7262 0.6140 0.9611
-0.4569 5.6844 0.3536 0.9774
-2.6754 10.0923 0.6474 0.9590
-9.6870 9.4850 0.8407 0.9471
-12.7113 8.6205 0.9524 0.9403
-3.0139 -8.6188 0.3600 0.9641
-4.1108 -16.3083 0.6632 0.9349
-1.1204 -16.4526 0.6502 0.9361
0.3694 -17.1992 0.6783 0.9335
3.3707 -16.5931 0.6676 0.9345
6.1629 -9.8677 0.4587 0.9545
7.5132 -9.9295 0.4910 0.9514
12.3566 8.4153 0.5895 0.9419
10.1362 8.3208 0.5171 0.9489
8.8456 8.6951 0.4891 0.9516
6.2274 8.8150 0.4256 0.9577
4.9634 8.5578 0.3901 0.9612
2.5170 5.4010 0.2350 0.9764
2.5487 9.6910 0.3951 0.9607
1.6561 9.7822 0.3912 0.9611
0.7110 9.0686 0.3587 0.9642
-0.9022 8.9295 0.3539 0.9647
-1.9354 10.0548 0.4038 0.9598
-3.5052 9.0615 0.3831 0.9619
-6.9807 9.4249 0.4625 0.9541
-8.4436 9.4930 0.5010 0.9504
-13.2720 8.6090 0.6238 0.9386
-7.7650 -16.2255 0.7093 0.9305
-6.0472 -16.2186 0.6825 0.9331
-4.4637 -16.2919 0.6661 0.9346
3.0150 -16.5768 0.6644 0.9348
2.7068 -9.8040 0.4010 0.9601
6.5349 -17.4224 0.7337 0.9282
4.6897 -9.7504 0.4267 0.9576
16.8870 5.3905 0.6990 0.9315
12.8812 8.3914 0.6062 0.9403
10.7823 8.4873 0.5411 0.9466
7.7480 8.7454 0.4607 0.9543
6.4575 8.7544 0.4289 0.9574
5.1942 8.5472 0.3944 0.9608
2.6266 5.3471 0.2349 0.9764
3.4392 8.9430 0.3778 0.9624
2.5518 8.9526 0.3670 0.9634
-0.4567 5.6820 0.2248 0.9774
-2.6745 10.0891 0.4116 0.9591
-4.2379 9.0472 0.3939 0.9608
-8.0872 9.4764 0.4912 0.9514
-9.6868 9.4848 0.5346 0.9472
-7.5612 6.1821 0.3851 0.9617
-12.6517 8.5801 0.6028 0.9406
-9.1563 -16.1667 0.3138 0.9284
-7.3709 -16.2492 0.3014 0.9311
-3.0143 -8.6201 0.1543 0.9641
-4.1336 -16.3985 0.2857 0.9346
-2.6147 -16.4685 0.2817 0.9355
-1.1261 -16.5374 0.2800 0.9358
0.3695 -17.2045 0.2907 0.9335
1.8509 -16.6147 0.2824 0.9353
3.3895 -16.6856 0.2876 0.9342
4.9991 -16.7598 0.2954 0.9324
6.1652 -9.8714 0.1966 0.9545
7.5162 -9.9335 0.2104 0.9514
14.8840 8.2946 0.2878 0.9341
10.1316 8.3170 0.2214 0.9489
8.8418 8.6915 0.2094 0.9516
6.2046 8.7828 0.1816 0.9579
4.9617 8.5548 0.1671 0.9612
2.5479 9.6880 0.1692 0.9607
1.6556 9.7792 0.1675 0.9611
0.7108 9.0659 0.1536 0.9643
-0.0987 8.7880 0.1485 0.9655
-0.9029 8.9365 0.1517 0.9647
-1.9348 10.0517 0.1729 0.9599
-2.8992 10.0962 0.1774 0.9588
-3.5327 9.1326 0.1654 0.9616
-5.7150 9.3628 0.1853 0.9571
-6.9779 9.4212 0.1980 0.9542
-9.8300 9.2381 0.2279 0.9475
-12.3334 9.6692 0.2647 0.9392
-14.6899 9.5287 0.2958 0.9323
-17.1177 7.1667 0.3135 0.9284
-7.7676 -16.2309 0.3039 0.9305
-6.0808 -16.3088 0.2940 0.9327
-4.4885 -16.3824 0.2869 0.9343
3.0318 -16.6691 0.2862 0.9345
4.7048 -9.7818 0.1834 0.9575
7.1900 -9.9185 0.2069 0.9522
8.0301 -9.2166 0.2064 0.9523
11.6160 -9.3006 0.2514 0.9422
10.7772 8.4833 0.2317 0.9466
3.4381 8.9401 0.1618 0.9624
2.5520 8.9532 0.1572 0.9634
1.8513 9.7201 0.1671 0.9612
-0.4565 5.6796 0.0962 0.9775
-1.7203 10.0417 0.1721 0.9601
-2.6737 10.0858 0.1763 0.9591
-5.4476 9.3504 0.1828 0.9576
-9.6866 9.4846 0.2290 0.9472
-14.3988 9.7649 0.2939 0.9328
-3.0147 -8.6213 -0.0514 0.9641
-2.6077 -16.4242 -0.0936 0.9356
-1.1231 -16.4927 -0.0931 0.9360
6.1012 -15.3046 -0.0928 0.9362
7.5192 -9.9375 -0.0702 0.9514
14.8753 8.2898 -0.0959 0.9342
12.3440 8.4067 -0.0841 0.9420
8.8091 8.6592 -0.0695 0.9518
3.2318 8.9467 -0.0536 0.9627
2.5471 9.6850 -0.0564 0.9607
1.6467 9.7265 -0.0555 0.9613
0.7082 9.0332 -0.0510 0.9644
-0.0986 8.7853 -0.0495 0.9655
-2.8982 10.0929 -0.0591 0.9589
-5.7129 9.3593 -0.0617 0.9571
-6.9751 9.4175 -0.0660 0.9542
-3.5885 2.8134 -0.0257 0.9819
-17.1412 7.1765 -0.1046 0.9284
-11.5592 -16.0116 -0.1112 0.9240
-9.5618 -16.1037 -0.1054 0.9278
-6.1412 -16.4706 -0.0990 0.9321
-2.9512 -16.4083 -0.0939 0.9355
0.0159 -16.2224 -0.0913 0.9372
1.5204 -16.7639 -0.0948 0.9349
3.0236 -16.6239 -0.0951 0.9346
4.7064 -9.7852 -0.0611 0.9575
8.0319 -9.2186 -0.0688 0.9523
16.9372 5.4066 -0.1001 0.9314
9.1607 8.6430 -0.0709 0.9509
7.7149 8.7079 -0.0655 0.9545
6.4528 8.7479 -0.0612 0.9574
2.6332 5.3605 -0.0336 0.9764
3.4370 8.9372 -0.0539 0.9624
2.5521 8.9538 -0.0524 0.9634
1.8507 9.7171 -0.0557 0.9612
0.8940 9.0247 -0.0511 0.9644
0.0814 8.7770 -0.0494 0.9655
-0.4563 5.6772 -0.0321 0.9775
-1.7197 10.0386 -0.0573 0.9601
-2.6728 10.0826 -0.0587 0.9591
-3.4420 9.4707 -0.0567 0.9605
-5.4456 9.3470 -0.0609 0.9577
-8.0804 9.4684 -0.0701 0.9514
-3.8215 3.1245 -0.0278 0.9804
-16.5724 -9.4594 -0.5373 0.9265
-14.1089 -14.1561 -0.5628 0.9231
-11.2481 -16.2733 -0.5570 0.9239
-7.3758 -16.2599 -0.5027 0.9310
-2.6164 -16.4790 -0.4698 0.9354
-1.1268 -16.5474 -0.4670 0.9358
0.3381 -15.7415 -0.4434 0.9389
3.3916 -16.6962 -0.4797 0.9341
2.9161 -9.7766 -0.2873 0.9600
5.9296 -14.8742 -0.4509 0.9379
6.1698 -9.8787 -0.3280 0.9545
7.5222 -9.9414 -0.3510 0.9513
12.3377 8.4024 -0.4203 0.9420
10.1223 8.3094 -0.3688 0.9489
8.8054 8.6556 -0.3477 0.9518
3.2307 8.9438 -0.2678 0.9627
2.5463 9.6819 -0.2819 0.9607
1.6462 9.7235 -0.2777 0.9613
0.7080 9.0305 -0.2551 0.9644
-0.0986 8.7826 -0.2473 0.9655
-0.9024 8.9319 -0.2528 0.9647
-4.4985 9.1126 -0.2861 0.9601
-5.7108 9.3558 -0.3086 0.9571
-2.9638 3.3322 -0.1256 0.9823
-5.2847 2.7914 -0.1683 0.9764
-17.5658 -7.6076 -0.5390 0.9263
-8.2765 -9.5370 -0.3556 0.9507
-11.5984 -16.0660 -0.5580 0.9238
-9.5941 -16.1580 -0.5291 0.9276
-7.7727 -16.2417 -0.5070 0.9305
-2.9610 -16.4631 -0.4710 0.9353
-1.4667 -16.5317 -0.4673 0.9357
0.0154 -15.7266 -0.4428 0.9390
2.6983 -9.7731 -0.2855 0.9602
5.9044 -15.7414 -0.4734 0.9349
5.8628 -9.8300 -0.3223 0.9552
7.1956 -9.9263 -0.3452 0.9521
16.9914 5.4239 -0.5022 0.9311
12.8609 8.3781 -0.4322 0.9404
10.7671 8.4754 -0.3858 0.9466
9.1568 8.6393 -0.3545 0.9509
2.5523 8.9544 -0.2622 0.9634
-2.6719 10.0793 -0.2936 0.9591
-3.4419 9.4703 -0.2837 0.9605
-5.4437 9.3436 -0.3045 0.9577
-3.0298 2.9667 -0.1194 0.9832
-3.3038 2.7013 -0.1202 0.9831
-4.0123 2.7211 -0.1365 0.9808
-4.9971 2.7720 -0.1609 0.9774
-13.3131 -7.5991 -0.7774 0.9405
-10.9898 -7.6505 -0.6791 0.9478
-9.4072 -7.8851 -0.6225 0.9520
-7.3783 -16.2653 -0.9058 0.9310
-2.6488 -16.6830 -0.8567 0.9346
1.1588 -10.4018 -0.5308 0.9589
3.3927 -16.7015 -0.8643 0.9340
5.9431 -14.9079 -0.8139 0.9377
9.5415 -8.7846 -0.6577 0.9494
13.8623 -8.7914 -0.8325 0.9364
17.2327 -8.8780 -0.9831 0.9253
10.3888 3.5524 -0.5568 0.9570
14.4919 8.0761 -0.8414 0.9357
12.0275 8.1912 -0.7380 0.9434
7.4340 8.7456 -0.5821 0.9551
6.1978 8.7732 -0.5448 0.9579
4.9565 8.5459 -0.5010 0.9612
3.2297 8.9409 -0.4821 0.9626
0.7101 9.0575 -0.4608 0.9643
-0.0986 8.7799 -0.4453 0.9654
-0.9022 8.9296 -0.4552 0.9647
-2.8963 10.0864 -0.5322 0.9588
-3.5303 9.1265 -0.4963 0.9616
-5.7087 9.3524 -0.5557 0.9571
-2.9578 2.7797 -0.2058 0.9839
-4.1424 2.6870 -0.2504 0.9804
-17.2415 7.2185 -0.9479 0.9279
-17.0048 -7.3646 -0.9398 0.9285
-13.7866 -7.4990 -0.7959 0.9391
-11.5035 -7.6630 -0.7010 0.9461
-8.4110 -8.1002 -0.5922 0.9543
-7.0851 -8.1641 -0.5482 0.9576
-5.8485 -8.1012 -0.5067 0.9608
-7.7753 -16.2471 -0.9135 0.9304
-6.1569 -16.5128 -0.8937 0.9318
-2.9977 -16.6670 -0.8588 0.9344
3.0347 -16.6849 -0.8600 0.9343
2.6932 -9.7546 -0.5132 0.9603
5.8074 -15.4830 -0.8386 0.9359
5.8629 -9.8303 -0.5805 0.9552
7.1985 -9.9302 -0.6220 0.9521
7.5337 -8.6468 -0.5816 0.9551
9.0633 -8.6942 -0.6369 0.9509
10.8763 -8.7083 -0.7066 0.9457
13.3659 -8.8659 -0.8134 0.9378
16.2269 -8.7852 -0.9358 0.9288
10.6147 3.3883 -0.5651 0.9564
10.4969 8.2627 -0.6775 0.9479
9.1529 8.6356 -0.6382 0.9508
7.7088 8.7011 -0.5895 0.9545
6.4480 8.7415 -0.5509 0.9574
3.4348 8.9314 -0.4853 0.9624
1.8495 9.7111 -0.5013 0.9612
0.8964 9.0489 -0.4612 0.9642
0.0813 8.7716 -0.4449 0.9655
-1.7187 10.0323 -0.5162 0.9601
-2.6711 10.0761 -0.5286 0.9591
-3.4418 9.4699 -0.5110 0.9604
-4.2645 9.1040 -0.5098 0.9605
-5.4417 9.3401 -0.5482 0.9576
-2.8044 3.9533 -0.2458 0.9808
-4.9010 2.7187 -0.2842 0.9778
-13.0855 -7.4691 -1.1047 0.9414
-7.8339 -7.8602 -0.8137 0.9565
-5.5491 -8.0282 -0.7156 0.9616
-3.7237 -8.2090 -0.6609 0.9645
-2.8856 -8.2519 -0.6410 0.9655
-1.3262 -8.3527 -0.6201 0.9666
-0.5748 -8.4403 -0.6203 0.9666
0.1804 -8.4013 -0.6161 0.9669
0.9342 -8.3861 -0.6187 0.9667
3.4281 -8.5993 -0.6788 0.9636
5.3727 -8.6025 -0.7437 0.9601
9.2836 -8.5472 -0.9253 0.9506
11.2791 -8.6575 -1.0425 0.9446
11.4553 2.8035 -0.8647 0.9538
14.4834 8.0714 -1.2157 0.9357
12.0214 8.1870 -1.0664 0.9433
7.4311 8.7422 -0.8413 0.9550
2.5275 5.4235 -0.4387 0.9763
3.2287 8.9381 -0.6968 0.9626
0.7099 9.0547 -0.6659 0.9642
-0.0976 8.6920 -0.6374 0.9657
-0.8971 8.8787 -0.6543 0.9648
-1.9324 10.0390 -0.7496 0.9598
-3.5180 9.0945 -0.7150 0.9616
-2.6494 3.5771 -0.3264 0.9823
-3.3568 2.6316 -0.3127 0.9830
-4.0786 2.6456 -0.3565 0.9807
-17.0892 -7.4012 -1.3655 0.9280
-11.4592 -7.6335 -1.0096 0.9463
-8.1661 -7.8643 -0.8313 0.9555
-5.7697 -7.9921 -0.7227 0.9612
-4.8428 -8.1561 -0.6955 0.9627
-3.8477 -8.0400 -0.6535 0.9649
0.0082 -8.3310 -0.6108 0.9671
1.5453 -8.4961 -0.6332 0.9660
2.3173 -8.3932 -0.6384 0.9657
3.1810 -8.4807 -0.6641 0.9643
4.1240 -8.5743 -0.6976 0.9626
5.0621 -8.4876 -0.7246 0.9611
7.4703 -8.5740 -0.8338 0.9554
8.8632 -8.5022 -0.9005 0.9519
10.7348 -8.5950 -1.0083 0.9463
13.1452 -8.7195 -1.1566 0.9387
9.4418 3.0139 -0.7267 0.9610
9.3512 3.9366 -0.7439 0.9601
12.5308 8.1631 -1.0965 0.9418
10.4920 8.2588 -0.9790 0.9479
9.1490 8.6319 -0.9223 0.9508
7.7328 8.7281 -0.8550 0.9543
6.4456 8.7382 -0.7962 0.9574
5.1851 8.5322 -0.7321 0.9607
2.5527 8.9556 -0.6828 0.9633
1.8584 9.7576 -0.7283 0.9609
0.8961 9.0461 -0.6665 0.9642
0.0806 8.6920 -0.6373 0.9657
-0.4557 5.6701 -0.4171 0.9774
-1.7181 10.0291 -0.7461 0.9600
-2.6702 10.0728 -0.7641 0.9591
-3.4416 9.4695 -0.7388 0.9604
-3.9334 8.3972 -0.6799 0.9635
-5.4397 9.3367 -0.7923 0.9576
-2.6485 3.7335 -0.3356 0.9818
-2.7069 3.1719 -0.3057 0.9834
-4.8185 2.6729 -0.4040 0.9781
-3.6539 -8.0550 -0.8492 0.9651
-2.8985 -8.2890 -0.8430 0.9653
-0.5647 -8.2930 -0.7980 0.9671
0.9332 -8.3774 -0.8092 0.9667
1.7036 -8.3866 -0.8216 0.9662
2.4848 -8.3305 -0.8346 0.9657
4.2261 -8.3443 -0.8980 0.9631
6.4641 -8.5431 -1.0285 0.9579
7.7385 -8.5227 -1.1052 0.9548
9.2831 -8.5467 -1.2114 0.9506
11.2552 -8.6392 -1.3622 0.9446
16.9106 -8.7120 -1.8263 0.9264
10.9264 2.6741 -1.0800 0.9558
8.9455 3.0589 -0.9076 0.9627
8.8765 3.9528 -0.9329 0.9617
14.4749 8.0667 -1.5909 0.9356
12.0152 8.1828 -1.3956 0.9433
10.0793 8.2741 -1.2519 0.9489
6.2138 8.7957 -1.0339 0.9576
4.9531 8.5400 -0.9478 0.9611
1.6446 9.7145 -0.9459 0.9612
-1.9318 10.0358 -0.9812 0.9598
-2.8945 10.0798 -1.0068 0.9587
-3.5173 9.0927 -0.9360 0.9616
-4.0151 8.1334 -0.8708 0.9642
-2.6422 2.9706 -0.3817 0.9842
-4.0232 2.6097 -0.4604 0.9809
-16.6907 -7.2286 -1.7462 0.9295
-13.6350 -7.4165 -1.4901 0.9395
-11.4302 -7.6142 -1.3185 0.9463
-9.7049 -7.8017 -1.1955 0.9512
-8.0169 -7.7206 -1.0685 0.9563
-4.6699 -7.8649 -0.8781 0.9639
-3.8125 -7.9665 -0.8479 0.9651
-2.2433 -8.1877 -0.8150 0.9665
-1.5085 -8.3874 -0.8182 0.9663
-0.7167 -8.0784 -0.7786 0.9679
0.7400 -8.1590 -0.7865 0.9676
1.5170 -8.3404 -0.8139 0.9665
4.0135 -8.3445 -0.8890 0.9635
13.1877 -8.7477 -1.5193 0.9384
16.0438 -8.6860 -1.7515 0.9293
18.8962 -6.2050 -1.9094 0.9232
8.8382 3.7207 -0.9206 0.9622
12.5242 8.1588 -1.4350 0.9417
10.4870 8.2549 -1.2813 0.9478
8.9228 8.4185 -1.1777 0.9519
6.4432 8.7350 -1.0421 0.9573
5.1833 8.5292 -0.9582 0.9607
3.4326 8.9256 -0.9181 0.9623
1.8578 9.7546 -0.9533 0.9609
0.8958 9.0433 -0.8725 0.9641
0.0767 8.2784 -0.7948 0.9673
-0.4555 5.6678 -0.5459 0.9774
-1.7176 10.0260 -0.9766 0.9599
-2.6694 10.0695 -1.0001 0.9590
-2.5233 3.5570 -0.4187 0.9826
-3.8401 2.6043 -0.4455 0.9815
-4.7412 2.6300 -0.5205 0.9784
-14.2060 6.2928 -1.4917 0.9395
-14.5859 -6.6753 -1.9054 0.9374
-10.9180 -7.6006 -1.5802 0.9478
-9.1619 -7.6795 -1.4200 0.9530
-7.7757 -7.8017 -1.3084 0.9566
-5.4325 -7.8596 -1.1349 0.9622
-0.5548 -8.1469 -0.9700 0.9676
0.1765 -8.2177 -0.9764 0.9674
4.2067 -8.3059 -1.1060 0.9632
5.2270 -8.3692 -1.1721 0.9610
7.6871 -8.4661 -1.3584 0.9550
9.3424 -8.6013 -1.5085 0.9501
11.4047 -8.7539 -1.7078 0.9437
13.3179 -8.4461 -1.8733 0.9385
14.9077 -6.0627 -1.9117 0.9372
16.0501 -3.3759 -1.9482 0.9361
16.4502 -1.9477 -1.9677 0.9355
16.8755 1.0321 -2.0083 0.9342
10.6938 2.6171 -1.3078 0.9566
8.6207 2.9478 -1.0822 0.9640
14.3493 7.9967 -1.9513 0.9360
10.0747 8.2703 -1.5483 0.9489
6.4778 7.6207 -1.1881 0.9605
4.9513 8.5370 -1.1723 0.9610
1.6441 9.7114 -1.1700 0.9611
0.7094 9.0491 -1.0782 0.9641
-0.0923 8.2195 -0.9764 0.9674
-0.7805 7.7246 -0.9222 0.9692
-1.9311 10.0326 -1.2136 0.9597
-3.9268 7.9544 -1.0537 0.9649
-2.3908 3.9168 -0.5451 0.9817
-2.4408 3.2955 -0.4871 0.9836
-3.9742 2.5779 -0.5627 0.9811
-14.4934 6.0680 -1.8664 0.9387
-16.5984 5.2626 -2.0684 0.9323
-16.9195 2.1793 -2.0264 0.9336
-16.3804 -2.3135 -1.9651 0.9355
-15.4036 -5.0916 -1.9271 0.9367
-14.7500 -6.3881 -1.9094 0.9373
-9.4788 -7.6199 -1.4447 0.9522
-6.7495 -7.7775 -1.2232 0.9594
-4.7555 -8.0090 -1.1064 0.9632
-3.8387 -8.0213 -1.0563 0.9648
-2.2093 -8.0637 -0.9932 0.9669
-1.4697 -8.1716 -0.9862 0.9671
-0.7191 -8.1050 -0.9665 0.9678
0.0080 -8.1949 -0.9734 0.9675
0.7415 -8.1763 -0.9752 0.9675
1.5130 -8.3188 -1.0044 0.9665
2.2834 -8.2703 -1.0192 0.9660
3.0887 -8.2348 -1.0447 0.9652
4.0013 -8.3190 -1.0965 0.9635
10.7847 -8.6350 -1.6411 0.9459
13.9997 -7.5794 -1.8910 0.9379
14.7497 -6.3537 -1.9077 0.9374
15.9418 -3.6959 -1.9439 0.9362
16.6750 -0.8157 -1.9831 0.9350
8.8281 2.8180 -1.1008 0.9634
8.4636 3.5630 -1.0908 0.9637
10.4821 8.2510 -1.5846 0.9477
5.8567 7.9399 -1.1720 0.9610
5.1815 8.5262 -1.1851 0.9606
1.8478 9.7020 -1.1732 0.9610
0.0767 8.2748 -0.9830 0.9672
-2.6685 10.0663 -1.2370 0.9589
-3.4413 9.4687 -1.1967 0.9602
-3.9088 8.3445 -1.0946 0.9636
-2.4165 4.1477 -0.5702 0.9808
-2.5315 2.9663 -0.4632 0.9844
-3.1462 2.5724 -0.4827 0.9838
-3.7911 2.5710 -0.5441 0.9817
-4.6545 2.5819 -0.6323 0.9788
-16.4774 5.5984 -2.0672 0.9323
-16.7896 4.0742 -2.0522 0.9328
-16.9113 2.5315 -2.0312 0.9334
-16.7428 -0.5081 -1.9897 0.9348
-16.4622 -1.9818 -1.9696 0.9354
-12.3180 -5.6374 -1.9194 0.9467
-11.6788 -6.6662 -1.9053 0.9471
-7.7328 -7.7587 -1.5521 0.9567
-3.6830 -8.1192 -1.2632 0.9646
-2.8086 -8.0317 -1.2056 0.9662
-1.2766 -8.0404 -1.1535 0.9676
0.1730 -8.0553 -1.1416 0.9680
1.6722 -8.2318 -1.1902 0.9666
2.4724 -8.2889 -1.2256 0.9657
3.3213 -8.3314 -1.2708 0.9644
5.1747 -8.2854 -1.3841 0.9613
6.4132 -8.4758 -1.5060 0.9580
7.7588 -8.5451 -1.6354 0.9544
10.5383 -8.0889 -1.8823 0.9477
11.3053 -7.1698 -1.8968 0.9474
14.1329 0.8644 -2.0062 0.9444
8.4379 3.7575 -1.3088 0.9634
11.9169 6.6411 -1.9330 0.9464
11.3634 7.7390 -1.9480 0.9460
10.0700 8.2664 -1.8460 0.9487
6.4989 7.6455 -1.4218 0.9603
6.0383 8.5474 -1.4828 0.9586
4.9496 8.5340 -1.3978 0.9609
2.5324 5.4340 -0.8494 0.9761
3.1368 8.6837 -1.3082 0.9634
2.4217 9.2082 -1.3491 0.9623
1.6436 9.7084 -1.3951 0.9610
0.6897 8.7974 -1.2503 0.9650
-0.0616 5.4878 -0.7776 0.9781
-0.7900 7.8189 -1.1135 0.9688
-1.9305 10.0294 -1.4471 0.9596
-2.8926 10.0732 -1.4849 0.9585
-3.5159 9.0892 -1.3808 0.9614
-3.9266 7.9541 -1.2569 0.9648
-2.3562 3.1812 -0.5609 0.9841
-2.4884 2.7976 -0.5305 0.9850
-2.7090 2.5459 -0.5267 0.9851
-2.8679 2.2484 -0.5163 0.9854
-13.2926 5.5652 -2.0418 0.9434
-14.0503 3.1060 -2.0388 0.9435
-14.1325 0.5462 -2.0039 0.9445
-14.0037 -0.7125 -1.9867 0.9449
-13.7665 -1.9443 -1.9699 0.9454
-12.9856 -4.2923 -1.9378 0.9462
-12.4526 -5.3931 -1.9228 0.9467
-9.5766 -7.6985 -1.7410 0.9516
-8.1819 -7.8796 -1.6095 0.9551
-6.7462 -7.7736 -1.4584 0.9593
-4.7138 -7.9389 -1.3082 0.9634
-3.8042 -7.9492 -1.2486 0.9650
-3.0389 -8.1504 -1.2325 0.9655
-1.4823 -8.2416 -1.1865 0.9667
-0.7233 -8.1523 -1.1596 0.9675
0.0080 -8.1272 -1.1515 0.9677
2.2826 -8.2675 -1.2152 0.9659
4.0140 -8.3456 -1.3121 0.9633
4.9813 -8.3521 -1.3779 0.9615
8.7983 -8.4399 -1.7275 0.9519
10.3378 -8.2771 -1.8764 0.9479
11.8368 -6.4084 -1.9072 0.9471
12.4541 -5.3648 -1.9214 0.9467
13.4209 -3.1115 -1.9520 0.9459
13.9936 -0.6845 -1.9851 0.9450
11.5649 2.5803 -1.6789 0.9533
8.7825 2.8035 -1.3062 0.9634
11.4996 7.4914 -1.9446 0.9461
8.9151 8.4113 -1.7367 0.9517
5.1796 8.5232 -1.4132 0.9605
2.6642 5.4236 -0.8562 0.9759
3.3359 8.6744 -1.3168 0.9631
2.4838 8.7142 -1.2839 0.9641
-1.7165 10.0196 -1.4403 0.9598
-2.6676 10.0630 -1.4751 0.9588
-3.4412 9.4683 -1.4274 0.9601
-2.2491 3.8604 -0.6330 0.9821
-2.3307 3.2854 -0.5707 0.9839
-2.4540 2.8756 -0.5356 0.9848
-2.6266 2.5718 -0.5208 0.9853
-3.7435 2.5387 -0.6409 0.9819
-14.1367 2.1162 -2.0253 0.9439
-10.1086 -5.7699 -1.9175 0.9539
-8.7966 -7.3733 -1.8909 0.9545
-7.5993 -7.6247 -1.7734 0.9573
-6.4926 -7.7987 -1.6717 0.9597
-5.5507 -8.0306 -1.6082 0.9612
-4.5049 -7.9540 -1.5059 0.9636
0.1751 -8.1510 -1.3431 0.9675
0.9138 -8.2033 -1.3598 0.9671
2.4959 -8.3677 -1.4385 0.9652
3.2829 -8.2350 -1.4605 0.9647
4.2464 -8.3844 -1.5483 0.9626
5.3087 -8.5000 -1.6509 0.9602
7.5264 -8.2891 -1.8445 0.9556
8.4353 -7.7662 -1.8889 0.9546
9.1443 -7.0189 -1.8990 0.9543
10.8767 -4.4233 -1.9343 0.9535
11.3047 -3.4572 -1.9475 0.9532
11.6499 -2.4504 -1.9612 0.9529
12.0743 -0.3428 -1.9899 0.9522
12.1463 0.7429 -2.0047 0.9519
8.5132 2.9111 -1.4822 0.9642
8.3989 3.7401 -1.5146 0.9634
9.6964 6.6036 -1.9326 0.9536
9.1245 7.4903 -1.9448 0.9533
8.4683 8.3242 -1.9562 0.9530
4.9479 8.5310 -1.6247 0.9608
2.5405 5.4514 -0.9908 0.9759
2.2742 8.6474 -1.4730 0.9644
-0.0599 5.3355 -0.8790 0.9786
-1.7778 3.6012 -0.6616 0.9839
-2.4210 2.7219 -0.6001 0.9853
-3.2004 2.5091 -0.6699 0.9836
-3.8238 2.4803 -0.7508 0.9817
-4.7282 2.4975 -0.8809 0.9786
-11.5470 4.8344 -2.0622 0.9505
-11.8478 3.7564 -2.0476 0.9509
-12.0478 2.6633 -2.0327 0.9512
-11.5809 -2.7088 -1.9593 0.9529
-10.7651 -4.6623 -1.9326 0.9536
-9.6417 -6.4228 -1.9085 0.9541
-4.7728 -8.0382 -1.5400 0.9628
-2.1953 -8.0127 -1.3686 0.9669
-1.4851 -8.2572 -1.3821 0.9666
-0.7224 -8.1423 -1.3466 0.9674
1.4972 -8.2318 -1.3783 0.9667
2.2719 -8.2288 -1.4063 0.9660
4.0633 -8.4480 -1.5443 0.9627
4.9964 -8.3775 -1.6069 0.9612
6.1528 -8.4877 -1.7270 0.9584
7.2152 -8.2812 -1.8094 0.9565
8.2607 -7.9243 -1.8858 0.9547
8.9872 -7.1957 -1.8966 0.9544
9.6488 -6.4002 -1.9074 0.9541
11.2138 -3.6823 -1.9444 0.9533
11.5784 -2.6843 -1.9580 0.9530
11.8565 -1.6508 -1.9721 0.9526
12.0443 -0.5892 -1.9865 0.9523
12.1383 0.4930 -2.0013 0.9519
8.3649 3.5214 -1.4952 0.9639
10.2783 5.4549 -1.9169 0.9539
8.6258 8.1383 -1.9536 0.9531
7.5080 8.4744 -1.8652 0.9551
5.7693 7.8213 -1.6011 0.9614
2.6733 5.4422 -0.9989 0.9757
3.3348 8.6715 -1.5305 0.9630
2.4830 8.7114 -1.4923 0.9639
1.6752 8.7959 -1.4751 0.9644
0.8703 8.7863 -1.4545 0.9648
0.0494 5.3310 -0.8783 0.9786
-0.4549 5.6606 -0.9355 0.9772
-2.1748 3.0657 -0.6192 0.9849
-2.3855 2.7953 -0.6054 0.9852
-2.7881 2.2796 -0.5933 0.9855
-3.6592 2.4816 -0.7284 0.9822
-4.4834 2.4870 -0.8446 0.9794
-5.8039 2.5709 -1.0457 0.9746
-11.7878 4.0051 -2.0509 0.9508
-12.0108 2.9145 -2.0361 0.9511
-12.1333 1.8163 -2.0211 0.9515
-9.7766 -3.4554 -1.9490 0.9587
-9.3735 -4.2898 -1.9376 0.9589
-8.9027 -5.0816 -1.9268 0.9591
-8.3686 -5.8258 -1.9166 0.9593
-7.7759 -6.5177 -1.9071 0.9595
-7.1297 -7.1536 -1.8984 0.9597
-4.5465 -8.0275 -1.7340 0.9631
-2.8451 -8.1363 -1.6201 0.9655
-1.2759 -8.0359 -1.5293 0.9674
-0.5510 -8.0908 -1.5243 0.9675
0.1781 -8.2912 -1.5588 0.9668
0.9080 -8.1507 -1.5415 0.9672
2.4599 -8.2470 -1.6176 0.9656
3.3438 -8.3878 -1.6972 0.9639
4.1607 -8.2151 -1.7309 0.9632
5.1128 -8.1864 -1.8142 0.9615
6.0427 -7.9862 -1.8824 0.9601
9.5691 -3.8916 -1.9417 0.9588
10.6396 0.6507 -2.0036 0.9575
10.4891 2.5671 -2.0297 0.9570
8.5642 2.9285 -1.7012 0.9638
8.4093 3.7448 -1.7302 0.9632
8.8768 4.9469 -1.9101 0.9595
7.9432 6.5205 -1.9316 0.9590
7.3663 7.2410 -1.9415 0.9588
5.3857 7.6237 -1.7545 0.9627
3.1347 8.6780 -1.7343 0.9631
2.2591 8.5898 -1.6694 0.9645
-0.0595 5.2995 -0.9962 0.9787
-0.7898 7.8171 -1.4768 0.9685
-1.5875 8.2471 -1.5786 0.9664
-1.5944 3.2297 -0.6770 0.9854
-1.8268 2.9929 -0.6591 0.9858
-2.6484 2.4889 -0.6831 0.9853
-3.1286 2.4528 -0.7472 0.9839
-10.3507 3.2817 -2.0410 0.9568
-10.5350 2.3289 -2.0280 0.9570
-10.6423 0.4113 -2.0018 0.9576
-10.5677 -0.5377 -1.9889 0.9578
-10.1729 -2.3795 -1.9637 0.9584
-9.0163 -4.9043 -1.9292 0.9591
-8.4963 -5.6597 -1.9188 0.9593
-7.2822 -7.0131 -1.9003 0.9597
-6.5771 -7.5788 -1.8861 0.9600
-4.7134 -7.9382 -1.7353 0.9631
-3.0182 -8.0948 -1.6238 0.9654
-0.7293 -8.2204 -1.5512 0.9670
0.0079 -8.1056 -1.5235 0.9675
0.7362 -8.1170 -1.5319 0.9674
1.5266 -8.3934 -1.6035 0.9659
3.9890 -8.2935 -1.7298 0.9632
4.8787 -8.1800 -1.7902 0.9620
5.8671 -8.0936 -1.8790 0.9601
7.2928 -6.9958 -1.8995 0.9597
7.9253 -6.3456 -1.9083 0.9595
8.5031 -5.6403 -1.9179 0.9593
9.0211 -4.8840 -1.9282 0.9591
9.4748 -4.0814 -1.9391 0.9589
9.8596 -3.2376 -1.9506 0.9586
10.5622 -0.5167 -1.9876 0.9579
10.6348 0.4319 -2.0006 0.9576
10.6226 1.3894 -2.0136 0.9573
8.7380 2.7893 -1.7240 0.9634
8.3912 3.5325 -1.7113 0.9636
8.9642 4.7575 -1.9075 0.9595
8.5529 5.5717 -1.9186 0.9593
8.0653 6.3486 -1.9293 0.9591
6.8748 7.7597 -1.9486 0.9587
5.7685 7.8203 -1.8265 0.9612
3.3337 8.6686 -1.7457 0.9629
0.0491 5.2945 -0.9952 0.9787
-0.4548 5.6581 -1.0669 0.9772
-2.1935 8.2746 -1.6090 0.9658
-1.3045 3.5892 -0.7178 0.9846
-3.5885 2.4336 -0.8150 0.9825
-10.2961 3.4982 -2.0439 0.9567
-10.5005 2.5481 -2.0310 0.9570
-10.5922 -0.3215 -1.9918 0.9578
-10.4535 -1.2584 -1.9790 0.9581
-8.7159 -3.0805 -1.9541 0.9629
-7.9466 -4.5359 -1.9341 0.9633
-7.4741 -5.2031 -1.9250 0.9635
-6.3742 -6.3955 -1.9087 0.9638
-5.7557 -6.9136 -1.9015 0.9639
-2.7432 -7.8448 -1.7567 0.9666
-1.2855 -8.0965 -1.7329 0.9670
-0.5566 -8.1737 -1.7318 0.9671
0.9072 -8.1437 -1.7321 0.9671
2.4074 -8.0711 -1.7804 0.9662
3.2279 -8.0972 -1.8426 0.9650
4.0233 -7.9439 -1.8823 0.9642
5.4162 -7.1581 -1.8974 0.9640
7.2034 -5.5292 -1.9195 0.9636
8.1486 -4.1980 -1.9376 0.9632
8.8573 -2.7087 -1.9579 0.9628
9.3009 -1.1012 -1.9798 0.9624
9.4159 -0.2673 -1.9911 0.9622
9.4566 0.5784 -2.0027 0.9620
9.4214 1.4292 -2.0143 0.9618
9.1198 3.1185 -2.0373 0.9614
8.8534 3.9426 -2.0486 0.9612
6.5117 6.4009 -1.9301 0.9634
3.1337 8.6751 -1.9497 0.9630
2.1772 8.2782 -1.8094 0.9656
-0.0595 5.2982 -1.1200 0.9786
-1.5281 7.9384 -1.7088 0.9675
-1.0236 3.5648 -0.7840 0.9850
-1.4654 2.9685 -0.6998 0.9866
-3.7667 2.4433 -0.9490 0.9818
-9.3510 2.0671 -2.0243 0.9616
-9.4438 1.2164 -2.0127 0.9618
-9.0618 -2.1196 -1.9672 0.9627
-8.7880 -2.9048 -1.9565 0.9629
-8.4485 -3.6590 -1.9461 0.9631
-8.0470 -4.3770 -1.9363 0.9632
-7.0734 -5.6862 -1.9184 0.9636
-5.9010 -6.7997 -1.9031 0.9639
-5.2512 -7.2740 -1.8964 0.9640
-4.5525 -7.6671 -1.8848 0.9642
-2.9213 -7.8350 -1.7675 0.9664
-2.1694 -7.9179 -1.7354 0.9670
-1.4515 -8.0702 -1.7332 0.9670
0.0080 -8.1913 -1.7315 0.9671
1.4671 -8.0665 -1.7331 0.9670
3.8550 -8.0149 -1.8800 0.9643
5.9123 -6.7858 -1.9024 0.9639
6.5196 -6.2540 -1.9097 0.9637
7.5937 -5.0371 -1.9262 0.9634
8.7891 -2.8861 -1.9554 0.9629
9.2643 -1.2899 -1.9772 0.9625
9.4539 0.3839 -2.0000 0.9621
8.9212 3.7556 -2.0460 0.9612
8.5657 4.5460 -2.0498 0.9611
7.5710 4.9321 -1.9100 0.9637
6.6349 6.2599 -1.9282 0.9634
6.0747 6.8566 -1.9363 0.9632
2.7043 5.5052 -1.2965 0.9752
1.5819 8.3060 -1.7873 0.9660
0.0491 5.2932 -1.1189 0.9786
-1.0002 3.7731 -0.8251 0.9842
-1.1838 3.2572 -0.7326 0.9859
-1.4135 3.0175 -0.7044 0.9865
-1.6433 2.8205 -0.6900 0.9867
-1.8946 2.6708 -0.6922 0.9867
-2.4977 2.4456 -0.7389 0.9858
-2.9654 2.4246 -0.8097 0.9845
-4.4558 2.4717 -1.0771 0.9794
-5.7171 2.5325 -1.3217 0.9748
-9.3188 2.2613 -2.0270 0.9616
-9.4629 0.5602 -2.0038 0.9620
-9.4205 -0.2859 -1.9922 0.9622
-9.3038 -1.1200 -1.9808 0.9624
-7.1694 -4.0923 -1.9401 0.9666
-6.7462 -4.6963 -1.9319 0.9668
-5.7581 -5.7774 -1.9170 0.9670
-4.6083 -6.6672 -1.9048 0.9672
-2.6525 -7.5855 -1.8886 0.9675
-1.9588 -7.7708 -1.8834 0.9676
-0.5396 -7.9245 -1.8668 0.9679
0.8856 -7.9497 -1.8799 0.9677
2.2968 -7.7002 -1.8885 0.9675
3.6468 -7.2005 -1.8970 0.9674
4.2859 -6.8624 -1.9015 0.9673
6.0087 -5.5320 -1.9195 0.9670
6.5037 -4.9921 -1.9269 0.9669
7.3503 -3.7867 -1.9433 0.9666
8.2081 -1.7265 -1.9713 0.9661
8.3719 -0.9912 -1.9813 0.9660
8.4705 -0.2405 -1.9916 0.9658
8.5022 0.5200 -2.0019 0.9656
7.6251 4.2494 -2.0516 0.9648
6.2922 5.1652 -1.9133 0.9671
5.3134 6.2509 -1.9281 0.9669
4.7496 6.7232 -1.9346 0.9667
4.1422 7.1418 -1.9404 0.9666
2.8181 7.8014 -1.9495 0.9665
1.3885 8.2018 -1.9550 0.9664
0.6506 8.2989 -1.9564 0.9664
-1.5258 7.9265 -1.8971 0.9674
-1.3738 2.7830 -0.7294 0.9873
-2.1640 2.4330 -0.7653 0.9867
-2.5562 2.4023 -0.8244 0.9857
-3.7764 2.4496 -1.0579 0.9817
-4.6797 2.4719 -1.2438 0.9785
-8.0137 3.3551 -2.0418 0.9649
-8.3980 1.8565 -2.0214 0.9653
-8.4571 -0.4303 -1.9902 0.9658
-8.3418 -1.1781 -1.9800 0.9660
-8.1618 -1.9091 -1.9700 0.9661
-7.6175 -3.2991 -1.9510 0.9665
-7.2591 -3.9485 -1.9421 0.9666
-6.3866 -5.1341 -1.9259 0.9669
-5.8801 -5.6628 -1.9186 0.9670
-3.4832 -7.2785 -1.8964 0.9674
-1.4165 -7.8755 -1.8806 0.9677
0.0078 -7.9487 -1.8681 0.9679
2.1370 -7.7402 -1.8872 0.9675
2.8278 -7.5391 -1.8924 0.9675
5.3426 -6.1319 -1.9114 0.9671
5.8892 -5.6493 -1.9180 0.9670
6.3942 -5.1197 -1.9251 0.9669
6.8537 -4.5462 -1.9329 0.9668
7.2637 -3.9326 -1.9413 0.9666
7.6206 -3.2827 -1.9501 0.9665
8.1616 -1.8922 -1.9690 0.9662
8.5009 0.3452 -1.9996 0.9656
7.1434 4.6535 -2.0037 0.9656
5.9399 5.6041 -1.9193 0.9670
4.8828 6.6195 -1.9332 0.9668
4.2849 7.0509 -1.9391 0.9667
2.7073 5.5114 -1.4431 0.9751
1.8642 6.5403 -1.5984 0.9724
1.5560 8.1697 -1.9546 0.9664
-0.9516 3.5897 -0.8728 0.9849
-1.1023 3.0330 -0.7585 0.9868
-1.3180 2.8137 -0.7302 0.9873
-1.7831 2.5136 -0.7243 0.9874
-2.0845 2.4426 -0.7547 0.9869
-2.4596 2.4083 -0.8090 0.9860
-2.9475 2.4100 -0.8948 0.9845
-3.5961 2.4388 -1.0212 0.9823
-4.4522 2.4697 -1.1966 0.9793
-8.1945 2.7842 -2.0340 0.9651
-8.3680 2.0306 -2.0238 0.9652
-8.5074 0.5036 -2.0029 0.9656
-8.4742 -0.2572 -1.9926 0.9658
-8.3740 -1.0081 -1.9823 0.9659
-7.3726 -1.8846 -1.9703 0.9690
-6.5244 -3.7241 -1.9451 0.9694
-5.2457 -5.2633 -1.9240 0.9698
-4.7399 -5.6934 -1.9181 0.9699
-3.6321 -6.4129 -1.9082 0.9700
-3.0383 -6.6979 -1.9043 0.9701
-1.7923 -7.1103 -1.8986 0.9702
0.8108 -7.2781 -1.8961 0.9702
1.4588 -7.1814 -1.8974 0.9702
2.0968 -7.0298 -1.8994 0.9701
2.7205 -6.8243 -1.9022 0.9701
3.3254 -6.5659 -1.9056 0.9700
4.4620 -5.8971 -1.9147 0.9699
4.9854 -5.4906 -1.9202 0.9698
5.4734 -5.0392 -1.9263 0.9697
6.3283 -4.0134 -1.9402 0.9695
6.6881 -3.4456 -1.9480 0.9694
7.2562 -2.2191 -1.9647 0.9691
7.6902 -0.2183 -1.9919 0.9687
7.7152 0.4719 -2.0013 0.9686
7.6783 1.1648 -2.0108 0.9684
7.5788 1.8548 -2.0202 0.9683
6.9076 3.8495 -2.0475 0.9679
5.2705 5.1809 -1.9135 0.9699
2.3780 5.1027 -1.4576 0.9770
2.3836 6.5986 -1.8166 0.9714
-0.0594 5.2948 -1.3710 0.9784
-0.5628 5.5703 -1.4496 0.9771
-1.4191 7.3725 -1.9439 0.9695
-1.0320 3.5940 -0.9682 0.9847
-1.1022 2.8492 -0.7910 0.9875
-1.3069 2.6474 -0.7644 0.9879
-1.5220 2.4934 -0.7564 0.9880
-2.1886 2.4606 -0.8526 0.9865
-4.7527 2.5104 -1.3917 0.9780
-7.4674 2.3676 -2.0283 0.9682
-7.6977 0.9915 -2.0095 0.9684
-7.6785 -0.3907 -1.9907 0.9687
-7.5774 -1.0702 -1.9814 0.9689
-6.9288 -3.0008 -1.9550 0.9693
-6.6055 -3.5929 -1.9469 0.9694
-4.3269 -5.9936 -1.9140 0.9699
-3.7647 -6.3404 -1.9092 0.9700
-3.1763 -6.6372 -1.9051 0.9701
-2.5660 -6.8821 -1.9017 0.9701
-1.9382 -7.0740 -1.8991 0.9701
-1.2971 -7.2115 -1.8972 0.9702
3.7763 -6.3316 -1.9088 0.9700
4.8684 -5.5877 -1.9189 0.9698
5.8231 -4.6623 -1.9314 0.9696
6.6099 -3.5786 -1.9462 0.9694
6.9318 -2.9860 -1.9542 0.9693
7.2019 -2.3649 -1.9627 0.9692
7.4175 -1.7197 -1.9715 0.9690
7.5761 -1.0549 -1.9805 0.9689
7.6758 -0.3755 -1.9898 0.9687
7.7149 0.3133 -1.9992 0.9686
7.6923 1.0061 -2.0086 0.9685
7.6072 1.6973 -2.0181 0.9683
6.6410 4.3262 -2.0521 0.9678
5.3712 5.0677 -1.9120 0.9699
4.9138 5.5463 -1.9186 0.9698
4.4123 5.9817 -1.9245 0.9698
3.1140 5.1242 -1.5525 0.9755
2.5149 5.1197 -1.4769 0.9767
2.2416 5.8288 -1.6169 0.9745
1.4045 7.3746 -1.9438 0.9695
-0.9495 3.5817 -0.9594 0.9848
-1.0615 2.9206 -0.8046 0.9872
-1.4700 2.5231 -0.7561 0.9880
-2.0484 2.4002 -0.8170 0.9870
-2.9422 2.4056 -0.9840 0.9844
-3.6072 2.4463 -1.1285 0.9822
-7.2020 3.1903 -2.0395 0.9680
-7.4250 2.5227 -2.0304 0.9681
-7.6840 1.1503 -2.0117 0.9684
-7.7196 0.4570 -2.0022 0.9686
-6.5424 -2.3123 -1.9644 0.9716
-6.2848 -2.8763 -1.9567 0.9717
-3.8556 -5.5781 -1.9196 0.9722
-3.3344 -5.8872 -1.9154 0.9723
-2.7897 -6.1499 -1.9117 0.9723
-2.2256 -6.3647 -1.9088 0.9724
-1.0551 -6.6455 -1.9049 0.9724
0.7447 -6.6850 -1.9042 0.9724
1.9257 -6.4561 -1.9072 0.9724
6.4115 -2.6075 -1.9594 0.9716
6.6453 -2.0323 -1.9672 0.9715
6.9587 -0.8239 -1.9837 0.9713
7.0345 -0.1997 -1.9922 0.9712
7.0546 0.4314 -2.0008 0.9710
6.9243 1.6946 -2.0181 0.9708
6.5664 2.9241 -2.0349 0.9706
6.3037 3.5129 -2.0429 0.9704
5.9871 4.0775 -2.0507 0.9703
4.8544 4.7718 -1.9270 0.9721
2.9702 5.1212 -1.6760 0.9757
2.3846 5.1168 -1.5981 0.9768
1.7369 6.6043 -1.9332 0.9720
0.5346 6.8186 -1.9362 0.9720
-0.0594 5.2930 -1.4985 0.9782
-1.2919 6.7116 -1.9349 0.9720
-0.9377 3.2654 -0.9618 0.9860
-1.0817 2.7965 -0.8488 0.9876
-1.2650 2.5625 -0.8090 0.9882
-1.4932 2.4463 -0.8114 0.9882
-6.8201 2.1624 -2.0254 0.9707
-6.9567 1.5379 -2.0169 0.9708
-6.7906 -1.5884 -1.9743 0.9714
-6.5945 -2.1798 -1.9662 0.9715
-6.3481 -2.7493 -1.9584 0.9717
-6.0540 -3.2930 -1.9510 0.9718
-5.7149 -3.8069 -1.9439 0.9719
-4.9138 -4.7322 -1.9312 0.9720
-4.4584 -5.1375 -1.9257 0.9721
-3.4560 -5.8204 -1.9163 0.9723
-2.9164 -6.0939 -1.9125 0.9723
-1.7800 -6.4967 -1.9069 0.9724
2.3684 -6.3143 -1.9091 0.9724
2.9278 -6.0872 -1.9122 0.9723
3.9811 -5.4919 -1.9202 0.9722
4.4673 -5.1274 -1.9252 0.9721
4.9216 -4.7212 -1.9307 0.9720
5.3404 -4.2759 -1.9367 0.9720
6.3511 -2.7359 -1.9577 0.9717
6.9336 -0.9654 -1.9818 0.9713
7.0314 0.9196 -2.0075 0.9710
6.8131 2.1748 -2.0246 0.9707
6.6188 2.7863 -2.0330 0.9706
6.0643 3.9506 -2.0489 0.9704
5.6968 4.4842 -2.0524 0.9703
5.0413 4.7564 -1.9621 0.9716
4.0204 5.4504 -1.9173 0.9722
3.1128 5.1223 -1.6968 0.9754
2.5140 5.1178 -1.6142 0.9766
1.9665 5.1135 -1.5510 0.9775
0.6741 6.8056 -1.9360 0.9720
0.0490 5.2880 -1.4971 0.9783
-0.4471 5.5625 -1.5798 0.9771
-1.1543 6.7379 -1.9352 0.9720
-0.9099 3.4322 -1.0052 0.9853
-1.4324 2.4585 -0.8055 0.9882
-2.4318 2.3811 -0.9635 0.9860
-2.9459 2.4086 -1.0772 0.9843
-4.4524 2.4699 -1.4414 0.9791
-6.5746 2.9124 -2.0357 0.9705
-6.9304 1.6817 -2.0189 0.9708
-6.9599 -0.8379 -1.9845 0.9713
-6.2186 -1.5896 -1.9742 0.9735
-5.7935 -2.6514 -1.9597 0.9737
-5.1939 -3.6157 -1.9465 0.9739
-4.8351 -4.0528 -1.9405 0.9739
-3.5594 -5.1496 -1.9255 0.9741
-3.0787 -5.4359 -1.9215 0.9742
-2.5762 -5.6793 -1.9182 0.9742
0.1334 -6.2107 -1.9107 0.9743
1.2376 -6.0926 -1.9122 0.9743
1.7787 -5.9631 -1.9140 0.9743
2.3072 -5.7874 -1.9163 0.9743
2.8194 -5.5668 -1.9193 0.9742
3.3117 -5.3025 -1.9229 0.9742
4.2218 -4.6497 -1.9317 0.9741
6.1232 -1.8726 -1.9695 0.9736
6.2898 -1.3230 -1.9769 0.9735
6.4077 -0.7587 -1.9846 0.9734
6.4916 0.3970 -2.0004 0.9731
6.4557 0.9793 -2.0083 0.9730
6.3673 1.5583 -2.0163 0.9729
5.4984 3.7446 -2.0461 0.9725
4.7590 4.6780 -2.0525 0.9725
3.5872 5.0778 -1.9123 0.9743
2.3837 5.1149 -1.7357 0.9767
1.8887 5.2287 -1.7099 0.9770
-0.5605 5.5471 -1.7149 0.9769
-1.0904 2.8189 -0.9297 0.9874
-1.2435 2.5189 -0.8640 0.9883
-1.4756 2.4175 -0.8711 0.9882
-1.7464 2.3579 -0.9025 0.9878
-2.5361 2.3834 -1.0705 0.9855
-3.0909 2.4232 -1.2080 0.9837
-6.0899 2.5497 -2.0307 0.9727
-6.3974 1.4142 -2.0152 0.9730
-6.4662 -0.3290 -1.9914 0.9733
-6.3857 -0.9019 -1.9836 0.9734
-6.2553 -1.4631 -1.9759 0.9735
-6.0766 -2.0086 -1.9685 0.9736
-4.9205 -3.9556 -1.9418 0.9739
-4.5342 -4.3667 -1.9362 0.9740
-4.1150 -4.7417 -1.9311 0.9741
-3.6661 -5.0782 -1.9264 0.9741
-3.1909 -5.3741 -1.9224 0.9742
0.0061 -6.2121 -1.9107 0.9743
1.1123 -6.1158 -1.9119 0.9743
1.6557 -5.9969 -1.9135 0.9743
3.2008 -5.3668 -1.9220 0.9742
4.9268 -3.9448 -1.9413 0.9739
5.2760 -3.4997 -1.9473 0.9739
5.8543 -2.5219 -1.9606 0.9737
6.0783 -1.9960 -1.9678 0.9736
6.3851 -0.8890 -1.9829 0.9734
6.4924 0.2637 -1.9986 0.9732
6.4685 0.8460 -2.0065 0.9731
6.3922 1.4262 -2.0145 0.9730
6.2635 1.9994 -2.0223 0.9729
5.8510 3.1053 -2.0374 0.9727
5.5697 3.6283 -2.0446 0.9726
4.8545 4.5801 -2.0528 0.9725
4.2446 4.7909 -1.9687 0.9736
3.6885 5.0005 -1.9112 0.9743
3.0668 5.0465 -1.8164 0.9756
2.5130 5.1159 -1.7531 0.9764
1.9658 5.1117 -1.6845 0.9773
1.7158 6.0196 -1.9252 0.9741
0.6180 6.2388 -1.9283 0.9741
-0.4458 5.5473 -1.7117 0.9770
-1.0582 6.1770 -1.9276 0.9741
-1.2023 2.5667 -0.8718 0.9882
-1.4174 2.4329 -0.8661 0.9883
-1.6805 2.3689 -0.8933 0.9879
-2.9502 2.4121 -1.1721 0.9842
-4.5166 2.5055 -1.5886 0.9786
-6.0415 2.6762 -2.0324 0.9727
-6.4600 0.9670 -2.0091 0.9730
-6.4948 0.3845 -2.0012 0.9731
-6.4774 -0.1966 -1.9932 0.9732
-6.4086 -0.7715 -1.9854 0.9733
-5.5847 -1.9738 -1.9689 0.9753
-5.3679 -2.4567 -1.9623 0.9754
-5.1105 -2.9171 -1.9560 0.9755
-3.7239 -4.4731 -1.9347 0.9758
-3.3022 -4.7775 -1.9305 0.9758
-2.8567 -5.0439 -1.9268 0.9759
-1.9077 -5.4556 -1.9212 0.9759
-1.4112 -5.5985 -1.9192 0.9760
-0.3918 -5.7537 -1.9170 0.9760
0.1238 -5.7651 -1.9168 0.9760
1.1488 -5.6552 -1.9182 0.9760
1.6508 -5.5346 -1.9198 0.9759
3.0727 -4.9198 -1.9281 0.9758
3.5069 -4.6348 -1.9320 0.9758
4.9596 -3.1454 -1.9522 0.9755
5.2371 -2.6980 -1.9583 0.9755
5.4751 -2.2266 -1.9647 0.9754
5.9924 -0.1701 -1.9927 0.9750
5.9706 0.9057 -2.0074 0.9749
5.8872 1.4408 -2.0147 0.9748
5.7554 1.9681 -2.0219 0.9747
5.5759 2.4830 -2.0289 0.9746
4.7632 3.9101 -2.0485 0.9744
4.4066 4.3317 -2.0540 0.9743
3.4115 4.8290 -1.9654 0.9754
2.3485 5.0394 -1.8481 0.9768
1.4686 5.5841 -1.9193 0.9760
0.4519 5.7639 -1.9218 0.9759
-0.9146 3.1849 -1.1015 0.9861
-1.2274 2.4863 -0.9217 0.9884
-2.0905 2.3503 -1.0456 0.9868
-2.5344 2.3818 -1.1561 0.9854
-3.7456 2.4296 -1.4841 0.9814
-4.7553 2.5118 -1.7876 0.9776
-5.9841 -0.3045 -1.9917 0.9751
-5.6284 -1.8604 -1.9705 0.9753
-5.4213 -2.3479 -1.9638 0.9754
-5.1730 -2.8138 -1.9574 0.9755
-4.8858 -3.2546 -1.9514 0.9756
-4.2049 -4.0495 -1.9405 0.9757
-3.4010 -4.7111 -1.9314 0.9758
-2.4991 -5.2221 -1.9244 0.9759
-1.0214 -5.6791 -1.9180 0.9760
-0.5097 -5.7448 -1.9171 0.9760
0.0056 -5.7664 -1.9168 0.9760
0.5209 -5.7436 -1.9171 0.9760
2.0301 -5.4123 -1.9215 0.9759
3.4096 -4.7035 -1.9310 0.9758
4.2118 -4.0403 -1.9400 0.9757
4.8907 -3.2441 -1.9508 0.9756
5.6302 -1.8488 -1.9698 0.9753
5.7930 -1.3431 -1.9767 0.9752
5.9826 -0.2927 -1.9910 0.9751
5.9106 1.3188 -2.0130 0.9748
5.4055 2.8688 -2.0342 0.9745
4.8390 3.8091 -2.0471 0.9744
4.0962 4.6235 -2.0533 0.9743
1.5824 5.5515 -1.9189 0.9760
1.0810 5.6758 -1.9206 0.9759
0.5699 5.7530 -1.9217 0.9759
-0.9758 5.6962 -1.9210 0.9759
-0.8802 3.3204 -1.1419 0.9856
-1.0272 2.8262 -0.9996 0.9874
-1.6615 2.3421 -0.9545 0.9880
-2.4251 2.3745 -1.1282 0.9858
-3.6035 2.4438 -1.4473 0.9818
-4.7527 2.6364 -1.8066 0.9774
-5.7612 1.9574 -2.0226 0.9747
-5.9745 0.8943 -2.0081 0.9749
-6.0084 0.3557 -2.0007 0.9749
-5.9322 -0.7142 -1.9861 0.9751
-5.3566 -1.3693 -1.9772 0.9768
-4.9955 -2.2862 -1.9646 0.9769
-4.7570 -2.7153 -1.9587 0.9770
-4.1748 -3.4993 -1.9480 0.9771
-3.4689 -4.1668 -1.9389 0.9772
-3.0766 -4.4510 -1.9349 0.9773
-2.2279 -4.9114 -1.9286 0.9774
-1.7780 -5.0845 -1.9262 0.9774
-1.3153 -5.2180 -1.9244 0.9774
-0.8433 -5.3110 -1.9231 0.9774
-0.3652 -5.3631 -1.9223 0.9774
0.1154 -5.3737 -1.9221 0.9774
1.5386 -5.1583 -1.9250 0.9774
1.9955 -5.0056 -1.9270 0.9774
2.4380 -4.8137 -1.9296 0.9773
2.8629 -4.5840 -1.9327 0.9773
3.2671 -4.3179 -1.9363 0.9773
3.6475 -4.0171 -1.9404 0.9772
4.0011 -3.6837 -1.9449 0.9772
4.3252 -3.3199 -1.9498 0.9771
4.8744 -2.5112 -1.9608 0.9770
5.0947 -2.0719 -1.9668 0.9769
5.4169 -1.1394 -1.9795 0.9768
5.5155 -0.6530 -1.9861 0.9767
5.5815 0.3414 -1.9997 0.9765
5.5475 0.8415 -2.0065 0.9764
4.9656 2.7672 -2.0328 0.9761
4.4192 3.6277 -2.0446 0.9760
4.0881 4.0186 -2.0500 0.9759
3.7207 4.3772 -2.0544 0.9759
1.8162 5.0278 -1.9117 0.9775
0.8940 5.2805 -1.9152 0.9775
-0.0602 5.3585 -1.9163 0.9775
-0.5386 5.3307 -1.9160 0.9775
-1.0122 5.2587 -1.9151 0.9775
-1.4446 2.3666 -0.9915 0.9883
-2.5316 2.3791 -1.2424 0.9854
-3.0976 2.4285 -1.4076 0.9834
-5.4969 -0.7763 -1.9853 0.9767
-5.3876 -1.2602 -1.9786 0.9768
-5.2364 -1.7309 -1.9722 0.9768
-5.0449 -2.1849 -1.9660 0.9769
-4.5485 -3.0300 -1.9544 0.9771
-3.9162 -3.7714 -1.9443 0.9772
-3.5554 -4.0968 -1.9398 0.9772
-2.3288 -4.8663 -1.9292 0.9773
-1.8823 -5.0483 -1.9267 0.9774
-0.9520 -5.2933 -1.9233 0.9774
0.9624 -5.2912 -1.9232 0.9774
1.8920 -5.0440 -1.9265 0.9774
2.3380 -4.8611 -1.9290 0.9773
2.7673 -4.6399 -1.9320 0.9773
3.1765 -4.3820 -1.9354 0.9773
3.5626 -4.0890 -1.9394 0.9772
4.2537 -3.4058 -1.9487 0.9771
5.0476 -2.1744 -1.9654 0.9769
5.3884 -1.2492 -1.9780 0.9768
5.3771 1.7164 -2.0185 0.9763
5.0177 2.6630 -2.0314 0.9762
4.7740 3.1100 -2.0375 0.9761
4.1672 3.9317 -2.0488 0.9760
3.8086 4.2988 -2.0538 0.9759
1.9183 4.9881 -1.9112 0.9776
1.4666 5.1454 -1.9133 0.9775
1.0019 5.2603 -1.9149 0.9775
0.0497 5.3585 -1.9163 0.9775
-0.4293 5.3410 -1.9161 0.9775
-0.9044 5.2790 -1.9153 0.9775
-1.0331 2.8427 -1.0816 0.9872
-1.1730 2.5041 -0.9889 0.9883
-1.6532 2.3305 -1.0218 0.9879
-2.4389 2.8578 -1.3435 0.9842
-2.4190 2.3685 -1.2107 0.9857
-5.5510 0.8309 -2.0072 0.9764
-5.5840 0.3305 -2.0004 0.9765
-5.5721 -0.1691 -1.9935 0.9766
-5.5160 -0.6641 -1.9868 0.9767
-4.8528 -1.7152 -1.9724 0.9782
-4.6665 -2.1356 -1.9667 0.9783
-4.1890 -2.9161 -1.9560 0.9784
-3.5859 -3.5979 -1.9466 0.9785
-2.4893 -4.3951 -1.9357 0.9786
-2.0837 -4.5935 -1.9329 0.9786
-1.6630 -4.7557 -1.9307 0.9786
-0.7888 -4.9681 -1.9277 0.9787
1.0016 -4.9307 -1.9281 0.9787
1.4392 -4.8250 -1.9295 0.9787
3.0548 -4.0373 -1.9402 0.9785
3.4100 -3.7556 -1.9440 0.9785
3.7401 -3.4434 -1.9482 0.9785
4.0423 -3.1028 -1.9528 0.9784
4.3144 -2.7362 -1.9578 0.9784
4.7588 -1.9353 -1.9687 0.9782
5.0576 -1.0638 -1.9806 0.9781
5.1988 -0.1476 -1.9931 0.9780
5.1749 0.7850 -2.0058 0.9778
4.6279 2.5791 -2.0303 0.9776
4.3911 2.9905 -2.0359 0.9775
4.1171 3.3797 -2.0413 0.9774
3.8079 3.7431 -2.0462 0.9774
2.6896 4.6374 -2.0544 0.9773
2.2641 4.8583 -2.0540 0.9773
1.7689 4.8970 -1.9953 0.9779
-0.5064 5.0122 -1.9306 0.9787
-0.9676 5.0268 -1.9617 0.9783
-0.8809 3.0678 -1.2231 0.9864
-1.4300 2.3427 -1.0518 0.9883
-1.7801 2.4034 -1.1462 0.9873
-2.1130 2.3755 -1.2184 0.9865
-3.0581 2.3975 -1.4891 0.9835
-4.4556 2.8901 -2.0352 0.9775
-4.6829 2.4736 -2.0295 0.9776
-5.0185 1.5911 -2.0175 0.9777
-2.2990 0.0888 -0.8817 0.9902
-5.1313 -0.7247 -1.9859 0.9780
-4.4984 -2.4468 -1.9624 0.9783
-3.6607 -3.5254 -1.9476 0.9785
-2.5797 -4.3447 -1.9364 0.9786
-2.1780 -4.5512 -1.9335 0.9786
-1.3303 -4.8555 -1.9293 0.9787
-0.8906 -4.9515 -1.9280 0.9787
-0.4444 -5.0092 -1.9271 0.9787
0.0049 -5.0281 -1.9269 0.9787
1.3397 -4.8525 -1.9292 0.9787
1.7696 -4.7179 -1.9310 0.9786
2.1867 -4.5463 -1.9333 0.9786
2.9702 -4.0974 -1.9393 0.9786
3.3308 -3.8229 -1.9431 0.9785
3.6668 -3.5175 -1.9472 0.9785
3.9757 -3.1832 -1.9517 0.9784
4.2549 -2.8223 -1.9566 0.9784
5.0312 -1.1664 -1.9792 0.9781
5.1312 -0.7144 -1.9853 0.9781
5.2094 0.2115 -1.9980 0.9779
5.0139 1.6005 -2.0169 0.9777
4.4487 2.8981 -2.0347 0.9775
3.8818 3.6624 -2.0451 0.9774
2.3633 4.8110 -2.0541 0.9773
0.4926 4.9733 -1.9152 0.9788
0.0464 4.9946 -1.9141 0.9788
-0.8403 3.1699 -1.2567 0.9861
-1.1607 2.4779 -1.0486 0.9883
-2.0117 2.3573 -1.1876 0.9868
-2.4167 2.3663 -1.2962 0.9856
-2.9404 2.4041 -1.4555 0.9839
-4.8314 2.1402 -2.0250 0.9776
-4.9883 1.6948 -2.0189 0.9777
-2.2969 -0.0697 -0.8806 0.9902
-4.3734 -2.0015 -1.9685 0.9794
-4.1661 -2.3780 -1.9633 0.9795
-3.6587 -3.0667 -1.9539 0.9796
-3.0419 -3.6538 -1.9458 0.9797
-2.6985 -3.9041 -1.9424 0.9797
-2.3352 -4.1232 -1.9394 0.9797
-1.9549 -4.3096 -1.9368 0.9798
-1.5603 -4.4622 -1.9347 0.9798
-1.1544 -4.5799 -1.9331 0.9798
-0.3206 -4.7078 -1.9312 0.9798
0.1013 -4.7172 -1.9311 0.9798
0.9398 -4.6267 -1.9323 0.9798
1.7511 -4.3927 -1.9354 0.9798
2.1391 -4.2236 -1.9377 0.9797
2.5115 -4.0212 -1.9404 0.9797
2.8654 -3.7870 -1.9436 0.9797
3.5072 -3.2290 -1.9511 0.9796
3.7901 -2.9092 -1.9555 0.9796
4.0446 -2.5650 -1.9602 0.9795
4.2684 -2.1990 -1.9651 0.9795
4.4597 -1.8137 -1.9704 0.9794
4.8220 -0.5709 -1.9873 0.9792
4.8438 0.7348 -2.0051 0.9790
4.7728 1.1681 -2.0110 0.9790
4.3285 2.4122 -2.0281 0.9788
3.2396 3.8112 -2.0472 0.9786
2.8916 4.0931 -2.0511 0.9786
2.5185 4.3424 -2.0545 0.9785
1.2770 4.8556 -2.0549 0.9785
0.8344 4.9289 -2.0460 0.9786
-0.0558 4.9712 -2.0347 0.9787
-0.9497 4.9340 -2.0565 0.9785
-0.8589 2.9910 -1.2736 0.9866
-1.0250 2.6499 -1.1628 0.9878
-1.1918 2.4141 -1.1019 0.9884
-1.4191 2.3248 -1.1147 0.9883
-2.0876 2.3470 -1.2856 0.9865
-3.1684 2.4840 -1.6478 0.9827
-4.3800 2.3136 -2.0273 0.9788
-4.5567 1.9078 -2.0218 0.9789
-2.0204 0.2602 -0.8337 0.9912
-2.0207 -0.2854 -0.8352 0.9912
-2.0959 -0.4902 -0.8810 0.9907
-4.4162 -1.9126 -1.9697 0.9794
-3.9847 -2.6544 -1.9595 0.9795
-3.4329 -3.3060 -1.9506 0.9796
-3.1175 -3.5923 -1.9467 0.9797
-2.7790 -3.8494 -1.9431 0.9797
-2.4201 -4.0758 -1.9400 0.9797
-2.0434 -4.2698 -1.9373 0.9797
-1.6518 -4.4303 -1.9351 0.9798
-0.8357 -4.6463 -1.9321 0.9798
1.2571 -4.5532 -1.9332 0.9798
1.6604 -4.4266 -1.9349 0.9798
2.4277 -4.0705 -1.9397 0.9797
2.7861 -3.8434 -1.9428 0.9797
3.1239 -3.5855 -1.9463 0.9797
3.7278 -2.9847 -1.9545 0.9796
4.5838 -1.5052 -1.9746 0.9794
4.8545 0.6349 -2.0038 0.9791
4.7925 1.0693 -2.0097 0.9790
4.5518 1.9162 -2.0213 0.9789
4.1603 2.7102 -2.0321 0.9788
3.3155 3.7423 -2.0463 0.9786
2.6060 4.2883 -2.0538 0.9785
2.2140 4.5072 -2.0552 0.9785
1.8023 4.6864 -2.0550 0.9785
1.3763 4.8284 -2.0549 0.9785
0.9377 4.9232 -2.0512 0.9786
0.0460 4.9670 -2.0329 0.9788
-0.8484 4.9521 -2.0563 0.9785
-0.8379 3.1608 -1.3383 0.9860
-1.1507 2.4566 -1.1103 0.9883
-2.9812 2.4375 -1.5761 0.9835
-4.3343 2.4043 -2.0286 0.9788
-4.6672 1.5857 -2.0174 0.9789
-2.1006 0.5097 -0.8847 0.9907
-2.0076 0.1188 -0.8231 0.9913
-1.9976 -0.0606 -0.8180 0.9914
-1.4912 -0.3812 -0.6708 0.9933
-3.1624 -3.1730 -1.9524 0.9806
-2.8610 -3.4365 -1.9488 0.9807
-2.5383 -3.6723 -1.9455 0.9807
-0.6965 -4.3865 -1.9357 0.9808
1.2706 -4.2597 -1.9372 0.9808
3.0078 -3.3127 -1.9500 0.9807
3.2981 -3.0365 -1.9538 0.9806
3.5637 -2.7354 -1.9579 0.9806
3.8023 -2.4114 -1.9623 0.9805
4.0121 -2.0670 -1.9670 0.9805
4.1913 -1.7045 -1.9719 0.9805
4.3381 -1.3267 -1.9770 0.9804
4.4512 -0.9363 -1.9824 0.9803
4.2360 1.8863 -2.0209 0.9800
4.0608 2.2630 -2.0260 0.9799
3.0375 3.5734 -2.0440 0.9797
2.7109 3.8373 -2.0476 0.9797
2.3609 4.0706 -2.0508 0.9797
1.9904 4.2710 -2.0536 0.9796
1.6026 4.4367 -2.0559 0.9796
0.3687 4.7034 -2.0561 0.9796
-0.0530 4.7182 -2.0564 0.9796
-0.4744 4.6956 -2.0568 0.9796
-0.8923 4.6356 -2.0574 0.9796
-0.8525 2.9688 -1.3462 0.9866
-0.9919 2.5642 -1.1982 0.9881
-1.4164 2.3205 -1.1848 0.9882
-1.7299 2.3356 -1.2667 0.9874
-2.1099 2.3721 -1.3836 0.9862
-4.1092 2.1706 -2.0254 0.9799
-1.4938 0.4736 -0.6830 0.9932
-1.4821 0.3276 -0.6615 0.9934
-1.4731 0.1897 -0.6473 0.9935
-1.4467 0.0559 -0.6309 0.9937
-1.4527 -0.0739 -0.6339 0.9937
-1.4863 -0.3477 -0.6652 0.9934
-1.4927 -0.4934 -0.6852 0.9932
-3.7461 -2.4954 -1.9617 0.9806
-3.5003 -2.8139 -1.9573 0.9806
-2.9320 -3.3785 -1.9496 0.9807
-2.6139 -3.6208 -1.9462 0.9807
-2.2765 -3.8341 -1.9433 0.9807
-1.9224 -4.0169 -1.9408 0.9808
-1.1745 -4.2867 -1.9371 0.9808
-0.7863 -4.3718 -1.9359 0.9808
-0.3924 -4.4229 -1.9351 0.9808
0.0043 -4.4397 -1.9349 0.9808
1.1828 -4.2841 -1.9369 0.9808
1.9300 -4.0127 -1.9406 0.9808
2.9381 -3.3722 -1.9492 0.9807
3.2337 -3.1020 -1.9529 0.9806
3.5051 -2.8065 -1.9569 0.9806
4.5654 -0.2233 -1.9921 0.9803
4.5799 0.1860 -1.9977 0.9802
4.5577 0.5961 -2.0033 0.9801
4.4987 1.0037 -2.0088 0.9801
4.4030 1.4055 -2.0143 0.9800
4.2712 1.7981 -2.0197 0.9800
4.1040 2.1781 -2.0249 0.9799
3.9025 2.5423 -2.0299 0.9799
3.6683 2.8875 -2.0346 0.9798
3.1088 3.5089 -2.0431 0.9798
2.7879 3.7795 -2.0468 0.9797
2.0769 4.2281 -2.0530 0.9797
1.2931 4.5366 -2.0559 0.9796
0.8826 4.6341 -2.0559 0.9796
