ply
format ascii 1.0
element vertex 1590
property float32 x
property float32 y
property float32 z
property float32 I
end_header
5.0266 -8.2672 -0.9289 0.9619
6.2568 -8.4825 -1.0119 0.9585
7.4777 -8.4444 -1.0829 0.9557
9.1147 -8.6077 -1.2036 0.9509
10.9327 -8.6182 -1.3365 0.9456
13.3943 -8.7436 -1.5356 0.9377
16.8566 -7.1240 -1.7569 0.9291
18.0572 -4.0643 -1.7769 0.9283
18.4777 -2.4562 -1.7896 0.9278
18.7719 -0.8061 -1.8039 0.9273
14.7495 4.7902 -1.4888 0.9396
9.4679 5.0805 -1.0316 0.9577
9.1913 6.0446 -1.0561 0.9568
9.4344 10.7273 -1.3715 0.9442
8.4610 11.5528 -1.3748 0.9441
6.5758 10.8986 -1.2220 0.9501
2.6670 5.4700 -0.5843 0.9758
3.2562 8.5363 -0.8771 0.9640
1.6192 8.6071 -0.8408 0.9654
0.8383 8.6408 -0.8335 0.9657
-0.7135 8.7075 -0.8388 0.9655
-2.4205 9.0906 -0.9032 0.9629
-3.3380 9.1597 -0.9359 0.9616
-6.3682 8.9738 -1.0564 0.9567
-7.9402 9.3053 -1.1744 0.9520
-11.2466 9.2053 -1.3953 0.9433
-12.4210 4.2404 -1.2601 0.9486
-12.5698 3.0727 -1.2423 0.9493
-12.1163 -7.6533 -1.3759 0.9440
-7.1438 -7.8281 -1.0174 0.9583
-5.0627 -8.0528 -0.9132 0.9625
-4.1528 -8.1347 -0.8768 0.9640
-1.7356 -8.3765 -0.8213 0.9662
-0.2168 -8.3903 -0.8058 0.9668
2.0452 -8.2904 -0.8198 0.9663
3.7031 -8.2848 -0.8712 0.9642
4.7178 -8.4427 -0.9285 0.9619
5.7388 -8.4099 -0.9775 0.9599
8.3668 -8.5038 -1.1453 0.9532
10.1270 -8.6043 -1.2758 0.9480
12.3335 -8.7131 -1.4497 0.9411
16.5530 -7.7237 -1.7537 0.9292
17.2580 -6.2477 -1.7621 0.9289
17.8486 -4.7119 -1.7723 0.9285
18.8840 0.1813 -1.8130 0.9269
18.9677 1.8809 -1.8299 0.9263
15.8939 4.5240 -1.5865 0.9358
14.7917 5.6784 -1.5211 0.9383
8.6965 5.2724 -0.9764 0.9600
5.4560 5.7626 -0.7619 0.9686
10.4825 13.2627 -1.6230 0.9343
3.8483 5.8788 -0.6746 0.9722
1.1580 8.6270 -0.8357 0.9656
0.3830 8.6604 -0.8323 0.9658
-0.3918 8.6937 -0.8355 0.9656
-1.1790 8.7275 -0.8455 0.9652
-2.9402 9.0927 -0.9175 0.9623
-3.9043 9.1839 -0.9581 0.9607
-4.9364 9.2278 -1.0047 0.9588
-8.4778 6.2256 -1.0098 0.9586
-12.5297 3.5550 -1.2504 0.9490
-8.3808 9.1211 -1.4714 0.9513
-13.3459 8.3667 -1.8711 0.9385
-13.6614 2.8124 -1.6568 0.9454
-18.4110 2.1041 -2.2012 0.9281
-17.8426 -2.7681 -2.1448 0.9298
-17.3547 -4.3049 -2.1240 0.9305
-15.9447 -7.1514 -2.0758 0.9320
-13.9647 -7.8269 -1.9016 0.9376
-11.2869 -7.7232 -1.6246 0.9464
-9.2993 -7.6644 -1.4315 0.9526
-7.9811 -7.8726 -1.3317 0.9558
-4.5922 -7.9369 -1.0892 0.9637
-3.7548 -8.0741 -1.0577 0.9648
-2.9078 -8.0643 -1.0183 0.9661
-2.1206 -8.0748 -0.9917 0.9669
-1.3778 -8.1443 -0.9812 0.9673
-0.6373 -8.1166 -0.9671 0.9677
0.0891 -8.1933 -0.9733 0.9675
0.8212 -8.1752 -0.9760 0.9674
1.5915 -8.3043 -1.0044 0.9665
4.2525 -8.6470 -1.1446 0.9619
5.0313 -8.2749 -1.1504 0.9617
10.8970 -8.5901 -1.6482 0.9456
13.3187 -7.0886 -1.7922 0.9410
15.2383 -2.0256 -1.8260 0.9400
15.5692 0.7217 -1.8514 0.9391
15.5651 2.1229 -1.8660 0.9387
14.0458 4.5616 -1.7542 0.9422
13.7129 5.8505 -1.7709 0.9417
9.5251 5.1112 -1.2841 0.9574
4.0939 5.5899 -0.8230 0.9725
6.5392 10.8379 -1.5036 0.9503
2.4198 8.5705 -1.0579 0.9648
1.6188 8.6051 -1.0401 0.9653
-0.7133 8.7055 -1.0376 0.9654
-1.5091 8.7396 -1.0535 0.9649
-7.7607 9.0950 -1.4202 0.9530
-8.7291 5.9295 -1.2535 0.9584
-12.3366 4.2115 -1.5485 0.9488
-12.4227 3.0367 -1.5191 0.9498
-18.3778 2.7871 -2.2080 0.9279
-18.2836 -0.5114 -2.1727 0.9290
-12.0934 -7.6389 -1.6991 0.9440
-8.6401 -7.9184 -1.3921 0.9539
-3.2522 -8.0773 -1.0343 0.9655
0.5207 -8.2027 -0.9763 0.9674
1.2605 -8.1939 -0.9848 0.9672
5.7371 -8.4073 -1.2090 0.9598
6.9906 -8.5038 -1.3076 0.9566
8.3241 -8.4604 -1.4099 0.9533
12.0320 -8.5001 -1.7499 0.9424
13.0340 -7.5637 -1.7901 0.9411
14.7445 -3.8924 -1.8114 0.9404
15.1160 -2.5772 -1.8215 0.9401
15.5376 0.1492 -1.8457 0.9393
15.5808 1.5450 -1.8599 0.9389
15.5083 2.9516 -1.8752 0.9384
15.0819 4.2929 -1.8627 0.9388
13.8634 5.3220 -1.7640 0.9419
13.4644 6.6003 -1.7812 0.9414
6.0790 5.3693 -0.9634 0.9679
5.5165 5.8265 -0.9531 0.9682
3.7014 5.6545 -0.8028 0.9731
5.8031 10.8699 -1.4637 0.9516
1.1577 8.6250 -1.0337 0.9656
-0.3917 8.6917 -1.0335 0.9656
-1.1787 8.7254 -1.0459 0.9652
-2.0591 9.0587 -1.1035 0.9633
-5.9134 9.0169 -1.2809 0.9575
-8.6617 9.1330 -1.4952 0.9506
-8.4923 6.2363 -1.2515 0.9584
-13.8625 8.3884 -1.9247 0.9368
-15.7361 7.6974 -2.0809 0.9319
-12.3631 3.5078 -1.5265 0.9496
-17.7665 -3.0445 -2.1412 0.9300
-8.3780 9.1182 -1.7545 0.9512
-8.4938 6.4463 -1.5108 0.9578
-12.2348 7.6701 -2.0460 0.9433
-11.2104 5.7049 -1.7822 0.9505
-13.7235 5.5052 -2.0951 0.9420
-15.1783 0.3728 -2.1512 0.9405
-15.0428 -0.9743 -2.1359 0.9409
-14.4021 -3.5725 -2.1025 0.9418
-13.3088 -5.9692 -2.0667 0.9428
-11.0413 -7.5552 -1.8956 0.9474
-7.8757 -7.7687 -1.5674 0.9563
-6.7322 -7.9442 -1.4754 0.9588
-5.5902 -7.9346 -1.3752 0.9615
-3.7837 -8.1362 -1.2714 0.9644
-2.8907 -8.0171 -1.2075 0.9662
-2.1526 -8.1964 -1.2007 0.9663
-0.6485 -8.2593 -1.1738 0.9671
0.0907 -8.3390 -1.1816 0.9669
1.5954 -8.3245 -1.2010 0.9663
4.1697 -8.4788 -1.3388 0.9625
6.2446 -8.4660 -1.4906 0.9584
8.8712 -8.3778 -1.7289 0.9519
10.7464 -7.0151 -1.8184 0.9495
11.3545 -6.0431 -1.8225 0.9494
12.3284 -3.9576 -1.8346 0.9490
12.6868 -2.8555 -1.8426 0.9488
12.9549 -1.7221 -1.8517 0.9486
13.1894 1.7989 -1.8861 0.9476
13.0700 2.9885 -1.8997 0.9473
9.4492 5.0704 -1.5194 0.9576
10.1112 8.0266 -1.8292 0.9492
8.5768 9.7522 -1.8401 0.9489
4.0722 5.5603 -0.9765 0.9725
6.9149 11.4605 -1.8965 0.9474
2.6661 5.4682 -0.8620 0.9757
2.4193 8.5685 -1.2615 0.9647
1.6184 8.6031 -1.2404 0.9653
0.8379 8.6368 -1.2295 0.9656
0.0648 8.6701 -1.2285 0.9656
-0.6958 4.0297 -0.5794 0.9836
-6.3645 8.9687 -1.5582 0.9565
-7.7583 9.0921 -1.6935 0.9529
-15.1967 0.9324 -2.1573 0.9403
-15.1139 -0.4227 -2.1423 0.9407
-14.9043 -1.7548 -2.1264 0.9412
-14.5726 -3.0517 -2.1096 0.9416
-14.1249 -4.3023 -2.0921 0.9421
-11.8815 -7.5050 -1.9912 0.9448
-10.4173 -7.9622 -1.8578 0.9484
-8.5193 -7.8077 -1.6374 0.9544
-3.2643 -8.1073 -1.2383 0.9653
-2.4708 -8.1739 -1.2099 0.9661
-0.2141 -8.2837 -1.1741 0.9671
1.2692 -8.2508 -1.1828 0.9668
4.6737 -8.3639 -1.3575 0.9620
8.2940 -8.4298 -1.6756 0.9533
10.4740 -7.3995 -1.8170 0.9495
11.1137 -6.4493 -1.8206 0.9494
11.6755 -5.4478 -1.8255 0.9493
12.8557 -2.1918 -1.8478 0.9487
11.7059 4.4938 -1.7766 0.9506
6.0370 5.3322 -1.1413 0.9680
1.1575 8.6230 -1.2327 0.9655
-0.5770 4.2712 -0.6107 0.9827
-0.8907 3.9182 -0.5693 0.9839
-1.2452 3.8508 -0.5734 0.9838
-4.7970 8.9672 -1.4409 0.9597
-5.3447 8.1497 -1.3809 0.9614
-7.1794 9.0678 -1.6387 0.9543
-8.5021 6.2435 -1.4946 0.9583
-12.3489 7.4724 -2.0451 0.9434
-12.9257 6.3227 -2.0388 0.9435
-15.0912 2.8590 -2.1763 0.9398
-15.1636 0.1328 -2.1486 0.9406
-15.0056 -1.2102 -2.1330 0.9410
-14.3227 -3.7940 -2.0994 0.9419
-8.1073 6.1531 -1.6767 0.9596
-12.2212 4.9026 -2.1693 0.9480
-12.5609 3.7793 -2.1609 0.9482
-12.9155 0.3173 -2.1283 0.9490
-12.2966 -3.0502 -2.0871 0.9499
-10.1462 -6.9427 -2.0253 0.9514
-9.2377 -7.6137 -1.9721 0.9526
-7.9605 -7.8524 -1.8421 0.9557
-6.7588 -7.9756 -1.7222 0.9585
-5.7356 -8.1409 -1.6406 0.9604
-4.5833 -7.9214 -1.5077 0.9636
-2.1266 -8.0973 -1.3792 0.9666
-0.6431 -8.1912 -1.3536 0.9672
0.8294 -8.2563 -1.3670 0.9669
1.5651 -8.1667 -1.3699 0.9669
3.2534 -8.4425 -1.4905 0.9640
8.1101 -7.6590 -1.8377 0.9558
9.3603 -6.1102 -1.8415 0.9557
9.8871 -5.2621 -1.8451 0.9556
10.3434 -4.3714 -1.8499 0.9555
10.7259 -3.4432 -1.8558 0.9554
11.3189 2.5881 -1.9128 0.9540
11.1163 3.6102 -1.9254 0.9537
9.6495 5.1779 -1.8040 0.9566
3.2539 8.5301 -1.5040 0.9637
2.4187 8.5664 -1.4664 0.9646
1.6181 8.6011 -1.4418 0.9651
0.8377 8.6348 -1.4292 0.9654
0.0648 8.6681 -1.4280 0.9655
-0.6295 3.6457 -0.6095 0.9851
-0.9440 3.5453 -0.6044 0.9852
-1.2745 3.4973 -0.6132 0.9850
-1.6529 3.5229 -0.6411 0.9843
-5.9882 8.4384 -1.7046 0.9589
-7.7558 9.0893 -1.9684 0.9527
-8.7645 8.5868 -2.0213 0.9515
-8.1954 5.5670 -1.6321 0.9606
-11.6072 -4.7021 -2.0631 0.9505
-11.0579 -5.6747 -2.0475 0.9509
-10.4275 -6.5866 -2.0318 0.9512
-8.3652 -7.6665 -1.8693 0.9550
-6.1497 -8.0815 -1.6730 0.9597
-5.0417 -8.0194 -1.5605 0.9623
-3.2260 -8.0122 -1.4229 0.9656
-2.4650 -8.1547 -1.4034 0.9661
-0.9458 -8.1832 -1.3571 0.9672
0.5227 -8.2330 -1.3590 0.9671
1.2637 -8.2149 -1.3692 0.9669
2.0581 -8.3424 -1.4155 0.9658
4.7220 -8.4502 -1.5947 0.9615
5.7989 -8.4979 -1.6948 0.9592
6.8141 -8.2890 -1.7677 0.9574
7.8175 -7.9455 -1.8363 0.9558
8.5039 -7.2252 -1.8383 0.9558
9.6786 -5.6165 -1.8435 0.9556
10.1644 -4.7427 -1.8478 0.9555
10.5776 -3.8293 -1.8532 0.9554
10.9152 -2.8816 -1.8598 0.9553
11.3519 -0.9059 -1.8761 0.9549
11.4548 1.1359 -1.8963 0.9544
11.3766 2.1652 -1.9078 0.9541
11.2104 3.1910 -1.9201 0.9538
10.9381 4.1991 -1.9302 0.9536
8.6369 5.2363 -1.6639 0.9599
6.6561 4.8965 -1.3613 0.9671
3.7026 5.6563 -1.1137 0.9730
2.7573 8.5517 -1.4802 0.9642
-0.1906 4.2282 -0.6973 0.9830
-0.8133 3.5781 -0.6045 0.9852
-1.4850 3.4930 -0.6253 0.9847
-8.4440 8.9033 -2.0215 0.9515
-9.1774 5.5533 -1.7671 0.9574
-12.6096 3.5777 -2.1593 0.9483
-12.8192 2.4286 -2.1494 0.9485
-12.9175 1.2699 -2.1383 0.9487
-12.9054 0.1130 -2.1261 0.9490
-12.2315 -3.2401 -2.0845 0.9500
-7.1917 7.8270 -1.9979 0.9577
-7.8588 7.1534 -1.9975 0.9577
-8.0308 6.0950 -1.8950 0.9598
-10.1807 5.1809 -2.1471 0.9546
-10.5988 4.2517 -2.1465 0.9546
-10.8990 3.2793 -2.1393 0.9547
-11.2144 1.2817 -2.1216 0.9551
-11.2290 0.2758 -2.1113 0.9553
-11.1495 -0.7221 -2.1001 0.9555
-10.9782 -1.7032 -2.0882 0.9558
-5.5704 -7.9065 -1.8179 0.9614
-0.6452 -8.2173 -1.5493 0.9670
0.0901 -8.2817 -1.5567 0.9669
1.5843 -8.2666 -1.5821 0.9663
3.2792 -8.5095 -1.7141 0.9636
4.0381 -8.2110 -1.7199 0.9634
4.9916 -8.2097 -1.8060 0.9616
8.2838 -5.4075 -1.8594 0.9605
9.1491 -3.8666 -1.8669 0.9604
10.1116 0.4687 -1.9026 0.9596
9.9728 2.2803 -1.9229 0.9592
9.7866 3.1784 -1.9341 0.9590
8.5465 4.5860 -1.8231 0.9613
6.1881 4.9123 -1.4850 0.9684
5.1476 5.8531 -1.4651 0.9688
3.2531 8.5280 -1.7156 0.9635
0.8375 8.6328 -1.6303 0.9653
0.0314 4.1971 -0.7889 0.9831
-0.2953 3.6042 -0.6797 0.9854
-0.5881 3.4055 -0.6496 0.9860
-0.8981 3.3731 -0.6561 0.9859
-1.9960 3.4229 -0.7448 0.9840
-6.8988 8.0849 -1.9977 0.9577
-8.0363 6.5777 -1.9520 0.9586
-8.1881 5.5620 -1.8605 0.9605
-10.4482 4.6435 -2.1491 0.9545
-11.1808 1.6956 -2.1256 0.9550
-11.2345 0.6893 -2.1156 0.9552
-11.1935 -0.3130 -2.1048 0.9554
-10.8356 -2.2691 -2.0808 0.9559
-8.5121 -6.5060 -2.0138 0.9573
-7.8446 -7.1894 -2.0000 0.9576
-7.0302 -7.7037 -1.9603 0.9584
-4.1495 -8.1282 -1.7153 0.9635
-3.2881 -8.1664 -1.6547 0.9648
-2.4874 -8.2289 -1.6158 0.9656
-1.6903 -8.1579 -1.5659 0.9667
-0.9345 -8.0850 -1.5298 0.9674
-0.2142 -8.2903 -1.5588 0.9668
2.0674 -8.3803 -1.6224 0.9655
2.8751 -8.3636 -1.6623 0.9646
3.7370 -8.3606 -1.7213 0.9634
6.2710 -7.6284 -1.8561 0.9606
7.5274 -6.3955 -1.8566 0.9606
8.0752 -5.7048 -1.8584 0.9606
8.5645 -4.9700 -1.8612 0.9605
10.0248 -0.8000 -1.8903 0.9599
10.1029 1.0018 -1.9083 0.9595
6.6536 4.8947 -1.5526 0.9669
5.5872 4.9349 -1.4012 0.9701
5.1313 5.4196 -1.4028 0.9701
1.9438 8.5850 -1.6545 0.9648
1.1569 8.6191 -1.6346 0.9652
-0.1689 3.7477 -0.7051 0.9848
-1.4399 3.3870 -0.6918 0.9851
-6.5960 8.3309 -1.9973 0.9577
-7.3145 7.7124 -1.9979 0.9577
-9.0543 5.4788 -1.9892 0.9578
-11.1309 2.1087 -2.1294 0.9549
-11.2239 1.1034 -2.1198 0.9551
-11.1258 -0.8973 -2.0980 0.9556
-6.3368 6.8967 -1.9798 0.9624
-7.4533 5.6567 -1.9779 0.9625
-9.6159 2.8932 -2.1226 0.9598
-9.9038 1.1319 -2.1071 0.9601
-9.9224 0.2437 -2.0980 0.9602
-9.8582 -0.6385 -2.0882 0.9604
-9.7131 -1.5069 -2.0777 0.9606
-9.1906 -3.1725 -2.0552 0.9610
-8.8203 -3.9560 -2.0434 0.9612
-6.7184 -6.6272 -1.9948 0.9622
-5.3578 -7.6046 -1.9663 0.9627
-4.5205 -7.8129 -1.9080 0.9638
-2.8734 -7.9690 -1.7906 0.9660
-0.6536 -8.3243 -1.7650 0.9664
0.0905 -8.3152 -1.7578 0.9666
0.8280 -8.2433 -1.7512 0.9667
1.5542 -8.1099 -1.7455 0.9668
2.3189 -8.1073 -1.7825 0.9661
3.1327 -8.1294 -1.8416 0.9650
3.9084 -7.9473 -1.8720 0.9644
4.6038 -7.5719 -1.8732 0.9644
5.2553 -7.1248 -1.8714 0.9645
5.8668 -6.6252 -1.8706 0.9645
6.9541 -5.4819 -1.8718 0.9644
8.4922 -2.7261 -1.8853 0.9642
8.7273 -1.9643 -1.8909 0.9641
9.0389 0.4190 -1.9127 0.9637
8.9048 2.0361 -1.9309 0.9633
8.7330 2.8362 -1.9409 0.9632
5.2035 4.9477 -1.5178 0.9711
5.1496 5.8553 -1.6483 0.9686
4.0678 5.5542 -1.4552 0.9722
4.5931 7.6124 -1.8793 0.9643
2.6232 5.3802 -1.2652 0.9758
3.2057 8.4039 -1.9013 0.9639
2.4176 8.5624 -1.8807 0.9643
1.6173 8.5971 -1.8491 0.9649
0.8373 8.6308 -1.8329 0.9652
-0.5749 3.3293 -0.7142 0.9863
-0.8893 3.3401 -0.7306 0.9860
-1.2198 3.3473 -0.7531 0.9855
-7.2435 5.9288 -1.9786 0.9625
-8.8257 4.9073 -2.1346 0.9596
-9.7353 2.3798 -2.1184 0.9599
-9.9248 0.6089 -2.1019 0.9602
-9.7825 -1.1517 -2.0821 0.9605
-9.5908 -2.0084 -2.0713 0.9607
-8.0960 -5.1139 -2.0242 0.9616
-6.9745 -6.3920 -1.9998 0.9621
-6.3387 -6.9460 -1.9877 0.9623
-4.8983 -7.7913 -1.9454 0.9631
-3.1766 -7.8892 -1.7977 0.9658
-1.7050 -8.2290 -1.7764 0.9662
1.2571 -8.1721 -1.7477 0.9668
1.9977 -8.0979 -1.7631 0.9665
2.7915 -8.1205 -1.8151 0.9655
4.3245 -7.7389 -1.8739 0.9644
4.9919 -7.3153 -1.8720 0.9644
5.6203 -6.8369 -1.8708 0.9645
7.2364 -5.1122 -1.8728 0.9644
7.6736 -4.4530 -1.8754 0.9644
8.0549 -3.7584 -1.8789 0.9643
8.3772 -3.0327 -1.8832 0.9642
8.6383 -2.2805 -1.8885 0.9641
8.8356 -1.5064 -1.8946 0.9640
8.9675 -0.7156 -1.9016 0.9639
9.0283 0.8952 -1.9178 0.9636
8.8122 2.5083 -1.9367 0.9632
8.5993 3.3012 -1.9471 0.9630
7.6127 4.6153 -1.8818 0.9643
5.5853 4.9332 -1.5752 0.9700
5.0927 6.4434 -1.7361 0.9670
4.2017 7.8704 -1.8859 0.9642
3.5039 8.2613 -1.8968 0.9640
1.9434 8.5830 -1.8602 0.9647
0.1778 4.0194 -0.8505 0.9837
-0.1585 3.5174 -0.7443 0.9857
-0.7581 3.3351 -0.7230 0.9861
-1.0819 3.3458 -0.7433 0.9857
-1.7987 3.3624 -0.8060 0.9845
-2.2263 3.3947 -0.8581 0.9835
-6.4451 6.7957 -1.9798 0.9624
-7.5403 5.5372 -1.9775 0.9625
-8.6227 5.2177 -2.1304 0.9596
-9.4008 3.5998 -2.1279 0.9597
-9.6548 2.7394 -2.1214 0.9598
-9.8258 1.8615 -2.1139 0.9599
-9.9132 0.9745 -2.1055 0.9601
-9.8383 -0.7935 -2.0864 0.9604
-9.4419 -2.5011 -2.0647 0.9609
-5.6579 6.1577 -1.9654 0.9662
-6.8769 5.2192 -2.0290 0.9651
-8.0374 4.0902 -2.1195 0.9636
-8.3517 3.3503 -2.1149 0.9637
-8.5944 2.5859 -2.1093 0.9638
-8.8586 1.0124 -2.0955 0.9640
-8.2421 -2.8451 -2.0492 0.9648
-7.9147 -3.5499 -2.0387 0.9650
-7.0825 -4.8463 -2.0169 0.9654
-6.5864 -5.4285 -2.0060 0.9655
-6.0434 -5.9613 -1.9951 0.9657
-5.4585 -6.4412 -1.9843 0.9659
-4.8369 -6.8653 -1.9737 0.9661
-3.5012 -7.5288 -1.9514 0.9665
-2.7979 -7.7597 -1.9386 0.9667
-1.3436 -7.9421 -1.8931 0.9674
0.0871 -8.0012 -1.8806 0.9677
0.8063 -8.0272 -1.8961 0.9674
1.5175 -7.9179 -1.8948 0.9674
2.2151 -7.7445 -1.8931 0.9674
4.7569 -6.4490 -1.8834 0.9676
5.3105 -5.9970 -1.8826 0.9676
5.8242 -5.5002 -1.8827 0.9676
6.2944 -4.9619 -1.8837 0.9676
6.7180 -4.3854 -1.8855 0.9676
7.0922 -3.7746 -1.8882 0.9675
7.4141 -3.1334 -1.8917 0.9675
8.1347 -0.3493 -1.9136 0.9671
8.1645 0.3784 -1.9209 0.9670
8.1317 1.1091 -1.9288 0.9668
7.8770 2.5582 -1.9465 0.9665
7.6551 3.2660 -1.9560 0.9664
7.0004 4.6038 -1.9692 0.9662
5.2018 4.9460 -1.6870 0.9709
2.8745 7.5355 -1.8955 0.9674
2.2023 7.8001 -1.9049 0.9672
-1.2069 3.3118 -0.8284 0.9856
-2.3796 3.3533 -0.9664 0.9832
-5.4276 6.3608 -1.9652 0.9662
-5.9731 5.8520 -1.9653 0.9662
-7.8878 4.3858 -2.1211 0.9636
-8.8286 1.3389 -2.0986 0.9640
-8.8569 -0.2477 -2.0824 0.9642
-8.7610 -1.0315 -2.0733 0.9644
-8.5941 -1.7997 -2.0636 0.9646
-7.6935 -3.9481 -2.0323 0.9651
-7.2718 -4.5933 -2.0214 0.9653
-6.7965 -5.1948 -2.0105 0.9655
-6.2722 -5.7483 -1.9995 0.9656
-5.0967 -6.6977 -1.9780 0.9660
-3.0890 -7.6718 -1.9437 0.9666
-1.6428 -7.9284 -1.9029 0.9673
-0.9201 -7.9606 -1.8834 0.9676
-0.2065 -7.9899 -1.8784 0.9677
1.9298 -7.8225 -1.8936 0.9674
2.6175 -7.6144 -1.8923 0.9675
3.2793 -7.3367 -1.8887 0.9675
3.9143 -7.0048 -1.8859 0.9676
5.0874 -6.1886 -1.8828 0.9676
6.5496 -4.6270 -1.8847 0.9676
6.9444 -4.0299 -1.8870 0.9675
7.5781 -2.7434 -1.8941 0.9674
7.8121 -2.0624 -1.8989 0.9673
8.1045 -0.6468 -1.9108 0.9671
8.1528 0.8084 -1.9255 0.9669
8.0830 1.5384 -1.9338 0.9668
7.7540 2.9767 -1.9520 0.9664
7.4954 3.6743 -1.9619 0.9663
7.1646 4.3436 -1.9691 0.9662
6.3558 4.6756 -1.8544 0.9681
5.4948 4.8532 -1.7230 0.9703
5.0508 5.3346 -1.7266 0.9703
3.7036 5.6578 -1.5893 0.9726
1.7949 7.9272 -1.9102 0.9672
0.6003 4.4720 -1.0604 0.9816
0.1628 3.6814 -0.8661 0.9850
-0.7505 3.3017 -0.7958 0.9862
-1.7757 3.3194 -0.8848 0.9847
-2.7206 3.4362 -1.0301 0.9822
-5.7545 6.0676 -1.9654 0.9662
-6.2707 5.5292 -1.9648 0.9662
-7.1094 5.2207 -2.0730 0.9644
-8.4000 3.2165 -2.1140 0.9637
-8.7859 1.6644 -2.1016 0.9639
-8.6712 -1.4859 -2.0676 0.9645
-6.4907 4.9261 -2.1097 0.9669
-6.9075 4.3304 -2.1109 0.9669
-7.2548 3.6919 -2.1076 0.9669
-7.5401 3.0247 -2.1035 0.9670
-7.9163 1.6297 -2.0927 0.9672
-8.0048 0.9148 -2.0861 0.9673
-8.0265 0.1972 -2.0788 0.9674
-7.9817 -0.5170 -2.0709 0.9675
-7.8717 -1.2212 -2.0625 0.9676
-7.6983 -1.9096 -2.0536 0.9678
-7.4636 -2.5764 -2.0444 0.9679
-7.1706 -3.2161 -2.0348 0.9680
-6.8226 -3.8239 -2.0250 0.9682
-6.4231 -4.3951 -2.0151 0.9684
-5.9763 -4.9256 -2.0052 0.9685
-4.9577 -5.8503 -1.9855 0.9688
-4.3953 -6.2385 -1.9759 0.9690
-3.1881 -6.8555 -1.9576 0.9692
-1.9040 -7.2499 -1.9408 0.9695
-0.5823 -7.4158 -1.9260 0.9697
0.0806 -7.4130 -1.9195 0.9698
2.0221 -7.0698 -1.9039 0.9701
2.6389 -6.8478 -1.9001 0.9701
3.2335 -6.5750 -1.8971 0.9702
3.8020 -6.2532 -1.8948 0.9702
5.3149 -5.0192 -1.8928 0.9702
5.7437 -4.5278 -1.8937 0.9702
6.1298 -4.0014 -1.8953 0.9702
6.4703 -3.4437 -1.8978 0.9702
7.4127 -0.3183 -1.9211 0.9698
7.1669 2.3276 -1.9511 0.9693
4.7307 5.3789 -1.8547 0.9708
2.6076 5.3482 -1.5406 0.9757
2.6027 6.8229 -1.8907 0.9703
1.1285 3.9969 -1.0753 0.9830
0.0249 3.3355 -0.8636 0.9863
-0.2679 3.2696 -0.8494 0.9865
-0.8715 3.2730 -0.8770 0.9861
-1.1950 3.2792 -0.9037 0.9857
-1.5412 3.2848 -0.9395 0.9851
-2.3284 3.2810 -1.0417 0.9835
-2.8387 3.3267 -1.1323 0.9821
-5.3896 5.2803 -1.9536 0.9693
-6.2949 5.1524 -2.1062 0.9669
-6.7472 4.5833 -2.1119 0.9669
-7.1192 3.9584 -2.1091 0.9669
-7.4304 3.3023 -2.1053 0.9670
-8.0081 -0.2240 -2.0743 0.9674
-7.9248 -0.9330 -2.0660 0.9676
-7.7772 -1.6287 -2.0573 0.9677
-7.5674 -2.3050 -2.0482 0.9678
-6.5935 -4.1648 -2.0192 0.9683
-6.1656 -4.7125 -2.0093 0.9684
-5.6928 -5.2173 -1.9994 0.9686
-4.6305 -6.0851 -1.9798 0.9689
-4.0504 -6.4426 -1.9704 0.9690
-3.4441 -6.7464 -1.9612 0.9692
-0.8554 -7.4004 -1.9289 0.9697
-0.1918 -7.4211 -1.9221 0.9698
0.4688 -7.3849 -1.9159 0.9699
1.1219 -7.2929 -1.9105 0.9700
1.7629 -7.1459 -1.9057 0.9700
2.3875 -6.9455 -1.9016 0.9701
2.9917 -6.6933 -1.8983 0.9702
3.5715 -6.3913 -1.8957 0.9702
5.1267 -5.2106 -1.8926 0.9702
5.9763 -4.2220 -1.8945 0.9702
6.3359 -3.6767 -1.8967 0.9702
6.6485 -3.1022 -1.8996 0.9701
6.9118 -2.5022 -1.9032 0.9701
7.2823 -1.2416 -1.9127 0.9699
7.4341 0.0714 -1.9249 0.9697
7.3587 1.4005 -1.9395 0.9695
7.2347 2.0593 -1.9476 0.9694
7.0532 2.7076 -1.9561 0.9693
6.5207 3.9533 -1.9744 0.9690
6.1556 4.5283 -1.9786 0.9689
5.3471 4.7228 -1.8472 0.9710
4.4547 5.6362 -1.8601 0.9708
3.7038 5.6581 -1.7510 0.9724
2.8517 5.3416 -1.5678 0.9753
1.3784 4.2750 -1.1630 0.9816
0.1537 3.4755 -0.9007 0.9857
-0.4413 3.2665 -0.8534 0.9865
-0.7435 3.2710 -0.8685 0.9862
-1.0584 3.2732 -0.8907 0.9859
-2.1546 3.2853 -1.0172 0.9839
-2.6124 3.2996 -1.0897 0.9828
-5.1923 5.4748 -1.9536 0.9693
-5.8699 5.1758 -2.0263 0.9682
-7.3099 3.5757 -2.1070 0.9669
-7.7935 2.2112 -2.0975 0.9671
-7.9369 1.5036 -2.0916 0.9672
-8.0135 0.7878 -2.0849 0.9673
-7.9669 -0.6426 -2.0695 0.9675
-7.6611 -2.0294 -2.0520 0.9678
-5.4823 4.9902 -2.0987 0.9697
-6.2871 3.9415 -2.1007 0.9696
-6.6042 3.3608 -2.0978 0.9697
-7.2110 1.4845 -2.0842 0.9699
-7.3156 0.1797 -2.0716 0.9700
-7.2773 -0.4713 -2.0645 0.9701
-7.1796 -1.1138 -2.0568 0.9702
-7.0240 -1.7423 -2.0487 0.9704
-6.2326 -3.4933 -2.0227 0.9707
-5.8702 -4.0168 -2.0136 0.9709
-5.4641 -4.5035 -2.0045 0.9710
-5.0183 -4.9501 -1.9955 0.9711
-2.9209 -6.2808 -1.9609 0.9716
-2.3400 -6.4898 -1.9530 0.9717
-0.5342 -6.8034 -1.9319 0.9720
0.0740 -6.8027 -1.9259 0.9721
1.2737 -6.6461 -1.9157 0.9723
2.9701 -6.0394 -1.9053 0.9724
3.4927 -5.7444 -1.9032 0.9724
3.9878 -5.4064 -1.9018 0.9725
5.6309 -3.6758 -1.9037 0.9724
5.9431 -3.1631 -1.9059 0.9724
6.6058 -1.4868 -1.9168 0.9722
6.7906 0.9262 -1.9402 0.9719
6.5680 2.1331 -1.9549 0.9717
6.3777 2.7210 -1.9629 0.9716
6.1358 3.2925 -1.9713 0.9715
5.8435 3.8429 -1.9799 0.9713
5.4963 4.3631 -1.9866 0.9712
4.9638 4.7198 -1.9391 0.9719
4.3285 4.9217 -1.8555 0.9731
3.4136 5.6577 -1.8706 0.9729
2.5997 5.3320 -1.6793 0.9756
1.5086 3.9547 -1.1982 0.9826
1.0272 3.6382 -1.0702 0.9844
0.6785 3.6065 -1.0389 0.9849
0.3419 3.5238 -1.0022 0.9854
0.0243 3.2446 -0.9186 0.9866
-0.2656 3.2420 -0.9209 0.9866
-0.5595 3.2402 -0.9309 0.9864
-0.8626 3.2397 -0.9491 0.9862
-1.1837 3.2483 -0.9787 0.9857
-1.5262 3.2528 -1.0172 0.9852
-2.2716 3.2010 -1.1112 0.9838
-2.8131 3.2968 -1.2269 0.9821
-5.2446 5.1382 -2.0785 0.9699
-5.7495 4.7060 -2.1033 0.9696
-6.1410 4.1715 -2.1016 0.9696
-7.1594 1.7501 -2.0864 0.9698
-7.3003 -0.2042 -2.0675 0.9701
-7.2269 -0.8509 -2.0600 0.9702
-7.0949 -1.4858 -2.0521 0.9703
-6.9062 -2.1036 -2.0438 0.9704
-6.6631 -2.6993 -2.0352 0.9706
-6.0248 -3.8056 -2.0173 0.9708
-5.2063 -4.7714 -1.9992 0.9711
-3.7088 -5.8993 -1.9727 0.9714
-2.5809 -6.4100 -1.9562 0.9717
-1.3913 -6.7148 -1.9413 0.9719
-0.7846 -6.7884 -1.9345 0.9720
-0.1760 -6.8093 -1.9283 0.9721
0.4303 -6.7779 -1.9227 0.9722
1.6187 -6.5614 -1.9132 0.9723
2.1927 -6.3785 -1.9094 0.9723
3.7876 -5.5505 -1.9023 0.9725
5.1193 -4.3495 -1.9017 0.9725
6.1063 -2.8492 -1.9076 0.9724
6.3471 -2.2978 -1.9109 0.9723
6.8204 0.0655 -1.9309 0.9720
6.8102 0.6753 -1.9374 0.9720
6.6310 1.8875 -1.9518 0.9717
6.4623 2.4808 -1.9596 0.9716
5.2614 4.6471 -1.9873 0.9712
4.5053 4.7586 -1.8551 0.9731
3.6124 5.5184 -1.8672 0.9730
2.5979 6.1252 -1.8835 0.9727
0.5019 3.7391 -1.0680 0.9844
-1.3822 3.2511 -1.0001 0.9854
-1.7303 3.2344 -1.0384 0.9849
-2.5491 3.2196 -1.1625 0.9831
-4.8715 5.1365 -2.0041 0.9710
-5.5642 4.9062 -2.1001 0.9696
-6.6545 3.2551 -2.0972 0.9697
-6.9053 2.6442 -2.0933 0.9697
-7.0976 2.0138 -2.0886 0.9698
-7.3132 0.0640 -2.0704 0.9701
-7.2643 -0.5859 -2.0631 0.9702
-7.1562 -1.2263 -2.0554 0.9703
-6.9906 -1.8518 -2.0472 0.9704
-4.5957 5.0017 -2.0892 0.9720
-5.0372 4.5850 -2.0950 0.9719
-6.2944 2.5250 -2.0860 0.9720
-6.4815 1.9501 -2.0818 0.9721
-6.6915 0.7648 -2.0716 0.9722
-6.6801 -0.4327 -2.0590 0.9724
-6.5925 -1.0227 -2.0520 0.9725
-6.4517 -1.6004 -2.0445 0.9726
-6.2596 -2.1608 -2.0368 0.9727
-5.7307 -3.2120 -2.0206 0.9729
-5.0277 -4.1439 -2.0040 0.9731
-4.6192 -4.5564 -1.9956 0.9732
-4.1774 -4.9295 -1.9874 0.9733
-3.7063 -5.2606 -1.9793 0.9734
-3.2099 -5.5477 -1.9714 0.9735
0.0683 -6.2791 -1.9314 0.9741
0.6260 -6.2318 -1.9264 0.9741
1.7149 -5.9958 -1.9181 0.9742
2.2387 -5.8093 -1.9149 0.9743
4.1136 -4.6454 -1.9085 0.9744
4.5115 -4.2605 -1.9086 0.9744
5.2021 -3.3959 -1.9108 0.9743
5.9406 -1.9070 -1.9190 0.9742
6.2124 -0.8258 -1.9276 0.9741
6.1843 1.4140 -1.9512 0.9738
6.0554 1.9666 -1.9583 0.9737
5.6533 3.0335 -1.9734 0.9735
5.3821 3.5395 -1.9813 0.9734
5.0660 4.0215 -1.9895 0.9733
4.6991 4.4680 -1.9944 0.9732
4.1797 4.7525 -1.9467 0.9739
3.5748 4.8811 -1.8609 0.9750
3.1385 5.2016 -1.8686 0.9749
2.5918 5.3158 -1.8190 0.9756
1.3378 3.5071 -1.1545 0.9844
0.9578 3.3924 -1.0842 0.9854
0.6350 3.3753 -1.0564 0.9857
0.0240 3.2153 -0.9890 0.9866
-1.4901 3.1759 -1.0790 0.9854
-5.2696 4.3132 -2.0945 0.9719
-5.6288 3.8235 -2.0930 0.9719
-6.2019 2.7564 -2.0875 0.9720
-6.4110 2.1886 -2.0836 0.9720
-6.5662 1.6051 -2.0791 0.9721
-6.6664 1.0110 -2.0739 0.9722
-6.7111 0.4117 -2.0681 0.9723
-6.7005 -0.1874 -2.0617 0.9723
-6.6350 -0.7812 -2.0549 0.9724
-6.5159 -1.3645 -2.0476 0.9725
-6.3447 -1.9326 -2.0400 0.9726
-6.1235 -2.4807 -2.0321 0.9727
-5.5408 -3.4999 -2.0158 0.9729
-5.1853 -3.9633 -2.0074 0.9731
-4.7915 -4.3913 -1.9991 0.9732
-4.3629 -4.7809 -1.9908 0.9733
-3.9034 -5.1296 -1.9826 0.9734
-2.3794 -5.9095 -1.9594 0.9737
-0.7240 -6.2637 -1.9394 0.9740
-0.1624 -6.2846 -1.9336 0.9740
0.3972 -6.2570 -1.9284 0.9741
0.9509 -6.1817 -1.9237 0.9742
1.4949 -6.0594 -1.9196 0.9742
2.5384 -5.6790 -1.9133 0.9743
3.0309 -5.4240 -1.9111 0.9743
3.4994 -5.1281 -1.9096 0.9744
3.9407 -4.7937 -1.9087 0.9744
4.3518 -4.4230 -1.9085 0.9744
5.3765 -3.1200 -1.9120 0.9743
5.6404 -2.6318 -1.9144 0.9743
6.0396 -1.5944 -1.9213 0.9742
6.1716 -1.0522 -1.9257 0.9741
6.2831 0.6230 -1.9420 0.9739
6.2231 1.1844 -1.9485 0.9738
4.8586 4.2914 -1.9939 0.9732
4.4601 4.7108 -1.9953 0.9732
3.7810 4.7839 -1.8755 0.9748
3.3217 5.0744 -1.8654 0.9749
0.4712 3.5104 -1.0894 0.9853
0.1423 3.2167 -0.9904 0.9866
-0.1449 3.2155 -0.9900 0.9866
-0.7310 3.2157 -1.0143 0.9863
-1.3534 3.1835 -1.0640 0.9856
-1.6913 3.1617 -1.1029 0.9851
-2.0784 3.1692 -1.1657 0.9843
-5.1087 4.5046 -2.0949 0.9719
-5.4866 4.0290 -2.0937 0.9719
-6.1006 2.9841 -2.0889 0.9720
-6.5713 -1.1261 -2.0507 0.9725
-6.4214 -1.7010 -2.0432 0.9726
-4.2493 4.6247 -2.0877 0.9739
-4.9999 3.7947 -2.0864 0.9739
-5.5829 2.8411 -2.0823 0.9739
-6.1746 0.7057 -2.0658 0.9741
-6.1963 0.1522 -2.0603 0.9742
-6.0877 -0.9444 -2.0478 0.9744
-5.5624 -2.4948 -2.0264 0.9746
-5.2981 -2.9695 -2.0189 0.9747
-4.6511 -3.8334 -2.0035 0.9749
-3.8669 -4.5630 -1.9882 0.9751
-2.9731 -5.1384 -1.9733 0.9753
-2.4943 -5.3636 -1.9663 0.9754
-1.9995 -5.5454 -1.9595 0.9755
-1.4924 -5.6828 -1.9530 0.9755
-0.4572 -5.8224 -1.9414 0.9757
0.0634 -5.8245 -1.9362 0.9757
1.0914 -5.6947 -1.9274 0.9759
1.5916 -5.5645 -1.9238 0.9759
2.0779 -5.3921 -1.9208 0.9759
3.4206 -4.6373 -1.9154 0.9760
3.8191 -4.3128 -1.9149 0.9760
4.1884 -3.9555 -1.9150 0.9760
4.8292 -3.1524 -1.9170 0.9760
5.0962 -2.7123 -1.9190 0.9760
5.3247 -2.2504 -1.9215 0.9759
5.8382 0.2706 -1.9427 0.9757
5.8080 0.7922 -1.9485 0.9756
5.7323 1.3107 -1.9546 0.9755
5.6114 1.8224 -1.9611 0.9754
5.4456 2.3233 -1.9680 0.9754
5.2358 2.8095 -1.9751 0.9753
4.6890 3.7223 -1.9901 0.9751
4.3553 4.1412 -1.9977 0.9750
3.9768 4.5218 -2.0017 0.9749
2.9105 4.8239 -1.8727 0.9765
2.4704 5.0668 -1.8737 0.9765
0.6015 3.1971 -1.0814 0.9864
0.3087 3.1820 -1.0627 0.9866
0.0225 3.0069 -0.9995 0.9874
-0.2607 3.1818 -1.0612 0.9866
-0.8363 3.1409 -1.0804 0.9864
-1.4730 3.1394 -1.1527 0.9855
-4.4861 4.3952 -2.0876 0.9739
-5.1899 3.5254 -2.0855 0.9739
-5.7195 2.5419 -2.0805 0.9740
-5.9132 2.0187 -2.0769 0.9740
-6.0573 1.4807 -2.0728 0.9741
-6.1852 -0.1730 -2.0568 0.9743
-6.1263 -0.7213 -2.0505 0.9743
-5.8615 -1.7854 -2.0368 0.9745
-5.6588 -2.2924 -2.0295 0.9746
-5.4119 -2.7773 -2.0220 0.9747
-5.1235 -3.2363 -2.0144 0.9748
-4.4334 -4.0631 -1.9990 0.9750
-3.6139 -4.7491 -1.9837 0.9752
-2.6935 -5.2762 -1.9691 0.9753
-1.7023 -5.6317 -1.9556 0.9755
-0.6714 -5.8085 -1.9436 0.9757
-0.1506 -5.8291 -1.9383 0.9757
0.3685 -5.8047 -1.9334 0.9758
0.8823 -5.7358 -1.9291 0.9758
1.3872 -5.6233 -1.9252 0.9759
1.8797 -5.4680 -1.9220 0.9759
3.2487 -4.7608 -1.9159 0.9760
3.6585 -4.4504 -1.9150 0.9760
4.0402 -4.1063 -1.9149 0.9760
4.3911 -3.7308 -1.9153 0.9760
4.7087 -3.3265 -1.9164 0.9760
4.9909 -2.8962 -1.9181 0.9760
5.6045 -1.4796 -1.9268 0.9759
5.7261 -0.9763 -1.9308 0.9758
5.8259 0.5777 -1.9461 0.9756
5.6666 1.6129 -1.9584 0.9755
5.3274 2.6115 -1.9722 0.9753
4.8149 3.5421 -1.9869 0.9751
1.4198 3.3475 -1.2087 0.9848
1.0412 3.2294 -1.1279 0.9858
0.7251 3.2023 -1.0914 0.9863
-0.4281 3.1694 -1.0631 0.9866
-0.7160 3.1498 -1.0737 0.9865
-1.3328 3.1349 -1.1323 0.9857
-1.6824 3.1449 -1.1856 0.9851
-2.0609 3.1426 -1.2492 0.9843
-2.5222 3.1856 -1.3506 0.9830
-4.3219 4.5570 -2.0877 0.9739
-5.6257 2.7518 -2.0818 0.9739
-5.8394 2.2360 -2.0785 0.9740
-6.0041 1.7035 -2.0746 0.9740
-6.1822 0.6077 -2.0649 0.9742
-6.1948 0.0542 -2.0593 0.9742
-5.9316 -1.5713 -2.0397 0.9745
-4.6330 3.5162 -2.0799 0.9756
-5.1740 2.6330 -2.0761 0.9756
-5.3805 2.1584 -2.0731 0.9757
-5.5420 1.6675 -2.0696 0.9757
-5.7257 0.6544 -2.0609 0.9758
-5.6487 -0.8763 -2.0442 0.9760
-5.5309 -1.3720 -2.0378 0.9761
-5.1652 -2.3167 -2.0244 0.9762
-4.9211 -2.7582 -2.0174 0.9763
-4.6392 -3.1745 -2.0102 0.9764
-3.9735 -3.9195 -1.9959 0.9766
-3.1919 -4.5304 -1.9818 0.9767
-2.3211 -4.9912 -1.9684 0.9769
-0.4258 -5.4229 -1.9452 0.9772
0.5411 -5.3868 -1.9361 0.9773
1.4833 -5.1858 -1.9289 0.9773
1.9367 -5.0257 -1.9260 0.9774
2.3741 -4.8275 -1.9238 0.9774
2.7924 -4.5926 -1.9221 0.9774
3.1887 -4.3230 -1.9210 0.9774
3.9046 -3.6875 -1.9206 0.9774
4.5017 -2.9386 -1.9225 0.9774
4.7502 -2.5282 -1.9243 0.9774
4.9627 -2.0974 -1.9267 0.9774
5.2738 -1.1870 -1.9331 0.9773
5.4243 -0.2329 -1.9416 0.9772
5.4373 0.2520 -1.9465 0.9771
5.4080 0.7376 -1.9518 0.9771
5.3364 1.2202 -1.9576 0.9770
5.2226 1.6961 -1.9637 0.9769
5.0671 2.1618 -1.9701 0.9769
4.0484 3.8493 -1.9977 0.9765
3.7025 4.2099 -2.0049 0.9765
3.3187 4.5314 -2.0086 0.9764
2.8946 4.7975 -2.0037 0.9765
2.3581 4.8365 -1.9242 0.9774
0.5845 3.1070 -1.1306 0.9867
0.3018 3.1111 -1.1178 0.9868
-0.2544 3.1048 -1.1140 0.9869
-0.5352 3.0992 -1.1247 0.9867
-0.8265 3.1039 -1.1487 0.9864
-1.1348 3.1140 -1.1852 0.9860
-2.7762 3.2535 -1.5295 0.9820
-4.8092 3.2668 -2.0791 0.9756
-5.0763 2.8225 -2.0771 0.9756
-5.3009 2.3559 -2.0744 0.9757
-5.4811 1.8712 -2.0711 0.9757
-5.6155 1.3727 -2.0673 0.9757
-5.7439 0.3524 -2.0579 0.9759
-5.6840 -0.6692 -2.0467 0.9760
-5.5848 -1.1695 -2.0405 0.9761
-5.4409 -1.6573 -2.0340 0.9761
-5.0262 -2.5794 -2.0203 0.9763
-4.4568 -3.4065 -2.0060 0.9765
-3.7543 -4.1140 -1.9917 0.9766
-3.3609 -4.4165 -1.9847 0.9767
-2.0520 -5.0964 -1.9647 0.9769
-1.1079 -5.3470 -1.9527 0.9771
0.8221 -5.3445 -1.9337 0.9773
2.1962 -4.9135 -1.9247 0.9774
4.0935 -3.4780 -1.9209 0.9774
4.6522 -2.6997 -1.9235 0.9774
5.0704 -1.8356 -1.9284 0.9774
5.2226 -1.3787 -1.9316 0.9773
5.3351 -0.9096 -1.9354 0.9773
5.4069 -0.4315 -1.9397 0.9772
5.3710 1.0222 -1.9552 0.9770
4.7363 2.8715 -1.9807 0.9767
4.4773 3.2937 -1.9877 0.9767
4.1808 3.6927 -1.9948 0.9766
3.8488 4.0651 -2.0019 0.9765
3.4812 4.4046 -2.0077 0.9764
2.5738 4.8211 -1.9544 0.9771
0.4177 3.1117 -1.1227 0.9868
0.1376 3.1117 -1.1139 0.9869
-0.7131 3.1371 -1.1505 0.9864
-1.6727 3.1268 -1.2681 0.9850
-4.0046 4.2225 -2.0811 0.9756
-5.4124 2.0725 -2.0726 0.9757
-5.7457 0.0503 -2.0548 0.9759
-5.6311 -0.9650 -2.0431 0.9760
-5.5054 -1.4584 -2.0367 0.9761
-4.0044 3.6449 -2.0751 0.9771
-5.1592 1.5523 -2.0646 0.9772
-5.2673 1.0843 -2.0608 0.9772
-2.3019 0.2631 -0.8879 0.9901
-2.2953 0.0564 -0.8799 0.9902
-5.1543 -1.2786 -2.0351 0.9775
-4.5891 -2.5721 -2.0160 0.9777
-4.0328 -3.3238 -2.0027 0.9779
-3.3562 -3.9604 -1.9894 0.9780
-2.9801 -4.2299 -1.9829 0.9781
-2.5830 -4.4643 -1.9765 0.9781
-2.1681 -4.6621 -1.9704 0.9782
-1.7388 -4.8223 -1.9644 0.9783
-0.8503 -5.0263 -1.9535 0.9784
-0.3980 -5.0693 -1.9486 0.9785
0.5060 -5.0372 -1.9400 0.9785
0.9511 -4.9627 -1.9364 0.9786
1.8116 -4.7010 -1.9307 0.9787
2.2209 -4.5160 -1.9286 0.9787
2.9833 -4.0445 -1.9259 0.9787
3.3310 -3.7616 -1.9255 0.9787
3.6531 -3.4499 -1.9255 0.9787
4.4436 -2.3650 -1.9290 0.9787
4.6421 -1.9619 -1.9313 0.9786
4.9319 -1.1101 -1.9373 0.9786
5.0543 0.6894 -1.9548 0.9784
4.8791 1.5846 -1.9659 0.9783
4.3267 2.8454 -1.9845 0.9781
4.0693 3.2303 -1.9910 0.9780
3.7778 3.5921 -1.9977 0.9779
3.4542 3.9275 -2.0044 0.9778
3.1007 4.2338 -2.0111 0.9778
2.7166 4.5024 -2.0151 0.9777
2.3078 4.7332 -2.0180 0.9777
1.1809 3.0958 -1.2698 0.9859
0.8640 3.0599 -1.2185 0.9865
0.2977 3.0690 -1.1816 0.9869
0.0230 3.0740 -1.1781 0.9869
-0.8232 3.0915 -1.2260 0.9864
-1.1297 3.1000 -1.2644 0.9860
-1.4596 3.1110 -1.3169 0.9854
-2.2332 3.1469 -1.4787 0.9836
-2.7570 3.2310 -1.6277 0.9820
-4.1893 3.4290 -2.0746 0.9771
-4.7245 2.6269 -2.0716 0.9771
-4.9339 2.1928 -2.0691 0.9771
-5.1022 1.7418 -2.0661 0.9772
-2.2963 -0.0642 -0.8803 0.9902
-2.3013 -0.2709 -0.8880 0.9901
-5.0711 -1.5446 -2.0315 0.9775
-3.8452 -3.5240 -1.9988 0.9779
-3.5041 -3.8398 -1.9921 0.9780
-3.1376 -4.1232 -1.9855 0.9780
-2.7487 -4.3722 -1.9791 0.9781
-2.3408 -4.5852 -1.9729 0.9782
-1.9170 -4.7610 -1.9668 0.9783
-1.4807 -4.8985 -1.9611 0.9783
-0.5844 -5.0564 -1.9506 0.9784
0.3210 -5.0566 -1.9417 0.9785
1.6387 -4.7669 -1.9317 0.9786
2.0545 -4.5964 -1.9294 0.9787
3.5238 -3.5815 -1.9254 0.9787
4.1065 -2.9011 -1.9268 0.9787
4.5646 -2.1298 -1.9303 0.9787
4.7425 -1.7169 -1.9328 0.9786
5.0553 -0.4034 -1.9434 0.9785
5.0707 0.5028 -1.9527 0.9784
5.0192 0.9553 -1.9580 0.9784
4.9280 1.4027 -1.9635 0.9783
4.7977 1.8418 -1.9694 0.9782
4.6288 2.2691 -1.9755 0.9782
4.4223 2.6811 -1.9818 0.9781
4.1794 3.0746 -1.9883 0.9780
3.9018 3.4462 -1.9949 0.9779
2.8785 4.3974 -2.0141 0.9777
2.4785 4.6425 -2.0167 0.9777
0.1358 3.0702 -1.1777 0.9869
-0.1387 3.0785 -1.1809 0.9869
-0.4168 3.0852 -1.1930 0.9868
-1.0012 3.0961 -1.2470 0.9862
-1.6682 3.1185 -1.3553 0.9850
-2.0533 3.1309 -1.4348 0.9841
-4.0613 3.5810 -2.0750 0.9771
-4.3622 3.2033 -2.0740 0.9771
-4.6267 2.7997 -2.0724 0.9771
-5.0380 1.9292 -2.0674 0.9772
-2.2899 0.0201 -0.8776 0.9902
-2.3042 -0.1858 -0.8859 0.9901
-5.1308 -1.3591 -2.0340 0.9775
-3.7402 3.4044 -2.0699 0.9784
-4.6789 1.8769 -2.0633 0.9784
-4.8204 1.4504 -2.0602 0.9785
-1.9964 0.0490 -0.8173 0.9914
-2.0093 -0.1301 -0.8241 0.9913
-2.1033 -0.5217 -0.8869 0.9907
-4.6814 -1.6160 -2.0269 0.9788
-4.0503 -2.7715 -2.0086 0.9790
-3.4722 -3.4250 -1.9961 0.9791
-3.1434 -3.7093 -1.9899 0.9792
-1.2172 -4.6348 -1.9613 0.9795
-0.7973 -4.7129 -1.9563 0.9796
-0.3733 -4.7540 -1.9517 0.9796
0.0518 -4.7580 -1.9474 0.9796
0.4746 -4.7251 -1.9436 0.9797
0.8923 -4.6559 -1.9402 0.9797
1.3017 -4.5509 -1.9373 0.9797
2.4516 -4.0321 -1.9313 0.9798
2.7997 -3.7956 -1.9303 0.9798
3.1261 -3.5302 -1.9299 0.9798
3.7044 -2.9202 -1.9305 0.9798
3.9521 -2.5799 -1.9316 0.9798
4.1698 -2.2193 -1.9333 0.9798
4.3557 -1.8408 -1.9354 0.9798
4.5085 -1.4473 -1.9380 0.9797
4.6268 -1.0414 -1.9410 0.9797
4.7564 -0.2043 -1.9485 0.9796
4.7662 0.2209 -1.9528 0.9796
4.7390 0.6464 -1.9575 0.9795
4.2614 2.2867 -1.9793 0.9793
4.0529 2.6654 -1.9853 0.9793
3.8110 3.0253 -1.9915 0.9792
3.5373 3.3633 -1.9977 0.9791
3.2336 3.6767 -2.0039 0.9791
2.9021 3.9626 -2.0102 0.9790
2.1645 4.4394 -2.0214 0.9789
0.8530 3.0212 -1.2849 0.9865
0.0229 3.0661 -1.2549 0.9868
-0.8204 3.0811 -1.3050 0.9863
-1.4574 3.1061 -1.4042 0.9853
-3.6130 3.5397 -2.0701 0.9784
-3.9130 3.2028 -2.0695 0.9784
-2.0267 0.3074 -0.8389 0.9912
-1.9972 -0.0559 -0.8177 0.9914
-2.0196 -0.2378 -0.8323 0.9912
-4.7431 -1.4447 -2.0293 0.9788
-4.5822 -1.8563 -2.0234 0.9789
-4.3854 -2.2505 -2.0174 0.9789
-3.8921 -2.9748 -2.0050 0.9790
-2.1935 -4.2967 -1.9744 0.9794
-1.3881 -4.5920 -1.9634 0.9795
-0.5480 -4.7416 -1.9535 0.9796
0.7213 -4.6887 -1.9416 0.9797
1.1344 -4.5984 -1.9384 0.9797
1.5376 -4.4728 -1.9357 0.9798
1.9279 -4.3131 -1.9336 0.9798
2.6590 -3.8965 -1.9307 0.9798
3.3071 -3.3612 -1.9299 0.9798
4.2832 -1.9985 -1.9344 0.9798
4.4497 -1.6109 -1.9368 0.9798
4.5824 -1.2097 -1.9397 0.9797
4.6800 -0.7979 -1.9430 0.9797
4.7667 0.0458 -1.9510 0.9796
4.7547 0.4715 -1.9555 0.9796
4.6193 1.3148 -1.9657 0.9795
4.4963 1.7261 -1.9712 0.9794
4.3372 2.1261 -1.9769 0.9793
4.1428 2.5116 -1.9828 0.9793
3.9145 2.8797 -1.9889 0.9792
3.6536 3.2271 -1.9951 0.9792
3.3620 3.5509 -2.0014 0.9791
3.0417 3.8484 -2.0076 0.9790
1.3180 3.1075 -1.3815 0.9855
0.9776 3.0320 -1.3038 0.9863
0.6857 3.0286 -1.2709 0.9867
0.4104 3.0575 -1.2626 0.9868
-0.4153 3.0741 -1.2696 0.9867
-0.9984 3.0876 -1.3281 0.9861
-3.4807 3.6700 -2.0701 0.9784
-4.0745 2.9921 -2.0689 0.9784
-4.3219 2.6152 -2.0675 0.9784
-4.5332 2.2174 -2.0654 0.9784
-4.7068 1.8023 -2.0628 0.9785
-4.8413 1.3736 -2.0596 0.9785
-2.0670 0.3916 -0.8610 0.9909
-2.0170 0.1983 -0.8295 0.9913
-1.9925 0.0174 -0.8155 0.9914
-2.0135 -0.1624 -0.8267 0.9913
-2.0482 -0.3510 -0.8505 0.9911
-3.2067 3.4900 -2.0656 0.9795
-3.7736 2.8640 -2.0646 0.9795
-4.2157 2.1454 -2.0615 0.9796
-4.3851 1.7591 -2.0592 0.9796
-1.4938 0.4495 -0.6799 0.9932
-1.4760 0.3038 -0.6567 0.9934
-1.4717 0.1682 -0.6456 0.9936
-1.4906 -0.5146 -0.6873 0.9931
-3.5450 -2.9218 -2.0021 0.9802
-3.2609 -3.2166 -1.9962 0.9802
-2.9526 -3.4842 -1.9904 0.9803
-1.9096 -4.1062 -1.9736 0.9804
-1.1444 -4.3574 -1.9634 0.9805
-0.7497 -4.4315 -1.9588 0.9806
0.0487 -4.4751 -1.9504 0.9807
0.4465 -4.4447 -1.9468 0.9807
0.8394 -4.3800 -1.9436 0.9807
1.5994 -4.1504 -1.9385 0.9808
1.9610 -3.9876 -1.9366 0.9808
2.3069 -3.7942 -1.9352 0.9808
2.9418 -3.3221 -1.9339 0.9808
3.2262 -3.0468 -1.9339 0.9808
3.4859 -2.7479 -1.9345 0.9808
4.0982 -1.7320 -1.9390 0.9808
4.2416 -1.3616 -1.9415 0.9807
4.3525 -0.9797 -1.9444 0.9807
4.4301 -0.5889 -1.9477 0.9807
4.4558 0.6077 -1.9599 0.9806
4.3945 1.0048 -1.9646 0.9805
4.2985 1.3960 -1.9697 0.9805
4.1681 1.7783 -1.9749 0.9804
4.0041 2.1486 -1.9804 0.9804
3.8075 2.5040 -1.9861 0.9803
3.5796 2.8416 -1.9918 0.9803
3.3218 3.1585 -1.9977 0.9802
3.0360 3.4521 -2.0036 0.9801
2.7243 3.7198 -2.0094 0.9801
2.0322 4.1681 -2.0209 0.9800
1.1573 3.0340 -1.4152 0.9859
0.5710 3.0351 -1.3460 0.9866
-0.2512 3.0657 -1.3406 0.9867
-0.5304 3.0717 -1.3585 0.9865
-1.4571 3.1055 -1.4950 0.9851
-2.2933 3.2317 -1.7270 0.9829
-3.0763 3.6052 -2.0655 0.9795
-3.3854 3.3168 -2.0655 0.9795
-3.9175 2.6611 -2.0639 0.9795
-4.1358 2.2996 -2.0623 0.9796
-4.3198 1.9198 -2.0602 0.9796
-1.4913 0.5091 -0.6868 0.9931
-1.4573 0.0894 -0.6363 0.9936
-1.4408 -0.0403 -0.6282 0.9937
-4.1158 -2.1122 -2.0162 0.9800
-3.0822 -3.3775 -1.9928 0.9802
-2.7609 -3.6282 -1.9870 0.9803
-2.4197 -3.8488 -1.9813 0.9804
-2.0613 -4.0378 -1.9758 0.9804
-1.6887 -4.1942 -1.9705 0.9805
-0.1157 -4.4775 -1.9520 0.9806
0.2832 -4.4614 -1.9482 0.9807
0.6785 -4.4107 -1.9449 0.9807
1.0672 -4.3261 -1.9419 0.9807
2.1667 -3.8773 -1.9357 0.9808
2.5021 -3.6667 -1.9346 0.9808
2.8180 -3.4280 -1.9340 0.9808
3.1121 -3.1630 -1.9339 0.9808
3.6264 -2.5619 -1.9350 0.9808
3.8429 -2.2300 -1.9364 0.9808
4.1865 -1.5156 -1.9404 0.9808
4.3109 -1.1381 -1.9431 0.9807
4.4023 -0.7506 -1.9463 0.9807
4.4709 0.4433 -1.9580 0.9806
4.3422 1.2360 -1.9676 0.9805
4.0756 1.9978 -1.9781 0.9804
3.6771 2.7050 -1.9894 0.9803
3.4314 3.0308 -1.9953 0.9802
3.1569 3.3343 -2.0011 0.9802
2.5296 3.8643 -2.0128 0.9800
0.9721 3.0150 -1.3806 0.9863
0.6866 3.0322 -1.3549 0.9865
0.4091 3.0475 -1.3401 0.9867
0.1352 3.0582 -1.3341 0.9867
-0.4146 3.0693 -1.3498 0.9866
-0.6990 3.0750 -1.3743 0.9863
-0.9973 3.0843 -1.4127 0.9860
-1.3176 3.0993 -1.4677 0.9854
-1.6667 3.1156 -1.5399 0.9847
-3.2615 3.4389 -2.0656 0.9795
-3.5545 3.1341 -2.0653 0.9795
-4.0500 2.4507 -2.0631 0.9796
-4.2483 2.0781 -2.0611 0.9796
-1.4683 0.2781 -0.6513 0.9935
-1.4689 0.1444 -0.6433 0.9936
-1.4643 -0.1181 -0.6402 0.9936
-1.4718 -0.2522 -0.6508 0.9935
-1.4925 -0.3954 -0.6729 0.9933
-3.2932 2.9976 -2.0613 0.9806
-3.7695 2.3631 -2.0594 0.9806
-1.2698 0.3821 -0.6138 0.9942
-1.2750 0.1457 -0.5940 0.9944
-1.2705 -0.0823 -0.5893 0.9944
-1.2743 -0.1977 -0.5969 0.9943
-1.2701 -0.3151 -0.6057 0.9942
-1.2544 -0.5626 -0.6364 0.9940
-3.7933 -2.1261 -2.0128 0.9810
-3.5789 -2.4489 -2.0073 0.9811
-3.3372 -2.7506 -2.0018 0.9811
-3.0703 -3.0286 -1.9963 0.9812
-2.4703 -3.5063 -1.9854 0.9813
-0.3309 -4.2146 -1.9569 0.9815
0.0459 -4.2192 -1.9531 0.9816
0.4210 -4.1910 -1.9497 0.9816
1.1549 -4.0379 -1.9441 0.9817
1.5085 -3.9145 -1.9419 0.9817
1.8496 -3.7611 -1.9401 0.9817
2.1760 -3.5788 -1.9388 0.9817
2.7749 -3.1336 -1.9375 0.9817
3.7007 -1.9696 -1.9405 0.9817
3.8652 -1.6335 -1.9424 0.9817
4.1044 -0.9238 -1.9474 0.9816
4.1415 0.9470 -1.9665 0.9814
4.0504 1.3155 -1.9713 0.9814
3.9269 1.6754 -1.9762 0.9814
3.7718 2.0240 -1.9814 0.9813
3.1276 2.9738 -1.9977 0.9812
2.2480 3.7257 -2.0142 0.9810
1.9121 3.9216 -2.0195 0.9810
0.8490 3.0069 -1.4462 0.9863
0.5680 3.0196 -1.4222 0.9865
-0.2511 3.0642 -1.4231 0.9865
-0.5303 3.0708 -1.4424 0.9864
-0.8195 3.0778 -1.4743 0.9861
-1.1269 3.0923 -1.5235 0.9856
-1.4591 3.1099 -1.5901 0.9850
-1.8193 3.1198 -1.6717 0.9842
-2.2329 3.1466 -1.7860 0.9831
-3.1811 3.1166 -2.0614 0.9806
-3.4454 2.8201 -2.0609 0.9806
-3.6812 2.5006 -2.0599 0.9806
-1.2521 0.5565 -0.6342 0.9940
-1.2699 0.3104 -0.6051 0.9943
-1.2745 0.1933 -0.5967 0.9943
-1.2644 -0.0354 -0.5855 0.9944
-1.2675 -0.2654 -0.5994 0.9943
-1.2695 -0.3867 -0.6143 0.9942
-3.6705 -2.3185 -2.0096 0.9810
-3.4399 -2.6292 -2.0041 0.9811
-3.1831 -2.9172 -1.9986 0.9811
-2.9024 -3.1804 -1.9930 0.9812
-2.2793 -3.6254 -1.9823 0.9813
-0.8603 -4.1521 -1.9628 0.9815
-0.4858 -4.2032 -1.9585 0.9815
0.6398 -4.1592 -1.9479 0.9816
1.0065 -4.0798 -1.9451 0.9816
1.3644 -3.9690 -1.9427 0.9817
2.0437 -3.6572 -1.9393 0.9817
2.3602 -3.4587 -1.9382 0.9817
2.6582 -3.2336 -1.9376 0.9817
2.9356 -2.9836 -1.9375 0.9817
3.1903 -2.7106 -1.9378 0.9817
3.4206 -2.4165 -1.9386 0.9817
3.8010 -1.7736 -1.9415 0.9817
4.2048 -0.3356 -1.9525 0.9816
3.8394 1.8821 -1.9793 0.9813
2.9720 3.1390 -2.0009 0.9811
2.6878 3.4007 -2.0065 0.9811
2.3806 3.6367 -2.0119 0.9810
2.0525 3.8446 -2.0174 0.9810
0.4079 3.0391 -1.4194 0.9866
-0.4144 3.0680 -1.4330 0.9864
-0.6989 3.0749 -1.4596 0.9862
-1.3189 3.1023 -1.5604 0.9853
-1.6640 3.1106 -1.6329 0.9846
-2.0543 3.1325 -1.7340 0.9836
-2.7641 3.4912 -2.0612 0.9806
-3.0647 3.2314 -2.0615 0.9806
-3.3400 2.9450 -2.0612 0.9806
-3.5878 2.6346 -2.0604 0.9806
-3.8059 2.3030 -2.0591 0.9806
-1.2575 0.4815 -0.6233 0.9941
-1.2708 0.2407 -0.5987 0.9943
-1.2604 0.0110 -0.5834 0.9945
-1.2725 -0.1026 -0.5910 0.9944
-1.2706 -0.3366 -0.6084 0.9942
-2.8383 3.0890 -2.0578 0.9815
-3.1020 2.8236 -2.0576 0.9815
-1.0904 0.5549 -0.6002 0.9946
-1.1132 0.4466 -0.5884 0.9947
-1.1371 0.2341 -0.5694 0.9948
-1.1442 0.1308 -0.5649 0.9949
-1.1431 -0.1773 -0.5674 0.9949
-1.1330 -0.2810 -0.5726 0.9948
-1.1251 -0.3884 -0.5838 0.9947
-1.0996 -0.4932 -0.5912 0.9946
-3.3763 -2.3103 -2.0068 0.9819
-3.1488 -2.5952 -2.0016 0.9820
-2.6244 -3.0968 -1.9912 0.9821
-2.3319 -3.3099 -1.9861 0.9821
-2.0226 -3.4957 -1.9811 0.9822
-1.6989 -3.6531 -1.9762 0.9822
-1.3634 -3.7811 -1.9716 0.9823
-1.0187 -3.8788 -1.9672 0.9823
0.7480 -3.9032 -1.9495 0.9824
1.0915 -3.8162 -1.9470 0.9825
1.7483 -3.5549 -1.9432 0.9825
2.3491 -3.1847 -1.9412 0.9825
2.6230 -2.9621 -1.9408 0.9825
3.1081 -2.4501 -1.9413 0.9825
3.3156 -2.1644 -1.9423 0.9825
3.4978 -1.8616 -1.9436 0.9825
3.6531 -1.5439 -1.9454 0.9825
3.8786 -0.8730 -1.9502 0.9824
3.9470 -0.5247 -1.9531 0.9824
3.9672 0.5411 -1.9640 0.9823
3.9116 0.8944 -1.9683 0.9823
3.8250 1.2423 -1.9727 0.9822
3.5609 1.9108 -1.9823 0.9822
2.9513 2.8062 -1.9977 0.9820
2.6965 3.0661 -2.0029 0.9820
2.1203 3.5141 -2.0132 0.9819
1.8032 3.6984 -2.0183 0.9818
1.1465 3.0056 -1.5779 0.9858
0.8757 3.1015 -1.5809 0.9857
0.5700 3.0297 -1.5122 0.9864
0.2956 3.0471 -1.5017 0.9865
0.0229 3.0588 -1.5004 0.9865
-0.2512 3.0654 -1.5087 0.9864
-0.5307 3.0732 -1.5298 0.9862
-1.4540 3.0990 -1.6792 0.9849
-1.8185 3.1184 -1.7707 0.9840
-2.9965 2.9357 -2.0577 0.9815
-1.1160 0.6205 -0.6263 0.9943
-1.1257 0.3843 -0.5835 0.9947
-1.1329 0.2769 -0.5721 0.9948
-1.1433 0.1734 -0.5672 0.9949
-1.1425 0.0701 -0.5615 0.9949
-1.1386 -0.0318 -0.5587 0.9949
-1.1364 -0.2380 -0.5695 0.9948
-1.1122 -0.4506 -0.5886 0.9947
-1.0915 -0.5601 -0.6018 0.9945
-2.7392 -3.0016 -1.9933 0.9821
-2.4545 -3.2254 -1.9882 0.9821
-2.1518 -3.4226 -1.9831 0.9821
-1.8337 -3.5919 -1.9782 0.9822
-1.1614 -3.8423 -1.9690 0.9823
-0.4589 -3.9707 -1.9607 0.9823
-0.1031 -3.9883 -1.9570 0.9824
0.6046 -3.9304 -1.9506 0.9824
0.9512 -3.8556 -1.9480 0.9825
1.2895 -3.7512 -1.9457 0.9825
1.9317 -3.4569 -1.9424 0.9825
2.7749 -2.8203 -1.9408 0.9825
3.0156 -2.5622 -1.9411 0.9825
3.2332 -2.2841 -1.9418 0.9825
3.5925 -1.6763 -1.9446 0.9825
3.9730 -0.3171 -1.9550 0.9824
3.9926 0.0383 -1.9585 0.9824
3.9810 0.3948 -1.9624 0.9823
3.8644 1.1000 -1.9709 0.9823
3.7598 1.4433 -1.9755 0.9822
3.2685 2.4044 -1.9903 0.9821
3.0491 2.6931 -1.9955 0.9820
2.8043 2.9618 -2.0007 0.9820
2.5358 3.2083 -2.0060 0.9819
2.2455 3.4303 -2.0111 0.9819
1.2914 3.0449 -1.6224 0.9854
0.4158 3.0976 -1.5331 0.9862
-0.4147 3.0697 -1.5194 0.9863
-0.6998 3.0785 -1.5486 0.9860
-0.9997 3.0917 -1.5939 0.9856
-1.6621 3.1070 -1.7285 0.9844
-2.6037 3.2886 -2.0575 0.9815
-3.3796 2.4818 -2.0568 0.9815
-3.5852 2.1695 -2.0555 0.9815
-1.1321 0.3212 -0.5772 0.9948
-1.1395 0.2159 -0.5689 0.9948
-1.1353 0.0100 -0.5569 0.9950
-1.1417 -0.1956 -0.5682 0.9949
-2.6793 2.9160 -2.0544 0.9823
-2.9283 2.6654 -2.0542 0.9823
-0.9702 0.6082 -0.5940 0.9949
-0.9668 0.4920 -0.5628 0.9951
-0.9997 0.4010 -0.5588 0.9952
-1.0284 0.2117 -0.5447 0.9953
-1.0374 0.1186 -0.5417 0.9953
-1.0330 0.0254 -0.5361 0.9954
-1.0367 -0.0671 -0.5390 0.9953
-1.0112 -0.3491 -0.5550 0.9952
-0.9868 -0.4426 -0.5611 0.9951
-0.9496 -0.5322 -0.5647 0.9951
-3.1916 -2.1839 -2.0063 0.9827
-2.9770 -2.4536 -2.0014 0.9828
-2.7397 -2.7025 -1.9964 0.9828
-2.4819 -2.9287 -1.9915 0.9829
-1.9133 -3.3068 -1.9820 0.9829
-0.6318 -3.7344 -1.9649 0.9831
-0.2959 -3.7688 -1.9612 0.9831
0.0411 -3.7737 -1.9578 0.9831
0.3766 -3.7491 -1.9548 0.9832
0.7082 -3.6955 -1.9520 0.9832
1.6555 -3.3663 -1.9461 0.9832
1.9477 -3.2034 -1.9449 0.9832
2.9433 -2.3202 -1.9443 0.9833
3.1398 -2.0496 -1.9452 0.9832
3.5794 -1.1490 -1.9502 0.9832
3.6721 -0.8265 -1.9527 0.9832
3.7365 -0.4967 -1.9555 0.9832
3.7720 -0.1620 -1.9586 0.9831
3.7780 0.1751 -1.9621 0.9831
3.7015 0.8464 -1.9698 0.9830
3.5079 1.4966 -1.9785 0.9830
3.2016 2.1055 -1.9879 0.9829
3.0085 2.3882 -1.9927 0.9828
2.7906 2.6534 -1.9977 0.9828
1.7040 3.4950 -2.0171 0.9826
0.8482 3.0041 -1.6194 0.9860
-0.2515 3.0693 -1.5976 0.9862
-0.5315 3.0779 -1.6204 0.9860
-0.8197 3.0785 -1.6527 0.9857
-1.1249 3.0869 -1.7044 0.9853
-3.0637 2.5077 -2.0539 0.9823
-0.9493 0.5278 -0.5635 0.9951
-0.9880 0.4391 -0.5609 0.9951
-1.0212 0.2496 -0.5454 0.9953
-1.0352 0.1570 -0.5432 0.9953
-1.0365 0.0636 -0.5387 0.9953
-1.0334 -0.0289 -0.5363 0.9954
-1.0168 -0.3097 -0.5514 0.9952
-0.9987 -0.4046 -0.5590 0.9952
-0.9653 -0.4954 -0.5629 0.9951
-0.9715 -0.6137 -0.5961 0.9948
-2.8399 -2.6027 -1.9984 0.9828
-2.5903 -2.8385 -1.9935 0.9828
-1.7347 -3.3980 -1.9792 0.9830
-1.4218 -3.5311 -1.9748 0.9830
-0.7691 -3.7117 -1.9664 0.9831
-0.4344 -3.7582 -1.9627 0.9831
-0.0976 -3.7752 -1.9592 0.9831
0.9006 -3.6505 -1.9506 0.9832
1.2210 -3.5519 -1.9485 0.9832
1.8292 -3.2735 -1.9454 0.9832
2.1126 -3.0959 -1.9444 0.9833
2.3795 -2.8945 -1.9439 0.9833
2.6278 -2.6708 -1.9438 0.9833
3.2442 -1.8826 -1.9459 0.9832
3.4018 -1.5873 -1.9474 0.9832
3.5332 -1.2791 -1.9493 0.9832
3.6374 -0.9602 -1.9516 0.9832
3.7791 0.0363 -1.9606 0.9831
3.7269 0.7093 -1.9681 0.9830
3.6566 1.0408 -1.9723 0.9830
3.4291 1.6810 -1.9812 0.9829
3.2734 1.9846 -1.9859 0.9829
3.0910 2.2739 -1.9907 0.9829
2.6513 2.8003 -2.0006 0.9828
2.3971 3.0329 -2.0055 0.9827
2.1224 3.2423 -2.0104 0.9827
1.8294 3.4267 -2.0152 0.9826
1.2906 3.0430 -1.7148 0.9852
0.6825 3.0145 -1.6035 0.9862
0.4070 3.0319 -1.5870 0.9863
0.1353 3.0587 -1.5883 0.9863
-0.1382 3.0659 -1.5922 0.9863
-0.4153 3.0743 -1.6094 0.9861
-2.4579 3.1044 -2.0542 0.9823
-0.9637 0.5832 -0.5844 0.9949
-0.9738 0.4763 -0.5624 0.9951
-1.0039 0.3844 -0.5577 0.9952
-1.0187 0.2890 -0.5493 0.9952
-1.0377 0.1020 -0.5409 0.9953
-1.0374 -0.0837 -0.5399 0.9953
-1.0330 -0.1770 -0.5437 0.9953
-2.7695 2.5209 -2.0512 0.9831
-0.9076 0.3641 -0.5356 0.9956
-0.9378 0.1931 -0.5244 0.9956
-0.9438 0.0232 -0.5171 0.9957
-0.9468 -0.0613 -0.5196 0.9957
-0.9444 -0.1465 -0.5234 0.9957
-0.9295 -0.2306 -0.5245 0.9956
-0.9163 -0.3163 -0.5309 0.9956
-0.8994 -0.4034 -0.5399 0.9955
-0.8745 -0.4901 -0.5491 0.9954
-0.8761 -0.5995 -0.5814 0.9952
-2.8195 -2.3238 -2.0012 0.9835
-2.3512 -2.7745 -1.9918 0.9836
-1.8130 -3.1335 -1.9828 0.9836
-1.5232 -3.2754 -1.9784 0.9837
-0.9138 -3.4794 -1.9703 0.9837
-0.5989 -3.5402 -1.9666 0.9838
-0.2806 -3.5732 -1.9631 0.9838
0.0389 -3.5781 -1.9599 0.9838
0.3571 -3.5551 -1.9570 0.9838
1.5702 -3.1929 -1.9488 0.9839
1.8474 -3.0385 -1.9476 0.9839
2.1100 -2.8606 -1.9469 0.9839
2.3562 -2.6607 -1.9466 0.9839
2.5840 -2.4403 -1.9466 0.9839
3.2807 -1.3865 -1.9507 0.9839
1.8739 -0.6016 -1.0779 0.9911
1.8887 -0.2511 -1.0436 0.9913
1.8828 -0.0808 -1.0322 0.9914
1.8886 0.2576 -1.0440 0.9913
1.8865 0.4314 -1.0599 0.9912
3.1917 1.7127 -1.9839 0.9836
3.0333 1.9948 -1.9884 0.9836
2.8500 2.2624 -1.9930 0.9835
2.6432 2.5132 -1.9976 0.9835
2.4143 2.7452 -2.0023 0.9835
2.1651 2.9563 -2.0070 0.9834
1.8974 3.1447 -2.0116 0.9834
1.6132 3.3087 -2.0161 0.9834
1.1459 3.0039 -1.7609 0.9854
0.8539 3.0241 -1.7211 0.9858
0.5680 3.0191 -1.6826 0.9861
0.2948 3.0388 -1.6722 0.9862
0.0228 3.0508 -1.6710 0.9862
-0.2505 3.0572 -1.6801 0.9861
-0.5296 3.0671 -1.7047 0.9859
-0.8209 3.0832 -1.7475 0.9856
-1.5887 3.3860 -2.0485 0.9831
-1.8853 3.2331 -2.0498 0.9831
-0.8756 0.4869 -0.5487 0.9954
-0.9002 0.4001 -0.5395 0.9955
-0.9170 0.3130 -0.5307 0.9956
-0.9303 0.2274 -0.5246 0.9956
-0.9447 0.1433 -0.5233 0.9957
-0.9466 0.0581 -0.5194 0.9957
-0.9442 -0.0264 -0.5173 0.9957
-0.9372 -0.1963 -0.5244 0.9956
-0.9219 -0.2808 -0.5279 0.9956
