ply
format ascii 1.0
element vertex 1589
property float32 x
property float32 y
property float32 z
property float32 I
end_header
-9.8186 -16.9064 3.4473 0.9237
-7.2766 -15.5766 3.0315 0.9326
-1.3630 -16.8951 2.9887 0.9335
1.6711 -17.0386 3.0188 0.9328
3.2274 -17.0668 3.0627 0.9319
9.0187 -12.3034 2.6898 0.9399
12.2307 -8.0433 2.5812 0.9423
16.4942 -8.8528 3.3008 0.9268
-7.6347 -16.2949 2.7567 0.9298
-6.0068 -16.5055 2.6908 0.9314
-1.7695 -10.2612 1.5952 0.9587
0.1275 -17.0052 2.6052 0.9335
4.6159 -16.3665 2.6051 0.9335
11.4380 -13.0268 2.6557 0.9323
11.4355 -10.8933 2.4195 0.9381
12.3177 -9.7986 2.4112 0.9383
12.5812 -8.2942 2.3085 0.9408
12.0682 5.0681 2.0052 0.9484
8.7460 8.2152 1.8382 0.9526
7.4543 8.3708 1.7171 0.9557
6.2291 8.3941 1.6013 0.9586
4.2378 8.5501 1.4619 0.9621
1.6718 8.5651 1.3369 0.9653
0.8955 8.6105 1.3262 0.9656
-1.4295 8.6507 1.3432 0.9651
-6.4396 7.6681 1.5340 0.9603
-9.5206 7.9217 1.8974 0.9511
-12.4042 8.5748 2.3101 0.9408
-6.7518 -16.2852 2.7007 0.9311
-5.3227 -16.9726 2.7250 0.9305
-0.6205 -16.9923 2.6049 0.9335
2.4327 -17.0455 2.6377 0.9327
9.9673 -12.4131 2.4388 0.9376
11.6785 -10.1601 2.3714 0.9393
11.9101 -8.6266 2.2529 0.9422
9.5379 8.2000 1.9269 0.9504
6.8126 8.3830 1.6548 0.9572
5.6675 8.4046 1.5529 0.9598
4.7123 8.5413 1.4944 0.9613
3.7711 8.5587 1.4328 0.9629
2.0649 8.5580 1.3487 0.9650
1.2795 8.6037 1.3325 0.9654
0.5047 8.6174 1.3224 0.9657
-1.0402 8.6441 1.3338 0.9654
-8.6513 7.8675 1.7914 0.9538
-11.2883 8.5610 2.1704 0.9443
-13.7111 8.5908 2.4787 0.9366
-7.5901 -16.2477 2.7473 0.9300
-1.7571 -10.2586 1.5944 0.9588
-1.3698 -16.9793 2.6096 0.9334
1.6704 -17.0319 2.6217 0.9331
4.6343 -16.3609 2.6050 0.9335
6.5257 -17.0696 2.7995 0.9287
8.3325 -17.0624 2.9089 0.9260
11.4453 -10.8778 2.4189 0.9381
12.3263 -9.7827 2.4107 0.9383
12.5931 -8.2816 2.3090 0.9408
16.9890 -9.1183 2.9538 0.9249
17.7275 -7.5674 2.9528 0.9250
-6.1690 -16.9514 2.3491 0.9298
-4.5149 -16.9792 2.2879 0.9316
-1.3886 -16.9723 2.2175 0.9336
0.1275 -16.9987 2.2136 0.9337
1.6503 -17.0250 2.2274 0.9333
3.2047 -17.0527 2.2595 0.9324
4.8083 -17.0489 2.3067 0.9310
8.3493 -17.1461 2.4834 0.9260
11.4407 -10.8982 2.0576 0.9383
12.0712 5.0694 1.7049 0.9486
6.2321 8.3980 1.3618 0.9587
5.0346 8.2248 1.2558 0.9618
4.2396 8.5537 1.2432 0.9622
2.4864 8.5856 1.1640 0.9646
0.8907 8.5640 1.1212 0.9659
0.1206 8.3132 1.0827 0.9670
-0.6423 8.5907 1.1218 0.9658
-1.4217 8.6040 1.1356 0.9654
-2.2400 8.6678 1.1658 0.9645
-1.8406 5.1698 0.7146 0.9781
-4.8104 8.3960 1.2601 0.9617
-6.4457 7.6751 1.3052 0.9604
-5.3195 5.2952 0.9774 0.9702
-9.2776 7.7195 1.5717 0.9525
-12.4217 8.5870 1.9664 0.9409
-12.4690 5.6671 1.7836 0.9463
-12.8744 -9.6454 2.0948 0.9372
-8.8484 -16.9071 2.4849 0.9259
-5.3206 -16.9657 2.3154 0.9308
-2.1419 -16.9594 2.2260 0.9334
2.4318 -17.0389 2.2413 0.9329
5.6661 -17.0966 2.3454 0.9299
7.4277 -17.1291 2.4312 0.9275
12.5076 -9.0593 2.0111 0.9396
8.1338 8.3623 1.5191 0.9540
6.8159 8.3871 1.4074 0.9573
4.7144 8.5450 1.2709 0.9614
3.7727 8.5623 1.2184 0.9630
-0.2630 8.5842 1.1184 0.9660
-1.8254 8.6109 1.1462 0.9651
-2.0436 5.0119 0.7048 0.9784
-5.8753 7.6560 1.2567 0.9618
-7.0741 7.6904 1.3607 0.9587
-11.3443 8.6035 1.8541 0.9442
-13.7362 8.6066 2.1108 0.9367
-6.1474 -16.9517 2.3481 0.9298
-4.4944 -16.9796 2.2872 0.9316
0.1468 -16.9990 2.2137 0.9337
1.6698 -17.0254 2.2277 0.9333
4.8296 -17.0502 2.3076 0.9310
11.4505 -10.8827 2.0571 0.9383
13.5880 -10.7840 2.2590 0.9324
-7.9251 -16.9148 2.0058 0.9276
-6.1665 -16.9444 1.9363 0.9300
-1.7619 -10.2175 1.1134 0.9591
0.1283 -17.1173 1.8381 0.9335
1.6496 -17.0185 1.8360 0.9335
7.4619 8.3793 1.2048 0.9559
6.3813 8.5991 1.1499 0.9578
4.2169 8.5079 1.0197 0.9625
3.3356 8.5738 0.9879 0.9637
1.6793 8.6034 0.9413 0.9654
0.8962 8.6172 0.9303 0.9657
0.1206 8.3164 0.8931 0.9671
-0.6463 8.6440 0.9308 0.9657
-2.2409 8.6712 0.9617 0.9646
-4.8126 8.3998 1.0395 0.9618
-5.3168 7.6167 0.9974 0.9633
-6.4115 7.6345 1.0706 0.9607
-9.2742 7.7167 1.2955 0.9526
-12.7919 8.8428 1.6699 0.9394
-12.8411 -9.6204 1.7230 0.9375
-8.8446 -16.8998 2.0482 0.9261
-3.7052 -16.9863 1.8669 0.9324
-2.1610 -17.1108 1.8520 0.9330
-0.6200 -16.9791 1.8245 0.9339
0.8958 -17.0054 1.8286 0.9338
2.5226 -17.6752 1.9172 0.9307
5.6979 -17.1925 1.9449 0.9297
9.3347 -17.1567 2.0974 0.9244
12.3647 -12.8622 1.9159 0.9307
13.3196 -11.5879 1.8958 0.9314
15.7602 9.2735 1.9636 0.9291
8.1381 8.3667 1.2533 0.9541
6.8384 8.4148 1.1643 0.9573
5.6727 8.4124 1.0895 0.9600
2.9001 8.5816 0.9727 0.9642
1.2805 8.6104 0.9348 0.9656
0.5051 8.6240 0.9276 0.9658
-0.2647 8.6374 0.9279 0.9658
-1.0410 8.6508 0.9356 0.9656
-1.8367 8.6644 0.9511 0.9650
-5.1481 8.1134 1.0318 0.9621
-11.6357 8.8244 1.5681 0.9429
-13.8593 8.6837 1.7562 0.9363
-9.8057 -16.8841 2.0966 0.9245
-7.9019 -16.9152 2.0048 0.9276
-1.7495 -10.2146 1.1128 0.9592
6.5394 -17.1054 1.9665 0.9290
8.3700 -17.1391 2.0482 0.9261
-7.9218 -16.9077 1.5806 0.9278
-6.1640 -16.9375 1.5258 0.9302
-4.6613 -17.5296 1.5355 0.9298
-1.7569 -10.1881 0.8752 0.9593
0.8185 -8.4438 0.7181 0.9665
6.5144 -17.0979 1.5489 0.9292
9.1059 8.5532 1.0576 0.9511
6.3843 8.6031 0.9069 0.9579
5.0391 8.2321 0.8171 0.9620
4.2432 8.5610 0.8088 0.9624
3.3369 8.5773 0.7791 0.9637
2.4884 8.5924 0.7573 0.9647
-1.4311 8.6608 0.7431 0.9654
-2.2418 8.6747 0.7585 0.9647
-1.8560 5.2133 0.4685 0.9780
-4.8147 8.4035 0.8199 0.9619
-9.2355 7.6845 1.0171 0.9529
-12.3929 5.6326 1.1524 0.9468
-7.0960 -17.1154 1.5685 0.9283
-3.7037 -16.9797 1.4712 0.9326
-2.1668 -17.1562 1.4639 0.9329
-0.6198 -16.9726 1.4377 0.9341
0.4448 -8.4427 0.7157 0.9666
1.2061 -8.4506 0.7226 0.9663
1.9929 -8.4774 0.7372 0.9656
5.6747 -17.1226 1.5270 0.9301
7.4214 -17.1148 1.5792 0.9279
9.3305 -17.1492 1.6527 0.9246
9.7034 8.3423 1.0833 0.9499
8.1424 8.3711 0.9886 0.9542
5.6753 8.4162 0.8593 0.9601
4.7185 8.5524 0.8269 0.9615
2.0750 8.5997 0.7489 0.9651
0.5053 8.6273 0.7316 0.9659
-0.2648 8.6407 0.7318 0.9659
-1.8375 8.6678 0.7501 0.9651
-2.9000 9.4409 0.8361 0.9611
-2.0522 5.0330 0.4601 0.9784
-4.4949 8.7127 0.8299 0.9614
-5.3793 8.4777 0.8499 0.9605
-7.3843 9.6223 1.0268 0.9525
-8.4357 7.6715 0.9652 0.9553
-14.1581 8.8709 1.4143 0.9351
-15.3997 7.8339 1.4626 0.9330
-9.9223 -17.0850 1.6725 0.9238
-7.8904 -16.8905 1.5781 0.9279
-1.7444 -10.1846 0.8747 0.9594
-1.3640 -16.9076 1.4359 0.9342
0.0729 -8.4405 0.7145 0.9667
0.8281 -8.4439 0.7182 0.9665
4.8296 -17.0502 1.5001 0.9313
6.5367 -17.0983 1.5496 0.9292
8.4700 -17.3440 1.6339 0.9254
11.4564 -10.8884 1.3380 0.9385
-9.9136 -17.0255 1.2217 0.9241
-4.6679 -17.5546 1.1264 0.9298
-1.7509 -10.1534 0.6389 0.9595
-1.3999 -17.1108 1.0646 0.9335
0.8457 -8.7245 0.5435 0.9655
3.3303 -8.7410 0.5800 0.9632
12.1021 5.0823 0.8139 0.9488
9.1108 8.5579 0.7751 0.9511
6.3873 8.6072 0.6646 0.9580
4.2450 8.5646 0.5927 0.9624
3.3383 8.5807 0.5709 0.9638
1.6806 8.6100 0.5440 0.9655
0.8969 8.6238 0.5376 0.9658
-0.6468 8.6506 0.5379 0.9658
-8.0948 9.6388 0.7805 0.9508
-5.3246 5.3003 0.4659 0.9703
-12.8095 8.8550 0.9656 0.9395
-15.0920 8.5556 1.0758 0.9328
-12.3689 5.6216 0.8425 0.9470
-8.8371 -16.8855 1.1818 0.9265
-7.0807 -17.0786 1.1465 0.9286
-5.3142 -16.9452 1.1012 0.9313
-3.7023 -16.9731 1.0773 0.9327
8.1466 8.3755 0.7245 0.9543
6.8341 8.4095 0.6720 0.9575
5.6778 8.4200 0.6297 0.9601
3.7774 8.5729 0.5809 0.9632
2.9024 8.5885 0.5622 0.9643
1.2815 8.6170 0.5402 0.9657
-0.2649 8.6440 0.5363 0.9659
-1.0418 8.6575 0.5407 0.9657
-1.8382 8.6712 0.5497 0.9651
-2.8857 9.3945 0.6094 0.9614
-4.4968 8.7164 0.6082 0.9615
-7.8871 -16.8834 1.1555 0.9280
-6.1399 -16.9310 1.1168 0.9304
-4.6467 -17.5550 1.1261 0.9298
-1.3635 -16.9011 1.0514 0.9343
0.1484 -17.1898 1.0660 0.9334
0.8557 -8.7246 0.5436 0.9655
1.6525 -8.7386 0.5515 0.9650
2.4794 -8.7532 0.5641 0.9642
3.3418 -8.7412 0.5803 0.9632
8.4664 -17.3366 1.1964 0.9256
11.4546 -10.8867 0.9799 0.9386
-7.9152 -16.8935 0.7356 0.9280
-6.1590 -16.9237 0.7101 0.9304
-1.3994 -17.1042 0.6767 0.9336
4.8098 -17.0540 0.6987 0.9315
8.4382 -17.3287 0.7600 0.9257
12.1251 5.0920 0.5186 0.9487
9.1158 8.5626 0.4931 0.9512
4.2468 8.5682 0.3771 0.9624
2.4812 8.5676 0.3517 0.9649
1.6812 8.6134 0.3460 0.9655
0.1207 8.3260 0.3283 0.9672
-1.4322 8.6675 0.3464 0.9654
-2.2435 8.6815 0.3536 0.9647
-4.8190 8.4110 0.3822 0.9619
-8.0989 9.6437 0.4966 0.9508
-10.6048 8.8238 0.5440 0.9463
-12.8183 8.8611 0.6145 0.9395
-15.1448 8.5855 0.6865 0.9327
-12.3497 5.6129 0.5349 0.9471
-8.8333 -16.8783 0.7512 0.9266
-5.3121 -16.9385 0.7000 0.9314
-2.0697 -16.3873 0.6513 0.9360
-0.6193 -16.9597 0.6692 0.9343
4.0059 -17.0402 0.6902 0.9323
5.6878 -17.1622 0.7129 0.9302
7.4152 -17.1004 0.7350 0.9281
9.3224 -17.1341 0.7691 0.9249
8.1509 8.3798 0.4610 0.9543
5.6804 8.4238 0.4006 0.9601
4.7225 8.5598 0.3855 0.9616
3.7789 8.5765 0.3696 0.9632
2.9036 8.5919 0.3576 0.9643
2.0766 8.6064 0.3491 0.9652
0.5039 8.6040 0.3398 0.9661
-0.2650 8.6473 0.3411 0.9660
-1.0422 8.6608 0.3440 0.9657
-2.0571 5.0452 0.2148 0.9784
-5.4295 8.5568 0.3996 0.9602
-7.3915 9.6317 0.4787 0.9526
-11.6582 8.8415 0.5769 0.9431
-14.1790 8.8840 0.6598 0.9352
-9.9137 -17.0700 0.7784 0.9240
-7.8920 -16.8940 0.7352 0.9281
-4.6449 -17.5481 0.7158 0.9299
-1.7337 -10.1221 0.4049 0.9597
0.1483 -17.1832 0.6776 0.9335
1.6672 -16.9995 0.6735 0.9339
4.8307 -17.0543 0.6989 0.9315
11.4387 -10.8716 0.6223 0.9388
-9.8139 -16.8542 0.3294 0.9249
-7.9111 -16.8848 0.3150 0.9281
-4.6643 -17.5408 0.3066 0.9300
-1.7418 -10.1007 0.1731 0.9598
-1.3859 -16.9399 0.2871 0.9343
0.1272 -16.9662 0.2866 0.9344
1.6471 -16.9926 0.2884 0.9340
2.8412 -10.0740 0.1768 0.9590
3.5784 -9.3920 0.1698 0.9606
8.3314 -17.1093 0.3215 0.9267
11.3998 -10.8592 0.2659 0.9390
9.1208 8.5672 0.2114 0.9512
6.3933 8.6152 0.1812 0.9580
5.0458 8.2431 0.1633 0.9621
4.2339 8.5422 0.1610 0.9626
3.3287 8.5562 0.1551 0.9639
2.4822 8.5710 0.1507 0.9649
1.6757 8.5851 0.1478 0.9656
0.8945 8.6005 0.1461 0.9660
0.1208 8.3291 0.1407 0.9672
-0.6473 8.6572 0.1466 0.9659
-1.4328 8.6709 0.1485 0.9655
-2.2444 8.6849 0.1515 0.9648
-1.8690 5.2496 0.0941 0.9780
-4.8211 8.4147 0.1638 0.9619
-5.9417 8.5119 0.1753 0.9593
-8.1030 9.6486 0.2128 0.9508
-5.3280 5.3037 0.1270 0.9704
-10.6112 8.8291 0.2332 0.9463
-12.8270 8.8672 0.2634 0.9395
-15.1568 8.5923 0.2943 0.9327
-12.3590 5.6171 0.2293 0.9471
-12.7536 -9.5549 0.2692 0.9382
-5.3100 -16.9318 0.2997 0.9315
-0.6191 -16.9532 0.2866 0.9344
1.4310 -10.0270 0.1711 0.9603
2.3637 -10.0545 0.1745 0.9595
7.4121 -17.0933 0.3147 0.9282
9.7201 8.3567 0.2165 0.9500
8.1551 8.3842 0.1976 0.9543
6.8325 8.4075 0.1830 0.9576
5.6830 8.4277 0.1717 0.9602
2.8941 8.5638 0.1527 0.9645
2.0698 8.5782 0.1491 0.9653
0.5041 8.6073 0.1456 0.9661
-1.0426 8.6641 0.1474 0.9657
-2.0602 5.0526 0.0922 0.9784
-4.4851 8.6938 0.1652 0.9616
-8.4214 9.1551 0.2101 0.9515
-9.2416 3.7068 0.1682 0.9609
-7.8879 -16.8852 0.3148 0.9282
-6.1349 -16.9173 0.3040 0.9305
-4.6431 -17.5412 0.3065 0.9300
-1.7294 -10.0969 0.1730 0.9598
1.6666 -16.9930 0.2884 0.9340
1.9019 -10.0576 0.1729 0.9599
2.8536 -10.0742 0.1769 0.9590
3.5560 -9.3016 0.1682 0.9609
11.4087 -10.8431 0.2659 0.9390
-9.8096 -16.8468 -0.1098 0.9250
-7.9086 -16.8797 -0.1049 0.9281
-4.6625 -17.5340 -0.1021 0.9300
0.1272 -16.9598 -0.0955 0.9344
1.8893 -10.0535 -0.0576 0.9599
8.3279 -17.1021 -0.1071 0.9267
11.3626 -10.8238 -0.0884 0.9392
7.4806 8.4003 -0.0633 0.9560
5.0480 8.2467 -0.0544 0.9621
4.2357 8.5457 -0.0537 0.9626
3.3301 8.5596 -0.0517 0.9639
2.4832 8.5744 -0.0503 0.9649
1.6763 8.5884 -0.0493 0.9656
0.8948 8.6038 -0.0487 0.9660
0.1208 8.3323 -0.0469 0.9672
-1.4333 8.6742 -0.0495 0.9654
-1.8658 5.2407 -0.0313 0.9780
-2.3696 5.1511 -0.0319 0.9776
-5.9443 8.5156 -0.0585 0.9593
-8.1071 9.6534 -0.0710 0.9508
-12.8358 8.8732 -0.0879 0.9395
-7.6500 3.4769 -0.0473 0.9669
-12.7638 -9.5625 -0.0898 0.9382
-8.8258 -16.8640 -0.1072 0.9267
-7.0047 -16.8953 -0.1030 0.9295
-2.1370 -16.9203 -0.0960 0.9341
1.4305 -10.0231 -0.0570 0.9603
2.3654 -10.0617 -0.0582 0.9595
3.3402 -10.0787 -0.0598 0.9584
7.4090 -17.0861 -0.1049 0.9282
9.3142 -17.1192 -0.1097 0.9250
9.7256 8.3614 -0.0722 0.9500
8.1594 8.3886 -0.0659 0.9543
6.8358 8.4115 -0.0610 0.9576
3.7690 8.5538 -0.0526 0.9633
2.0706 8.5815 -0.0497 0.9653
0.5043 8.6106 -0.0486 0.9661
-0.2652 8.6539 -0.0487 0.9660
-1.8403 8.6813 -0.0500 0.9651
-2.8892 9.4057 -0.0554 0.9614
-2.0635 5.0609 -0.0308 0.9784
-4.4871 8.6975 -0.0551 0.9616
-5.4337 8.5635 -0.0571 0.9602
-7.3986 9.6410 -0.0684 0.9526
-8.4238 9.1577 -0.0701 0.9514
-9.4818 8.6228 -0.0722 0.9500
-14.1999 8.8971 -0.0943 0.9352
-7.6218 3.0571 -0.0462 0.9677
-4.6413 -17.5343 -0.1021 0.9300
-1.7240 -10.0659 -0.0575 0.9600
-1.3661 -16.9338 -0.0956 0.9343
0.1464 -16.9601 -0.0955 0.9344
1.9012 -10.0537 -0.0576 0.9599
2.8525 -10.0702 -0.0589 0.9590
-9.8970 -16.9970 -0.5538 0.9243
-7.8822 -16.8233 -0.5231 0.9284
0.1271 -16.9533 -0.4774 0.9344
1.6254 -16.7684 -0.4744 0.9348
1.8886 -10.0496 -0.2879 0.9599
8.3243 -17.0948 -0.5354 0.9267
11.3064 -10.7702 -0.4397 0.9394
12.2159 5.1301 -0.3731 0.9484
8.6903 8.1629 -0.3357 0.9534
7.2905 8.1868 -0.3087 0.9571
6.0906 8.2073 -0.2878 0.9599
5.0502 8.2503 -0.2724 0.9620
4.2374 8.5493 -0.2687 0.9625
3.3437 8.5947 -0.2597 0.9638
0.8952 8.6071 -0.2437 0.9660
0.1209 8.3354 -0.2347 0.9672
-4.8254 8.4221 -0.2733 0.9619
-5.9381 8.5066 -0.2921 0.9593
-5.3313 5.3071 -0.2118 0.9703
-12.8446 8.8793 -0.4397 0.9394
-7.3873 3.3575 -0.2285 0.9681
-7.4411 2.6109 -0.2220 0.9689
-2.1362 -16.9139 -0.4800 0.9341
-0.6186 -16.9403 -0.4773 0.9344
0.8938 -16.9666 -0.4784 0.9343
2.3644 -10.0578 -0.2909 0.9595
3.3389 -10.0746 -0.2989 0.9584
7.4059 -17.0790 -0.5242 0.9282
9.3102 -17.1117 -0.5485 0.9250
9.4791 8.1494 -0.3520 0.9512
5.5408 8.2167 -0.2791 0.9611
4.7123 8.5412 -0.2747 0.9617
-0.2653 8.6572 -0.2439 0.9659
-1.0434 8.6707 -0.2459 0.9657
-1.8410 8.6847 -0.2500 0.9651
-4.5046 8.7315 -0.2767 0.9614
-5.3915 8.4970 -0.2834 0.9605
-7.4022 9.6457 -0.3424 0.9525
-8.4262 9.1602 -0.3505 0.9514
-11.6808 8.8586 -0.4128 0.9430
-7.3844 2.9619 -0.2240 0.9687
-9.8715 -16.9974 -0.5535 0.9244
-7.8592 -16.8237 -0.5229 0.9284
-6.1300 -16.9037 -0.5063 0.9306
-1.7190 -10.0364 -0.2867 0.9601
-1.3656 -16.9273 -0.4782 0.9343
0.1464 -16.9536 -0.4774 0.9344
1.6283 -16.6023 -0.4697 0.9354
1.9004 -10.0498 -0.2880 0.9599
-15.1077 -8.4253 -0.8773 0.9331
-12.5514 -8.5474 -0.7701 0.9410
-7.9022 -16.8658 -0.9446 0.9281
-4.2621 -16.0282 -0.8411 0.9357
-1.7310 -10.0379 -0.5166 0.9600
1.6226 -16.7399 -0.8529 0.9349
1.8879 -10.0457 -0.5184 0.9599
8.4145 -17.2800 -0.9747 0.9259
11.2675 -10.7332 -0.7892 0.9396
16.1287 -10.6330 -0.9797 0.9255
15.8467 10.2885 -0.9582 0.9271
7.2941 8.1909 -0.5562 0.9570
6.0934 8.2112 -0.5186 0.9599
4.2392 8.5529 -0.4841 0.9625
2.4943 8.6127 -0.4547 0.9647
1.6838 8.6267 -0.4458 0.9654
0.8986 8.6402 -0.4405 0.9658
-0.6480 8.6671 -0.4408 0.9658
-1.4344 8.6809 -0.4462 0.9654
-1.8751 5.2669 -0.2835 0.9779
-5.5043 7.8852 -0.4877 0.9622
-8.1152 9.6631 -0.6400 0.9507
-5.3330 5.3087 -0.3816 0.9703
-9.1490 7.6125 -0.6036 0.9534
-7.5336 1.9102 -0.3941 0.9694
-16.5241 -8.2843 -0.9374 0.9286
-13.4887 -8.3417 -0.8043 0.9385
-6.9991 -16.8818 -0.9268 0.9294
-4.9788 -15.8758 -0.8438 0.9355
-3.4942 -16.0189 -0.8315 0.9364
-2.1594 -17.0979 -0.8740 0.9333
-0.6184 -16.9339 -0.8594 0.9344
0.8935 -16.9602 -0.8613 0.9342
1.4278 -10.0043 -0.5125 0.9603
9.3061 -17.1042 -0.9875 0.9250
15.6814 5.7881 -0.8477 0.9352
7.9563 8.1798 -0.5787 0.9553
4.7143 8.5448 -0.4949 0.9617
2.0799 8.6198 -0.4497 0.9651
-0.2654 8.6605 -0.4394 0.9659
-1.0438 8.6741 -0.4431 0.9656
-4.9976 7.8761 -0.4731 0.9633
-8.4285 9.1628 -0.6314 0.9514
-8.8625 8.0595 -0.6075 0.9532
-7.3608 2.2152 -0.3898 0.9697
-9.8855 -17.0216 -0.9983 0.9242
-6.1276 -16.8970 -0.9115 0.9305
-1.3804 -17.1116 -0.8706 0.9336
0.1463 -16.9472 -0.8595 0.9344
2.8502 -10.0622 -0.5304 0.9590
11.2741 -10.7151 -0.7888 0.9396
16.1297 -10.6074 -0.9790 0.9256
17.1661 -9.2134 -0.9880 0.9249
-18.2093 -8.1228 -1.4620 0.9231
-14.7838 -8.2446 -1.2411 0.9344
-12.2808 -8.3631 -1.0894 0.9421
-10.1918 -8.3601 -0.9665 0.9485
-7.3695 -8.6515 -0.8333 0.9554
-5.1440 -8.8342 -0.7496 0.9598
-7.8989 -16.8588 -1.3651 0.9280
-6.1467 -16.8899 -1.3179 0.9304
-4.1361 -15.5546 -1.1801 0.9375
0.1270 -16.9404 -1.2421 0.9343
3.5709 -9.3725 -0.7354 0.9606
11.4140 -15.6081 -1.4178 0.9254
7.9441 -9.0475 -0.8828 0.9529
11.3221 -9.0066 -1.0608 0.9436
13.3940 -8.8301 -1.1763 0.9377
16.4341 -8.8445 -1.3684 0.9279
10.3863 5.4962 -0.8616 0.9540
8.6998 8.1718 -0.8752 0.9533
7.2978 8.1950 -0.8046 0.9569
6.0963 8.2150 -0.7501 0.9598
4.2410 8.5565 -0.7002 0.9624
1.6845 8.6300 -0.6447 0.9653
-1.4350 8.6843 -0.6454 0.9653
-2.2402 8.6686 -0.6565 0.9647
-1.8836 5.2906 -0.4118 0.9777
-4.8297 8.4296 -0.7123 0.9618
-5.5069 7.8889 -0.7054 0.9621
-5.3347 5.3104 -0.5519 0.9703
-6.4535 2.9331 -0.5198 0.9720
-16.4285 -8.2363 -1.3475 0.9289
-8.0768 -8.6777 -0.8692 0.9536
-7.0785 -17.0733 -1.3552 0.9286
-3.5376 -16.2181 -1.2171 0.9356
-1.3021 -10.3096 -0.7619 0.9592
1.4261 -9.9921 -0.7401 0.9603
3.3362 -10.0665 -0.7776 0.9584
10.2301 -8.9001 -0.9942 0.9471
14.5463 -8.6745 -1.2418 0.9343
7.9604 8.1840 -0.8371 0.9552
6.6683 8.2055 -0.7753 0.9585
3.7736 8.5644 -0.6862 0.9632
2.0807 8.6232 -0.6504 0.9650
-1.0442 8.6774 -0.6408 0.9656
-1.8425 8.6915 -0.6514 0.9650
-2.9081 9.4674 -0.7262 0.9611
-2.0950 5.1381 -0.4068 0.9780
-4.9999 7.8797 -0.6843 0.9633
-8.4309 9.1654 -0.9131 0.9513
-11.3577 8.6136 -1.0452 0.9444
-6.3855 3.2483 -0.5253 0.9717
-7.0873 2.1329 -0.5427 0.9708
-9.8303 2.0254 -0.7359 0.9605
-18.0470 -8.0750 -1.4497 0.9238
-14.7705 -8.2592 -1.2408 0.9344
-12.2896 -8.3895 -1.0910 0.9421
-10.2864 -14.5532 -1.3067 0.9310
-5.1306 -8.8342 -0.7491 0.9599
-6.1251 -16.8902 -1.3173 0.9305
-1.7151 -10.0139 -0.7449 0.9601
-1.3799 -17.1050 -1.2583 0.9335
0.1462 -16.9407 -1.2422 0.9343
1.6228 -16.5465 -1.2190 0.9355
1.8990 -10.0420 -0.7493 0.9598
2.8491 -10.0582 -0.7665 0.9589
11.4146 -15.5719 -1.4157 0.9255
9.3541 -8.8903 -0.9462 0.9496
13.4983 -8.8769 -1.1846 0.9373
-18.0250 -8.0406 -1.8949 0.9238
-14.7598 -8.2312 -1.6225 0.9343
-10.1062 -8.2899 -1.2549 0.9488
-8.5339 -8.3769 -1.1481 0.9531
-7.2344 -8.4929 -1.0711 0.9562
-6.0686 -8.5652 -1.0078 0.9587
-4.9963 -8.5805 -0.9532 0.9609
-2.8410 -10.6842 -1.0614 0.9565
-1.5277 -8.8592 -0.8631 0.9645
0.0667 -8.8932 -0.8538 0.9649
0.8556 -8.8266 -0.8514 0.9650
4.2983 -8.8271 -0.9426 0.9613
5.3633 -8.9011 -0.9977 0.9591
6.4082 -8.7629 -1.0422 0.9573
16.3558 -8.8024 -1.7832 0.9281
15.1557 4.8290 -1.5271 0.9381
12.3387 5.1817 -1.2848 0.9476
5.4590 2.8888 -0.5929 0.9755
4.9478 3.2124 -0.5664 0.9766
8.7046 8.1763 -1.1465 0.9531
7.3015 8.1992 -1.0540 0.9568
6.0991 8.2189 -0.9826 0.9597
5.0570 8.2613 -0.9299 0.9618
2.4899 8.5976 -0.8593 0.9647
1.6851 8.6334 -0.8445 0.9653
0.8993 8.6469 -0.8346 0.9657
0.1210 8.3450 -0.8012 0.9670
-0.6465 8.6471 -0.8325 0.9658
-1.4273 8.6374 -0.8405 0.9654
-1.8935 5.3186 -0.5420 0.9776
-2.3781 5.1694 -0.5463 0.9774
-5.5095 7.8926 -0.9241 0.9621
-4.4759 5.3296 -0.6682 0.9724
-8.8784 7.3873 -1.1088 0.9546
-12.4991 8.6404 -1.4588 0.9408
-5.8331 3.3068 -0.6437 0.9734
-5.8970 2.6802 -0.6219 0.9743
-6.2149 2.1807 -0.6323 0.9739
-18.4165 2.9569 -1.7907 0.9278
-19.1720 -0.3656 -1.8409 0.9258
-19.3944 -3.8775 -1.8988 0.9236
-16.3200 -8.1819 -1.7527 0.9293
-11.2121 -8.4000 -1.3450 0.9453
-9.3667 -8.4182 -1.2091 0.9507
-5.4439 -8.4692 -0.9666 0.9604
-4.4837 -8.5673 -0.9283 0.9619
-3.6006 -8.6847 -0.9026 0.9629
-2.7663 -8.8209 -0.8875 0.9635
-3.4587 -15.8565 -1.5581 0.9369
-1.1088 -8.7793 -0.8496 0.9651
1.2674 -8.8807 -0.8612 0.9646
5.8109 -8.7275 -1.0066 0.9587
7.0968 -8.8382 -1.0882 0.9555
8.3860 -8.7234 -1.1617 0.9525
9.9786 -8.6813 -1.2698 0.9482
14.5359 -8.6683 -1.6248 0.9343
15.5925 5.7552 -1.5957 0.9354
6.0218 2.8550 -0.6398 0.9736
5.1108 3.0073 -0.5693 0.9765
4.8243 3.4513 -0.5695 0.9764
9.4954 8.1635 -1.2022 0.9509
6.6716 8.2095 -1.0156 0.9584
5.5483 8.2280 -0.9527 0.9609
4.6771 8.4774 -0.9295 0.9618
2.0815 8.6266 -0.8520 0.9650
1.2849 8.6402 -0.8386 0.9655
0.5068 8.6536 -0.8322 0.9658
-2.8938 9.4208 -0.9462 0.9612
-2.1038 5.1597 -0.5350 0.9779
-4.3800 8.4900 -0.9172 0.9623
-5.0022 7.8833 -0.8963 0.9632
-5.7349 7.4731 -0.9044 0.9629
-8.8157 8.0170 -1.1440 0.9532
-6.0172 2.4135 -0.6224 0.9743
-10.2934 2.1209 -1.0090 0.9586
-18.6549 2.1371 -1.8027 0.9273
-17.9742 -8.0424 -1.8905 0.9239
-14.7495 -8.2474 -1.6224 0.9343
-12.1918 -8.3227 -1.4172 0.9424
-10.1269 -8.3261 -1.2586 0.9487
-8.5361 -8.3981 -1.1496 0.9530
-4.9942 -8.5995 -0.9547 0.9608
-4.0612 -8.6936 -0.9212 0.9622
-2.8317 -10.6980 -1.0624 0.9565
-1.3794 -17.0985 -1.6469 0.9334
0.0768 -8.8932 -0.8538 0.9649
0.8657 -8.8271 -0.8515 0.9650
2.5219 -8.9031 -0.8884 0.9635
3.3404 -8.7376 -0.8981 0.9631
5.3735 -8.8953 -0.9977 0.9591
6.4055 -8.7384 -1.0402 0.9574
7.6890 -8.7370 -1.1174 0.9543
9.0698 -8.6201 -1.2013 0.9510
16.4819 -8.8461 -1.7958 0.9276
-15.2451 -6.8005 -1.9829 0.9350
-12.1569 -8.2787 -1.7471 0.9425
-10.1644 -8.3376 -1.5616 0.9484
-8.6595 -8.5002 -1.4414 0.9523
-7.1689 -8.4160 -1.3132 0.9564
-5.9608 -8.4130 -1.2248 0.9593
-4.8783 -8.3779 -1.1516 0.9617
-3.9384 -8.4059 -1.1027 0.9633
-2.2942 -8.6277 -1.0605 0.9647
-0.7185 -8.7826 -1.0467 0.9651
0.0639 -8.5171 -1.0117 0.9663
2.4527 -8.6965 -1.0733 0.9643
3.2858 -8.6240 -1.0962 0.9635
4.2914 -8.8129 -1.1644 0.9613
5.2147 -8.6545 -1.2002 0.9601
7.6041 -8.6604 -1.3690 0.9546
13.2743 -8.7512 -1.8886 0.9380
17.5433 -7.5124 -2.2669 0.9260
17.9436 -5.8561 -2.2421 0.9268
18.1764 -4.1856 -2.2156 0.9276
17.5298 2.2953 -2.1001 0.9313
17.0115 3.7921 -2.0703 0.9322
15.1197 4.8175 -1.8850 0.9381
4.4276 3.4718 -0.6683 0.9776
8.7094 8.1808 -1.4194 0.9530
4.1362 8.3451 -1.1064 0.9632
3.2523 8.3598 -1.0655 0.9645
0.8736 8.4001 -1.0032 0.9666
-1.3946 8.4398 -1.0161 0.9661
-1.8968 5.3277 -0.6718 0.9775
-2.3903 5.1961 -0.6794 0.9772
-4.8340 8.4372 -1.1551 0.9616
-5.5121 7.8964 -1.1439 0.9620
-4.4895 5.3459 -0.8292 0.9723
-4.9792 4.9565 -0.8345 0.9721
-5.8561 3.3198 -0.7996 0.9732
-6.0421 2.1201 -0.7606 0.9745
-15.7263 -0.2999 -1.8684 0.9386
-15.8318 -1.7197 -1.8917 0.9379
-15.6841 -4.6199 -1.9422 0.9363
-15.4222 -6.0811 -1.9692 0.9354
-15.0302 -7.5353 -1.9972 0.9345
-13.3981 -8.2856 -1.8713 0.9385
-11.0237 -8.2589 -1.6362 0.9460
-9.2762 -8.3369 -1.4815 0.9510
-7.9251 -8.5147 -1.3817 0.9542
-5.4260 -8.4413 -1.1920 0.9604
-4.4460 -8.4952 -1.1390 0.9621
-3.5973 -8.6767 -1.1157 0.9629
-1.8690 -8.5684 -1.0417 0.9653
-1.0745 -8.5081 -1.0187 0.9660
-0.3185 -8.7215 -1.0367 0.9655
0.4678 -8.8797 -1.0562 0.9648
1.2374 -8.6704 -1.0404 0.9653
2.0566 -8.7481 -1.0675 0.9644
4.6897 -8.6195 -1.1656 0.9612
5.7502 -8.6362 -1.2324 0.9591
6.8785 -8.5664 -1.3050 0.9567
8.2030 -8.5330 -1.4060 0.9534
9.9311 -8.6400 -1.5636 0.9484
14.7802 -8.8140 -2.0442 0.9330
17.2589 -8.3070 -2.2752 0.9257
17.7670 -6.6766 -2.2546 0.9264
18.0822 -5.0108 -2.2289 0.9272
18.2315 -3.3401 -2.2017 0.9281
17.2834 3.0617 -2.0850 0.9317
16.0351 4.3423 -1.9734 0.9353
4.8942 2.8798 -0.6745 0.9774
4.3962 3.7796 -0.6887 0.9769
7.9688 8.1927 -1.3576 0.9550
3.6803 8.3526 -1.0842 0.9639
2.8275 8.3669 -1.0491 0.9651
1.8372 7.6140 -0.9304 0.9689
-1.0148 8.4330 -1.0090 0.9664
-2.1005 5.1515 -0.6608 0.9778
-4.3819 8.4937 -1.1353 0.9622
-5.0045 7.8870 -1.1095 0.9631
-4.5610 4.9583 -0.8003 0.9732
-8.6735 7.8877 -1.3926 0.9539
-10.8151 8.2021 -1.6124 0.9468
-5.7685 2.9345 -0.7688 0.9743
-5.9338 2.3801 -0.7594 0.9746
-15.6321 0.3898 -1.8575 0.9390
-15.7942 -1.0153 -1.8800 0.9382
-15.8406 -2.4480 -1.9040 0.9375
-15.7665 -3.8995 -1.9293 0.9367
-15.5675 -5.3600 -1.9557 0.9358
-15.2401 -6.8190 -1.9833 0.9350
-12.1527 -8.2961 -1.7479 0.9425
-10.0103 -8.2303 -1.5394 0.9491
-8.4631 -8.3262 -1.4103 0.9533
-7.1644 -8.4301 -1.3142 0.9564
-2.2355 -8.4456 -1.0378 0.9654
-1.4549 -8.4946 -1.0237 0.9659
0.8595 -8.7632 -1.0459 0.9652
2.4620 -8.6919 -1.0731 0.9643
4.2342 -8.6703 -1.1462 0.9619
7.6049 -8.6415 -1.3674 0.9547
9.0931 -8.6422 -1.4901 0.9507
17.5495 -7.4914 -2.2666 0.9260
18.2452 -2.4979 -2.1875 0.9285
-7.1982 -8.4504 -1.5728 0.9561
-4.9845 -8.5602 -1.4035 0.9608
-1.4576 -8.4527 -1.2153 0.9659
0.8338 -8.6018 -1.2245 0.9657
4.2267 -8.6800 -1.3679 0.9617
6.3154 -8.6360 -1.5159 0.9577
7.5621 -8.6125 -1.6239 0.9548
9.0979 -8.6665 -1.7803 0.9505
11.0910 -8.8228 -2.0081 0.9444
12.9357 -8.5280 -2.1953 0.9393
14.7461 -4.8125 -2.1978 0.9393
14.9690 -3.4470 -2.1765 0.9398
15.0195 -0.7225 -2.1306 0.9411
14.8547 0.6103 -2.1065 0.9417
14.5705 1.9078 -2.0821 0.9424
14.1736 3.1595 -2.0575 0.9430
13.6223 4.3405 -2.0257 0.9439
6.5036 2.7312 -0.9994 0.9719
5.2735 2.7906 -0.8454 0.9762
4.4600 2.8957 -0.7534 0.9787
4.2182 3.3076 -0.7595 0.9786
7.3089 8.2075 -1.5572 0.9566
5.0615 8.2687 -1.3737 0.9616
4.1380 8.3486 -1.3202 0.9631
2.4260 8.3770 -1.2357 0.9654
1.4647 7.5043 -1.0833 0.9696
0.1211 8.3514 -1.1834 0.9668
-0.6303 8.4295 -1.1977 0.9664
-2.1856 8.4573 -1.2377 0.9653
-2.3951 5.2064 -0.8120 0.9771
-4.8362 8.4410 -1.3784 0.9615
-5.7267 8.2039 -1.4176 0.9604
-4.4918 5.3486 -0.9896 0.9722
-8.8335 7.3500 -1.6282 0.9546
-9.5764 6.6200 -1.6495 0.9541
-5.8176 3.2980 -0.9475 0.9733
-5.7555 2.6159 -0.8958 0.9748
-5.9750 2.0965 -0.8972 0.9747
-13.3835 -1.4537 -1.9074 0.9471
-13.2040 -3.8894 -1.9503 0.9459
-12.9550 -5.1083 -1.9731 0.9453
-12.5971 -6.3155 -1.9966 0.9447
-9.5378 -8.5720 -1.8170 0.9495
-7.8128 -8.3941 -1.6248 0.9547
-6.5326 -8.4100 -1.5089 0.9579
-5.4148 -8.4239 -1.4189 0.9604
-4.4116 -8.4296 -1.3481 0.9623
-3.4830 -8.4010 -1.2886 0.9639
-2.6690 -8.5105 -1.2638 0.9646
-1.8559 -8.5084 -1.2339 0.9654
-1.0769 -8.5268 -1.2178 0.9659
0.4476 -8.4961 -1.2055 0.9662
2.8575 -8.6221 -1.2870 0.9640
3.7196 -8.5778 -1.3247 0.9629
4.7134 -8.6631 -1.3974 0.9609
5.7652 -8.6587 -1.4739 0.9588
8.2006 -8.5305 -1.6766 0.9533
9.8941 -8.6077 -1.8582 0.9484
13.6018 -8.1113 -2.2439 0.9380
14.1628 -6.8168 -2.2271 0.9385
14.5866 -5.4814 -2.2079 0.9390
14.8757 -4.1222 -2.1872 0.9395
15.0310 -2.7538 -2.1652 0.9401
15.0549 -1.3900 -2.1422 0.9407
14.9513 -0.0439 -2.1185 0.9414
14.7254 1.2724 -2.0942 0.9420
14.3832 2.5480 -2.0697 0.9427
4.8107 2.8307 -0.7909 0.9777
4.3128 3.0854 -0.7514 0.9788
4.1453 3.5638 -0.7746 0.9782
7.9731 8.1970 -1.6202 0.9549
1.1157 7.5024 -1.0747 0.9698
-1.0152 8.4363 -1.2040 0.9663
-1.7913 8.4502 -1.2239 0.9657
-2.1045 5.1613 -0.7898 0.9777
-4.3839 8.4975 -1.3548 0.9621
-5.0210 7.9130 -1.3278 0.9628
-5.7385 7.4778 -1.3356 0.9626
-4.5638 4.9614 -0.9552 0.9731
-8.3654 7.6074 -1.6021 0.9553
-5.7820 3.6228 -0.9668 0.9728
-7.2032 2.1678 -1.0658 0.9701
-13.0431 1.4942 -1.8601 0.9483
-13.0914 -4.5074 -1.9618 0.9456
-12.7875 -5.7216 -1.9849 0.9450
-12.3740 -6.9191 -2.0087 0.9443
-8.4610 -8.3242 -1.6818 0.9532
-7.2071 -8.4803 -1.5769 0.9560
-4.9505 -8.5241 -1.3967 0.9610
-3.9926 -8.5467 -1.3366 0.9626
-1.4463 -8.4444 -1.2139 0.9660
0.0737 -8.5365 -1.2096 0.9661
2.4151 -8.5262 -1.2556 0.9648
3.3148 -8.6707 -1.3153 0.9632
4.2354 -8.6728 -1.3675 0.9618
6.3289 -8.6339 -1.5168 0.9577
7.5725 -8.6046 -1.6241 0.9547
14.3942 -6.1445 -2.2176 0.9387
14.7498 -4.7952 -2.1976 0.9393
14.9710 -3.4296 -2.1762 0.9398
15.0181 -0.7054 -2.1303 0.9411
14.8518 0.6271 -2.1062 0.9417
14.5662 1.9241 -2.0818 0.9424
-11.0092 -4.9110 -1.9859 0.9523
-10.6368 -5.9319 -2.0064 0.9518
-10.1707 -6.9261 -2.0271 0.9513
-5.9347 -8.3762 -1.6911 0.9592
-4.8877 -8.3940 -1.6002 0.9614
-3.9485 -8.4274 -1.5331 0.9630
-3.0899 -8.4905 -1.4885 0.9640
-1.4702 -8.5257 -1.4252 0.9655
0.0635 -8.4662 -1.3948 0.9663
2.4046 -8.5260 -1.4594 0.9647
3.2681 -8.5776 -1.5122 0.9635
4.2240 -8.6744 -1.5894 0.9616
7.6396 -8.7008 -1.9075 0.9541
11.2122 -7.3917 -2.2124 0.9470
11.7527 -6.3251 -2.1987 0.9473
12.1840 -5.2174 -2.1835 0.9477
12.7116 -2.9271 -2.1489 0.9485
12.8080 -1.7683 -2.1300 0.9489
12.7951 -0.6155 -2.1103 0.9494
12.6759 0.5208 -2.0900 0.9499
11.7261 3.7363 -2.0274 0.9513
6.2426 2.6216 -1.1154 0.9729
5.1842 2.7434 -0.9662 0.9765
4.3771 2.8419 -0.8597 0.9791
6.1079 8.2306 -1.6885 0.9593
3.2550 8.3667 -1.4790 0.9643
0.8020 7.7109 -1.2771 0.9691
-0.6305 8.4328 -1.3931 0.9663
-2.1865 8.4607 -1.4396 0.9652
-4.8384 8.4448 -1.6033 0.9613
-5.4873 7.8609 -1.5793 0.9619
-4.4941 5.3514 -1.1512 0.9721
-4.9819 4.9592 -1.1580 0.9719
-5.6770 3.2183 -1.0751 0.9739
-5.7254 2.6022 -1.0361 0.9748
-11.4168 0.8013 -1.8854 0.9547
-11.5419 -0.2201 -1.9017 0.9543
-11.5315 -2.3055 -1.9373 0.9534
-11.3912 -3.3554 -1.9563 0.9530
-11.1585 -4.3999 -1.9760 0.9525
-10.8324 -5.4307 -1.9962 0.9521
-7.9435 -8.5344 -1.9207 0.9538
-6.5911 -8.4851 -1.7700 0.9574
-5.3916 -8.3878 -1.6426 0.9604
-4.3918 -8.3917 -1.5603 0.9623
-2.6705 -8.5155 -1.4702 0.9645
-1.8453 -8.4599 -1.4264 0.9655
0.4516 -8.5723 -1.4141 0.9658
1.2333 -8.6416 -1.4380 0.9652
3.7260 -8.5926 -1.5429 0.9627
4.7133 -8.6629 -1.6247 0.9608
5.8125 -8.7298 -1.7277 0.9584
9.7529 -8.4849 -2.1296 0.9489
12.3599 -4.6447 -2.1752 0.9479
3.9689 3.4122 -0.8622 0.9790
3.7438 3.8489 -0.8845 0.9785
6.6814 8.2216 -1.7453 0.9580
5.5560 8.2394 -1.6371 0.9605
4.6039 8.3447 -1.5700 0.9621
3.6834 8.3597 -1.5049 0.9636
1.8625 7.7190 -1.3081 0.9683
1.1163 7.5061 -1.2502 0.9697
0.4406 7.5235 -1.2415 0.9699
-0.2582 8.4263 -1.3888 0.9664
-1.0156 8.4397 -1.4004 0.9661
-4.3858 8.5012 -1.5759 0.9620
-4.9819 7.8513 -1.5318 0.9630
-4.5662 4.9640 -1.1111 0.9730
-7.4728 6.7957 -1.6640 0.9599
-8.0787 6.1268 -1.6703 0.9597
-5.6892 3.5646 -1.1060 0.9732
-5.7214 2.9105 -1.0575 0.9743
-6.4977 1.9555 -1.1179 0.9729
-11.3242 1.2973 -1.8777 0.9548
-11.4907 0.2866 -1.8936 0.9545
-11.5671 -1.7876 -1.9282 0.9537
-11.4719 -2.8373 -1.9468 0.9532
-11.2850 -3.8855 -1.9662 0.9528
-11.0051 -4.9241 -1.9862 0.9523
-8.3403 -8.2055 -1.9275 0.9537
-4.8836 -8.4089 -1.6019 0.9613
-3.9529 -8.4617 -1.5386 0.9628
-1.4537 -8.4873 -1.4185 0.9657
0.0729 -8.4462 -1.3915 0.9663
0.8582 -8.7506 -1.4485 0.9650
2.4383 -8.6080 -1.4739 0.9644
5.2147 -8.6323 -1.6614 0.9599
7.6473 -8.6897 -1.9069 0.9542
10.5447 -8.3687 -2.2177 0.9469
12.8085 -1.7536 -2.1298 0.9489
12.7942 -0.6009 -2.1100 0.9494
-9.3153 -5.1950 -2.0048 0.9575
-8.8958 -6.0579 -2.0229 0.9571
-6.9928 -8.2092 -2.0269 0.9571
-5.9546 -8.4043 -1.9360 0.9589
-3.1272 -8.5930 -1.7188 0.9635
-2.2409 -8.4271 -1.6390 0.9651
-1.4633 -8.4859 -1.6186 0.9656
-0.6979 -8.5299 -1.6087 0.9658
1.6066 -8.5491 -1.6350 0.9652
5.2220 -8.6666 -1.9018 0.9597
6.4190 -8.7777 -2.0440 0.9567
7.4167 -8.4469 -2.1129 0.9553
8.4748 -8.0730 -2.2000 0.9535
9.1304 -7.2631 -2.1929 0.9536
10.5546 -4.5196 -2.1581 0.9543
10.6009 2.3631 -2.0415 0.9568
10.2560 3.2679 -2.0232 0.9571
4.2872 2.7835 -0.9608 0.9794
6.2758 7.0473 -1.7737 0.9623
4.8523 7.9270 -1.7470 0.9629
3.2564 8.3702 -1.6881 0.9641
2.4280 8.3838 -1.6406 0.9651
1.4696 7.5290 -1.4419 0.9693
-1.9157 5.3810 -1.0736 0.9770
-4.4957 5.3533 -1.3140 0.9719
-6.8981 5.7396 -1.6867 0.9641
-7.4090 5.1218 -1.6930 0.9640
-5.6433 3.1992 -1.2193 0.9739
-5.6723 2.5781 -1.1711 0.9750
-5.8652 2.0580 -1.1683 0.9750
-10.0739 0.7070 -1.8982 0.9597
-10.1974 -1.1076 -1.9280 0.9591
-10.1423 -2.0277 -1.9441 0.9588
-10.0071 -2.9477 -1.9608 0.9584
-9.1130 -5.6356 -2.0140 0.9573
-8.6527 -6.4825 -2.0322 0.9570
-7.4792 -8.0356 -2.0634 0.9563
-5.5381 -8.6157 -1.9251 0.9592
-4.4210 -8.4474 -1.7921 0.9619
-3.4938 -8.4269 -1.7147 0.9636
-2.6544 -8.4642 -1.6673 0.9645
-1.8594 -8.5246 -1.6400 0.9651
-1.0679 -8.4553 -1.6019 0.9659
0.4562 -8.6609 -1.6302 0.9653
2.0240 -8.6096 -1.6624 0.9646
2.8501 -8.5997 -1.7029 0.9638
4.7335 -8.7000 -1.8616 0.9605
6.8017 -8.4707 -2.0419 0.9567
8.0998 -8.4257 -2.1968 0.9535
8.8197 -7.6730 -2.1973 0.9535
9.9480 -5.9324 -2.1771 0.9540
10.7124 -4.0256 -2.1510 0.9545
11.0958 -2.0328 -2.1203 0.9551
11.1445 -1.0289 -2.1036 0.9555
11.0997 -0.0326 -2.0863 0.9558
10.9643 0.9474 -2.0685 0.9562
10.7417 1.9029 -2.0504 0.9566
10.4360 2.8261 -2.0322 0.9569
7.0487 2.6017 -1.4122 0.9699
4.0440 2.8931 -0.9346 0.9800
3.6715 3.1565 -0.9101 0.9805
5.2150 7.7337 -1.7533 0.9627
4.4737 8.1089 -1.7407 0.9630
3.6850 8.3632 -1.7178 0.9635
2.8310 8.3771 -1.6621 0.9647
1.1168 7.5099 -1.4271 0.9696
0.4378 7.4754 -1.4075 0.9700
-0.2583 8.4296 -1.5852 0.9663
-2.1398 5.2479 -1.0652 0.9772
-5.6612 3.5471 -1.2557 0.9732
-9.7873 2.0166 -1.8783 0.9601
-9.9970 1.1453 -1.8913 0.9599
-10.1340 0.2527 -1.9054 0.9596
-10.1955 -0.6554 -1.9203 0.9593
-10.1794 -1.5731 -1.9360 0.9589
-10.0839 -2.4940 -1.9525 0.9586
-9.6500 -4.3178 -1.9871 0.9579
-9.3105 -5.2061 -2.0050 0.9575
-8.3894 -6.8975 -2.0414 0.9568
-7.8111 -7.6848 -2.0596 0.9564
-6.9772 -8.2098 -2.0251 0.9571
-4.9422 -8.5099 -1.8497 0.9607
-3.1170 -8.5952 -1.7185 0.9635
-2.2353 -8.4448 -1.6419 0.9651
-1.4519 -8.4770 -1.6165 0.9656
-0.6897 -8.5497 -1.6122 0.9657
0.8416 -8.5816 -1.6207 0.9655
2.4122 -8.5161 -1.6637 0.9646
3.2922 -8.6116 -1.7329 0.9632
5.2283 -8.6548 -1.9005 0.9597
6.4288 -8.7702 -2.0439 0.9567
9.1381 -7.2524 -2.1928 0.9536
10.1770 -5.4622 -2.1710 0.9541
10.5589 -4.5073 -2.1579 0.9543
10.8458 -3.5260 -2.1436 0.9546
11.0368 -2.5283 -2.1282 0.9550
11.1333 -0.5229 -2.0949 0.9557
11.0423 0.4662 -2.0774 0.9560
10.8622 1.4348 -2.0594 0.9564
-8.5875 -3.8307 -1.9876 0.9623
-6.9274 -6.7999 -2.0519 0.9611
-6.3432 -7.4466 -2.0677 0.9608
-5.6853 -8.0241 -2.0787 0.9606
-4.8037 -8.2498 -2.0179 0.9617
-3.9162 -8.3584 -1.9511 0.9630
-2.2721 -8.5445 -1.8689 0.9645
-1.4824 -8.5967 -1.8440 0.9650
-0.7052 -8.6198 -1.8281 0.9653
0.8458 -8.7255 -1.8530 0.9648
2.4367 -8.6398 -1.8975 0.9640
5.0691 -8.4128 -2.0762 0.9606
6.8111 -7.7572 -2.1821 0.9587
9.5617 -3.1205 -2.1261 0.9597
9.7749 0.4016 -2.0679 0.9608
9.4014 2.0957 -2.0361 0.9614
4.1648 2.7040 -1.0496 0.9799
3.7706 2.9566 -1.0128 0.9806
3.6372 3.4164 -1.0548 0.9798
3.7219 4.1795 -1.1830 0.9774
4.9861 6.7190 -1.7686 0.9664
4.3394 7.0891 -1.7569 0.9666
3.6683 7.4011 -1.7461 0.9668
2.9778 7.6541 -1.7361 0.9670
1.4721 7.5422 -1.6244 0.9691
-2.0040 7.7547 -1.6930 0.9678
-1.9283 5.4162 -1.2153 0.9768
-2.9796 5.2006 -1.2669 0.9758
-4.5815 6.5632 -1.6919 0.9678
-4.4971 5.3549 -1.4781 0.9718
-4.9856 4.9629 -1.4870 0.9716
-6.1915 5.1517 -1.7026 0.9676
-5.7139 3.2392 -1.3884 0.9735
-5.8745 2.0613 -1.3160 0.9749
-8.6430 2.1916 -1.8848 0.9642
-9.1008 -0.9885 -1.9351 0.9633
-9.0436 -1.8081 -1.9495 0.9630
-8.9147 -2.6259 -1.9644 0.9627
-8.7135 -3.4358 -1.9799 0.9624
-8.4399 -4.2312 -1.9957 0.9621
-8.0942 -5.0056 -2.0117 0.9618
-7.6777 -5.7520 -2.0278 0.9615
-6.6395 -7.1334 -2.0599 0.9609
-6.0236 -7.7547 -2.0756 0.9606
-5.2907 -8.2309 -2.0683 0.9608
-4.3268 -8.2675 -1.9724 0.9626
-1.8731 -8.5874 -1.8579 0.9647
-1.0643 -8.4271 -1.7955 0.9659
-0.3105 -8.5020 -1.7984 0.9658
0.4531 -8.6011 -1.8206 0.9654
1.2389 -8.6806 -1.8535 0.9648
2.0550 -8.7414 -1.8981 0.9640
2.8704 -8.6611 -1.9287 0.9634
3.7624 -8.6766 -1.9991 0.9621
6.4654 -8.0518 -2.1828 0.9587
7.7548 -6.7466 -2.1727 0.9588
8.2935 -6.0070 -2.1646 0.9590
9.1407 -4.3996 -2.1443 0.9594
9.4431 -3.5486 -2.1324 0.9596
9.6622 -2.6775 -2.1194 0.9598
9.7092 0.8390 -2.0600 0.9609
9.5215 1.6867 -2.0440 0.9612
9.2600 2.5076 -2.0279 0.9615
5.5093 2.6120 -1.2888 0.9754
4.5159 2.6572 -1.1075 0.9788
3.6787 3.1627 -1.0255 0.9804
3.6503 3.7528 -1.1066 0.9788
5.2948 6.5153 -1.7746 0.9663
4.0024 7.2545 -1.7513 0.9667
3.3208 7.5367 -1.7409 0.9669
2.6222 7.7594 -1.7313 0.9671
1.9115 7.9222 -1.7227 0.9672
1.1174 7.5138 -1.6057 0.9694
-0.2467 8.0508 -1.7026 0.9676
-2.3503 7.6513 -1.6919 0.9678
-2.1490 5.2707 -1.2032 0.9770
-4.2863 6.7551 -1.6911 0.9678
-4.8761 6.3540 -1.6930 0.9678
-5.9505 5.4113 -1.7001 0.9677
-6.4280 4.8750 -1.7053 0.9676
-5.7138 2.9067 -1.3551 0.9741
-5.6961 2.2847 -1.2973 0.9752
-8.7591 1.8047 -1.8904 0.9641
-8.9873 -2.2228 -1.9570 0.9629
-8.8219 -3.0374 -1.9722 0.9626
-7.8921 -5.3875 -2.0199 0.9617
-7.4402 -6.1171 -2.0360 0.9614
-6.9203 -6.8084 -2.0521 0.9611
-6.3353 -7.4545 -2.0679 0.9608
-4.7914 -8.2502 -2.0167 0.9617
-3.9070 -8.3636 -1.9513 0.9630
-3.1057 -8.5641 -1.9256 0.9634
-2.2645 -8.5552 -1.8707 0.9645
0.8551 -8.7192 -1.8519 0.9648
1.6083 -8.5049 -1.8296 0.9652
3.2797 -8.5788 -1.9414 0.9631
4.1987 -8.5975 -2.0225 0.9616
5.0820 -8.4128 -2.0776 0.9606
6.0962 -8.3164 -2.1796 0.9587
7.4624 -7.0924 -2.1762 0.9588
8.0368 -6.3783 -2.1688 0.9589
8.9612 -4.8096 -2.1498 0.9593
9.5645 -3.1095 -2.1259 0.9597
9.7412 -2.2315 -2.1124 0.9600
9.8343 -1.3464 -2.0982 0.9602
9.8445 -0.4624 -2.0832 0.9605
9.6236 1.2712 -2.0519 0.9611
-7.4417 -4.1501 -2.0026 0.9656
-7.0936 -4.8307 -2.0170 0.9654
-6.6831 -5.4820 -2.0315 0.9651
-6.2122 -6.0979 -2.0459 0.9649
-5.1013 -7.1999 -2.0738 0.9644
-4.4686 -7.6744 -2.0871 0.9642
-2.2060 -8.2959 -2.0175 0.9653
-1.4341 -8.3165 -1.9834 0.9659
-0.6864 -8.3900 -1.9784 0.9660
0.8176 -8.4348 -1.9917 0.9658
1.5727 -8.3687 -2.0013 0.9656
3.1903 -8.3735 -2.1060 0.9639
4.7597 -7.8993 -2.1675 0.9628
5.4383 -7.4366 -2.1653 0.9629
6.0682 -6.9111 -2.1615 0.9629
7.1588 -5.6948 -2.1499 0.9631
7.9923 -4.3013 -2.1331 0.9634
8.3040 -3.5559 -2.1230 0.9636
8.5427 -2.7880 -2.1120 0.9637
8.7075 -2.0051 -2.1000 0.9640
8.7979 -1.2147 -2.0873 0.9642
8.8146 -0.4240 -2.0740 0.9644
8.7587 0.3598 -2.0602 0.9646
8.6322 1.1303 -2.0461 0.9649
8.1780 2.6058 -2.0172 0.9653
4.1443 2.6907 -1.1613 0.9799
3.7488 2.9395 -1.1196 0.9806
3.6201 3.4004 -1.1673 0.9798
4.5024 6.0672 -1.7757 0.9694
3.9210 6.4055 -1.7651 0.9696
3.3166 6.6915 -1.7552 0.9698
0.1060 7.3096 -1.7181 0.9704
-1.4756 5.7097 -1.3860 0.9761
-1.9317 5.4259 -1.3536 0.9766
-4.1545 5.9516 -1.7058 0.9706
-5.6474 4.6989 -1.7266 0.9703
-5.6590 2.5720 -1.4609 0.9748
-5.8722 2.0604 -1.4626 0.9748
-8.0051 1.2853 -1.9055 0.9672
-8.1347 0.5709 -1.9165 0.9670
-7.8424 -3.0923 -1.9813 0.9660
-6.8934 -5.1645 -2.0244 0.9652
-6.4520 -5.7987 -2.0388 0.9650
-5.3954 -6.9458 -2.0671 0.9645
-4.7869 -7.4471 -2.0806 0.9643
-4.1275 -7.8867 -2.0921 0.9641
-3.4190 -8.2467 -2.0981 0.9640
-1.8119 -8.3068 -1.9982 0.9657
-1.0527 -8.3349 -1.9745 0.9661
-0.3078 -8.4286 -1.9822 0.9659
1.1989 -8.4002 -1.9942 0.9657
3.6309 -8.3734 -2.1450 0.9632
5.1090 -7.6732 -2.1665 0.9628
7.8121 -4.6587 -2.1377 0.9633
8.1591 -3.9271 -2.1281 0.9635
8.4341 -3.1694 -2.1175 0.9637
8.7625 -1.6054 -2.0937 0.9641
8.8155 -0.8139 -2.0807 0.9643
8.7952 -0.0258 -2.0671 0.9645
8.5420 1.5132 -2.0388 0.9650
7.0963 2.6193 -1.7778 0.9694
4.4608 2.6248 -1.2164 0.9790
4.7796 5.8813 -1.7811 0.9693
3.0032 6.8159 -1.7505 0.9699
0.4281 7.3092 -1.7208 0.9704
-0.8700 7.2295 -1.7114 0.9705
-2.5033 4.8522 -1.2832 0.9778
-5.3935 4.9049 -1.7134 0.9705
-6.1846 4.6904 -1.8243 0.9686
-6.6572 2.0035 -1.6339 0.9718
-7.9192 1.6317 -1.9003 0.9673
-8.0782 0.9255 -1.9110 0.9671
-8.1772 0.2039 -1.9224 0.9669
-7.4377 -4.1589 -2.0027 0.9656
-7.0888 -4.8391 -2.0172 0.9653
-6.6775 -5.4900 -2.0317 0.9651
-6.2059 -6.1055 -2.0461 0.9649
-4.4603 -7.6800 -2.0873 0.9642
-2.9996 -8.2716 -2.0679 0.9645
-2.1960 -8.2962 -2.0169 0.9654
-0.6769 -8.3912 -1.9785 0.9660
0.8272 -8.4342 -1.9917 0.9658
1.5825 -8.3685 -2.0017 0.9656
4.0368 -8.2660 -2.1620 0.9629
5.4466 -7.4303 -2.1652 0.9629
6.0759 -6.9041 -2.1615 0.9629
7.1650 -5.6864 -2.1498 0.9631
7.9967 -4.2920 -2.1330 0.9634
8.3075 -3.5463 -2.1229 0.9636
8.7986 -1.2046 -2.0872 0.9642
8.7575 0.3698 -2.0601 0.9646
-7.0147 -3.1291 -1.9887 0.9688
-6.7522 -3.7656 -2.0017 0.9686
-6.4320 -4.3801 -2.0148 0.9684
-5.6253 -5.5218 -2.0409 0.9680
-2.7741 -7.6228 -2.1003 0.9670
-2.0937 -7.8737 -2.1095 0.9669
-0.6682 -8.1672 -2.1217 0.9667
2.9567 -7.7603 -2.1502 0.9663
3.6369 -7.4687 -2.1509 0.9663
4.8975 -6.6971 -2.1482 0.9663
5.4658 -6.2250 -2.1449 0.9664
5.9853 -5.7015 -2.1403 0.9664
6.4515 -5.1321 -2.1345 0.9665
7.9715 -0.3835 -2.0663 0.9676
7.9260 0.3257 -2.0539 0.9678
7.6455 1.7043 -2.0281 0.9682
6.2307 2.6166 -1.7497 0.9725
4.9479 2.6183 -1.4494 0.9771
4.1347 2.6845 -1.2764 0.9798
3.6987 2.9002 -1.2170 0.9808
3.5976 4.0399 -1.4006 0.9779
3.0236 6.1003 -1.7628 0.9723
2.4569 6.3152 -1.7545 0.9724
1.8768 6.4805 -1.7469 0.9725
1.2874 6.5959 -1.7400 0.9726
0.0968 6.6762 -1.7288 0.9728
-1.0837 6.5580 -1.7210 0.9729
-1.7438 4.8981 -1.3462 0.9787
-2.2448 4.8798 -1.3908 0.9781
-4.2712 5.0859 -1.7196 0.9729
-4.7151 4.6936 -1.7226 0.9729
-5.5316 4.6027 -1.8632 0.9707
-6.3180 3.5817 -1.8804 0.9704
-6.6363 3.0162 -1.8874 0.9703
-7.4105 0.5201 -1.9234 0.9698
-7.4690 -0.1424 -1.9342 0.9696
-7.4703 -0.8114 -1.9456 0.9694
-7.4134 -1.4822 -1.9574 0.9692
-7.2976 -2.1496 -1.9697 0.9691
-7.1228 -2.8086 -1.9824 0.9689
-6.2484 -4.6812 -2.0215 0.9683
-5.8444 -5.2526 -2.0346 0.9681
-5.3876 -5.7884 -2.0475 0.9679
-4.8809 -6.2835 -2.0601 0.9677
-2.4333 -7.7592 -2.1055 0.9670
-1.7388 -7.9716 -2.1125 0.9668
-1.0253 -8.1181 -2.1186 0.9668
-0.2995 -8.2012 -2.1249 0.9667
1.1663 -8.1723 -2.1374 0.9665
1.8947 -8.0595 -2.1436 0.9664
3.9698 -7.2964 -2.1507 0.9663
5.1910 -6.4648 -2.1467 0.9663
6.2283 -5.4186 -2.1375 0.9665
6.6659 -4.8281 -2.1311 0.9666
7.0442 -4.2007 -2.1236 0.9667
7.6121 -2.8605 -2.1055 0.9670
7.7980 -2.1609 -2.0951 0.9671
7.9172 -1.4505 -2.0840 0.9673
7.7375 1.3707 -2.0346 0.9681
7.5361 2.0408 -2.0215 0.9683
3.8698 2.7684 -1.2319 0.9805
3.8362 5.6890 -1.7766 0.9720
3.2971 5.9762 -1.7672 0.9722
2.7385 6.2153 -1.7585 0.9723
2.1646 6.4051 -1.7505 0.9725
0.9867 6.6352 -1.7369 0.9727
-0.7949 6.6054 -1.7226 0.9729
-1.5073 4.9068 -1.3291 0.9790
-4.0407 5.2653 -1.7185 0.9729
-4.5000 4.8920 -1.7210 0.9729
-6.1442 3.8497 -1.8773 0.9705
-6.4850 3.2989 -1.8838 0.9704
-7.2196 1.4875 -1.9086 0.9700
-7.3609 0.8433 -1.9183 0.9699
-7.4472 0.1857 -1.9288 0.9697
-7.4768 -0.4807 -1.9399 0.9695
-7.4488 -1.1511 -1.9515 0.9693
-7.3621 -1.8208 -1.9636 0.9691
-6.4276 -4.3878 -2.0150 0.9684
-6.0506 -4.9746 -2.0281 0.9682
-5.1370 -6.0445 -2.0539 0.9678
-4.0312 -6.9412 -2.0783 0.9674
-2.7657 -7.6264 -2.1004 0.9670
-2.0848 -7.8763 -2.1095 0.9669
-1.3794 -8.0536 -2.1156 0.9668
-0.6590 -8.1682 -2.1218 0.9667
2.2597 -7.9774 -2.1468 0.9663
3.6453 -7.4645 -2.1509 0.9663
5.4727 -6.2186 -2.1448 0.9664
5.9916 -5.6945 -2.1402 0.9664
6.8651 -4.5147 -2.1274 0.9666
7.8667 -1.8021 -2.0896 0.9672
7.9713 -0.3744 -2.0662 0.9676
7.8148 1.0323 -2.0410 0.9680
-6.4170 -2.8625 -1.9892 0.9712
-6.1734 -3.4428 -2.0011 0.9710
-5.5305 -4.5365 -2.0250 0.9707
-5.1346 -5.0401 -2.0368 0.9705
-4.6922 -5.5084 -2.0485 0.9704
-4.2064 -5.9368 -2.0598 0.9702
-3.6806 -6.3209 -2.0707 0.9701
-2.5257 -6.9401 -2.0908 0.9698
-1.2654 -7.3379 -2.1080 0.9695
-0.6093 -7.4471 -2.1153 0.9694
1.3903 -7.3982 -2.1310 0.9692
2.0462 -7.2552 -2.1340 0.9691
3.8938 -6.4623 -2.1359 0.9691
4.4498 -6.0849 -2.1341 0.9691
4.9668 -5.6568 -2.1311 0.9692
6.5573 -3.5290 -2.1081 0.9695
7.0215 -2.2915 -2.0909 0.9698
7.2462 -1.0004 -2.0708 0.9700
7.2305 0.2971 -2.0486 0.9704
7.1346 0.9342 -2.0370 0.9705
6.5177 2.7372 -2.0012 0.9710
4.9691 2.6296 -1.5916 0.9769
4.1181 2.6737 -1.3900 0.9798
3.5394 3.3246 -1.3747 0.9800
3.7607 5.0677 -1.7865 0.9741
3.2783 5.3556 -1.7776 0.9742
2.2562 5.7993 -1.7616 0.9745
1.1831 6.0611 -1.7483 0.9747
0.6368 6.1228 -1.7427 0.9747
-0.9967 6.0317 -1.7307 0.9749
-1.4250 5.5142 -1.6123 0.9766
-2.2459 4.8820 -1.5213 0.9779
-2.7860 4.8626 -1.5865 0.9770
-3.4928 5.0036 -1.7275 0.9750
-3.9297 4.6792 -1.7298 0.9749
-4.6771 4.6558 -1.8682 0.9729
-6.3439 2.2260 -1.9033 0.9724
-6.6961 1.0751 -1.9199 0.9722
-6.7981 0.4771 -1.9292 0.9721
-6.8486 -0.1306 -1.9391 0.9719
-6.6813 -1.9680 -1.9718 0.9715
-6.5177 -2.5700 -1.9834 0.9713
-6.3003 -3.1586 -1.9952 0.9711
-5.7080 -4.2764 -2.0191 0.9708
-3.4003 -6.4972 -2.0760 0.9700
-2.8221 -6.8069 -2.0860 0.9698
-1.5839 -7.2616 -2.1040 0.9696
-0.9347 -7.4009 -2.1118 0.9695
1.7240 -7.3336 -2.1327 0.9692
2.3727 -7.1592 -2.1351 0.9691
3.0022 -6.9235 -2.1363 0.9691
3.6066 -6.6287 -2.1363 0.9691
4.7168 -5.8742 -2.1327 0.9692
5.6616 -4.9255 -2.1244 0.9693
6.0610 -4.3900 -2.1186 0.9694
6.6970 -3.2234 -2.1041 0.9696
7.2648 -0.6707 -2.0654 0.9701
7.2564 -0.0213 -2.0543 0.9703
7.0644 1.2515 -2.0310 0.9706
6.8844 1.8643 -2.0191 0.9708
6.6514 2.4551 -2.0071 0.9710
4.5132 2.6556 -1.4824 0.9785
3.5781 3.0762 -1.3358 0.9806
3.5584 3.6583 -1.4448 0.9790
3.9902 4.9100 -1.7911 0.9740
2.5144 5.7065 -1.7653 0.9744
-1.9943 4.8912 -1.4953 0.9783
-2.5137 4.8724 -1.5521 0.9775
-3.2681 5.1505 -1.7268 0.9750
-3.7168 4.8433 -1.7283 0.9749
-5.2956 4.0162 -1.8815 0.9727
-6.2279 2.4980 -1.8996 0.9725
-6.4512 1.9415 -1.9072 0.9724
-6.6273 1.3655 -1.9155 0.9723
-6.8542 -0.4406 -1.9444 0.9719
-6.4143 -2.8700 -1.9893 0.9712
-6.1700 -3.4501 -2.0012 0.9710
-5.5258 -4.5431 -2.0251 0.9707
-4.6863 -5.5141 -2.0486 0.9704
-4.1999 -5.9420 -2.0599 0.9702
-3.6736 -6.3255 -2.0708 0.9700
-2.5180 -6.9434 -2.0909 0.9698
-1.8981 -7.1707 -2.0999 0.9696
-1.2571 -7.3397 -2.1081 0.9695
-0.6009 -7.4481 -2.1154 0.9694
0.0647 -7.4943 -2.1217 0.9693
0.7333 -7.4773 -2.1269 0.9692
1.3987 -7.3967 -2.1311 0.9692
3.9011 -6.4579 -2.1359 0.9691
5.4458 -5.1758 -2.1269 0.9692
6.8218 -2.9121 -2.0998 0.9696
7.1330 0.9422 -2.0369 0.9705
-5.9073 -2.6351 -1.9895 0.9733
-5.6803 -3.1678 -2.0005 0.9731
-5.0839 -4.1702 -2.0225 0.9729
-4.7177 -4.6309 -2.0333 0.9727
-3.8613 -5.4498 -2.0544 0.9724
-3.3772 -5.7999 -2.0643 0.9723
-2.8606 -6.1054 -2.0738 0.9722
-1.7470 -6.5697 -2.0909 0.9720
-0.5581 -6.8212 -2.1051 0.9718
0.0515 -6.8625 -2.1108 0.9717
1.2727 -6.7721 -2.1194 0.9716
1.8728 -6.6405 -2.1221 0.9715
2.4584 -6.4525 -2.1238 0.9715
3.0238 -6.2096 -2.1244 0.9715
3.5636 -5.9143 -2.1238 0.9715
4.5465 -5.1780 -2.1195 0.9716
5.3709 -4.2725 -2.1109 0.9717
5.7143 -3.7671 -2.1052 0.9718
6.0079 -3.2333 -2.0985 0.9719
6.2495 -2.6761 -2.0910 0.9720
6.4375 -2.1009 -2.0828 0.9721
6.5708 -1.5131 -2.0739 0.9722
6.6489 -0.9180 -2.0645 0.9723
6.6719 -0.3210 -2.0545 0.9724
6.6403 0.2728 -2.0441 0.9726
6.5553 0.8583 -2.0335 0.9727
6.4184 1.4308 -2.0226 0.9729
6.2316 1.9856 -2.0116 0.9730
5.9971 2.5185 -2.0006 0.9731
3.6678 2.8760 -1.4336 0.9807
3.5398 3.3250 -1.4938 0.9799
4.0380 4.5345 -1.8676 0.9749
3.0257 4.9429 -1.7825 0.9760
1.5928 5.5000 -1.7612 0.9763
0.5886 5.6596 -1.7501 0.9765
0.0823 5.6750 -1.7457 0.9765
-0.4223 5.6477 -1.7420 0.9766
-0.9218 5.5782 -1.7390 0.9766
-1.3965 5.4040 -1.7167 0.9769
-2.2137 4.8122 -1.6292 0.9781
-3.9051 4.6499 -1.8677 0.9749
-4.7181 3.9257 -1.8878 0.9746
-5.0607 3.4984 -1.8923 0.9746
-5.3667 3.0424 -1.8975 0.9745
-5.8601 2.0562 -1.9102 0.9743
-6.1813 0.9924 -1.9256 0.9741
-6.3172 -0.1204 -1.9434 0.9739
-6.3126 -0.6857 -1.9530 0.9738
-6.0013 -2.3663 -1.9842 0.9734
-5.5470 -3.4304 -2.0060 0.9731
-4.9039 -4.4073 -2.0280 0.9728
-4.0872 -5.2617 -2.0493 0.9725
-3.6205 -5.6324 -2.0595 0.9724
-1.4515 -6.6542 -2.0948 0.9719
-0.8563 -6.7798 -2.1019 0.9718
0.9728 -6.8159 -2.1177 0.9716
1.5780 -6.7126 -2.1209 0.9716
2.7476 -6.3362 -2.1242 0.9715
3.3007 -6.0665 -2.1242 0.9715
3.8256 -5.7456 -2.1231 0.9715
4.3174 -5.3768 -2.1209 0.9716
4.7715 -4.9635 -2.1177 0.9716
5.5508 -4.0205 -2.1081 0.9717
5.8693 -3.5001 -2.1019 0.9718
6.1369 -2.9538 -2.0948 0.9719
6.3515 -2.3868 -2.0870 0.9720
6.5119 -1.8045 -2.0784 0.9721
6.6674 -0.6156 -2.0595 0.9724
6.6627 -0.0196 -2.0493 0.9725
6.6039 0.5706 -2.0388 0.9726
6.4924 1.1501 -2.0280 0.9728
6.3299 1.7142 -2.0171 0.9729
6.1186 2.2584 -2.0061 0.9731
5.8610 2.7788 -1.9951 0.9732
4.4744 2.6328 -1.5968 0.9785
3.8552 2.7580 -1.4580 0.9804
3.6978 4.5502 -1.8034 0.9758
3.2474 4.8158 -1.7865 0.9760
2.7933 5.0631 -1.7786 0.9761
2.3218 5.2695 -1.7712 0.9762
1.8365 5.4343 -1.7643 0.9763
1.3407 5.5566 -1.7581 0.9764
-0.6760 5.6178 -1.7404 0.9766
-2.4773 4.8020 -1.6619 0.9776
-4.1338 4.4939 -1.8781 0.9748
-4.5364 4.1254 -1.8860 0.9747
-4.8960 3.7131 -1.8900 0.9746
-5.2204 3.2709 -1.8948 0.9745
-5.7537 2.3078 -1.9068 0.9744
-5.9582 1.7931 -1.9138 0.9743
-6.1188 1.2607 -1.9215 0.9742
-6.3210 -0.4063 -1.9482 0.9738
-5.9047 -2.6420 -1.9897 0.9733
-5.0795 -4.1762 -2.0226 0.9729
-3.8554 -5.4546 -2.0545 0.9724
-2.3086 -6.3660 -2.0828 0.9721
-1.7396 -6.5720 -2.0910 0.9720
1.2804 -6.7708 -2.1194 0.9716
2.4657 -6.4497 -2.1238 0.9715
3.5703 -5.9102 -2.1238 0.9715
6.0113 -3.2264 -2.0984 0.9719
6.5722 -1.5056 -2.0738 0.9722
-5.2547 -2.9305 -2.0000 0.9750
-4.3589 -4.2787 -2.0303 0.9746
-3.1167 -5.3526 -2.0589 0.9742
0.0474 -6.3222 -2.1016 0.9737
2.2638 -5.9416 -2.1135 0.9736
2.7843 -5.7179 -2.1140 0.9735
3.2815 -5.4460 -2.1135 0.9736
4.1872 -4.7688 -2.1095 0.9736
5.7617 -2.4673 -2.0834 0.9739
6.0618 -1.3959 -2.0677 0.9741
6.1361 -0.8472 -2.0590 0.9742
6.1595 -0.2963 -2.0498 0.9743
6.0567 0.7931 -2.0305 0.9746
5.5477 2.3298 -2.0001 0.9750
3.5603 3.3443 -1.6237 0.9796
2.8064 4.5847 -1.7868 0.9776
2.3776 4.7970 -1.7796 0.9777
1.9339 4.9710 -1.7730 0.9778
0.5467 5.2563 -1.7567 0.9780
-0.3923 5.2471 -1.7490 0.9781
-0.8565 5.1831 -1.7463 0.9781
-1.7201 4.8315 -1.7048 0.9786
-2.1906 4.7620 -1.7424 0.9781
-2.6622 4.6466 -1.7801 0.9777
-3.2377 4.6381 -1.8802 0.9764
-3.6507 4.3471 -1.8870 0.9764
