ply
format ascii 1.0
element vertex 1588
property float32 x
property float32 y
property float32 z
property float32 I
end_header
-8.4108 -17.0245 2.4727 0.9263
-3.2375 -16.7145 2.2170 0.9336
-0.8930 -8.7121 1.1404 0.9653
2.8244 -16.9210 2.2340 0.9331
5.7974 -16.1952 2.2400 0.9330
7.4125 -16.0382 2.3008 0.9312
9.4455 -16.4164 2.4663 0.9264
10.9839 -15.6722 2.4922 0.9257
13.7144 -7.7363 2.0505 0.9385
17.5366 6.9678 2.4573 0.9267
13.1017 9.8723 2.1362 0.9360
10.7451 9.7117 1.8861 0.9433
7.3234 9.4847 1.5604 0.9528
3.0419 5.8551 0.8592 0.9737
3.8830 9.4471 1.3301 0.9596
2.0063 9.3392 1.2439 0.9622
0.2974 8.9406 1.1649 0.9646
-1.9207 8.0472 1.0774 0.9672
-2.6810 7.9972 1.0984 0.9665
-3.4782 7.9450 1.1294 0.9656
-5.8211 8.6750 1.3604 0.9587
-6.9576 8.6005 1.4406 0.9564
-8.1851 8.4518 1.5321 0.9536
-13.6739 8.0832 2.0685 0.9379
-9.3206 -17.0841 2.5343 0.9245
-7.3749 -16.9564 2.4079 0.9281
-2.4197 -16.8398 2.2154 0.9337
-0.8856 -16.5275 2.1553 0.9354
0.5853 -16.4121 2.1386 0.9359
6.6077 -15.9674 2.2503 0.9327
4.8840 -9.3460 1.3732 0.9584
14.3991 9.9608 2.2800 0.9318
7.9961 9.5304 1.6200 0.9511
6.6166 9.4892 1.5064 0.9544
3.3037 5.7738 0.8663 0.9735
4.3534 9.4788 1.3583 0.9588
3.3616 9.4622 1.3076 0.9603
2.4134 9.3666 1.2596 0.9617
1.5307 9.3073 1.2283 0.9627
-0.8518 8.1179 1.0629 0.9676
-1.5831 8.0695 1.0709 0.9674
-2.3315 8.0202 1.0876 0.9669
-3.9341 7.9152 1.1510 0.9650
-6.4244 8.6354 1.4016 0.9575
-7.5807 8.4913 1.4823 0.9551
-8.9669 8.4007 1.6001 0.9516
-12.6006 8.1559 1.9546 0.9413
-1.5641 -16.5729 2.1677 0.9351
1.3832 -16.3769 2.1402 0.9359
2.9629 -16.9118 2.2358 0.9331
-6.4429 8.8074 1.1718 0.9570
-8.8959 8.4696 1.3190 0.9518
-7.0083 5.5715 0.9614 0.9646
-15.8805 -10.3330 2.0345 0.9266
-8.4140 -17.0310 2.0398 0.9264
-6.5520 -16.9083 1.9472 0.9296
-0.8930 -8.7121 0.9404 0.9654
2.8184 -16.8847 1.8382 0.9335
5.7994 -16.2010 1.8478 0.9331
10.9881 -15.6783 2.0559 0.9259
13.0937 9.8662 1.7605 0.9362
10.8460 9.8029 1.5699 0.9429
7.5199 9.7393 1.3213 0.9517
6.1610 9.6474 1.2292 0.9550
2.9250 9.4295 1.0602 0.9611
2.0056 9.3360 1.0254 0.9623
1.1394 9.2596 1.0018 0.9632
0.2973 8.9376 0.9603 0.9647
-0.4539 8.1064 0.8718 0.9679
-1.1778 8.0597 0.8747 0.9678
-1.9127 8.0139 0.8847 0.9674
-2.6714 7.9686 0.9025 0.9668
-3.4685 7.9228 0.9287 0.9658
-4.3213 7.8758 0.9647 0.9645
-5.9325 8.8410 1.1433 0.9581
-7.0906 8.7648 1.2106 0.9557
-8.3591 8.6314 1.2903 0.9528
-9.5951 8.2848 1.3613 0.9503
-10.6100 7.6237 1.4029 0.9488
-12.8934 7.6219 1.6083 0.9415
-9.3950 -17.2205 2.1065 0.9241
-5.6026 -16.8456 1.9063 0.9311
-2.4205 -16.8455 1.8275 0.9338
2.0501 -16.3381 1.7682 0.9359
5.0944 -16.2848 1.8323 0.9337
4.8742 -9.3273 1.1301 0.9585
6.7316 9.6541 1.2638 0.9538
3.3035 5.7734 0.7143 0.9736
4.3755 9.5270 1.1258 0.9587
3.3604 9.4587 1.0779 0.9604
2.4126 9.3633 1.0383 0.9618
0.6862 9.2795 0.9992 0.9633
-0.1249 8.1283 0.8729 0.9678
-1.5763 8.0347 0.8792 0.9676
-3.1002 7.9437 0.9157 0.9663
-5.4455 8.8730 1.1179 0.9590
-6.5473 8.8005 1.1779 0.9568
-7.7843 8.7193 1.2551 0.9541
-9.0310 8.4608 1.3289 0.9514
-7.0882 5.5425 0.9662 0.9644
-15.8373 -10.4872 2.0397 0.9264
-8.2290 -16.9996 2.0281 0.9268
-6.3920 -16.8976 1.9400 0.9299
-3.1312 -16.8926 1.8448 0.9332
-0.0821 -16.6733 1.7904 0.9351
1.3836 -16.3823 1.7654 0.9360
2.9566 -16.8755 1.8397 0.9334
4.3350 -16.1254 1.7930 0.9350
-6.4404 8.8039 0.9234 0.9572
-7.6628 8.7234 0.9829 0.9545
-9.0655 8.6311 1.0596 0.9510
-13.7085 7.3704 1.3176 0.9394
-6.5544 -16.9145 1.5356 0.9298
-4.9022 -17.0155 1.4990 0.9314
1.2520 -16.3965 1.3920 0.9361
2.8193 -16.8904 1.4496 0.9336
5.8015 -16.2067 1.4572 0.9332
7.4560 -16.1323 1.5044 0.9311
9.4289 -16.3876 1.6005 0.9269
10.9924 -15.6844 1.6213 0.9260
7.6781 -7.6130 0.9153 0.9575
9.1777 -7.6050 1.0090 0.9533
13.7194 -7.7390 1.3334 0.9387
13.2773 10.0046 1.4073 0.9354
10.8907 9.8433 1.2427 0.9428
9.1084 9.8423 1.1352 0.9476
3.8801 9.4401 0.8640 0.9599
2.9081 9.3749 0.8309 0.9614
1.1390 9.2565 0.7895 0.9633
-0.4529 8.0894 0.6859 0.9680
-2.6627 7.9426 0.7091 0.9669
-5.9302 8.8376 0.9009 0.9582
-8.3555 8.6277 1.0167 0.9529
-9.5906 8.2809 1.0726 0.9504
-10.4133 7.4824 1.0855 0.9498
-12.4825 7.3789 1.2275 0.9435
-6.3314 -9.4846 0.9654 0.9553
-9.4174 -17.2617 1.6646 0.9241
-5.6046 -16.8518 1.5034 0.9312
-3.9536 -16.7425 1.4563 0.9333
-2.4214 -16.8512 1.4412 0.9339
-0.8862 -16.5386 1.4020 0.9357
0.5859 -16.4290 1.3916 0.9361
3.5306 -16.2449 1.4073 0.9354
4.8597 -15.5346 1.3779 0.9367
4.8629 -9.3056 0.8888 0.9587
7.1385 -7.6767 0.8874 0.9588
8.4750 -7.6231 0.9650 0.9553
9.6360 -7.2247 1.0195 0.9528
14.5909 10.0934 1.5019 0.9313
8.1784 9.7477 1.0771 0.9502
3.3064 5.7785 0.5636 0.9736
4.3738 9.5234 0.8871 0.9588
3.3409 9.4039 0.8448 0.9607
2.4069 9.3413 0.8166 0.9620
-0.1246 8.1112 0.6867 0.9680
-1.5724 8.0149 0.6914 0.9677
-3.9067 7.8602 0.7430 0.9654
-6.5447 8.7971 0.9282 0.9569
-9.2032 8.6221 1.0676 0.9506
-7.0655 5.5247 0.7593 0.9646
-13.9738 7.3688 1.3373 0.9386
-15.8160 -10.4731 1.6058 0.9267
-6.3944 -16.9039 1.5299 0.9300
-4.7515 -17.0056 1.4947 0.9316
-3.1323 -16.8983 1.4549 0.9333
1.3841 -16.3877 1.3922 0.9361
-6.4379 8.8005 0.6762 0.9572
-9.0122 8.5804 0.7716 0.9514
-11.2195 7.3907 0.8331 0.9476
-13.5203 7.2692 0.9519 0.9403
-16.6793 5.4341 1.0878 0.9321
-15.9005 -10.3460 1.1763 0.9268
-8.4204 -17.0441 1.1789 0.9266
-4.8269 -16.7540 1.0812 0.9325
7.3643 -15.9340 1.0885 0.9321
13.7215 -7.7403 0.9770 0.9388
13.2692 9.9985 1.0303 0.9356
10.8849 9.8380 0.9098 0.9429
3.0315 5.8350 0.4077 0.9740
2.1655 10.0803 0.6393 0.9595
1.1386 9.2534 0.5781 0.9633
0.2971 8.9316 0.5542 0.9648
-2.3712 9.9351 0.6334 0.9599
-7.0848 8.7577 0.6985 0.9559
-8.3519 8.6239 0.7444 0.9530
-9.5861 8.2770 0.7854 0.9505
-10.3503 7.4371 0.7903 0.9502
-6.3485 -9.5101 0.7091 0.9552
-7.4774 -17.1920 1.1625 0.9276
-2.3917 -16.6446 1.0427 0.9348
-0.8865 -16.5441 1.0274 0.9358
2.0514 -16.3489 1.0217 0.9361
3.5318 -16.2503 1.0312 0.9355
4.8657 -15.5536 1.0106 0.9368
6.6146 -15.9842 1.0727 0.9330
10.3039 -16.0497 1.1827 0.9264
2.6049 10.1097 0.6474 0.9590
1.6521 10.0460 0.6313 0.9600
0.6858 9.2733 0.5766 0.9634
-0.1378 8.9676 0.5562 0.9647
-2.8784 9.9014 0.6394 0.9595
-3.4147 8.7498 0.5824 0.9631
-6.5421 8.7936 0.6796 0.9570
-9.1490 8.5713 0.7774 0.9510
-11.4033 7.3810 0.8423 0.9470
-16.7182 5.2983 1.0875 0.9321
-8.2257 -16.9929 1.1707 0.9271
-4.6785 -16.7442 1.0781 0.9327
1.3846 -16.3931 1.0202 0.9362
2.9586 -16.8868 1.0631 0.9336
-6.4354 8.7970 0.4298 0.9573
-7.6564 8.7161 0.4575 0.9546
-9.0574 8.6234 0.4931 0.9512
-6.9686 5.5399 0.3510 0.9650
-13.6990 9.0241 0.6468 0.9364
-16.6702 5.4311 0.6913 0.9322
-6.0054 -9.8382 0.4545 0.9549
-6.5592 -16.9269 0.7158 0.9299
-4.8439 -16.8130 0.6899 0.9324
-3.2190 -16.6186 0.6675 0.9345
-0.8932 -8.7142 0.3454 0.9655
-0.2132 -16.4409 0.6483 0.9363
1.2529 -16.4072 0.6488 0.9363
4.2028 -16.1508 0.6581 0.9354
8.9607 -8.8848 0.4976 0.9507
10.1693 -8.4267 0.5208 0.9485
13.2612 9.9925 0.6547 0.9357
10.8791 9.8327 0.5782 0.9430
9.0997 9.8328 0.5283 0.9478
7.5100 9.7263 0.4845 0.9520
6.1534 9.6355 0.4508 0.9553
2.9219 9.4195 0.3889 0.9613
1.1382 9.2503 0.3675 0.9634
-2.3704 9.9318 0.4026 0.9599
-3.3087 9.8694 0.4104 0.9592
-5.9257 8.8308 0.4193 0.9583
-9.5816 8.2731 0.4992 0.9506
-12.3422 7.2960 0.5653 0.9442
-7.3859 -16.9818 0.7302 0.9285
-5.6086 -16.8638 0.7008 0.9313
-3.9356 -16.6662 0.6752 0.9337
-2.3799 -16.5629 0.6598 0.9352
-0.8825 -16.4695 0.6503 0.9361
0.5867 -16.4516 0.6491 0.9362
3.4704 -15.9678 0.6443 0.9367
6.5821 -15.9056 0.6788 0.9334
4.8492 -9.2794 0.4128 0.9590
8.3029 -8.9288 0.4808 0.9524
9.8711 9.8344 0.5494 0.9457
4.3705 9.5163 0.4129 0.9589
-0.1382 8.9920 0.3546 0.9646
-0.9376 8.9357 0.3543 0.9647
-4.3175 8.6868 0.3825 0.9619
-6.5395 8.7901 0.4320 0.9571
-9.1948 8.6143 0.4968 0.9508
-7.0319 5.4985 0.3520 0.9649
-13.8472 8.9628 0.6504 0.9361
-16.6901 5.2894 0.6904 0.9323
-4.6949 -16.8031 0.6879 0.9325
-1.5580 -16.5083 0.6538 0.9358
1.3850 -16.3985 0.6489 0.9362
2.9595 -16.8924 0.6762 0.9337
4.3394 -16.1417 0.6591 0.9353
-16.6776 5.4336 0.2963 0.9322
-15.9565 -10.3824 0.3216 0.9267
-8.4269 -17.0570 0.3214 0.9267
-6.5616 -16.9330 0.3068 0.9299
-3.2370 -16.7119 0.2875 0.9342
1.2533 -16.4126 0.2780 0.9363
5.7466 -16.0535 0.2880 0.9341
7.3695 -15.9453 0.2967 0.9321
8.8046 -15.3024 0.2982 0.9318
10.2736 -14.6588 0.3024 0.9309
8.9647 -8.8887 0.2132 0.9507
10.1925 -8.4459 0.2236 0.9484
13.7263 -7.7429 0.2662 0.9389
17.6434 7.0103 0.3207 0.9269
9.0953 9.8281 0.2262 0.9478
7.4808 9.6885 0.2068 0.9522
6.1309 9.6002 0.1924 0.9555
3.8970 9.4812 0.1732 0.9598
2.1640 10.0734 0.1740 0.9596
1.1378 9.2472 0.1574 0.9634
-3.8401 8.7716 0.1617 0.9624
-5.9234 8.8275 0.1796 0.9584
-8.3446 8.6165 0.2026 0.9531
-11.7469 8.4407 0.2443 0.9438
-6.3712 -9.5441 0.1938 0.9551
-9.3389 -17.1177 0.3294 0.9250
-7.3887 -16.9880 0.3129 0.9286
-5.6106 -16.8698 0.3003 0.9313
-2.3933 -16.6558 0.2842 0.9349
2.0358 -16.2241 0.2762 0.9367
3.4726 -15.9782 0.2762 0.9367
6.6192 -15.9953 0.2924 0.9331
4.8389 -9.2596 0.1765 0.9591
6.8623 -8.8437 0.1891 0.9562
8.3064 -8.9326 0.2060 0.9524
14.5627 10.0739 0.2991 0.9316
11.8989 9.9080 0.2616 0.9399
4.3689 9.5127 0.1768 0.9590
2.6031 10.1026 0.1762 0.9591
0.6853 9.2672 0.1570 0.9635
-1.9532 9.9562 0.1714 0.9602
-2.8764 9.8947 0.1741 0.9596
-4.3543 8.7607 0.1653 0.9616
-5.4374 8.8598 0.1756 0.9593
-7.0104 5.4817 0.1503 0.9650
-13.8455 8.9617 0.2786 0.9361
-16.6781 5.2856 0.2955 0.9324
-15.8515 -10.4966 0.3211 0.9268
-4.6966 -16.8090 0.2948 0.9326
-1.5668 -16.6008 0.2817 0.9355
-0.0812 -16.5016 0.2787 0.9361
1.3855 -16.4039 0.2781 0.9363
2.9605 -16.8980 0.2898 0.9337
-7.6500 8.7089 -0.0653 0.9547
-9.0493 8.6157 -0.0703 0.9512
-3.2096 2.5516 -0.0231 0.9837
-3.8214 2.5173 -0.0258 0.9819
-14.7332 7.9214 -0.0942 0.9353
-15.9862 -10.4018 -0.1074 0.9265
-8.4045 -17.0117 -0.1068 0.9269
-3.2694 -16.8791 -0.0968 0.9335
-0.2135 -16.4660 -0.0927 0.9363
2.6626 -15.9513 -0.0911 0.9374
5.8043 -16.2147 -0.0970 0.9334
7.3497 -15.9023 -0.0986 0.9323
6.8584 -8.1347 -0.0599 0.9583
8.9686 -8.8926 -0.0711 0.9507
13.7294 -7.7447 -0.0888 0.9389
17.6070 6.9958 -0.1067 0.9270
13.2453 9.9805 -0.0934 0.9358
9.0614 9.7914 -0.0751 0.9480
6.1284 9.5963 -0.0641 0.9555
3.8955 9.4777 -0.0577 0.9598
2.9199 9.4128 -0.0555 0.9613
2.1742 10.1208 -0.0583 0.9594
1.1375 9.2441 -0.0524 0.9634
-0.5048 9.0168 -0.0508 0.9645
-4.7127 8.5891 -0.0552 0.9616
-7.0763 8.7471 -0.0633 0.9560
-8.3410 8.6127 -0.0675 0.9532
-3.5289 2.5357 -0.0245 0.9828
-4.2239 2.4969 -0.0276 0.9806
-9.3141 -17.0723 -0.1095 0.9252
-7.4628 -17.1586 -0.1053 0.9279
-2.4172 -16.8224 -0.0957 0.9343
0.5853 -16.4128 -0.0925 0.9364
1.9825 -15.7993 -0.0897 0.9383
3.4553 -15.8985 -0.0916 0.9370
6.6013 -15.9521 -0.0972 0.9333
4.8391 -9.2600 -0.0588 0.9591
9.8929 -15.4096 -0.1031 0.9294
8.3099 -8.9364 -0.0687 0.9524
9.8612 9.8245 -0.0784 0.9458
8.1917 9.7636 -0.0718 0.9503
6.7174 9.6337 -0.0661 0.9541
3.3192 5.8009 -0.0376 0.9736
4.3673 9.5091 -0.0589 0.9590
2.6022 10.0991 -0.0587 0.9591
0.6829 9.2339 -0.0521 0.9636
-0.1384 9.0101 -0.0507 0.9646
-0.9421 8.9783 -0.0508 0.9645
-3.4426 8.8212 -0.0533 0.9628
-4.3530 8.7580 -0.0551 0.9616
-5.4354 8.8565 -0.0585 0.9593
-6.5344 8.7832 -0.0616 0.9572
-9.1865 8.6065 -0.0709 0.9509
-3.2598 2.5490 -0.0233 0.9836
-16.7086 5.2953 -0.0987 0.9323
-6.3843 -16.8771 -0.1016 0.9304
-4.6840 -16.7638 -0.0980 0.9327
-3.1270 -16.8697 -0.0966 0.9337
-1.5625 -16.5559 -0.0936 0.9356
1.3817 -16.3598 -0.0924 0.9364
2.7931 -15.9426 -0.0911 0.9373
4.3844 -16.3092 -0.0951 0.9347
-2.3484 2.6735 -0.1002 0.9859
-2.6319 2.5058 -0.1023 0.9856
-3.1050 2.4684 -0.1117 0.9843
-3.6862 2.4283 -0.1243 0.9825
-4.4380 2.3861 -0.1419 0.9800
-16.7467 5.4561 -0.4959 0.9319
-16.0435 -10.4391 -0.5390 0.9263
-8.4333 -17.0700 -0.5361 0.9266
-6.5664 -16.9454 -0.5117 0.9299
-0.8936 -8.7173 -0.2468 0.9655
1.2541 -16.4235 -0.4638 0.9362
4.2070 -16.1671 -0.4704 0.9353
5.8175 -16.2515 -0.4860 0.9333
10.2125 -14.5716 -0.5010 0.9313
13.4279 -7.5746 -0.4341 0.9402
15.8586 -7.1662 -0.4900 0.9327
17.6544 7.0146 -0.5349 0.9268
10.8617 9.8171 -0.4123 0.9431
6.1259 9.5924 -0.3205 0.9555
2.9188 9.4095 -0.2774 0.9613
1.1371 9.2410 -0.2622 0.9634
-1.4588 9.9824 -0.2841 0.9604
-2.3681 9.9218 -0.2872 0.9600
-3.3053 9.8593 -0.2928 0.9592
-3.8373 8.7652 -0.2694 0.9624
-2.4608 2.5410 -0.0996 0.9859
-3.4049 2.4466 -0.1181 0.9834
-9.3461 -17.1310 -0.5495 0.9249
-7.4800 -17.1979 -0.5281 0.9277
-2.4227 -16.8604 -0.4796 0.9341
-0.8877 -16.5664 -0.4671 0.9358
0.5873 -16.4681 -0.4640 0.9362
1.9353 -15.4236 -0.4377 0.9397
3.3490 -15.4096 -0.4440 0.9388
5.0989 -16.2993 -0.4809 0.9339
6.6238 -16.0064 -0.4878 0.9330
9.8276 -8.8398 -0.3722 0.9485
14.5724 -7.3106 -0.4591 0.9368
17.9631 -7.0875 -0.5438 0.9256
14.1901 9.8162 -0.4858 0.9333
9.8562 9.8196 -0.3918 0.9458
8.1880 9.7591 -0.3587 0.9503
1.6499 10.0324 -0.2863 0.9601
-0.9420 8.9773 -0.2542 0.9645
-1.9519 9.9495 -0.2855 0.9602
-4.3516 8.7554 -0.2753 0.9616
-3.7459 2.4246 -0.1256 0.9823
-11.2880 -15.5084 -0.5401 0.9261
-5.9528 -9.9307 -0.3260 0.9547
-8.3372 -17.2231 -0.5388 0.9263
-4.6999 -16.8207 -0.4918 0.9325
1.3864 -16.4147 -0.4638 0.9362
2.7072 -15.4523 -0.4417 0.9392
-2.1113 2.8862 -0.1814 0.9858
-2.2160 2.5227 -0.1703 0.9866
-2.5906 2.4665 -0.1814 0.9858
-3.0596 2.4323 -0.1982 0.9845
-3.6301 2.3913 -0.2205 0.9827
-4.3550 2.3415 -0.2508 0.9804
-17.4084 -9.2333 -0.9993 0.9241
-5.9657 -9.7732 -0.5807 0.9552
-6.1723 -15.9284 -0.8663 0.9339
-4.8507 -16.8366 -0.8886 0.9322
-3.2779 -16.9231 -0.8742 0.9333
-0.8937 -8.7183 -0.4444 0.9655
1.2545 -16.4290 -0.8356 0.9361
2.4987 -14.9698 -0.7697 0.9410
3.5506 -9.9189 -0.5343 0.9587
7.3774 -15.9622 -0.8918 0.9320
7.9030 -7.8360 -0.5644 0.9564
9.1798 -7.6067 -0.6046 0.9534
10.5958 -7.2923 -0.6523 0.9498
15.3772 -6.9487 -0.8558 0.9346
10.7620 4.2761 -0.5873 0.9547
10.5669 5.3329 -0.6003 0.9537
10.5918 9.5731 -0.7240 0.9444
6.1234 9.5885 -0.5770 0.9555
3.8927 9.4708 -0.5193 0.9598
2.9178 9.4062 -0.4995 0.9613
1.1367 9.2379 -0.4720 0.9634
0.2966 8.9168 -0.4525 0.9649
-0.5045 9.0109 -0.4577 0.9645
-1.4583 9.9791 -0.5115 0.9604
-3.3042 9.8560 -0.5272 0.9592
-3.8359 8.7621 -0.4851 0.9624
-2.1546 2.6634 -0.1737 0.9864
-2.4027 2.4809 -0.1751 0.9863
-2.8385 2.4508 -0.1902 0.9851
-3.3553 2.4109 -0.2095 0.9836
-4.0012 2.3653 -0.2357 0.9816
-4.9017 2.3358 -0.2754 0.9785
-15.1995 -9.0343 -0.8967 0.9316
-10.1172 -8.7780 -0.6793 0.9478
-8.4933 -8.8122 -0.6207 0.9522
-9.3498 -17.1377 -0.9901 0.9248
-7.4827 -17.2043 -0.9515 0.9276
-3.9618 -16.7772 -0.8742 0.9333
-0.8880 -16.5720 -0.8416 0.9357
0.5875 -16.4736 -0.8360 0.9361
2.0458 -16.3043 -0.8333 0.9363
3.2427 -14.9203 -0.7743 0.9407
6.6261 -16.0120 -0.8788 0.9329
4.8489 -9.2788 -0.5309 0.9589
8.6917 -13.5386 -0.8159 0.9376
6.8686 -8.8518 -0.5682 0.9561
7.2141 -7.7579 -0.5373 0.9585
8.4997 -7.6453 -0.5798 0.9552
10.1309 -7.5958 -0.6422 0.9506
17.2125 -6.7914 -0.9384 0.9286
9.8544 9.8178 -0.7055 0.9458
6.7349 9.6589 -0.5972 0.9539
3.3488 5.8527 -0.3420 0.9734
2.8372 6.1776 -0.3448 0.9731
1.6577 10.0796 -0.5180 0.9599
-0.9419 8.9764 -0.4577 0.9645
-1.9513 9.9462 -0.5140 0.9602
-2.1182 2.8472 -0.1800 0.9859
-3.1064 2.4290 -0.2000 0.9843
-16.7615 -9.0638 -0.9664 0.9265
-13.7062 -9.0760 -0.8337 0.9363
-7.6703 -8.7743 -0.5910 0.9544
-4.7015 -16.8266 -0.8860 0.9324
-3.1351 -16.9136 -0.8724 0.9334
-1.5684 -16.6174 -0.8465 0.9353
1.3868 -16.4202 -0.8357 0.9361
2.6213 -14.9616 -0.7703 0.9410
-2.0278 2.7719 -0.2518 0.9863
-2.1789 2.4805 -0.2421 0.9868
-2.5650 2.4420 -0.2597 0.9859
-3.0198 2.4007 -0.2829 0.9846
-3.5795 2.3579 -0.3143 0.9830
-4.2876 2.3052 -0.3569 0.9807
-13.5667 -8.8275 -1.1868 0.9371
-7.5688 -8.5189 -0.8355 0.9553
-4.2127 -8.5272 -0.6974 0.9626
-1.6267 -8.3983 -0.6272 0.9663
-0.8938 -8.7194 -0.6427 0.9655
1.2549 -16.4345 -1.2085 0.9360
2.0979 -8.0619 -0.6108 0.9671
6.4778 -7.6834 -0.7369 0.9605
9.0123 -7.4680 -0.8582 0.9541
15.3706 -6.9457 -1.2367 0.9346
10.4012 4.1327 -0.8206 0.9561
12.8996 9.7200 -1.1843 0.9373
10.5861 9.5680 -1.0463 0.9444
9.0484 9.7774 -0.9768 0.9480
7.4935 9.7050 -0.8990 0.9520
3.0443 5.8596 -0.4842 0.9739
3.8913 9.4673 -0.7505 0.9598
1.1363 9.2348 -0.6822 0.9634
0.2965 8.9139 -0.6539 0.9649
-2.3665 9.9152 -0.7474 0.9599
-1.9803 3.6093 -0.3019 0.9836
-1.9900 2.9656 -0.2619 0.9858
-2.0903 2.5839 -0.2437 0.9868
-2.3805 2.4580 -0.2509 0.9864
-9.9870 -8.6650 -0.9695 0.9484
-5.7593 -8.6275 -0.7606 0.9592
-4.6497 -8.5227 -0.7119 0.9618
-3.6785 -8.4577 -0.6763 0.9637
-1.1873 -8.2626 -0.6121 0.9671
-0.8883 -16.5775 -1.2172 0.9356
1.0362 -8.2579 -0.6102 0.9672
4.2013 -8.0396 -0.6651 0.9643
5.0930 -7.9331 -0.6912 0.9629
5.9673 -7.6903 -0.7137 0.9617
9.7686 -7.3241 -0.8952 0.9522
11.6478 -7.2083 -1.0044 0.9465
14.0920 -7.0696 -1.1560 0.9387
17.2062 -6.7889 -1.3563 0.9285
14.1718 9.8036 -1.2635 0.9332
11.5680 9.6325 -1.1037 0.9414
6.7321 9.6548 -0.8630 0.9539
3.4040 5.9491 -0.5026 0.9729
3.3507 9.4316 -0.7339 0.9607
-0.1355 8.8193 -0.6467 0.9652
-4.3098 8.6713 -0.7100 0.9619
-2.0376 2.7388 -0.2503 0.9864
-2.6033 2.4389 -0.2616 0.9858
-3.0657 2.3972 -0.2853 0.9845
-16.8378 5.3362 -1.2951 0.9316
-16.7377 -9.0509 -1.3952 0.9265
-13.4515 -8.9074 -1.1829 0.9373
-11.0293 -8.8114 -1.0351 0.9450
-4.9875 -8.3203 -0.7113 0.9618
-4.1377 -8.5479 -0.6963 0.9626
-3.2584 -8.6137 -0.6753 0.9637
1.3873 -16.4257 -1.2087 0.9360
1.4186 -8.0971 -0.6027 0.9676
-14.0824 4.5880 -1.4219 0.9422
-17.0071 -9.0205 -1.8482 0.9256
-4.0908 -8.2804 -0.8867 0.9636
-0.8471 -8.2639 -0.7975 0.9672
1.3327 -7.9840 -0.7771 0.9680
3.6441 -7.8846 -0.8339 0.9657
6.3518 -7.5339 -0.9460 0.9612
7.5977 -7.5333 -1.0272 0.9579
10.6028 -7.2972 -1.2357 0.9496
12.7571 -7.1963 -1.4062 0.9428
15.7061 -7.0973 -1.6547 0.9331
19.0756 -3.0174 -1.8541 0.9253
19.4977 -1.3220 -1.8762 0.9245
10.0098 3.9772 -1.0341 0.9576
12.8918 9.7141 -1.5497 0.9372
10.5805 9.5629 -1.3692 0.9443
8.8269 9.5381 -1.2477 0.9491
1.1359 9.2317 -0.8930 0.9633
0.2780 8.3582 -0.8029 0.9670
-0.4996 8.9228 -0.8580 0.9647
-1.4574 9.9725 -0.9676 0.9603
-3.3019 9.8492 -0.9973 0.9591
-1.8454 3.3633 -0.3683 0.9847
-1.9094 2.8456 -0.3290 0.9863
-2.0295 2.5087 -0.3098 0.9871
-2.3589 2.4358 -0.3255 0.9865
-3.8855 2.2969 -0.4333 0.9820
-4.7264 2.2523 -0.5026 0.9792
-12.2401 -8.8396 -1.4495 0.9411
-8.2367 -8.5459 -1.1395 0.9534
-6.8560 -8.5166 -1.0496 0.9570
-1.9325 -8.1837 -0.8073 0.9668
0.2882 -8.0810 -0.7763 0.9680
1.0236 -8.1573 -0.7893 0.9675
1.7356 -7.9857 -0.7846 0.9677
2.4988 -7.9877 -0.8035 0.9669
3.2813 -7.9292 -0.8238 0.9661
4.0557 -7.7610 -0.8407 0.9654
4.9322 -7.6827 -0.8765 0.9640
7.0340 -7.5643 -0.9917 0.9593
18.8402 -3.7691 -1.8446 0.9257
19.6706 -0.3755 -1.8888 0.9240
9.1752 5.2047 -1.0127 0.9585
14.1627 9.7972 -1.6533 0.9331
11.5615 9.6271 -1.4444 0.9413
9.6262 9.5904 -1.3045 0.9469
3.4434 6.0180 -0.6657 0.9725
1.6565 10.0728 -0.9800 0.9598
-0.1280 8.3300 -0.7998 0.9671
-0.8544 8.1432 -0.7861 0.9676
-1.9500 9.9396 -0.9724 0.9601
-2.8716 9.8780 -0.9876 0.9595
-1.8795 3.7815 -0.4054 0.9832
-1.8717 3.0497 -0.3435 0.9857
-1.9693 2.6470 -0.3167 0.9868
-2.1891 2.4520 -0.3156 0.9869
-3.0300 2.3693 -0.3693 0.9847
-13.4653 -8.9165 -1.5505 0.9372
-11.1713 -8.9248 -1.3727 0.9442
-3.9847 -8.2318 -0.8780 0.9639
-3.1722 -8.3859 -0.8608 0.9646
-2.2711 -8.1283 -0.8102 0.9667
-1.5366 -8.2897 -0.8094 0.9667
-0.7936 -8.4090 -0.8109 0.9666
-0.0408 -8.2944 -0.7963 0.9672
2.1650 -8.0533 -0.8006 0.9670
-2.5156 2.3951 -0.4126 0.9861
-2.9505 2.3456 -0.4477 0.9849
-15.6475 6.6921 -2.0216 0.9337
-14.0628 4.5817 -1.7569 0.9422
-17.7112 2.4344 -2.1236 0.9305
-17.6635 0.8381 -2.1005 0.9312
-17.4708 -0.7301 -2.0771 0.9320
-17.1397 -2.2573 -2.0535 0.9327
-16.6775 -3.7316 -2.0300 0.9335
-15.3939 -6.4810 -1.9840 0.9349
-11.3540 -8.9221 -1.7153 0.9435
-6.1917 -8.3644 -1.2362 0.9589
-5.1910 -8.5039 -1.1835 0.9607
-2.3275 -8.0787 -0.9987 0.9667
0.6189 -8.1047 -0.9655 0.9678
1.3263 -7.9458 -0.9569 0.9681
2.8121 -7.8558 -0.9911 0.9669
3.6702 -7.9412 -1.0392 0.9654
4.4492 -7.7328 -1.0597 0.9647
12.4514 -7.0237 -1.6981 0.9440
14.0584 -6.3528 -1.8325 0.9397
14.6832 -5.1155 -1.8470 0.9393
15.6311 -2.4725 -1.8798 0.9382
16.1390 0.3467 -1.9175 0.9370
9.8294 3.9055 -1.2564 0.9583
12.8832 9.7076 -1.9162 0.9371
10.5748 9.5578 -1.6932 0.9442
6.6079 8.5581 -1.2844 0.9574
3.0472 5.8652 -0.7851 0.9737
0.2779 8.3542 -0.9929 0.9669
-2.3649 9.9085 -1.2101 0.9598
-3.3008 9.8458 -1.2335 0.9590
-1.7469 3.1837 -0.4314 0.9855
-1.8390 2.7406 -0.3920 0.9868
-1.9920 2.4623 -0.3762 0.9873
-2.3379 2.4140 -0.3992 0.9866
-2.7447 2.3699 -0.4308 0.9855
-3.8427 2.2716 -0.5303 0.9822
-17.6834 3.1660 -2.1339 0.9302
-17.7035 1.5616 -2.1111 0.9309
-17.5761 -0.0211 -2.0878 0.9316
-17.3070 -1.5685 -2.0643 0.9324
-16.3733 -4.5093 -2.0173 0.9339
-10.0721 -8.7389 -1.5840 0.9477
-8.2600 -8.5702 -1.4139 0.9532
-6.8511 -8.5104 -1.2978 0.9569
-5.6177 -8.4154 -1.2019 0.9601
-4.5023 -8.2525 -1.1167 0.9628
-0.4403 -8.2169 -0.9775 0.9674
0.2867 -8.0404 -0.9557 0.9681
1.0043 -8.0037 -0.9582 0.9680
1.7221 -7.9236 -0.9632 0.9679
4.0550 -7.7596 -1.0400 0.9653
5.9436 -7.6597 -1.1517 0.9617
7.0055 -7.5336 -1.2220 0.9594
8.2254 -7.3986 -1.3142 0.9564
11.7777 -7.2887 -1.6453 0.9457
14.4109 -5.6859 -1.8402 0.9395
14.9826 -4.4160 -1.8554 0.9390
15.8150 -1.7190 -1.8897 0.9379
16.0644 -0.3066 -1.9086 0.9373
16.2038 2.6029 -1.9495 0.9360
11.3234 3.9754 -1.4255 0.9528
9.2451 4.2044 -1.2064 0.9599
9.1406 5.1851 -1.2483 0.9586
13.1978 9.1297 -1.9063 0.9374
11.5550 9.6217 -1.7861 0.9412
9.6214 9.5856 -1.6133 0.9468
7.9508 9.4765 -1.4694 0.9514
2.8110 6.1205 -0.8000 0.9732
3.2573 9.1686 -1.1558 0.9616
2.5039 9.7178 -1.1920 0.9604
1.6477 10.0188 -1.2061 0.9599
0.6839 9.2486 -1.1016 0.9633
-1.7314 3.4835 -0.4621 0.9845
-1.7926 2.9208 -0.4071 0.9863
-1.9085 2.5653 -0.3798 0.9872
-2.1702 2.4308 -0.3871 0.9870
-2.5522 2.3911 -0.4154 0.9860
-3.5499 2.2977 -0.5023 0.9831
-15.6879 6.5606 -2.0199 0.9338
-17.5572 3.8843 -2.1360 0.9301
-17.6520 0.6953 -2.0984 0.9313
-17.4465 -0.8698 -2.0750 0.9321
-16.0341 -5.2665 -2.0047 0.9343
-15.3255 -6.5979 -1.9820 0.9350
-13.2207 -8.7545 -1.8835 0.9381
-11.1699 -8.9238 -1.6983 0.9440
-8.9482 -8.5604 -1.4710 0.9513
-7.4497 -8.5220 -1.3445 0.9554
-5.0380 -8.4046 -1.1640 0.9613
-3.9655 -8.1920 -1.0811 0.9640
-2.2587 -8.0840 -0.9970 0.9668
-0.7572 -8.0229 -0.9572 0.9681
1.3977 -7.9780 -0.9621 0.9679
2.1200 -7.8861 -0.9700 0.9676
-1.8411 2.5167 -0.4418 0.9875
-2.4948 2.3752 -0.4881 0.9862
-3.4575 2.2776 -0.5866 0.9834
-4.0935 2.2009 -0.6585 0.9814
-5.0047 2.1404 -0.7712 0.9783
-14.5857 3.3502 -2.1204 0.9413
-14.6971 2.0201 -2.1020 0.9418
-14.5519 -0.6081 -2.0636 0.9429
-14.3032 -1.8837 -2.0441 0.9434
-13.9439 -3.1200 -2.0246 0.9439
-13.4802 -4.3078 -2.0051 0.9444
-12.9187 -5.4389 -1.9860 0.9449
-12.2666 -6.5061 -1.9674 0.9454
-10.6953 -8.4045 -1.9273 0.9465
-5.1167 -8.3822 -1.3915 0.9611
-1.5729 -8.1206 -1.1720 0.9671
-0.1044 -8.0515 -1.1409 0.9680
1.3373 -8.0118 -1.1509 0.9677
3.6112 -7.8134 -1.2196 0.9658
6.4053 -7.5973 -1.4080 0.9606
7.5405 -7.4766 -1.5046 0.9580
10.3893 -7.1502 -1.7870 0.9503
12.4607 -4.3412 -1.8696 0.9481
13.4731 -0.9135 -1.9134 0.9469
13.6174 0.2926 -1.9299 0.9465
13.6586 1.5177 -1.9472 0.9460
13.5938 2.7534 -1.9652 0.9455
9.7751 3.8839 -1.4903 0.9584
11.3026 7.0322 -1.8861 0.9476
10.0640 9.0961 -1.9221 0.9467
5.4845 8.5881 -1.4438 0.9597
3.0566 5.8834 -0.9394 0.9736
3.7813 9.1998 -1.4093 0.9606
2.8345 9.1375 -1.3555 0.9621
2.1588 10.0491 -1.4563 0.9593
0.6869 5.5821 -0.7969 0.9775
0.2778 8.3514 -1.1840 0.9668
-0.4993 8.9169 -1.2654 0.9646
-1.4564 9.9658 -1.4270 0.9601
-2.3641 9.9051 -1.4429 0.9597
-3.2996 9.8424 -1.4709 0.9589
-1.6243 3.7102 -0.5739 0.9838
-1.6685 3.0409 -0.4915 0.9861
-2.7199 2.3485 -0.5092 0.9856
-3.7928 2.2421 -0.6243 0.9824
-14.7055 1.2972 -2.0917 0.9421
-14.6270 -0.0175 -2.0725 0.9426
-14.4304 -1.3078 -2.0530 0.9431
-13.1858 -4.9319 -1.9947 0.9447
-12.5740 -6.0290 -1.9758 0.9452
-11.8757 -7.0587 -1.9574 0.9457
-1.9720 -8.3511 -1.2158 0.9659
-0.4368 -8.1520 -1.1567 0.9676
1.7131 -7.8824 -1.1429 0.9679
2.4637 -7.8757 -1.1692 0.9672
4.0514 -7.7528 -1.2394 0.9653
5.9727 -7.6973 -1.3804 0.9614
7.0822 -7.6161 -1.4736 0.9589
11.0333 -6.8280 -1.8384 0.9489
11.6827 -5.8609 -1.8519 0.9486
12.2363 -4.8279 -1.8638 0.9482
13.0869 -2.6181 -1.8910 0.9475
13.3744 -1.4537 -1.9062 0.9471
13.5643 -0.2589 -1.9223 0.9467
13.5128 3.4282 -1.9753 0.9452
11.3373 3.9803 -1.7025 0.9526
9.1683 4.1695 -1.4271 0.9601
10.3806 8.6438 -1.9140 0.9469
5.9977 8.6015 -1.4858 0.9585
3.4782 6.0788 -0.9923 0.9721
2.5047 9.7208 -1.4223 0.9603
0.4106 5.5518 -0.7888 0.9778
-1.9487 9.9329 -1.4342 0.9599
-2.8696 9.8713 -1.4566 0.9593
-1.7246 2.8101 -0.4672 0.9868
-1.8534 2.4913 -0.4400 0.9875
-2.5312 2.3714 -0.4914 0.9861
-2.9693 2.3218 -0.5341 0.9849
-3.5112 2.2726 -0.5926 0.9832
-4.1573 2.1922 -0.6659 0.9812
-13.2871 4.2109 -1.9749 0.9452
-14.6009 3.2302 -2.1188 0.9414
-14.5342 -0.7246 -2.0619 0.9429
-14.2752 -1.9970 -2.0423 0.9434
-13.4334 -4.4123 -2.0034 0.9445
-12.8634 -5.5379 -1.9843 0.9450
-12.2036 -6.5991 -1.9657 0.9455
-9.0161 -8.6254 -1.7679 0.9508
-7.3732 -8.4345 -1.5873 0.9557
-6.1136 -8.3995 -1.4720 0.9589
-4.9768 -8.3026 -1.3715 0.9616
-3.1548 -8.3400 -1.2634 0.9646
-2.3229 -8.3136 -1.2231 0.9657
-1.5153 -8.1748 -1.1780 0.9670
-0.0407 -8.2690 -1.1716 0.9671
-1.7967 2.4561 -0.5013 0.9877
-3.3999 2.2397 -0.6707 0.9836
-4.0288 2.1661 -0.7536 0.9816
-4.9692 2.1252 -0.8903 0.9783
-12.2013 3.9752 -2.1140 0.9493
-12.5480 1.7247 -2.0866 0.9499
-12.5540 0.5957 -2.0705 0.9503
-12.4573 -0.5206 -2.0540 0.9507
-11.1193 -4.6814 -1.9875 0.9523
-10.5719 -5.6073 -1.9714 0.9526
-9.9509 -6.4748 -1.9558 0.9530
-9.2627 -7.2787 -1.9407 0.9534
-8.5113 -8.0123 -1.9257 0.9537
-4.0931 -8.2851 -1.5224 0.9632
-3.1749 -8.1932 -1.4475 0.9650
-0.1041 -8.0306 -1.3231 0.9680
0.6110 -8.0013 -1.3220 0.9680
2.0603 -7.9175 -1.3478 0.9674
2.7844 -7.7783 -1.3610 0.9671
3.6243 -7.8418 -1.4231 0.9656
6.5275 -7.7423 -1.6683 0.9598
9.8637 -5.5641 -1.8656 0.9551
10.3747 -4.6882 -1.8755 0.9549
10.8134 -3.7673 -1.8864 0.9546
11.4578 -1.8124 -1.9110 0.9541
11.6560 -0.7903 -1.9246 0.9537
11.7884 1.3099 -1.9540 0.9531
11.7175 2.3733 -1.9695 0.9527
9.8168 3.9005 -1.7402 0.9581
9.0851 4.5851 -1.6765 0.9596
9.6905 6.0291 -1.8802 0.9548
9.1897 6.9246 -1.8956 0.9544
8.6052 7.7775 -1.9108 0.9541
5.4279 8.4995 -1.6614 0.9599
3.0690 5.9073 -1.0967 0.9734
3.7799 9.1963 -1.6380 0.9605
2.8335 9.1342 -1.5755 0.9620
1.9216 8.9449 -1.5072 0.9636
0.6735 5.4735 -0.9085 0.9779
0.2777 8.3485 -1.3761 0.9667
-0.4991 8.9139 -1.4708 0.9645
-1.3090 8.9571 -1.4913 0.9640
-1.2747 3.8022 -0.6606 0.9839
-1.5159 3.4626 -0.6227 0.9848
-1.9488 2.4090 -0.5105 0.9875
-2.2985 2.3734 -0.5443 0.9867
-3.1653 2.2744 -0.6421 0.9843
-3.7088 2.1924 -0.7098 0.9827
-4.4553 2.1231 -0.8130 0.9802
-12.5642 1.1083 -2.0779 0.9502
-12.5139 -0.0150 -2.0615 0.9505
-12.1137 -2.1988 -2.0282 0.9513
-11.7719 -3.2420 -2.0115 0.9517
-11.3424 -4.2424 -1.9950 0.9521
-10.8304 -5.1930 -1.9787 0.9525
-10.2421 -6.0878 -1.9628 0.9528
-9.5837 -6.9212 -1.9475 0.9532
-5.7100 -8.5537 -1.6942 0.9592
-4.6113 -8.4522 -1.5862 0.9617
-1.1538 -8.0296 -1.3364 0.9676
-0.4369 -8.1537 -1.3452 0.9674
1.0074 -8.0285 -1.3330 0.9677
2.4378 -7.7927 -1.3451 0.9674
4.0657 -7.7801 -1.4461 0.9650
4.9358 -7.6882 -1.5051 0.9636
8.1201 -7.3039 -1.7992 0.9567
9.0005 -6.7482 -1.8532 0.9554
10.1510 -5.0925 -1.8709 0.9550
10.6231 -4.1914 -1.8813 0.9548
11.7613 1.8893 -1.9624 0.9529
11.4234 4.0105 -1.9945 0.9521
9.1131 5.1695 -1.7260 0.9584
8.8813 7.3953 -1.9039 0.9542
2.8085 6.1151 -1.1086 0.9731
-1.7442 8.8907 -1.4926 0.9639
-2.5317 8.7088 -1.4941 0.9639
-1.4045 3.5988 -0.6364 0.9845
-1.5539 3.1263 -0.5751 0.9859
-1.9160 2.1462 -0.4740 0.9884
-2.5099 2.3514 -0.5666 0.9862
-4.0956 2.1597 -0.7628 0.9814
-5.0857 2.1268 -0.9081 0.9779
-12.2351 3.8776 -2.1144 0.9493
-12.4513 2.7547 -2.1008 0.9496
-12.4436 -0.6204 -2.0525 0.9507
-9.8915 -6.5500 -1.9544 0.9530
-2.2783 -8.1539 -1.3947 0.9663
-1.5030 -8.1087 -1.3586 0.9671
-0.7732 -8.1923 -1.3556 0.9672
0.6703 -7.9358 -1.3120 0.9682
2.0948 -7.7924 -1.3293 0.9678
-2.4540 2.3364 -0.6369 0.9863
-2.8557 2.2703 -0.6857 0.9853
-3.9825 2.1412 -0.8499 0.9818
-10.6304 3.4634 -2.1015 0.9555
-10.1510 -3.2439 -2.0030 0.9576
-9.2803 -4.9222 -1.9745 0.9581
-8.7436 -5.6892 -1.9607 0.9584
-7.4947 -7.0553 -1.9347 0.9590
-6.7937 -7.6466 -1.9226 0.9592
-4.1160 -8.3312 -1.7466 0.9629
-2.3957 -8.3155 -1.6266 0.9654
-1.5764 -8.1384 -1.5581 0.9668
-0.8258 -8.0559 -1.5221 0.9676
-0.1049 -8.0913 -1.5210 0.9676
2.0831 -8.0053 -1.5548 0.9669
4.5075 -7.8341 -1.6989 0.9639
5.2652 -7.5126 -1.7243 0.9634
6.2616 -7.4269 -1.8259 0.9612
7.0255 -6.9660 -1.8596 0.9605
7.6449 -6.3349 -1.8662 0.9604
8.2088 -5.6496 -1.8730 0.9603
9.1616 -4.1400 -1.8897 0.9599
10.2616 -0.6958 -1.9332 0.9590
10.1326 3.0129 -1.9869 0.9579
8.0268 6.0483 -1.8891 0.9599
7.5086 6.7865 -1.9024 0.9596
6.9212 7.4788 -1.9153 0.9594
6.2684 8.1184 -1.9279 0.9591
5.4479 8.5308 -1.9025 0.9596
3.0810 5.9304 -1.2561 0.9732
2.8324 9.1309 -1.7969 0.9618
1.9209 8.9417 -1.7190 0.9635
0.6716 5.4583 -1.0337 0.9779
0.2960 8.8989 -1.6736 0.9644
-0.8487 3.5559 -0.6871 0.9852
-1.1069 3.3018 -0.6546 0.9859
-1.8375 2.2713 -0.5491 0.9882
-2.2799 2.3541 -0.6160 0.9868
-2.6647 2.3008 -0.6617 0.9858
-3.1028 2.2294 -0.7181 0.9846
-10.5094 3.9021 -2.1071 0.9554
-10.8995 1.9514 -2.0812 0.9559
-10.5963 -1.9234 -2.0242 0.9571
-10.3081 -2.8389 -2.0096 0.9574
-7.1183 -7.3855 -1.9280 0.9591
-6.3875 -7.9346 -1.9146 0.9594
-4.4634 -8.1811 -1.7517 0.9628
-3.6965 -8.4991 -1.7420 0.9630
-2.7558 -8.2861 -1.6413 0.9651
-1.1773 -8.1934 -1.5558 0.9669
0.9982 -7.9555 -1.5070 0.9679
1.7095 -7.8657 -1.5130 0.9678
3.2813 -7.9292 -1.6129 0.9657
4.0813 -7.8098 -1.6563 0.9648
4.9130 -7.6527 -1.7093 0.9637
5.7944 -7.4674 -1.7766 0.9623
8.4925 -5.2556 -1.8772 0.9602
9.3775 -3.7000 -1.8948 0.9598
10.3197 -0.1970 -1.9400 0.9589
10.3652 0.7277 -1.9530 0.9586
10.3301 1.6594 -1.9665 0.9583
10.0134 3.5155 -1.9947 0.9577
9.7306 4.4252 -2.0092 0.9574
9.3618 5.3105 -2.0230 0.9571
8.2389 5.6994 -1.8830 0.9600
7.1968 7.1700 -1.9095 0.9595
5.1422 8.9869 -1.9462 0.9587
3.2537 9.1585 -1.8268 0.9612
2.2782 8.8416 -1.7162 0.9635
-0.1282 8.3408 -1.5679 0.9666
-0.8077 7.6975 -1.4548 0.9690
-0.7247 3.6942 -0.7076 0.9848
-0.9904 3.4069 -0.6669 0.9857
-1.6125 2.6274 -0.5794 0.9875
-10.6522 3.3759 -2.1003 0.9555
-10.8431 2.3989 -2.0874 0.9558
-10.9500 0.4313 -2.0598 0.9564
-10.8687 -0.5418 -2.0454 0.9567
-10.7006 -1.4970 -2.0309 0.9570
-10.4491 -2.4265 -2.0163 0.9573
-9.7114 -4.1809 -1.9873 0.9579
-9.2345 -4.9935 -1.9732 0.9582
-8.0899 -6.4631 -1.9463 0.9587
-7.4334 -7.1112 -1.9336 0.9590
-3.1563 -8.3439 -1.6768 0.9643
-1.5020 -8.1033 -1.5490 0.9670
-0.7594 -8.0460 -1.5190 0.9676
-0.0399 -8.1000 -1.5225 0.9676
2.1420 -7.9681 -1.5509 0.9670
-1.7507 2.3932 -0.6268 0.9880
-2.4093 2.2939 -0.7032 0.9865
-2.8094 2.2334 -0.7586 0.9854
-3.3062 2.1779 -0.8369 0.9839
-4.8596 2.0783 -1.1172 0.9786
-9.3980 3.0618 -2.0893 0.9604
-9.5809 2.2006 -2.0779 0.9606
-9.7048 0.4605 -2.0537 0.9611
-9.5129 -1.2529 -2.0282 0.9615
-9.3037 -2.0817 -2.0152 0.9618
-9.0231 -2.8835 -2.0023 0.9620
-8.6746 -3.6521 -1.9895 0.9623
-6.6873 -6.2952 -1.9414 0.9631
-5.4050 -7.3017 -1.9203 0.9635
-4.7097 -7.7155 -1.9107 0.9637
-2.3123 -8.0258 -1.7655 0.9664
0.6195 -8.1124 -1.7198 0.9673
1.3416 -8.0373 -1.7224 0.9672
2.7515 -7.6865 -1.7257 0.9672
5.0613 -7.2217 -1.8641 0.9646
5.7028 -6.7641 -1.8701 0.9645
6.2972 -6.2438 -1.8745 0.9644
7.3498 -5.0583 -1.8860 0.9642
7.8002 -4.4001 -1.8930 0.9640
8.1952 -3.7033 -1.9010 0.9639
8.5313 -2.9722 -1.9097 0.9637
8.8055 -2.2115 -1.9191 0.9636
9.0149 -1.4260 -1.9293 0.9634
9.2295 0.1983 -1.9514 0.9630
9.2308 1.0257 -1.9632 0.9627
8.5048 4.2922 -2.0137 0.9618
8.1407 5.0649 -2.0267 0.9616
5.5461 7.1829 -1.9182 0.9636
4.9112 7.6904 -1.9288 0.9634
3.0867 5.9413 -1.4153 0.9730
3.5035 8.5240 -1.9481 0.9630
2.7423 8.8405 -1.9566 0.9629
1.8521 8.6212 -1.8639 0.9646
0.2761 8.3004 -1.7555 0.9666
-0.4954 3.3903 -0.7242 0.9861
-0.7578 3.1750 -0.6900 0.9867
-3.0676 2.2042 -0.7985 0.9847
-3.6315 2.1467 -0.8917 0.9829
-4.3655 2.0803 -1.0222 0.9804
-9.5077 2.5939 -2.0832 0.9605
-9.6466 1.7271 -2.0715 0.9607
-9.6832 -0.0116 -2.0468 0.9612
-9.5835 -0.8685 -2.0341 0.9614
-9.1594 -2.5225 -2.0082 0.9619
-8.8413 -3.3069 -1.9953 0.9621
-8.4574 -4.0552 -1.9826 0.9624
-7.5098 -5.4235 -1.9581 0.9628
-6.9554 -6.0347 -1.9465 0.9631
-6.3538 -6.5924 -1.9354 0.9633
-5.7103 -7.0933 -1.9249 0.9635
-2.6760 -8.0462 -1.7924 0.9659
-1.1669 -8.1212 -1.7343 0.9670
-0.4379 -8.1715 -1.7298 0.9671
2.4303 -7.7686 -1.7206 0.9673
3.1667 -7.6522 -1.7505 0.9667
6.0320 -6.4868 -1.8724 0.9644
6.6029 -5.9392 -1.8773 0.9643
8.3859 -3.3087 -1.9056 0.9638
9.2010 1.4780 -1.9698 0.9626
9.0897 2.3060 -1.9823 0.9624
8.6465 3.9322 -2.0078 0.9619
8.3152 4.7169 -2.0208 0.9617
6.8838 5.7320 -1.8935 0.9640
5.8177 6.9340 -1.9133 0.9637
3.9380 5.6477 -1.4554 0.9722
4.5447 7.9426 -1.9343 0.9633
2.3148 6.5157 -1.4616 0.9721
2.2277 8.6459 -1.8873 0.9642
0.8999 5.4717 -1.1721 0.9776
0.4124 5.5764 -1.1820 0.9774
-0.3705 3.5308 -0.7504 0.9856
-0.6416 3.2705 -0.7045 0.9865
-0.8921 3.0686 -0.6755 0.9870
-1.7782 2.3901 -0.6297 0.9879
-1.9007 2.1290 -0.6033 0.9884
-3.3569 2.1728 -0.8452 0.9838
-9.4178 2.9847 -2.0883 0.9604
-9.5934 2.1224 -2.0769 0.9606
-9.6384 -0.4805 -2.0399 0.9613
-9.4970 -1.3286 -2.0270 0.9616
-9.2813 -2.1553 -2.0141 0.9618
-8.9944 -2.9543 -2.0012 0.9620
-8.6399 -3.7196 -1.9884 0.9623
-8.2220 -4.4461 -1.9758 0.9625
-5.3436 -7.3415 -1.9194 0.9636
-2.2413 -8.0218 -1.7606 0.9665
-0.0402 -8.1606 -1.7250 0.9672
1.4061 -8.0254 -1.7223 0.9672
2.1136 -7.8622 -1.7209 0.9673
-1.7326 2.3685 -0.6897 0.9880
-2.0316 2.3128 -0.7235 0.9874
-2.3721 2.2585 -0.7698 0.9866
-3.9276 2.1117 -1.0480 0.9818
-8.4132 2.7410 -2.0796 0.9643
-8.5819 1.9712 -2.0695 0.9645
-8.6785 1.1929 -2.0588 0.9646
-8.5423 -1.1250 -2.0250 0.9652
-8.3599 -1.8706 -2.0134 0.9654
-7.8047 -3.2859 -1.9902 0.9658
-7.0180 -4.5664 -1.9678 0.9662
-6.0313 -5.6777 -1.9468 0.9665
-4.8800 -6.5925 -1.9277 0.9669
-4.2543 -6.9695 -1.9190 0.9670
-3.6017 -7.2902 -1.9111 0.9671
-2.2312 -7.7443 -1.8941 0.9674
-0.8103 -7.9053 -1.8677 0.9679
0.5966 -7.8131 -1.8416 0.9683
2.0024 -7.6951 -1.8688 0.9679
5.1620 -6.1227 -1.8821 0.9676
5.6988 -5.6504 -1.8861 0.9676
6.6474 -4.5750 -1.8965 0.9674
8.2593 -0.5600 -1.9456 0.9666
8.3200 0.1787 -1.9558 0.9664
8.1114 2.4119 -1.9889 0.9658
7.9099 3.1428 -2.0004 0.9656
7.3107 4.5485 -2.0236 0.9652
6.9094 5.2063 -2.0333 0.9651
5.4930 5.9355 -1.9007 0.9673
4.9682 6.4344 -1.9105 0.9671
3.5800 5.6060 -1.5633 0.9730
2.8748 5.5334 -1.4655 0.9747
1.7439 8.1179 -1.9514 0.9665
-0.9297 2.7731 -0.6874 0.9881
-1.3839 2.5222 -0.6761 0.9882
-1.6152 2.4070 -0.6813 0.9882
-2.2101 2.2821 -0.7467 0.9870
-2.5740 2.2224 -0.7992 0.9861
-4.7845 2.2800 -1.2456 0.9785
-8.3128 3.0865 -2.0840 0.9642
-8.5141 2.3228 -2.0741 0.9644
-8.2332 -2.2674 -2.0070 0.9655
-7.6120 -3.6498 -1.9840 0.9659
-7.2157 -4.2889 -1.9728 0.9661
-6.7675 -4.8874 -1.9619 0.9663
-6.2715 -5.4414 -1.9514 0.9665
-5.1544 -6.4029 -1.9318 0.9668
-3.9016 -7.1514 -1.9146 0.9671
-3.2363 -7.4408 -1.9070 0.9672
-1.8474 -7.8233 -1.8892 0.9675
-1.1387 -7.9245 -1.8816 0.9676
0.2794 -7.8348 -1.8425 0.9683
0.9770 -7.7865 -1.8444 0.9683
1.6812 -7.7354 -1.8604 0.9680
2.3751 -7.5922 -1.8696 0.9678
3.6972 -7.0750 -1.8761 0.9677
5.4594 -5.8710 -1.8842 0.9676
5.9746 -5.3740 -1.8886 0.9675
6.8742 -4.2542 -1.9000 0.9673
7.2518 -3.6381 -1.9068 0.9672
7.5770 -2.9896 -1.9144 0.9671
7.8470 -2.3128 -1.9227 0.9669
8.2107 -0.8924 -1.9411 0.9666
8.3003 -0.1585 -1.9511 0.9665
8.3259 0.5845 -1.9616 0.9663
8.1812 2.0755 -1.9837 0.9659
7.7723 3.5346 -2.0067 0.9655
7.4696 4.2372 -2.0183 0.9653
5.2129 6.2131 -1.9061 0.9672
3.9484 5.6626 -1.6224 0.9720
3.1877 5.5711 -1.5085 0.9740
2.3169 6.5215 -1.6266 0.9720
2.0686 8.0282 -1.9484 0.9665
0.8995 5.4698 -1.3028 0.9775
0.4127 5.5804 -1.3151 0.9773
-0.8238 2.8337 -0.6935 0.9879
-1.0610 2.7187 -0.6859 0.9881
-1.2864 2.5881 -0.6793 0.9882
-1.7588 2.3640 -0.6925 0.9880
-2.4057 2.2538 -0.7748 0.9865
-2.8281 2.2114 -0.8438 0.9854
-3.9910 2.1046 -1.0604 0.9816
-8.4314 2.6721 -2.0787 0.9643
-8.5936 1.9012 -2.0685 0.9645
-8.6837 1.1225 -2.0579 0.9647
-8.7022 0.3427 -2.0468 0.9648
-8.6499 -0.4312 -2.0355 0.9650
-8.5286 -1.1931 -2.0239 0.9652
-8.3403 -1.9367 -2.0123 0.9654
-7.7740 -3.3468 -1.9892 0.9658
-6.9775 -4.6204 -1.9668 0.9662
-6.5028 -5.1951 -1.9561 0.9664
-3.5416 -7.3164 -1.9104 0.9672
-2.1678 -7.7586 -1.8933 0.9674
-1.4617 -7.8855 -1.8848 0.9676
0.6595 -7.8088 -1.8418 0.9683
1.3594 -7.7591 -1.8513 0.9682
-2.0028 2.2801 -0.7858 0.9875
-2.3528 2.2400 -0.8411 0.9867
-2.7690 2.2013 -0.9159 0.9855
-4.8222 2.0623 -1.3579 0.9786
-7.6076 2.4785 -2.0716 0.9675
-7.8550 1.0797 -2.0529 0.9678
-7.8816 0.3740 -2.0430 0.9679
-7.8441 -0.3278 -2.0327 0.9681
-7.7438 -1.0199 -2.0223 0.9682
-7.3625 -2.3528 -2.0013 0.9686
-6.7575 -3.5841 -1.9805 0.9689
-4.9825 -5.6080 -1.9423 0.9695
-4.4438 -6.0032 -1.9339 0.9696
-3.8756 -6.3490 -1.9259 0.9697
-3.2822 -6.6437 -1.9186 0.9698
-2.6682 -6.8856 -1.9120 0.9699
-2.0380 -7.0738 -1.9060 0.9700
0.5557 -7.2769 -1.8896 0.9703
1.8346 -7.0501 -1.8862 0.9703
5.6510 -4.6826 -1.9002 0.9701
6.0620 -4.1720 -1.9054 0.9701
6.4293 -3.6267 -1.9112 0.9700
7.0211 -2.4461 -1.9250 0.9697
7.2404 -1.8184 -1.9329 0.9696
7.4056 -1.1714 -1.9413 0.9695
7.5664 0.1625 -1.9595 0.9692
7.4923 1.5175 -1.9793 0.9689
7.3655 2.1901 -1.9896 0.9687
6.2663 4.7217 -2.0315 0.9681
5.8379 5.2764 -2.0374 0.9680
5.0397 5.4458 -1.9211 0.9698
4.4948 5.8213 -1.9042 0.9701
3.5869 5.6168 -1.7255 0.9728
2.8735 5.5310 -1.6138 0.9746
2.2141 7.1377 -1.9349 0.9696
0.6709 5.4528 -1.4225 0.9776
-0.1883 3.3626 -0.8720 0.9862
-0.4165 2.8498 -0.7457 0.9882
-1.0997 2.5120 -0.7100 0.9887
-1.8616 2.3011 -0.7664 0.9878
-2.1861 2.2573 -0.8136 0.9871
-4.3521 2.0739 -1.2482 0.9803
-7.7007 2.1009 -2.0667 0.9676
-7.8215 1.4004 -2.0573 0.9677
-7.8775 0.6949 -2.0475 0.9679
-7.7971 -0.7066 -2.0271 0.9682
-7.6633 -1.3910 -2.0166 0.9683
-6.9135 -3.3149 -1.9852 0.9688
-5.7047 -4.9495 -1.9555 0.9693
-5.2166 -5.4125 -1.9463 0.9694
-4.6928 -5.8294 -1.9376 0.9696
-4.1375 -6.1980 -1.9295 0.9697
-3.5550 -6.5161 -1.9219 0.9698
-2.3264 -6.9949 -1.9086 0.9700
1.5476 -7.1206 -1.8867 0.9703
2.7850 -6.7300 -1.8858 0.9704
3.9400 -6.1371 -1.8883 0.9703
4.9814 -5.3570 -1.8940 0.9702
5.8803 -4.4088 -1.9029 0.9701
6.9040 -2.7241 -1.9217 0.9698
7.1472 -2.1066 -1.9292 0.9697
7.5501 -0.1441 -1.9552 0.9693
7.5698 0.5315 -1.9648 0.9691
7.5302 1.2096 -1.9747 0.9690
7.0517 3.2069 -2.0058 0.9685
6.7735 3.8423 -2.0163 0.9683
6.4377 4.4533 -2.0268 0.9682
5.4792 5.4589 -2.0026 0.9685
4.7172 5.6224 -1.9002 0.9701
3.1863 5.5686 -1.6612 0.9738
2.5204 5.4879 -1.5636 0.9754
2.3173 6.5227 -1.7923 0.9718
0.4130 5.5845 -1.4499 0.9771
-0.0869 5.6537 -1.4640 0.9769
-0.3094 2.9487 -0.7677 0.9878
-0.5474 2.7901 -0.7362 0.9883
-0.7782 2.6768 -0.7218 0.9885
-1.4612 2.3810 -0.7233 0.9885
-2.0322 2.2763 -0.7901 0.9875
-4.0832 2.1532 -1.1952 0.9811
-7.6244 2.4163 -2.0708 0.9675
-7.7746 1.7200 -2.0617 0.9676
-7.8808 0.3104 -2.0421 0.9679
-7.8376 -0.3907 -2.0318 0.9681
-7.5651 -1.7567 -2.0108 0.9684
-6.3423 -4.1998 -1.9695 0.9691
-5.9137 -4.7245 -1.9598 0.9692
-5.4433 -5.2074 -1.9504 0.9694
-4.9352 -5.6456 -1.9415 0.9695
-3.8230 -6.3778 -1.9253 0.9697
-2.6119 -6.9048 -1.9114 0.9700
-1.9805 -7.0880 -1.9055 0.9700
-0.6880 -7.2900 -1.8959 0.9702
-0.0360 -7.3082 -1.8922 0.9703
0.6141 -7.2713 -1.8894 0.9703
1.2579 -7.1800 -1.8873 0.9703
1.8912 -7.0349 -1.8861 0.9703
-2.3427 2.2304 -0.9157 0.9866
-6.9357 2.2596 -2.0650 0.9701
-7.1631 -0.2994 -2.0296 0.9706
-7.0747 -0.9317 -2.0201 0.9708
-6.4830 -2.7294 -1.9913 0.9712
-6.1847 -3.2803 -1.9819 0.9713
-5.0285 -4.7337 -1.9551 0.9717
-4.0753 -5.5053 -1.9391 0.9719
-3.5554 -5.8245 -1.9318 0.9720
-2.4492 -6.3205 -1.9189 0.9722
-1.8712 -6.4948 -1.9134 0.9723
-1.2821 -6.6189 -1.9086 0.9724
-0.6860 -6.6922 -1.9044 0.9724
-0.0871 -6.7146 -1.9010 0.9725
0.5106 -6.6861 -1.8983 0.9725
1.1029 -6.6072 -1.8963 0.9725
1.6859 -6.4787 -1.8951 0.9726
2.2557 -6.3013 -1.8947 0.9726
2.8084 -6.0765 -1.8950 0.9726
3.3404 -5.8056 -1.8962 0.9725
3.8480 -5.4904 -1.8980 0.9725
4.7760 -4.7355 -1.9040 0.9724
5.1898 -4.3005 -1.9081 0.9724
5.5660 -3.8307 -1.9128 0.9723
5.9018 -3.3292 -1.9182 0.9722
6.8867 -0.4669 -1.9541 0.9717
6.9217 0.7691 -1.9716 0.9715
6.8576 1.3890 -1.9808 0.9713
6.5646 2.6083 -1.9997 0.9711
6.3366 3.1979 -2.0093 0.9709
6.0554 3.7675 -2.0190 0.9708
5.3404 4.8268 -2.0378 0.9705
3.5341 5.5341 -1.8589 0.9731
2.4008 5.8412 -1.7878 0.9741
2.0166 6.5009 -1.9269 0.9721
0.1885 5.6678 -1.6054 0.9767
-0.6172 2.5861 -0.7527 0.9890
-1.2983 2.3662 -0.7641 0.9888
-1.5508 2.3110 -0.7879 0.9885
-1.8420 2.2770 -0.8291 0.9879
-2.1742 2.2451 -0.8848 0.9871
-2.5630 2.2130 -0.9586 0.9860
-3.0409 2.1850 -1.0600 0.9846
-4.3992 2.0963 -1.3795 0.9799
-6.8503 2.5435 -2.0686 0.9701
-7.0221 1.9158 -2.0606 0.9702
-7.1351 1.2774 -2.0520 0.9703
-7.1891 0.6341 -2.0431 0.9704
-7.0029 -1.2711 -2.0149 0.9708
-6.6027 -2.4696 -1.9956 0.9711
-5.6350 -4.0695 -1.9677 0.9715
-4.7814 -4.9609 -1.9505 0.9718
-3.2618 -5.9788 -1.9280 0.9721
-2.7074 -6.2248 -1.9216 0.9722
-1.5512 -6.5687 -1.9107 0.9723
-0.3596 -6.7107 -1.9025 0.9724
0.8343 -6.6493 -1.8971 0.9725
1.9984 -6.3880 -1.8948 0.9726
2.5593 -6.1846 -1.8948 0.9726
3.6203 -5.6392 -1.8971 0.9725
4.1131 -5.3007 -1.8994 0.9725
4.5761 -4.9211 -1.9024 0.9725
5.0060 -4.5028 -1.9061 0.9724
5.3997 -4.0485 -1.9106 0.9723
5.7543 -3.5611 -1.9157 0.9723
6.0668 -3.0436 -1.9215 0.9722
6.3347 -2.4994 -1.9279 0.9721
6.5557 -1.9323 -1.9348 0.9720
6.7277 -1.3459 -1.9423 0.9719
6.9328 0.4867 -1.9675 0.9715
6.6505 2.3348 -1.9954 0.9711
6.1898 3.5112 -2.0146 0.9708
5.5203 4.5967 -2.0336 0.9706
5.1072 5.0882 -2.0409 0.9705
3.8528 5.5255 -1.9069 0.9724
3.1420 5.4913 -1.7910 0.9740
2.5196 5.4862 -1.7091 0.9752
2.2716 6.3942 -1.9210 0.9722
1.7010 6.6017 -1.9300 0.9721
0.8989 5.4658 -1.5681 0.9772
0.4133 5.5886 -1.5864 0.9770
-0.2973 2.8332 -0.8065 0.9882
-0.9536 2.4435 -0.7426 0.9892
-1.4344 2.3373 -0.7763 0.9887
-2.0173 2.2595 -0.8575 0.9875
-2.8108 2.1979 -1.0101 0.9853
-3.3366 2.1596 -1.1252 0.9836
-7.1575 -0.3568 -2.0287 0.9706
-6.9148 -1.6057 -2.0096 0.9709
-5.8074 -3.8456 -1.9718 0.9715
-5.4172 -4.3279 -1.9629 0.9716
-1.8184 -6.5081 -1.9130 0.9723
-0.6320 -6.6963 -1.9041 0.9724
1.7379 -6.4647 -1.8951 0.9726
-1.6684 2.2807 -0.8692 0.9882
-1.9805 2.2547 -0.9230 0.9875
-2.7741 2.2054 -1.0900 0.9853
-3.2905 2.1676 -1.2119 0.9836
-3.9248 2.1102 -1.3706 0.9815
-6.3662 2.0741 -2.0594 0.9724
-6.5015 1.4933 -2.0518 0.9725
-6.6104 0.3137 -2.0355 0.9727
-6.5842 -0.2752 -2.0269 0.9728
-6.5054 -0.8568 -2.0182 0.9729
-5.9681 -2.5127 -1.9917 0.9733
-5.0265 -3.9499 -1.9663 0.9736
-4.2124 -4.7412 -1.9507 0.9738
-2.7801 -5.6274 -1.9306 0.9741
-2.2612 -5.8354 -1.9249 0.9741
-1.7280 -5.9977 -1.9198 0.9742
-1.1841 -6.1134 -1.9153 0.9743
1.0191 -6.1057 -1.9039 0.9744
1.5580 -5.9871 -1.9028 0.9744
3.0868 -5.3649 -1.9038 0.9744
3.5556 -5.0733 -1.9055 0.9744
3.9984 -4.7425 -1.9079 0.9744
5.7177 -2.5838 -1.9299 0.9741
6.1258 -1.5385 -1.9427 0.9739
6.2614 -0.9904 -1.9498 0.9738
6.3771 0.7086 -1.9735 0.9735
6.3157 1.2792 -1.9820 0.9734
6.2037 1.8446 -1.9907 0.9733
6.0413 2.4004 -1.9995 0.9732
5.8292 2.9418 -2.0083 0.9730
5.5684 3.4645 -2.0172 0.9729
5.2604 3.9638 -2.0259 0.9728
4.9072 4.4352 -2.0345 0.9727
2.8301 5.4474 -1.8881 0.9746
2.3535 5.7260 -1.9042 0.9744
1.8495 5.9621 -1.9200 0.9742
0.6705 5.4489 -1.6886 0.9773
-0.3832 2.6224 -0.8152 0.9890
-0.5913 2.4776 -0.7835 0.9894
-0.8143 2.4290 -0.7880 0.9893
-1.0433 2.3831 -0.8002 0.9892
-1.8338 2.2668 -0.8968 0.9879
-2.1688 2.2395 -0.9589 0.9870
-2.5665 2.2160 -1.0430 0.9859
-3.6103 2.1342 -1.2900 0.9826
-6.4466 1.7588 -2.0553 0.9724
-6.5526 1.1732 -2.0475 0.9725
-6.5477 -0.5934 -2.0222 0.9729
-6.4407 -1.1691 -2.0134 0.9730
-5.8250 -2.7930 -1.9870 0.9733
-5.5291 -3.2864 -1.9784 0.9734
-5.1923 -3.7498 -1.9700 0.9736
-4.4089 -4.5744 -1.9541 0.9738
-3.5015 -5.2453 -1.9398 0.9740
-1.9721 -5.9296 -1.9220 0.9742
-1.4326 -6.0666 -1.9173 0.9743
-0.8847 -6.1567 -1.9131 0.9743
-0.3322 -6.1997 -1.9096 0.9744
1.8468 -5.9034 -1.9025 0.9744
3.3454 -5.2109 -1.9046 0.9744
3.8004 -4.8977 -1.9067 0.9744
4.2277 -4.5464 -1.9095 0.9744
4.6242 -4.1594 -1.9130 0.9743
4.9870 -3.7390 -1.9171 0.9743
5.8465 -2.3068 -1.9332 0.9740
6.0488 -1.7828 -1.9396 0.9740
6.3766 -0.1217 -1.9617 0.9737
6.3499 1.0200 -1.9781 0.9734
5.9318 2.6976 -2.0043 0.9731
5.0733 4.2245 -2.0306 0.9727
4.6964 4.6790 -2.0391 0.9726
4.2719 5.0916 -2.0443 0.9726
3.7243 5.3411 -2.0028 0.9731
3.0764 5.3765 -1.9053 0.9744
2.4827 5.4057 -1.8296 0.9754
1.5599 6.0538 -1.9228 0.9742
0.4136 5.5928 -1.7249 0.9768
-0.0863 5.6159 -1.7275 0.9768
-0.2892 2.7561 -0.8524 0.9885
-0.4950 2.5232 -0.7909 0.9893
-0.7123 2.4504 -0.7849 0.9894
-0.9380 2.4036 -0.7936 0.9893
-1.1715 2.3570 -0.8096 0.9890
-1.4621 2.3824 -0.8598 0.9884
-2.0107 2.2522 -0.9286 0.9874
-3.3414 2.1628 -1.2243 0.9835
-3.9857 2.1018 -1.3859 0.9813
-6.5111 1.4405 -2.0511 0.9725
-6.5876 0.8515 -2.0431 0.9726
-6.3610 -1.4771 -2.0086 0.9730
-4.9927 -3.9887 -1.9655 0.9736
-4.1727 -4.7733 -1.9500 0.9738
-3.7173 -5.1071 -1.9429 0.9739
-3.2365 -5.3993 -1.9362 0.9740
-2.7340 -5.6480 -1.9300 0.9741
0.5214 -6.1734 -1.9056 0.9744
-1.6646 2.2754 -0.9372 0.9882
-2.3448 2.2324 -1.0762 0.9864
-5.8769 1.9147 -2.0546 0.9743
-6.0035 1.3790 -2.0476 0.9744
-6.1078 0.2898 -2.0325 0.9746
-5.5234 -2.3254 -1.9921 0.9751
-5.2729 -2.7968 -1.9840 0.9752
-4.9830 -3.2423 -1.9762 0.9753
-4.2958 -4.0440 -1.9611 0.9754
-3.9045 -4.3946 -1.9541 0.9755
-2.5789 -5.2200 -1.9353 0.9758
-1.0990 -5.6741 -1.9211 0.9759
-0.0747 -5.7593 -1.9146 0.9760
0.4380 -5.7361 -1.9123 0.9760
2.4100 -5.2144 -1.9095 0.9761
2.8662 -4.9815 -1.9104 0.9761
3.3013 -4.7104 -1.9120 0.9760
3.7121 -4.4029 -1.9143 0.9760
4.0956 -4.0609 -1.9172 0.9760
4.4492 -3.6868 -1.9207 0.9759
5.0557 -2.8519 -1.9295 0.9758
5.3039 -2.3968 -1.9347 0.9758
5.5125 -1.9205 -1.9404 0.9757
5.6798 -1.4265 -1.9466 0.9756
5.9179 0.1271 -1.9676 0.9754
5.8471 1.1843 -1.9831 0.9752
5.7416 1.7072 -1.9911 0.9751
5.5895 2.2209 -1.9993 0.9750
4.5343 4.0982 -2.0316 0.9746
3.3159 5.1923 -2.0479 0.9744
0.7064 5.7413 -1.9228 0.9759
-0.3752 2.5673 -0.8624 0.9891
-0.8042 2.3989 -0.8410 0.9894
-1.2676 2.3102 -0.8759 0.9890
-1.5335 2.2853 -0.9148 0.9885
-2.5725 2.2212 -1.1298 0.9858
-3.0515 2.1927 -1.2491 0.9843
-4.5221 2.1549 -1.6651 0.9791
-6.1015 0.5382 -2.0361 0.9745
-5.9559 -1.0811 -2.0121 0.9748
-5.6236 -2.1034 -1.9958 0.9750
-5.3919 -2.5853 -1.9877 0.9751
-4.4638 -3.8729 -1.9644 0.9754
-4.0861 -4.2395 -1.9572 0.9755
-3.6793 -4.5705 -1.9504 0.9756
-2.7921 -5.1179 -1.9379 0.9757
-2.3186 -5.3310 -1.9324 0.9758
-1.3295 -5.6302 -1.9230 0.9759
-0.8212 -5.7147 -1.9191 0.9760
-0.3084 -5.7554 -1.9159 0.9760
1.7149 -5.4818 -1.9092 0.9761
2.1963 -5.3072 -1.9092 0.9761
3.5284 -4.5472 -1.9132 0.9760
3.9247 -4.2206 -1.9158 0.9760
4.2922 -3.8608 -1.9190 0.9760
4.6283 -3.4701 -1.9229 0.9759
5.1958 -2.6066 -1.9323 0.9758
5.4227 -2.1396 -1.9378 0.9757
5.9080 -0.1128 -1.9642 0.9754
5.9171 0.4154 -1.9717 0.9753
5.8797 0.9445 -1.9795 0.9752
5.4872 2.4954 -2.0037 0.9749
5.2645 2.9863 -2.0119 0.9748
4.3388 4.3226 -2.0358 0.9745
3.9511 4.7093 -2.0434 0.9744
3.0267 5.2897 -2.0258 0.9746
2.4198 5.2688 -1.9273 0.9759
1.9255 5.4198 -1.9119 0.9760
1.4388 5.5839 -1.9168 0.9760
-0.2881 2.7459 -0.9178 0.9884
-0.4865 2.4799 -0.8401 0.9894
-0.9249 2.3699 -0.8456 0.9893
-1.1558 2.3255 -0.8632 0.9891
-1.4095 2.2967 -0.8957 0.9887
-2.8253 2.2092 -1.1922 0.9850
-4.0899 2.1567 -1.5369 0.9807
-6.1078 0.2406 -2.0318 0.9746
-6.0811 -0.3032 -2.0239 0.9747
-5.8833 -1.3662 -2.0077 0.9749
-5.7148 -1.8771 -1.9995 0.9750
-5.5025 -2.3689 -1.9914 0.9751
-4.9550 -3.2811 -1.9755 0.9753
-4.6251 -3.6951 -1.9678 0.9754
-3.8678 -4.4245 -1.9534 0.9755
-3.0015 -5.0073 -1.9406 0.9757
-2.5361 -5.2392 -1.9349 0.9758
-2.0539 -5.4295 -1.9296 0.9758
-0.5420 -5.7424 -1.9173 0.9760
-0.0283 -5.7590 -1.9144 0.9760
0.4841 -5.7319 -1.9121 0.9760
0.9918 -5.6611 -1.9104 0.9761
-2.3497 2.2371 -1.1602 0.9863
-2.7876 2.2161 -1.2735 0.9850
-3.2997 2.1736 -1.4130 0.9834
-5.2874 2.2613 -2.0565 0.9759
-5.4516 1.7761 -2.0504 0.9759
-5.5704 1.2795 -2.0439 0.9760
-5.6433 0.7757 -2.0371 0.9761
-5.6511 -0.2362 -2.0226 0.9763
-5.5869 -0.7358 -2.0152 0.9763
-5.4785 -1.2258 -2.0076 0.9764
-5.3273 -1.7024 -2.0000 0.9765
-4.9035 -2.6008 -1.9849 0.9767
-3.9981 -3.7637 -1.9636 0.9769
-3.6348 -4.0910 -1.9570 0.9770
