ply
format ascii 1.0
element vertex 1580
property float32 x
property float32 y
property float32 z
property float32 I
end_header
4.7975 -15.7231 1.0194 0.9362
6.4902 -15.9899 1.0701 0.9332
7.7513 -15.0725 1.0510 0.9343
9.3689 -14.7980 1.0861 0.9322
9.2983 11.0548 0.8958 0.9438
6.1497 10.7290 0.7669 0.9516
1.7334 10.5549 0.6633 0.9580
-2.5973 13.1560 0.8316 0.9477
-1.8084 6.1876 0.3998 0.9745
-6.9908 11.3360 0.8259 0.9480
-8.2809 11.0753 0.8575 0.9461
-11.2920 10.5180 0.9569 0.9400
-11.1722 4.6217 0.7497 0.9527
-7.2198 -10.0768 0.7687 0.9515
-3.4772 -9.4251 0.6230 0.9605
-4.8348 -17.8854 1.1489 0.9284
0.8563 -9.1149 0.5677 0.9640
3.0202 -16.3104 1.0286 0.9357
4.4157 -15.8003 1.0173 0.9364
6.0852 -16.0719 1.0657 0.9334
8.9385 -14.8852 1.0767 0.9328
12.4264 -14.1787 1.1691 0.9272
14.4067 -13.7408 1.2346 0.9233
11.2523 10.6612 0.9612 0.9398
6.5389 10.8079 0.7833 0.9506
4.5320 9.2710 0.6399 0.9595
1.9963 10.5848 0.6680 0.9578
-2.2865 13.2188 0.8319 0.9477
-3.1755 11.9033 0.7639 0.9518
-2.2067 6.0428 0.3989 0.9745
-5.4746 11.6425 0.7978 0.9497
-6.6648 11.4019 0.8190 0.9484
-7.9303 11.1461 0.8483 0.9467
-9.1040 10.6388 0.8683 0.9454
-12.5786 10.2582 1.0065 0.9370
-14.2052 9.6085 1.0635 0.9336
-13.4760 3.2554 0.8597 0.9460
-5.2530 -17.7557 1.1482 0.9285
-3.4951 -17.4004 1.1006 0.9313
-0.3248 -16.7592 1.0394 0.9350
0.6404 -9.1277 0.5674 0.9640
2.6002 -16.1675 1.0154 0.9365
4.0353 -15.8772 1.0158 0.9365
5.6833 -16.1532 1.0619 0.9337
8.5975 -15.1154 1.0783 0.9327
11.9299 -14.2792 1.1538 0.9281
13.8840 -13.8833 1.2175 0.9243
11.9702 10.8163 1.0004 0.9374
7.3361 7.9290 0.6698 0.9576
2.1491 10.0812 0.6392 0.9595
1.2679 10.4606 0.6534 0.9586
-0.5391 9.2478 0.5744 0.9636
-2.8900 11.9611 0.7631 0.9519
-2.0306 5.9969 0.3926 0.9749
-5.1696 11.7042 0.7934 0.9500
-6.3440 11.4668 0.8126 0.9488
12.5028 10.8837 0.6536 0.9358
9.0722 11.3186 0.5720 0.9436
5.7747 10.6506 0.4777 0.9527
4.3798 10.1488 0.4359 0.9567
3.3257 10.1036 0.4194 0.9583
-1.7307 13.3286 0.5300 0.9476
-2.9073 13.0905 0.5288 0.9477
-1.9204 6.0373 0.2498 0.9750
-4.9514 11.7968 0.5045 0.9501
-6.1191 11.5606 0.5158 0.9490
-8.6722 11.0445 0.5537 0.9453
-12.3971 11.0120 0.6538 0.9358
-11.1714 4.3151 0.4722 0.9532
-7.1389 -10.4782 0.4999 0.9505
-6.1406 -17.9388 0.7476 0.9269
-4.3063 -17.5680 0.7132 0.9302
-2.6204 -17.2266 0.6871 0.9326
-1.0417 -16.9074 0.6679 0.9344
0.4791 -17.1770 0.6776 0.9335
1.0908 -9.2556 0.3675 0.9634
3.4051 -16.2359 0.6541 0.9357
4.7985 -15.7263 0.6483 0.9363
6.4915 -15.9931 0.6806 0.9332
7.7776 -15.1237 0.6706 0.9342
9.3709 -14.8012 0.6908 0.9323
11.0771 -14.4557 0.7181 0.9297
12.9395 -14.0785 0.7540 0.9263
12.7395 12.6549 0.7081 0.9306
9.2980 11.0545 0.5696 0.9438
7.7170 11.0440 0.5313 0.9475
6.1480 10.7262 0.4875 0.9517
2.5777 10.0032 0.4073 0.9595
0.4461 6.0711 0.2400 0.9759
-1.4180 13.3919 0.5310 0.9475
-1.8080 6.1863 0.2541 0.9745
-5.8053 11.6241 0.5123 0.9493
-8.3123 11.1172 0.5473 0.9459
-11.2892 10.5155 0.6083 0.9401
-13.0671 10.1520 0.6524 0.9359
-11.0926 4.5887 0.4733 0.9531
-7.2200 -10.0771 0.4888 0.9516
-4.7747 -17.6627 0.7215 0.9294
-3.0541 -17.3149 0.6933 0.9320
-1.4704 -17.2220 0.6816 0.9331
0.0687 -16.1608 0.6372 0.9374
0.8576 -9.1280 0.3615 0.9640
10.6130 -14.5497 0.7101 0.9304
12.4292 -14.1819 0.7436 0.9273
14.4419 -13.7743 0.7869 0.9232
8.1371 11.0781 0.5420 0.9465
5.1439 10.5229 0.4618 0.9542
2.8468 10.0577 0.4122 0.9590
1.9961 10.5842 0.4247 0.9578
0.0718 9.4959 0.3744 0.9627
-2.2861 13.2162 0.5289 0.9477
-2.1938 6.0075 0.2522 0.9747
-6.6901 11.4452 0.5227 0.9483
-13.4687 3.2536 0.5464 0.9460
-7.2977 -9.6932 0.4784 0.9526
-0.3249 -16.7626 0.6611 0.9351
2.6008 -16.1707 0.6458 0.9365
4.0361 -15.8803 0.6461 0.9365
8.5171 -14.9740 0.6793 0.9334
13.8873 -13.8866 0.7744 0.9244
10.2317 -7.0984 0.4910 0.9514
7.3192 7.9108 0.4250 0.9578
6.9436 10.8874 0.5092 0.9496
5.4923 10.5934 0.4705 0.9534
4.2364 10.3391 0.4406 0.9563
3.1225 10.1135 0.4174 0.9585
2.1490 10.0806 0.4064 0.9596
1.2740 10.5108 0.4175 0.9585
0.2977 9.5416 0.3764 0.9625
-2.8894 11.9587 0.4851 0.9519
-2.0234 5.9757 0.2488 0.9751
-5.1892 11.7487 0.5064 0.9499
-6.3681 11.5103 0.5187 0.9487
-7.6157 11.2580 0.5359 0.9470
9.0694 11.3151 0.2450 0.9436
7.2734 10.9515 0.2221 0.9488
1.4720 10.5108 0.1793 0.9584
0.4765 9.5759 0.1620 0.9624
-2.9067 13.0880 0.2265 0.9478
-6.1178 11.5583 0.2209 0.9490
-7.3488 11.3093 0.2278 0.9475
-10.0763 10.7066 0.2484 0.9429
-13.5843 10.0483 0.2854 0.9346
-6.1420 -17.9429 0.3204 0.9269
-4.3072 -17.5718 0.3056 0.9302
1.0932 -9.2766 0.1578 0.9633
3.3599 -16.0204 0.2765 0.9366
4.7994 -15.7294 0.2778 0.9363
7.7792 -15.1268 0.2873 0.9342
9.3729 -14.8043 0.2960 0.9323
12.9425 -14.0818 0.3231 0.9263
14.5977 12.1131 0.3204 0.9269
9.2977 11.0542 0.2440 0.9439
2.5771 10.0010 0.1745 0.9595
1.7327 10.5504 0.1806 0.9581
-1.4177 13.3892 0.2274 0.9476
-9.6812 10.7865 0.2448 0.9437
-13.0675 10.1523 0.2795 0.9359
-11.0154 4.5568 0.2014 0.9534
-7.2203 -10.0774 0.2094 0.9516
-3.0547 -17.3184 0.2971 0.9321
0.0667 -15.6870 0.2650 0.9392
2.9807 -16.0972 0.2765 0.9366
4.4175 -15.8065 0.2772 0.9365
6.0876 -16.0783 0.2904 0.9335
9.9981 11.3320 0.2553 0.9413
8.1347 11.0749 0.2321 0.9465
6.5354 10.8021 0.2133 0.9507
5.1426 10.5202 0.1978 0.9542
3.9080 10.2193 0.1848 0.9572
2.8461 10.0554 0.1765 0.9591
1.0136 10.4180 0.1768 0.9590
0.0718 9.4940 0.1604 0.9627
-1.1037 13.4528 0.2280 0.9474
-3.1832 11.9320 0.2086 0.9518
-6.6887 11.4428 0.2239 0.9484
-9.0998 10.6340 0.2364 0.9455
-13.2246 10.7850 0.2883 0.9340
-13.4639 3.2524 0.2340 0.9461
-7.2979 -9.6935 0.2050 0.9526
-5.2554 -17.7636 0.3129 0.9286
-1.8654 -17.0775 0.2902 0.9336
2.6013 -16.1740 0.2767 0.9366
5.6856 -16.1597 0.2894 0.9338
8.5188 -14.9771 0.2911 0.9334
10.2485 -7.1100 0.2107 0.9513
7.2876 7.8766 0.1813 0.9580
6.9417 10.8844 0.2181 0.9497
4.2354 10.3366 0.1887 0.9563
2.1489 10.0800 0.1741 0.9596
-2.9059 12.0272 0.2090 0.9517
-7.6141 11.2556 0.2295 0.9471
10.3880 4.9925 -0.0649 0.9549
13.8483 12.0550 -0.1034 0.9292
7.2714 10.9485 -0.0740 0.9488
4.3794 10.1480 -0.0622 0.9568
3.3422 10.1537 -0.0602 0.9581
2.3137 9.9456 -0.0575 0.9600
-1.9150 6.0202 -0.0356 0.9750
-8.6684 11.0396 -0.0790 0.9454
-12.4031 11.0173 -0.0934 0.9358
-6.1433 -17.9470 -0.1068 0.9269
-2.6216 -17.2341 -0.0981 0.9326
-1.0422 -16.9143 -0.0954 0.9345
0.4793 -17.1838 -0.0968 0.9335
3.3606 -16.0237 -0.0922 0.9366
7.7808 -15.1299 -0.0958 0.9342
12.9454 -14.0850 -0.1077 0.9263
10.1428 -7.6896 -0.0717 0.9504
11.3888 5.1458 -0.0704 0.9512
7.7067 7.6555 -0.0612 0.9575
9.2975 11.0538 -0.0813 0.9439
4.6428 10.0957 -0.0626 0.9565
2.5765 9.9988 -0.0581 0.9595
0.4459 6.0675 -0.0343 0.9760
-0.1467 9.1268 -0.0514 0.9641
-2.4213 6.1738 -0.0373 0.9738
-5.8029 11.6194 -0.0731 0.9494
-7.0144 11.3742 -0.0752 0.9479
-9.6790 10.7841 -0.0816 0.9437
-13.0680 10.1527 -0.0932 0.9359
-3.4776 -9.4262 -0.0565 0.9606
-3.0554 -17.3220 -0.0990 0.9321
0.0649 -15.2702 -0.0860 0.9407
0.8571 -9.1229 -0.0516 0.9640
7.3739 -15.2122 -0.0952 0.9346
8.9441 -14.8945 -0.0978 0.9329
10.6176 -14.5559 -0.1014 0.9305
14.4488 -13.7809 -0.1124 0.9232
9.9144 5.2903 -0.0633 0.9560
9.9948 11.3283 -0.0851 0.9414
6.5337 10.7993 -0.0711 0.9508
5.1413 10.5176 -0.0659 0.9543
3.9071 10.2170 -0.0616 0.9572
2.8455 10.0532 -0.0588 0.9591
1.9959 10.5829 -0.0606 0.9578
-1.1035 13.4501 -0.0760 0.9474
-3.1826 11.9298 -0.0695 0.9518
-2.1705 5.9437 -0.0356 0.9750
-5.4932 11.6820 -0.0727 0.9497
-9.0978 10.6315 -0.0788 0.9456
-10.8517 10.5978 -0.0854 0.9411
-14.1934 9.6005 -0.0965 0.9338
-13.4601 3.2515 -0.0780 0.9461
-7.2981 -9.6938 -0.0683 0.9526
-7.1913 -18.1590 -0.1100 0.9248
-5.2565 -17.7675 -0.1043 0.9286
0.6401 -9.1237 -0.0515 0.9641
2.6018 -16.1772 -0.0922 0.9366
5.6760 -16.1325 -0.0963 0.9339
10.2762 -7.1293 -0.0704 0.9512
9.8363 6.1116 -0.0652 0.9547
7.2458 7.8314 -0.0601 0.9582
8.6647 11.2303 -0.0799 0.9448
6.9398 10.8814 -0.0727 0.9497
4.2344 10.3342 -0.0629 0.9563
3.1211 10.1089 -0.0596 0.9586
-2.9056 12.0256 -0.0697 0.9517
-2.0144 5.9490 -0.0354 0.9752
9.7555 5.8137 -0.3198 0.9556
13.8443 12.0515 -0.5168 0.9292
7.3185 7.6218 -0.2975 0.9586
9.0639 11.3081 -0.4081 0.9437
7.2693 10.9454 -0.3700 0.9488
3.3414 10.1514 -0.3009 0.9581
2.3131 9.9435 -0.2875 0.9600
0.4763 9.5720 -0.2699 0.9624
-1.7296 13.3207 -0.3782 0.9477
-4.9484 11.7897 -0.3600 0.9501
-6.1153 11.5535 -0.3681 0.9490
-8.6665 11.0372 -0.3951 0.9454
-10.0717 10.7017 -0.4138 0.9429
-12.4000 11.0145 -0.4670 0.9358
-6.1448 -17.9511 -0.5343 0.9269
-4.3594 -17.7846 -0.5156 0.9293
0.4440 -15.9165 -0.4483 0.9383
3.3613 -16.0270 -0.4611 0.9366
4.8013 -15.7355 -0.4632 0.9363
9.3768 -14.8105 -0.4936 0.9323
12.9484 -14.0883 -0.5388 0.9263
10.9450 4.9453 -0.3382 0.9531
9.8039 5.5329 -0.3170 0.9560
7.6985 7.6474 -0.3055 0.9575
9.2972 11.0535 -0.4067 0.9438
7.7104 11.0346 -0.3790 0.9476
6.1432 10.7178 -0.3478 0.9518
4.6417 10.0932 -0.3128 0.9565
3.6106 10.1548 -0.3035 0.9578
-0.1466 9.1249 -0.2570 0.9641
-1.4171 13.3839 -0.3790 0.9476
-2.5952 13.1456 -0.3773 0.9478
-2.3660 6.0328 -0.1825 0.9744
-5.8017 11.6170 -0.3656 0.9494
-7.0129 11.3719 -0.3762 0.9479
-9.6768 10.7816 -0.4079 0.9437
-13.1289 10.2001 -0.4681 0.9356
-10.9416 4.5263 -0.3334 0.9537
-8.0519 -11.2381 -0.3893 0.9462
-3.4778 -9.4268 -0.2829 0.9606
-3.0560 -17.3257 -0.4954 0.9320
-1.4515 -17.0008 -0.4804 0.9340
0.0652 -15.3227 -0.4315 0.9405
2.9819 -16.1038 -0.4612 0.9366
4.4192 -15.8127 -0.4623 0.9364
5.6522 -14.9284 -0.4495 0.9381
8.9460 -14.8976 -0.4893 0.9328
19.3945 -4.4432 -0.5603 0.9235
9.8765 5.2702 -0.3152 0.9562
12.8987 12.2212 -0.5003 0.9314
9.9915 11.3246 -0.4252 0.9414
8.1299 11.0684 -0.3867 0.9465
6.5319 10.7964 -0.3553 0.9508
5.1401 10.5150 -0.3296 0.9542
3.9062 10.2146 -0.3079 0.9572
1.9958 10.5822 -0.3032 0.9578
1.0132 10.4138 -0.2946 0.9590
-5.4921 11.6797 -0.3634 0.9497
-9.0958 10.6292 -0.3939 0.9456
-13.2179 10.7795 -0.4803 0.9340
-8.1675 -10.8485 -0.3824 0.9471
-5.2612 -17.7833 -0.5222 0.9285
-1.8662 -17.0848 -0.4839 0.9335
-0.3251 -16.7726 -0.4724 0.9351
0.6401 -9.1234 -0.2575 0.9641
2.6023 -16.1806 -0.4615 0.9365
4.0385 -15.8898 -0.4616 0.9365
11.9406 -14.2920 -0.5244 0.9282
13.8971 -13.8964 -0.5534 0.9244
10.3373 -7.1716 -0.3543 0.9509
9.7450 6.0549 -0.3230 0.9551
13.1762 11.9060 -0.5000 0.9314
8.6621 11.2269 -0.3993 0.9448
5.4881 10.5854 -0.3357 0.9534
4.2334 10.3317 -0.3144 0.9563
3.1204 10.1067 -0.2978 0.9586
-0.5387 9.2418 -0.2607 0.9636
-2.9052 12.0241 -0.3483 0.9517
-6.3642 11.5032 -0.3702 0.9488
-7.6109 11.2508 -0.3825 0.9471
10.0455 4.8279 -0.5652 0.9563
13.4173 11.6798 -0.9021 0.9312
7.2673 10.9424 -0.6662 0.9487
4.3791 10.1472 -0.5605 0.9567
3.3407 10.1491 -0.5419 0.9581
2.3126 9.9413 -0.5176 0.9599
1.4766 10.5432 -0.5399 0.9583
-0.3414 8.5953 -0.4362 0.9661
-2.9050 13.0802 -0.6795 0.9477
-1.9151 6.0208 -0.3204 0.9750
-4.9474 11.7873 -0.6483 0.9501
-6.1140 11.5512 -0.6628 0.9490
-7.3441 11.3021 -0.6836 0.9474
-10.1096 10.7420 -0.7481 0.9426
-13.5735 10.0403 -0.8562 0.9346
-9.9935 -10.1645 -0.7229 0.9445
-8.1100 -9.8767 -0.6481 0.9501
-8.8423 -15.8583 -0.9208 0.9299
-6.1462 -17.9552 -0.9625 0.9268
-4.3603 -17.7885 -0.9288 0.9293
1.9234 -16.3212 -0.8334 0.9363
3.4030 -16.2261 -0.8408 0.9358
4.8022 -15.7386 -0.8345 0.9362
7.7840 -15.1360 -0.8632 0.9341
11.1245 -14.5175 -0.9275 0.9294
10.0960 -7.6542 -0.6425 0.9505
10.1385 -6.3460 -0.6066 0.9532
11.6011 -5.8907 -0.6598 0.9492
16.3007 -4.8821 -0.8630 0.9341
10.6499 4.8120 -0.5927 0.9543
9.7312 5.4919 -0.5667 0.9562
13.5119 11.2121 -0.8904 0.9321
7.6515 7.6006 -0.5470 0.9577
4.6405 10.0907 -0.5633 0.9565
1.7316 10.5438 -0.5419 0.9581
0.4456 6.0639 -0.3084 0.9759
-0.1387 8.6322 -0.4378 0.9660
-7.0114 11.3695 -0.6774 0.9479
-8.3050 11.1075 -0.7034 0.9460
-10.9163 4.5158 -0.5991 0.9538
-13.3185 -10.7884 -0.8692 0.9337
-10.6259 -10.3088 -0.7508 0.9424
-8.5996 -9.9823 -0.6682 0.9486
-8.0063 -11.1745 -0.6972 0.9464
-9.4030 -15.9648 -0.9396 0.9285
-3.4781 -9.4275 -0.5096 0.9606
-3.0567 -17.3294 -0.8924 0.9319
-1.4695 -17.2121 -0.8761 0.9332
0.0649 -15.2659 -0.7742 0.9407
0.8656 -9.2128 -0.4693 0.9636
3.0190 -16.3038 -0.8409 0.9357
4.4201 -15.8159 -0.8328 0.9363
5.4013 -14.2656 -0.7736 0.9407
7.3769 -15.2184 -0.8577 0.9345
8.9479 -14.9007 -0.8815 0.9328
10.7462 -14.7322 -0.9248 0.9296
12.4405 -14.1947 -0.9572 0.9272
9.6188 -6.3419 -0.5843 0.9549
11.4482 -6.1576 -0.6592 0.9493
12.9272 -5.5274 -0.7130 0.9452
18.6758 -4.2786 -0.9717 0.9261
11.8072 5.0024 -0.6503 0.9499
6.5302 10.7935 -0.6398 0.9507
5.1388 10.5124 -0.5934 0.9542
3.9264 10.2674 -0.5575 0.9569
2.8442 10.0488 -0.5296 0.9590
0.0656 8.6687 -0.4396 0.9659
-1.1030 13.4448 -0.6841 0.9474
-2.1583 5.9103 -0.3191 0.9751
-5.4910 11.6773 -0.6544 0.9496
-6.6845 11.4357 -0.6718 0.9483
-7.9535 11.1787 -0.6958 0.9465
-14.1856 9.5952 -0.8685 0.9337
-11.0386 4.8750 -0.6120 0.9528
-11.1300 -10.2986 -0.7690 0.9411
-9.2108 -10.1943 -0.6968 0.9465
-7.4344 -9.8747 -0.6268 0.9517
-8.2972 -16.4772 -0.9356 0.9288
-5.2614 -17.7841 -0.9406 0.9284
-3.4988 -17.4190 -0.9010 0.9313
4.0393 -15.8929 -0.8316 0.9364
8.5241 -14.9864 -0.8744 0.9333
10.2862 -14.8252 -0.9151 0.9303
11.9432 -14.2952 -0.9447 0.9281
9.2963 -6.4494 -0.5738 0.9557
11.2517 -6.3992 -0.6564 0.9495
12.6569 -5.7693 -0.7054 0.9458
9.6451 5.9928 -0.5759 0.9555
13.1401 11.8734 -0.8981 0.9315
7.1779 7.7581 -0.5360 0.9586
8.6595 11.2236 -0.7189 0.9448
5.4867 10.5827 -0.6045 0.9534
4.2324 10.3293 -0.5661 0.9563
1.2729 10.5020 -0.5365 0.9585
0.2716 8.7053 -0.4417 0.9657
-2.0152 5.9515 -0.3187 0.9751
-5.1850 11.7392 -0.6508 0.9499
-6.3629 11.5008 -0.6666 0.9487
-7.6092 11.2484 -0.6887 0.9471
9.9023 4.7591 -0.8056 0.9569
9.5349 5.6822 -0.8138 0.9565
13.4170 11.6795 -1.3043 0.9311
4.3789 10.1468 -0.8103 0.9566
3.3399 10.1468 -0.7832 0.9581
0.4364 8.7688 -0.6437 0.9654
-1.7290 13.3154 -0.9845 0.9476
-2.9044 13.0776 -0.9822 0.9477
-1.9160 6.0233 -0.4635 0.9750
-6.1128 11.5488 -0.9581 0.9489
-7.3426 11.2997 -0.9881 0.9474
-8.6626 11.0323 -1.0285 0.9453
-11.5797 10.2859 -1.1356 0.9398
-13.2994 9.8375 -1.2129 0.9358
-11.0260 4.2589 -0.8667 0.9537
-12.6481 -10.7501 -1.2171 0.9356
-9.8227 -9.9908 -1.0273 0.9454
-7.9301 -9.6575 -0.9162 0.9511
-6.3789 -9.3627 -0.8307 0.9556
-5.0581 -9.0716 -0.7616 0.9592
-4.0693 -9.1314 -0.7330 0.9607
-3.0687 -8.9647 -0.6948 0.9627
-2.1328 -8.7012 -0.6569 0.9647
-1.0428 -16.9249 -1.2433 0.9343
0.9831 -8.3423 -0.6159 0.9669
2.4384 -7.9915 -0.6126 0.9670
5.6010 -13.7993 -1.0920 0.9420
5.5142 -7.1960 -0.6647 0.9643
6.4140 -6.9787 -0.6950 0.9627
7.4934 -6.8162 -0.7427 0.9602
8.5815 -6.5060 -0.7896 0.9577
11.3680 -5.7723 -0.9348 0.9502
10.3512 4.6770 -0.8329 0.9555
9.5893 5.4118 -0.8074 0.9568
7.5864 7.5360 -0.7841 0.9580
9.2966 11.0529 -1.0590 0.9437
6.1400 10.7122 -0.9053 0.9517
3.6285 10.2051 -0.7941 0.9575
0.4455 6.0621 -0.4457 0.9759
-0.1390 8.6525 -0.6345 0.9659
-1.4166 13.3786 -0.9864 0.9475
-3.2156 11.0028 -0.8405 0.9551
-7.0100 11.3671 -0.9792 0.9478
-8.3032 11.1051 -1.0167 0.9459
-9.7111 10.8198 -1.0660 0.9434
-11.2306 10.4609 -1.1253 0.9403
-12.8964 10.0194 -1.1974 0.9366
-10.8682 4.4959 -0.8624 0.9539
-13.2708 -10.7498 -1.2522 0.9338
-10.4171 -10.1062 -1.0642 0.9435
-8.4651 -9.8261 -0.9510 0.9493
-6.8310 -9.5341 -0.8600 0.9540
-4.2828 -9.0302 -0.7328 0.9607
-3.3268 -9.0176 -0.7047 0.9622
-1.4698 -17.2157 -1.2669 0.9330
0.0357 -8.4046 -0.6162 0.9669
3.0196 -16.3070 -1.2160 0.9356
3.7168 -7.6676 -0.6248 0.9664
8.9498 -14.9039 -1.2747 0.9327
10.7485 -14.7354 -1.3373 0.9295
6.2559 -7.1381 -0.6959 0.9626
7.0745 -6.7475 -0.7168 0.9615
12.6733 -5.4189 -1.0106 0.9462
9.6848 5.1678 -0.8049 0.9569
13.6038 10.7558 -1.2716 0.9328
9.8949 11.2151 -1.0966 0.9418
5.1375 10.5098 -0.8577 0.9542
2.8436 10.0465 -0.7656 0.9590
0.0658 8.6939 -0.6375 0.9657
-2.9502 11.0587 -0.8392 0.9551
-2.1508 5.8898 -0.4597 0.9752
-5.4899 11.6749 -0.9459 0.9496
-9.0916 10.6244 -1.0253 0.9455
-10.8008 10.5480 -1.1069 0.9412
-13.0170 10.6157 -1.2316 0.9349
-14.1816 9.5926 -1.2554 0.9336
-10.9671 4.8434 -0.8791 0.9531
-12.7259 4.3085 -0.9851 0.9475
-13.4484 3.2487 -1.0144 0.9460
-14.0442 -10.8368 -1.3007 0.9313
-11.0505 -10.2250 -1.1039 0.9414
-3.6159 -9.1306 -0.7201 0.9614
-1.8898 -17.3008 -1.2761 0.9326
-0.1633 -8.4243 -0.6178 0.9668
3.5036 -7.6854 -0.6193 0.9667
4.2505 -7.4729 -0.6304 0.9661
7.9568 -6.6471 -0.7602 0.9593
14.5972 -5.1351 -1.1346 0.9398
17.6830 -4.4934 -1.3378 0.9294
9.7699 4.9203 -0.8021 0.9571
6.9341 10.8725 -0.9455 0.9496
5.4853 10.5800 -0.8738 0.9533
4.2314 10.3268 -0.8183 0.9562
3.1190 10.1021 -0.7752 0.9585
1.2726 10.4999 -0.7755 0.9585
-0.5386 9.2388 -0.6786 0.9636
-2.8866 11.9469 -0.9012 0.9519
-2.0126 5.9436 -0.4601 0.9751
-5.1840 11.7368 -0.9408 0.9498
-6.3615 11.4984 -0.9635 0.9487
14.5049 5.4363 -1.4871 0.9397
9.5417 5.6863 -1.0664 0.9563
12.7885 11.1325 -1.6278 0.9341
6.6304 9.9834 -1.1506 0.9530
3.3391 10.1445 -1.0253 0.9580
0.4363 8.7670 -0.8427 0.9653
-2.9039 13.0751 -1.2859 0.9476
-5.9897 11.3162 -1.2292 0.9499
-8.4881 10.8099 -1.3195 0.9463
-9.9035 10.5230 -1.3873 0.9436
-13.2959 9.8349 -1.5877 0.9357
-15.7431 -11.1216 -1.8505 0.9255
-12.3884 -10.5294 -1.5609 0.9368
-2.9901 -8.7351 -0.8864 0.9636
0.2307 -8.2730 -0.7946 0.9673
1.6549 -7.8909 -0.7740 0.9681
2.3629 -7.7441 -0.7773 0.9680
3.8216 -7.4312 -0.8022 0.9670
4.5930 -7.2545 -0.8243 0.9661
6.2832 -6.8364 -0.8914 0.9634
8.4589 -6.4130 -1.0191 0.9582
16.2388 -4.8636 -1.6274 0.9342
10.2563 4.6341 -1.0805 0.9558
9.2964 11.0525 -1.3865 0.9436
5.6680 9.8887 -1.0943 0.9552
2.5743 9.9900 -0.9904 0.9594
0.4453 6.0602 -0.5834 0.9759
-0.1390 8.6508 -0.8306 0.9658
-2.5937 13.1378 -1.2856 0.9476
-3.1214 10.6804 -1.0683 0.9563
-5.6826 11.3784 -1.2210 0.9502
-9.5153 10.6017 -1.3676 0.9444
-12.6562 9.8328 -1.5387 0.9376
-8.4631 -9.8239 -1.2449 0.9492
-5.3678 -9.1137 -1.0154 0.9584
-2.3004 -8.5098 -0.8463 0.9652
-0.7231 -8.4692 -0.8160 0.9664
0.0342 -8.0437 -0.7722 0.9682
0.7646 -8.1381 -0.7847 0.9677
1.4908 -8.0509 -0.7861 0.9676
2.2072 -7.8979 -0.7873 0.9676
3.6375 -7.5041 -0.8006 0.9670
5.2196 -7.1556 -0.8503 0.9650
7.0175 -6.6931 -0.9310 0.9618
10.9152 -5.8709 -1.1899 0.9514
11.3548 4.8107 -1.1839 0.9517
6.1123 10.1028 -1.1336 0.9537
3.9245 10.2626 -1.0548 0.9568
0.0657 8.6921 -0.8345 0.9657
-3.0526 11.4425 -1.1370 0.9535
-2.1419 5.8653 -0.5995 0.9752
-6.5485 11.2030 -1.2458 0.9492
-7.7916 10.9511 -1.2903 0.9474
-10.6253 10.3766 -1.4258 0.9421
-12.7258 4.3085 -1.2899 0.9474
-13.3382 3.2221 -1.3174 0.9464
-14.4833 -11.1756 -1.7563 0.9291
-11.0973 -10.2683 -1.4515 0.9411
-8.8335 -9.7767 -1.2650 0.9484
-3.5185 -8.8848 -0.9174 0.9623
-2.5804 -8.7220 -0.8732 0.9641
-1.6938 -8.4327 -0.8257 0.9660
-0.9292 -8.5065 -0.8215 0.9662
-0.1578 -8.1435 -0.7820 0.9678
0.5815 -8.2876 -0.7976 0.9672
1.9899 -7.8296 -0.7756 0.9681
2.7030 -7.6825 -0.7819 0.9678
3.4803 -7.6343 -0.8055 0.9668
4.9604 -7.1492 -0.8354 0.9656
5.8552 -7.0083 -0.8767 0.9640
6.6840 -6.6837 -0.9075 0.9627
7.8066 -6.5216 -0.9766 0.9599
8.9447 -6.2056 -1.0452 0.9572
10.4773 -5.9588 -1.1572 0.9527
12.1792 -5.5516 -1.2850 0.9476
17.9843 -4.5700 -1.7815 0.9281
13.1021 5.1894 -1.3529 0.9449
7.1245 7.7003 -1.0072 0.9587
5.2275 10.0828 -1.0904 0.9554
4.2304 10.3244 -1.0712 0.9562
2.1483 10.0771 -0.9892 0.9594
1.2724 10.4977 -1.0152 0.9584
-1.9727 13.2634 -1.2874 0.9475
-2.8860 11.9446 -1.1797 0.9518
-2.0067 5.9261 -0.6007 0.9752
-6.2334 11.2668 -1.2362 0.9496
-7.4543 11.0195 -1.2772 0.9479
9.4737 5.6458 -1.3100 0.9565
13.0683 9.4654 -1.9167 0.9371
7.2087 7.5075 -1.2363 0.9589
5.9006 7.3617 -1.1207 0.9627
5.3290 9.8285 -1.3281 0.9560
4.3555 10.0925 -1.3057 0.9567
3.2485 9.8692 -1.2342 0.9590
2.2489 9.6675 -1.1790 0.9608
1.4683 10.4841 -1.2575 0.9583
0.4362 8.7652 -1.0425 0.9653
-0.3420 8.6098 -1.0235 0.9659
-1.5866 12.2194 -1.4637 0.9516
-1.9042 5.9864 -0.7462 0.9750
-8.4862 10.8075 -1.6323 0.9462
-9.9012 10.5205 -1.7161 0.9435
-11.4826 10.1996 -1.8244 0.9400
-13.1179 9.7032 -1.9382 0.9364
-13.8568 8.4472 -1.9277 0.9367
-14.4724 7.1349 -1.9167 0.9371
-15.3215 4.3922 -1.8933 0.9378
-16.8241 3.2315 -2.0350 0.9333
-16.9463 1.7061 -2.0232 0.9337
-16.7560 -1.3181 -1.9965 0.9345
-16.0428 -4.2222 -1.9706 0.9354
-15.5028 -5.6023 -1.9581 0.9358
-13.2264 -9.3437 -1.9236 0.9369
-12.2270 -10.3922 -1.9061 0.9374
-10.2156 -10.3905 -1.7309 0.9430
-8.0092 -9.7539 -1.4992 0.9504
-6.3393 -9.3046 -1.3374 0.9557
-2.9956 -8.7514 -1.0988 0.9634
-1.2637 -8.3075 -0.9982 0.9667
-0.5102 -8.2802 -0.9854 0.9671
0.9231 -7.8330 -0.9369 0.9687
1.6448 -7.8425 -0.9518 0.9682
2.3200 -7.6035 -0.9443 0.9685
11.3111 -5.7434 -1.5069 0.9502
13.5042 -5.4004 -1.7276 0.9431
16.6647 -0.3789 -1.9800 0.9351
16.4929 4.1330 -2.0197 0.9338
16.1639 5.6262 -2.0330 0.9334
13.2675 9.1397 -1.9137 0.9372
12.4707 10.3480 -1.9249 0.9368
9.2961 11.0522 -1.7155 0.9435
7.0442 10.0811 -1.4609 0.9517
4.6371 10.0833 -1.3183 0.9563
2.5044 9.7190 -1.1922 0.9604
-0.1390 8.6490 -1.0275 0.9658
-1.2975 12.2543 -1.4638 0.9516
-2.3856 12.0837 -1.4631 0.9516
-2.3069 5.8821 -0.7505 0.9749
-9.5131 10.5992 -1.6918 0.9442
-11.0454 10.2883 -1.7930 0.9410
-10.7880 4.4628 -1.3868 0.9541
-15.2389 4.7610 -1.8965 0.9377
-15.5038 3.3596 -1.8844 0.9381
-16.8119 -0.9234 -2.0000 0.9344
-16.1657 -3.8485 -1.9739 0.9353
-15.0322 -6.5793 -1.9492 0.9360
-14.2986 -7.8482 -1.9375 0.9364
-8.4331 -9.7890 -1.5348 0.9493
-4.2113 -8.8794 -1.1674 0.9612
-3.2194 -8.7263 -1.1048 0.9632
-1.4721 -8.3456 -1.0066 0.9664
0.7494 -7.9769 -0.9517 0.9682
2.1646 -7.7452 -0.9553 0.9681
2.8578 -7.5479 -0.9587 0.9680
5.1569 -7.0697 -1.0395 0.9654
6.1341 -6.9991 -1.1055 0.9632
7.0231 -6.6984 -1.1528 0.9617
9.2162 -6.0765 -1.3113 0.9565
16.3815 -2.2382 -1.9640 0.9356
16.6225 -0.7713 -1.9766 0.9352
16.7132 2.2272 -2.0028 0.9343
16.2641 5.2336 -2.0295 0.9335
9.6103 5.1281 -1.2939 0.9571
9.4597 6.1922 -1.3430 0.9555
9.8884 11.2077 -1.7754 0.9416
5.9955 9.9098 -1.3758 0.9544
4.9968 10.2219 -1.3515 0.9552
1.9250 10.2068 -1.2338 0.9590
1.0110 10.3918 -1.2402 0.9588
-0.9523 11.6068 -1.3834 0.9542
-2.0998 12.1390 -1.4634 0.9516
-3.0537 11.4468 -1.4073 0.9534
-5.3782 11.4375 -1.5013 0.9504
-6.5472 11.2006 -1.5411 0.9491
-7.7899 10.9487 -1.5961 0.9473
-9.0875 10.6195 -1.6603 0.9453
-13.4813 9.1189 -1.9333 0.9365
-14.1627 7.8347 -1.9226 0.9369
-10.7911 4.7657 -1.4013 0.9536
-13.2984 3.2124 -1.6251 0.9464
-16.9054 2.5136 -2.0302 0.9335
-16.9503 0.9873 -2.0169 0.9339
-16.2800 -3.4714 -1.9773 0.9351
-14.5027 -7.5199 -1.9405 0.9363
-12.7881 -9.8676 -1.9187 0.9370
-7.1844 -9.5427 -1.4189 0.9530
-5.8056 -9.3448 -1.3068 0.9567
-4.4986 -8.9336 -1.1881 0.9605
-3.4807 -8.7893 -1.1229 0.9626
0.5605 -7.9886 -0.9513 0.9683
1.2510 -7.7783 -0.9358 0.9688
1.9837 -7.8050 -0.9566 0.9681
3.3694 -7.3910 -0.9649 0.9678
5.7922 -6.9328 -1.0731 0.9643
6.7140 -6.7136 -1.1278 0.9625
7.7162 -6.4461 -1.1943 0.9603
8.9428 -6.2042 -1.2929 0.9571
12.1158 -5.5227 -1.5817 0.9478
14.2789 -5.0231 -1.7980 0.9408
16.2967 -2.6202 -1.9607 0.9357
16.7318 1.8284 -1.9993 0.9344
16.3549 4.8394 -2.0260 0.9336
9.7192 4.8947 -1.2926 0.9571
9.4523 5.8730 -1.3219 0.9562
12.9063 9.7177 -1.9191 0.9370
7.0906 7.6637 -1.2402 0.9588
4.1156 10.0441 -1.2894 0.9572
3.0337 9.8259 -1.2215 0.9594
0.2725 8.7322 -1.0378 0.9654
-1.8126 12.1869 -1.4636 0.9516
-7.4527 11.0171 -1.5800 0.9478
10.8859 7.8847 -1.9045 0.9471
7.1693 7.4664 -1.4667 0.9590
5.8987 7.3592 -1.3363 0.9626
6.6617 10.0306 -1.7061 0.9525
4.3544 10.0901 -1.5571 0.9566
2.2484 9.6654 -1.4060 0.9607
1.4123 10.0841 -1.4428 0.9597
-1.9163 6.0244 -0.8957 0.9748
-9.3723 9.9586 -1.9377 0.9463
-10.1853 9.0473 -1.9303 0.9464
-10.9069 8.0678 -1.9222 0.9467
-10.3958 4.0155 -1.5790 0.9560
-14.1755 1.4272 -2.0187 0.9441
-14.1676 0.1547 -2.0075 0.9444
-13.4770 -3.5470 -1.9746 0.9453
-11.8691 -6.8845 -1.9442 0.9461
-11.1535 -7.8793 -1.9349 0.9463
-10.3586 -8.8042 -1.9262 0.9466
-7.9051 -9.6271 -1.7650 0.9509
-6.4007 -9.3947 -1.6107 0.9551
-2.0808 -8.4891 -1.2384 0.9653
-1.2970 -8.5262 -1.2220 0.9658
-0.5012 -8.1339 -1.1547 0.9676
0.9360 -7.9425 -1.1332 0.9682
3.0136 -7.4248 -1.1354 0.9681
5.4263 -7.0814 -1.2641 0.9646
6.2665 -6.8181 -1.3121 0.9633
8.4281 -6.3897 -1.4986 0.9582
9.7100 -6.0778 -1.6231 0.9548
11.2341 -5.7044 -1.7852 0.9504
13.1928 -3.9513 -1.9513 0.9459
13.5625 -2.7716 -1.9614 0.9456
13.8291 -1.5576 -1.9718 0.9453
13.9887 -0.3181 -1.9826 0.9450
13.9760 2.1997 -2.0046 0.9444
13.8001 3.4582 -2.0158 0.9441
10.4760 4.7334 -1.6288 0.9546
9.5624 5.3966 -1.5558 0.9566
10.3807 8.6138 -1.9113 0.9470
7.5166 7.4667 -1.5012 0.9581
8.7599 10.4148 -1.9282 0.9465
5.6775 9.9054 -1.6177 0.9549
0.4451 6.0566 -0.8605 0.9758
-1.2295 11.6121 -1.6545 0.9539
-8.1323 10.8765 -1.9242 0.9466
-9.1431 10.1869 -1.9395 0.9462
-9.9791 9.2951 -1.9323 0.9464
-10.7254 8.3327 -1.9244 0.9466
-10.5131 5.4955 -1.6808 0.9532
-10.2087 4.2231 -1.5653 0.9563
-13.8868 -2.0178 -1.9883 0.9449
-13.1627 -4.4079 -1.9668 0.9455
-12.6500 -5.5367 -1.9565 0.9457
-12.0441 -6.6107 -1.9467 0.9460
-11.3506 -7.6230 -1.9373 0.9463
-10.5760 -8.5669 -1.9285 0.9465
-9.7263 -9.4360 -1.9201 0.9467
-5.4078 -9.1816 -1.5098 0.9579
-2.2935 -8.4844 -1.2453 0.9651
-1.4790 -8.3850 -1.2064 0.9662
-0.7012 -8.2129 -1.1679 0.9672
0.0344 -8.0869 -1.1458 0.9679
0.7454 -7.9343 -1.1292 0.9683
2.8629 -7.5613 -1.1456 0.9679
5.1401 -7.0467 -1.2358 0.9654
6.1559 -7.0240 -1.3233 0.9630
6.9766 -6.6541 -1.3660 0.9618
11.0829 -5.9611 -1.7831 0.9504
12.5261 -5.3559 -1.9303 0.9465
13.4747 -3.0870 -1.9587 0.9457
14.0361 0.6047 -1.9906 0.9448
13.8576 3.1265 -2.0128 0.9442
13.5979 4.3756 -2.0240 0.9439
9.6267 5.1368 -1.5460 0.9569
9.8253 9.3092 -1.9178 0.9468
7.0460 7.9861 -1.5090 0.9579
4.9955 10.2193 -1.6117 0.9551
3.8171 9.9818 -1.5142 0.9577
2.7652 9.7696 -1.4386 0.9598
1.8857 9.9985 -1.4417 0.9597
-0.9521 11.6045 -1.6498 0.9541
-1.9823 11.4599 -1.6479 0.9541
-2.1375 5.8535 -0.8829 0.9751
-7.7882 10.9463 -1.9035 0.9472
-10.5372 8.5934 -1.9266 0.9466
-11.2138 7.5851 -1.9182 0.9468
-11.7916 6.5230 -1.9093 0.9470
-10.2850 4.5422 -1.5931 0.9556
-14.1333 2.1014 -2.0245 0.9439
-14.1860 0.8263 -2.0134 0.9442
-13.6688 -2.9146 -1.9803 0.9451
-13.2818 -4.1014 -1.9696 0.9454
-12.7948 -5.2434 -1.9592 0.9457
-12.2130 -6.3326 -1.9492 0.9459
-11.5420 -7.3619 -1.9397 0.9462
-10.7883 -8.3244 -1.9307 0.9464
-9.9582 -9.2143 -1.9223 0.9467
-8.7656 -9.7017 -1.8526 0.9485
-7.2327 -9.6069 -1.7038 0.9526
-5.7472 -9.2507 -1.5431 0.9570
-4.5375 -9.0110 -1.4295 0.9601
-3.4739 -8.7722 -1.3368 0.9626
-2.5868 -8.7438 -1.2920 0.9638
0.5570 -7.9394 -1.1277 0.9684
1.9469 -7.6604 -1.1199 0.9686
2.6547 -7.5453 -1.1333 0.9682
4.1604 -7.3144 -1.1923 0.9666
4.9169 -7.0865 -1.2221 0.9658
5.7918 -6.9324 -1.2799 0.9642
6.6809 -6.6805 -1.3387 0.9626
12.0061 -5.4727 -1.8695 0.9481
13.3797 -3.3999 -1.9560 0.9458
13.7013 -2.2029 -1.9663 0.9455
13.9178 -0.9758 -1.9768 0.9452
14.0260 0.2725 -1.9877 0.9449
14.0230 1.5324 -1.9987 0.9446
13.9073 2.7941 -2.0099 0.9443
13.6776 4.0472 -2.0210 0.9440
9.7297 4.9000 -1.5436 0.9569
7.0570 7.6274 -1.4723 0.9589
6.4620 10.1323 -1.7028 0.9526
4.1146 10.0417 -1.5376 0.9571
2.0520 9.6257 -1.3945 0.9610
-0.5383 9.2343 -1.3106 0.9633
-1.7126 11.5144 -1.6494 0.9541
-2.7322 11.3082 -1.6483 0.9541
-6.2308 11.2621 -1.8237 0.9493
11.1300 5.3491 -2.0343 0.9512
10.0525 7.2811 -2.0448 0.9509
5.3329 9.8358 -1.8432 0.9557
4.3534 10.0876 -1.8100 0.9564
3.2470 9.8647 -1.7109 0.9588
2.2480 9.6632 -1.6344 0.9606
-1.4600 11.2442 -1.8679 0.9551
-1.9185 6.0312 -1.0426 0.9747
-2.5035 5.9646 -1.0656 0.9741
-5.5052 10.4010 -1.9387 0.9534
-7.2334 9.2121 -1.9295 0.9536
-9.3251 6.8977 -1.9108 0.9541
-10.3211 5.0883 -1.8957 0.9544
-10.9650 3.1433 -1.8791 0.9548
-12.1725 1.2255 -2.0154 0.9516
-12.1752 0.1329 -2.0059 0.9518
-11.8907 -2.0157 -1.9868 0.9523
-11.6085 -3.0552 -1.9775 0.9525
-11.2375 -4.0609 -1.9684 0.9527
-9.6340 -6.8059 -1.9432 0.9533
-8.9529 -7.6094 -1.9356 0.9535
-6.2657 -9.1965 -1.8332 0.9559
-0.5049 -8.1951 -1.3526 0.9673
0.2262 -8.1093 -1.3364 0.9676
1.6305 -7.7742 -1.3086 0.9683
3.0522 -7.5197 -1.3369 0.9676
6.2062 -6.7525 -1.5109 0.9635
7.2409 -6.5866 -1.6125 0.9611
8.4220 -6.3851 -1.7411 0.9581
10.9855 -4.3931 -1.9491 0.9532
11.6930 -2.3895 -1.9661 0.9528
12.0425 -0.2738 -1.9844 0.9523
12.0760 0.8065 -1.9938 0.9521
10.6110 4.7944 -1.9182 0.9539
10.7899 6.0894 -2.0411 0.9510
8.8826 7.3707 -1.9015 0.9543
7.0447 6.9979 -1.6358 0.9605
5.6807 9.9108 -1.8819 0.9547
4.6348 10.0783 -1.8274 0.9560
3.5276 9.9212 -1.7346 0.9582
1.5419 9.3890 -1.5675 0.9622
-0.1389 8.6455 -1.4244 0.9656
-2.1907 11.0964 -1.8633 0.9552
-2.2930 5.8467 -1.0346 0.9749
-7.8069 8.6982 -1.9255 0.9537
-8.5254 7.9410 -1.9194 0.9539
-9.1684 7.1231 -1.9127 0.9540
-9.7310 6.2522 -1.9054 0.9542
-10.2092 5.3366 -1.8978 0.9544
-10.1370 4.1934 -1.8072 0.9565
-12.0048 2.6014 -2.0236 0.9514
-11.9500 -1.7364 -1.9893 0.9522
-11.6919 -2.7834 -1.9799 0.9524
-11.3439 -3.7988 -1.9708 0.9527
-10.9100 -4.7751 -1.9619 0.9529
-9.1393 -7.4031 -1.9376 0.9534
-8.4105 -8.1595 -1.9304 0.9536
-7.6220 -8.8475 -1.9238 0.9538
-6.6377 -9.2643 -1.8775 0.9548
-5.4421 -9.2398 -1.7666 0.9575
-4.2643 -8.9912 -1.6393 0.9605
-1.4822 -8.4029 -1.4057 0.9660
0.7502 -7.9853 -1.3213 0.9680
3.5482 -7.3198 -1.3401 0.9676
8.1404 -6.4801 -1.7141 0.9587
9.1861 -6.0566 -1.8126 0.9564
10.8667 -4.6464 -1.9469 0.9532
11.2857 -3.6728 -1.9552 0.9530
11.6195 -2.6620 -1.9638 0.9528
11.8646 -1.6210 -1.9727 0.9526
12.0177 -0.5576 -1.9819 0.9524
12.0391 1.6043 -2.0008 0.9520
11.9044 2.6858 -2.0104 0.9517
11.6722 3.7559 -2.0200 0.9515
11.3429 4.8057 -2.0294 0.9513
10.3997 6.8074 -2.0476 0.9509
9.0445 7.1510 -1.8994 0.9543
7.4895 7.0960 -1.6997 0.9590
6.6718 7.5620 -1.6613 0.9599
5.9931 9.9057 -1.9073 0.9542
4.9942 10.2167 -1.8734 0.9549
3.8162 9.9794 -1.7601 0.9576
2.7646 9.7674 -1.6723 0.9597
1.7798 9.4370 -1.5821 0.9618
-1.9286 11.1494 -1.8640 0.9552
-2.8487 10.6782 -1.8206 0.9562
-2.1372 5.8525 -1.0264 0.9751
-5.0126 10.6599 -1.9406 0.9534
-5.9329 10.1498 -1.9368 0.9535
-6.7996 9.5569 -1.9322 0.9536
-7.6051 8.8872 -1.9270 0.9537
-8.3426 8.1474 -1.9210 0.9538
-9.0061 7.3447 -1.9145 0.9540
-10.2128 4.5103 -1.8392 0.9557
-10.8300 3.6666 -1.8836 0.9547
-12.1860 0.7098 -2.0109 0.9517
-11.4444 -3.5340 -1.9732 0.9526
-11.0328 -4.5213 -1.9642 0.9528
-9.9662 -6.3568 -1.9474 0.9532
-8.6091 -7.9660 -1.9323 0.9536
-7.8358 -8.6726 -1.9255 0.9537
-6.9838 -9.2762 -1.9128 0.9540
-4.5981 -9.1313 -1.6842 0.9594
-1.6838 -8.3832 -1.4086 0.9659
-0.9049 -8.2846 -1.3729 0.9668
-0.1585 -8.1765 -1.3472 0.9674
0.5569 -7.9375 -1.3108 0.9683
2.6492 -7.5295 -1.3149 0.9682
3.3956 -7.4485 -1.3486 0.9674
4.0842 -7.1805 -1.3609 0.9671
6.7067 -6.7064 -1.5625 0.9623
8.8920 -6.1689 -1.7829 0.9571
10.7423 -4.8966 -1.9448 0.9533
11.1830 -3.9340 -1.9530 0.9531
11.5398 -2.9323 -1.9615 0.9529
11.9863 -0.8404 -1.9795 0.9525
12.0702 0.2345 -1.9888 0.9522
12.0584 1.3177 -1.9983 0.9520
11.9495 2.4008 -2.0079 0.9518
11.4392 4.5307 -2.0269 0.9513
11.0394 5.5596 -2.0362 0.9511
10.5124 6.5317 -2.0389 0.9511
7.9706 7.2023 -1.7697 0.9574
3.0323 9.8214 -1.6933 0.9592
1.1279 9.3054 -1.5442 0.9627
-0.5382 9.2327 -1.5236 0.9632
-1.6662 11.2025 -1.8658 0.9551
-2.6582 11.0018 -1.8646 0.9552
-1.9983 5.9014 -1.0264 0.9751
-4.7615 10.7802 -1.9414 0.9533
-5.6946 10.2929 -1.9379 0.9534
8.8118 6.3824 -2.0451 0.9567
7.9048 6.8811 -1.9699 0.9582
5.8946 7.3542 -1.7716 0.9624
4.0533 9.3923 -1.9228 0.9592
0.4359 8.7598 -1.6485 0.9649
-0.3418 8.6048 -1.6186 0.9656
-1.3248 10.2029 -1.9338 0.9590
-1.9216 6.0410 -1.1915 0.9745
-2.4629 5.8679 -1.1961 0.9744
-4.7945 9.0582 -1.9264 0.9591
-6.3034 8.0277 -1.9185 0.9593
-6.9774 7.4138 -1.9136 0.9594
-7.5899 6.7419 -1.9082 0.9595
-8.6123 5.2501 -1.8958 0.9598
-9.0144 4.4441 -1.8891 0.9599
-9.3401 3.6077 -1.8820 0.9601
-10.3549 2.9685 -2.0247 0.9571
-10.6556 1.0728 -2.0130 0.9573
-10.6643 0.1165 -2.0046 0.9575
-10.1858 -2.6807 -1.9797 0.9580
-9.8658 -3.5652 -1.9717 0.9582
-9.4707 -4.4146 -1.9640 0.9584
-9.0044 -5.2229 -1.9566 0.9585
-7.8760 -6.6942 -1.9429 0.9588
-4.9595 -8.8946 -1.9142 0.9594
-3.0459 -8.8982 -1.7678 0.9624
-1.2824 -8.4304 -1.6028 0.9659
-0.5003 -8.1201 -1.5291 0.9674
0.9307 -7.8972 -1.4946 0.9682
1.6121 -7.6868 -1.4762 0.9685
3.0053 -7.4041 -1.5020 0.9680
4.5944 -7.2567 -1.6144 0.9656
6.4002 -6.9636 -1.7777 0.9622
9.9998 -2.9949 -1.9621 0.9584
10.4555 -1.1776 -1.9776 0.9581
10.5621 -0.2401 -1.9858 0.9579
10.5238 1.6564 -2.0024 0.9576
10.1452 3.5313 -2.0191 0.9572
9.8291 4.4411 -2.0273 0.9571
8.9514 6.1664 -2.0431 0.9567
8.3646 6.9409 -2.0430 0.9567
5.8271 8.3394 -1.9122 0.9594
4.2717 9.2888 -1.9217 0.9592
3.4319 9.6522 -1.9255 0.9592
2.5028 9.7125 -1.8852 0.9600
-1.0834 10.2317 -1.9339 0.9590
-2.8835 9.8663 -1.9320 0.9590
-4.5812 9.1730 -1.9272 0.9591
-8.4935 5.4571 -1.8976 0.9597
-10.1931 3.1846 -2.0072 0.9575
-10.5210 2.2799 -2.0234 0.9571
-10.6161 -0.5831 -1.9984 0.9576
-10.4778 -1.5225 -1.9901 0.9578
-10.2574 -2.4419 -1.9819 0.9580
-9.5822 -4.1939 -1.9660 0.9583
-8.6184 -5.7881 -1.9514 0.9586
-7.4013 -7.1804 -1.9383 0.9589
-5.9713 -8.3342 -1.9271 0.9591
-4.1592 -8.7696 -1.8243 0.9613
-1.4927 -8.4628 -1.6152 0.9656
-0.7017 -8.2185 -1.5504 0.9670
0.7515 -7.9988 -1.5101 0.9678
3.5576 -7.3393 -1.5330 0.9673
4.2933 -7.1496 -1.5675 0.9666
5.1847 -7.1079 -1.6537 0.9648
6.8588 -6.5416 -1.7815 0.9622
7.9136 -6.2996 -1.9012 0.9597
9.1179 -4.9042 -1.9460 0.9587
10.2041 -2.3377 -1.9677 0.9583
10.5874 0.4561 -1.9919 0.9578
10.2148 3.2870 -2.0169 0.9573
9.5437 5.0925 -2.0332 0.9569
7.3338 6.9486 -1.8989 0.9597
5.4721 7.4500 -1.7375 0.9631
5.2766 8.7215 -1.9160 0.9594
1.1239 5.9595 -1.1399 0.9756
0.8932 9.1807 -1.7338 0.9632
0.0657 8.6850 -1.6325 0.9653
-2.6501 9.9338 -1.9325 0.9590
-4.3649 9.2825 -1.9280 0.9591
-5.1676 8.8406 -1.9247 0.9592
-6.6285 7.7459 -1.9162 0.9594
-9.1777 4.0531 -1.8858 0.9600
-10.5224 -1.2759 -1.9923 0.9578
-10.3235 -2.2013 -1.9840 0.9579
-10.0445 -3.1017 -1.9759 0.9581
-8.7611 -5.5881 -1.9532 0.9586
-8.1981 -6.3258 -1.9463 0.9587
-6.8977 -7.6343 -1.9339 0.9590
-6.1709 -8.1966 -1.9284 0.9591
-5.3943 -8.6828 -1.9213 0.9592
-4.4420 -8.8213 -1.8564 0.9606
-3.4660 -8.7522 -1.7694 0.9624
-2.5993 -8.7858 -1.7221 0.9634
-1.6948 -8.4379 -1.6177 0.9656
1.2552 -7.8048 -1.4858 0.9683
3.3599 -7.3701 -1.5225 0.9676
4.1446 -7.2866 -1.5756 0.9665
4.9342 -7.1115 -1.6269 0.9654
6.6960 -6.6957 -1.7799 0.9622
7.6199 -6.3656 -1.8662 0.9604
9.4448 -4.3052 -1.9510 0.9586
10.5835 0.2056 -1.9897 0.9578
10.4653 2.1026 -2.0064 0.9575
10.2784 3.0414 -2.0147 0.9573
9.6513 4.8606 -2.0311 0.9570
8.6986 6.5495 -2.0466 0.9567
7.5473 6.8197 -1.9119 0.9594
5.6372 7.3064 -1.7346 0.9631
4.7003 9.0658 -1.9194 0.9593
3.8802 9.4698 -1.9236 0.9592
3.0245 9.7962 -1.9271 0.9591
1.0880 8.9766 -1.6996 0.9639
-0.5381 9.2312 -1.7381 0.9631
-4.1460 9.3868 -1.9288 0.9591
8.9415 3.3512 -2.0184 0.9617
8.6373 4.1511 -2.0257 0.9616
8.2607 4.9229 -2.0327 0.9614
7.2964 6.3515 -2.0448 0.9612
6.3025 6.5637 -1.9235 0.9635
5.6240 7.0166 -1.9008 0.9639
2.0575 8.8444 -1.9194 0.9636
0.8252 5.8923 -1.2577 0.9760
-2.7553 8.6621 -1.9214 0.9635
-2.4446 5.8244 -1.3352 0.9745
-4.9327 7.5912 -1.9136 0.9637
-6.7229 5.9717 -1.9008 0.9639
-7.2094 5.3328 -1.8955 0.9640
-7.6341 4.6538 -1.8899 0.9641
-9.2118 2.6408 -2.0256 0.9616
-9.3773 1.8011 -2.0184 0.9617
-9.4660 0.9530 -2.0110 0.9619
-9.0654 -2.3859 -1.9815 0.9624
-8.0242 -4.6544 -1.9608 0.9628
-7.5521 -5.3351 -1.9545 0.9629
-7.0240 -5.9700 -1.9486 0.9630
-6.4444 -6.5547 -1.9430 0.9631
-5.8180 -7.0853 -1.9379 0.9632
-5.1496 -7.5585 -1.9333 0.9633
-3.7046 -8.3129 -1.9238 0.9635
-2.0445 -8.3410 -1.8153 0.9655
-1.2606 -8.2868 -1.7718 0.9663
-0.5145 -8.3508 -1.7685 0.9664
4.4992 -7.1064 -1.7779 0.9662
5.2525 -6.8546 -1.8254 0.9653
6.7724 -6.1603 -1.9352 0.9633
7.3198 -5.5494 -1.9417 0.9631
7.8080 -4.8872 -1.9471 0.9630
8.9085 -2.6681 -1.9657 0.9627
9.3064 -1.0482 -1.9796 0.9624
9.3544 1.4723 -2.0017 0.9620
9.0095 3.1359 -2.0165 0.9617
8.7248 3.9422 -2.0238 0.9616
7.4425 6.1757 -2.0443 0.9612
6.6703 6.6260 -1.9874 0.9623
5.7842 6.8768 -1.8994 0.9639
3.7807 8.2210 -1.9127 0.9637
3.0367 8.5407 -1.9161 0.9636
2.2651 8.7904 -1.9188 0.9636
0.9731 5.9250 -1.2692 0.9758
0.4394 5.9789 -1.2672 0.9758
-2.5504 8.7267 -1.9218 0.9635
-7.0867 5.5058 -1.8970 0.9640
-8.5391 3.5324 -1.9534 0.9629
-9.4500 1.1776 -2.0130 0.9618
-9.4823 0.3278 -2.0056 0.9620
-8.5346 -3.7354 -1.9693 0.9626
-8.1391 -4.4674 -1.9626 0.9628
-7.1688 -5.8070 -1.9501 0.9630
-3.1382 -8.5063 -1.9165 0.9636
-2.2660 -8.3824 -1.8355 0.9651
-1.4564 -8.2566 -1.7722 0.9663
0.0356 -8.3739 -1.7701 0.9663
0.7572 -8.0598 -1.7112 0.9674
1.4655 -7.9141 -1.7013 0.9676
5.0348 -6.9024 -1.8059 0.9657
5.8849 -6.7148 -1.8873 0.9642
7.1816 -5.7168 -1.9403 0.9632
7.6845 -5.0665 -1.9456 0.9631
8.1302 -4.3729 -1.9514 0.9630
8.5149 -3.6408 -1.9575 0.9628
9.0877 -2.0820 -1.9707 0.9626
9.0724 2.9194 -2.0146 0.9618
8.0587 5.2751 -2.0359 0.9614
5.3298 7.2562 -1.9031 0.9639
4.6717 7.7216 -1.9077 0.9638
3.2363 8.4629 -1.9152 0.9636
2.4714 8.7314 -1.9181 0.9636
1.1231 5.9553 -1.2810 0.9755
0.5836 5.9988 -1.2740 0.9757
-2.1320 5.8383 -1.3138 0.9749
-4.5728 7.8229 -1.9154 0.9636
-5.2436 7.3699 -1.9119 0.9637
-5.8684 6.8577 -1.9079 0.9638
-6.9598 5.6759 -1.8983 0.9639
-7.4175 5.0173 -1.8929 0.9641
-7.8119 4.3215 -1.8871 0.9642
-9.2994 2.2464 -2.0222 0.9616
-9.4287 1.4019 -2.0149 0.9618
-9.4812 0.5523 -2.0075 0.9619
-9.4574 -0.2955 -2.0001 0.9621
-9.3584 -1.1347 -1.9927 0.9622
-8.6284 -3.5360 -1.9711 0.9626
-8.2497 -4.2776 -1.9643 0.9627
-7.3099 -5.6404 -1.9517 0.9630
-6.7569 -6.2522 -1.9459 0.9631
-6.1546 -6.8118 -1.9406 0.9632
-4.8215 -7.7607 -1.9313 0.9633
-4.1009 -8.1438 -1.9274 0.9634
-3.3427 -8.4408 -1.9190 0.9636
-2.4924 -8.4246 -1.8571 0.9647
-0.9099 -8.3296 -1.7712 0.9663
-0.1596 -8.2346 -1.7410 0.9669
0.5672 -8.0847 -1.7131 0.9674
1.2820 -7.9711 -1.7066 0.9675
1.9771 -7.7790 -1.6966 0.9677
2.6753 -7.6037 -1.7039 0.9676
3.4414 -7.5489 -1.7537 0.9667
5.6530 -6.7662 -1.8637 0.9646
6.4533 -6.4530 -1.9291 0.9634
7.0397 -5.8809 -1.9390 0.9632
8.7569 -3.0805 -1.9622 0.9628
9.0277 -2.2940 -1.9689 0.9626
9.2289 -1.4839 -1.9759 0.9625
9.4141 0.1829 -1.9903 0.9622
9.3950 1.0267 -1.9977 0.9621
8.8845 3.5189 -2.0199 0.9617
8.5652 4.3136 -2.0271 0.9616
8.1738 5.0787 -2.0341 0.9614
7.1728 6.4813 -2.0435 0.9612
6.0937 6.5862 -1.8967 0.9640
1.8937 8.8831 -1.9199 0.9635
1.0878 8.9747 -1.9109 0.9637
0.2724 8.7281 -1.8458 0.9649
-2.1360 8.8406 -1.9225 0.9635
-1.9958 5.8940 -1.3154 0.9749
-4.3885 7.9322 -1.9162 0.9636
7.4159 4.4194 -2.0289 0.9651
6.5495 5.7013 -2.0408 0.9649
5.0621 6.3155 -1.9022 0.9673
4.4706 6.7314 -1.8991 0.9673
2.5398 7.7162 -1.9092 0.9672
0.8249 5.8905 -1.3979 0.9759
-1.0492 8.0805 -1.9150 0.9671
-1.7661 7.9520 -1.9145 0.9671
-5.5380 5.8844 -1.8991 0.9673
-6.0277 5.3543 -1.8948 0.9674
-6.4658 4.7827 -1.8902 0.9675
-7.5593 3.7267 -1.9808 0.9660
-8.0529 3.1105 -2.0289 0.9651
-8.5071 0.8565 -2.0095 0.9655
-8.5212 0.0930 -2.0028 0.9656
-8.4671 -0.6661 -1.9961 0.9657
-8.3459 -1.4148 -1.9895 0.9658
-7.9092 -2.8582 -1.9765 0.9660
-7.2297 -4.1935 -1.9643 0.9662
-6.8065 -4.8084 -1.9586 0.9663
-6.3325 -5.3822 -1.9532 0.9664
-5.2480 -6.3912 -1.9436 0.9666
-4.0109 -7.1933 -1.9356 0.9667
-2.6590 -7.7678 -1.9296 0.9668
-1.2283 -8.0748 -1.9196 0.9670
-0.4937 -8.0126 -1.8867 0.9676
2.2759 -7.4588 -1.8328 0.9685
2.9686 -7.3139 -1.8551 0.9681
3.6831 -7.1618 -1.8927 0.9675
4.3830 -6.9228 -1.9257 0.9669
5.5811 -6.0724 -1.9384 0.9667
6.1139 -5.5614 -1.9424 0.9666
6.6014 -5.0048 -1.9470 0.9665
7.0397 -4.4064 -1.9519 0.9665
7.4252 -3.7703 -1.9572 0.9664
7.7544 -3.1010 -1.9628 0.9663
8.0245 -2.4033 -1.9687 0.9662
8.3770 -0.9435 -1.9812 0.9660
8.4108 1.3238 -2.0011 0.9656
8.2866 2.0765 -2.0078 0.9655
8.0947 2.8175 -2.0144 0.9654
7.5121 4.2395 -2.0273 0.9652
7.1250 4.9083 -2.0334 0.9651
6.6775 5.5409 -2.0393 0.9650
5.3528 6.3640 -1.9544 0.9664
4.6257 6.6200 -1.8981 0.9674
0.4383 5.9648 -1.4057 0.9757
-0.1309 8.1469 -1.9149 0.9671
-2.2841 7.8154 -1.9136 0.9671
-4.8510 6.4879 -1.9039 0.9673
-5.9032 5.4986 -1.8960 0.9674
-6.3553 4.9375 -1.8914 0.9675
-7.2648 3.7975 -1.9266 0.9669
-7.9752 3.2991 -2.0284 0.9652
-7.6863 -3.3641 -1.9719 0.9661
-6.9234 -4.6497 -1.9601 0.9663
-5.4008 -6.2692 -1.9448 0.9666
-4.8087 -6.7115 -1.9404 0.9666
-2.8428 -7.7055 -1.9303 0.9668
-1.4198 -8.0495 -1.9210 0.9670
-0.6873 -8.0498 -1.8988 0.9673
1.4139 -7.6356 -1.8251 0.9686
3.4915 -7.2028 -1.8812 0.9676
4.2144 -7.0181 -1.9240 0.9669
4.8420 -6.6380 -1.9310 0.9668
5.4332 -6.1994 -1.9374 0.9667
6.4772 -5.1561 -1.9457 0.9666
7.3286 -3.9418 -1.9557 0.9664
7.6730 -3.2808 -1.9613 0.9663
8.3452 -1.1402 -1.9795 0.9660
8.4323 1.1237 -1.9993 0.9656
8.3260 1.8785 -2.0060 0.9655
8.1519 2.6232 -2.0126 0.9654
7.9108 3.3516 -2.0192 0.9653
7.6039 4.0575 -2.0256 0.9652
4.7781 6.5050 -1.8969 0.9674
4.1870 6.9206 -1.9010 0.9673
2.8994 7.5819 -1.9078 0.9672
2.2137 7.8211 -1.9104 0.9672
0.5820 5.9824 -1.4126 0.9756
0.0616 8.1471 -1.9148 0.9671
-0.6663 8.1214 -1.9151 0.9671
-2.1247 5.8183 -1.4558 0.9749
-3.4591 7.3562 -1.9105 0.9672
-5.2596 6.1463 -1.9012 0.9673
-5.7751 5.6399 -1.8972 0.9674
-7.0094 3.8775 -1.8826 0.9676
-7.8903 3.4846 -2.0272 0.9652
-8.4719 1.2596 -2.0130 0.9654
-8.5223 0.4964 -2.0063 0.9655
-8.5041 -0.2658 -1.9996 0.9656
-8.4182 -1.0207 -1.9930 0.9658
-7.7701 -3.1842 -1.9735 0.9661
-7.0367 -4.4883 -1.9616 0.9663
-6.5891 -5.0843 -1.9560 0.9664
-6.0925 -5.6374 -1.9508 0.9665
-5.5509 -6.1437 -1.9460 0.9666
-3.7011 -7.3499 -1.9340 0.9668
-3.0252 -7.6390 -1.9310 0.9668
0.5479 -7.8091 -1.8398 0.9683
1.2339 -7.6720 -1.8263 0.9686
1.9147 -7.5334 -1.8268 0.9686
3.3020 -7.2432 -1.8709 0.9678
4.0309 -7.0868 -1.9161 0.9671
5.8377 -5.8374 -1.9402 0.9666
6.3496 -5.3044 -1.9445 0.9666
6.8144 -4.7276 -1.9492 0.9665
8.3088 -1.3359 -1.9778 0.9660
8.4223 -0.5905 -1.9843 0.9659
8.4490 0.9233 -1.9975 0.9657
8.2045 2.4277 -2.0109 0.9655
7.9810 3.1610 -2.0175 0.9653
7.6913 3.8735 -2.0239 0.9652
7.3373 4.5589 -2.0302 0.9651
5.8975 6.3742 -2.0409 0.9649
4.9275 6.3865 -1.8958 0.9674
3.7283 7.1911 -1.9037 0.9673
3.0765 7.5082 -1.9070 0.9672
2.3971 7.7641 -1.9097 0.9672
0.7541 6.2216 -1.4729 0.9746
-0.4742 8.1347 -1.9151 0.9671
-1.1987 8.0594 -1.9150 0.9671
-1.9129 7.9171 -1.9143 0.9671
-1.9958 5.8940 -1.4625 0.9748
-3.2853 7.4382 -1.9111 0.9671
-3.9314 7.1060 -1.9086 0.9672
6.7211 4.0054 -2.0258 0.9682
5.9327 5.1644 -2.0365 0.9680
5.4610 5.6873 -2.0415 0.9679
4.0597 6.1126 -1.8999 0.9701
3.4928 6.4420 -1.8973 0.9702
2.9082 6.7389 -1.9004 0.9701
1.6671 7.1663 -1.9050 0.9701
-0.9490 7.3086 -1.9082 0.9700
-1.7542 5.5148 -1.4984 0.9764
-2.7956 5.2817 -1.5473 0.9756
-3.9991 6.1544 -1.9004 0.9701
-5.4574 4.8477 -1.8900 0.9703
-6.4796 3.9500 -1.9648 0.9691
-7.2985 2.8191 -2.0258 0.9682
-7.4999 2.1500 -2.0201 0.9683
-7.6396 1.4674 -2.0142 0.9684
-7.7171 0.7770 -2.0082 0.9685
-7.6855 -0.6046 -1.9961 0.9686
-7.4106 -1.9503 -1.9841 0.9688
-6.9052 -3.2188 -1.9726 0.9690
-5.7594 -4.8951 -1.9571 0.9693
-4.7752 -5.8154 -1.9483 0.9694
-4.2284 -6.2063 -1.9444 0.9694
-3.0469 -6.8370 -1.9380 0.9695
-2.4210 -7.0725 -1.9355 0.9696
-1.1221 -7.3766 -1.9319 0.9696
1.5286 -7.2885 -1.9282 0.9697
2.1749 -7.1281 -1.9296 0.9697
3.4178 -6.6459 -1.9349 0.9696
4.5579 -5.9480 -1.9402 0.9695
6.0057 -4.5532 -1.9514 0.9693
6.4030 -4.0078 -1.9558 0.9693
7.2930 -2.1843 -1.9712 0.9690
7.6090 -0.8570 -1.9826 0.9689
7.6861 0.5133 -1.9945 0.9687
7.3413 2.5553 -2.0126 0.9684
6.0490 5.0194 -2.0352 0.9680
5.0752 6.0339 -2.0414 0.9679
0.9726 5.9224 -1.5540 0.9755
0.4373 5.9507 -1.5449 0.9756
-0.1184 7.3687 -1.9081 0.9700
-0.7760 7.3292 -1.9083 0.9700
-1.6205 5.5447 -1.4957 0.9764
-2.1299 5.4307 -1.5104 0.9762
-3.8541 6.2496 -1.9011 0.9701
-4.3900 5.8714 -1.8982 0.9702
-4.8882 5.4462 -1.8948 0.9702
-5.7549 4.4711 -1.8869 0.9703
-6.2383 4.0081 -1.9199 0.9698
-7.4526 2.3284 -2.0216 0.9683
-7.6087 1.6488 -2.0158 0.9683
-7.7027 0.9598 -2.0098 0.9684
-7.7343 0.2673 -2.0037 0.9685
-7.7039 -0.4232 -1.9977 0.9686
-6.9846 -3.0570 -1.9741 0.9690
-6.6651 -3.6583 -1.9686 0.9691
-6.2949 -4.2276 -1.9633 0.9692
-5.8772 -4.7607 -1.9583 0.9692
-5.4157 -5.2540 -1.9537 0.9693
-4.3761 -6.1078 -1.9454 0.9694
-3.8062 -6.4624 -1.9419 0.9695
-2.5883 -7.0156 -1.9361 0.9696
-0.6344 -7.4311 -1.9311 0.9697
0.6967 -7.4152 -1.9284 0.9697
2.0054 -7.1756 -1.9291 0.9697
3.2588 -6.7228 -1.9344 0.9696
3.8507 -6.4125 -1.9367 0.9696
4.4142 -6.0516 -1.9394 0.9695
6.3026 -4.1554 -1.9546 0.9693
6.6646 -3.5846 -1.9594 0.9692
7.2340 -2.3543 -1.9697 0.9691
7.4363 -1.7036 -1.9753 0.9690
7.6656 -0.3557 -1.9869 0.9688
7.1729 3.0390 -2.0170 0.9683
6.8927 3.6780 -2.0228 0.9682
6.5548 4.2907 -2.0284 0.9681
4.5490 6.1932 -1.9896 0.9687
3.2207 6.5886 -1.8988 0.9702
2.0027 7.0757 -1.9040 0.9701
1.1226 5.9526 -1.5684 0.9753
0.5807 5.9685 -1.5526 0.9755
-0.6026 7.3455 -1.9083 0.9700
-1.4827 5.5580 -1.4894 0.9765
-1.9942 5.4611 -1.5053 0.9763
-3.7067 6.3412 -1.9018 0.9701
-4.2519 5.9761 -1.8990 0.9702
-4.7604 5.5629 -1.8957 0.9702
-5.6510 4.6086 -1.8880 0.9703
-6.0260 4.0760 -1.8836 0.9704
-6.8522 3.7906 -2.0275 0.9682
-7.1675 3.1654 -2.0287 0.9681
-7.5735 1.8295 -2.0173 0.9683
-7.6839 1.1425 -2.0114 0.9684
-7.7320 0.4504 -2.0053 0.9685
-7.7179 -0.2412 -1.9993 0.9686
-7.6423 -0.9267 -1.9932 0.9687
-7.5063 -1.6006 -1.9872 0.9688
-7.3116 -2.2578 -1.9813 0.9689
-7.0602 -2.8933 -1.9756 0.9690
-6.7545 -3.5024 -1.9700 0.9691
-6.3974 -4.0805 -1.9647 0.9691
-5.5417 -5.1277 -1.9549 0.9693
-2.1196 -7.1645 -1.9345 0.9696
-0.1445 -7.4546 -1.9305 0.9697
0.5213 -7.4309 -1.9287 0.9697
1.1824 -7.3519 -1.9280 0.9697
2.4749 -7.0342 -1.9307 0.9697
3.0982 -6.7961 -1.9339 0.9696
4.2683 -6.1517 -1.9386 0.9695
5.7773 -4.8263 -1.9491 0.9694
6.1989 -4.3006 -1.9534 0.9693
7.5482 -1.2136 -1.9795 0.9689
7.6895 0.1494 -1.9913 0.9687
7.6686 0.8380 -1.9974 0.9686
6.9724 3.5114 -2.0213 0.9683
6.2709 4.7216 -2.0324 0.9681
5.8390 5.2761 -2.0376 0.9680
2.7837 6.7937 -1.9009 0.9701
2.1687 7.0242 -1.9034 0.9701
0.2298 7.3649 -1.9078 0.9700
-0.4289 7.3576 -1.9083 0.9700
-1.0842 7.2895 -1.9081 0.9700
-1.7302 7.1611 -1.9075 0.9700
-1.8594 5.4913 -1.5011 0.9763
-4.1112 6.0774 -1.8998 0.9701
5.8024 4.2027 -2.0282 0.9707
4.9848 5.1915 -2.0375 0.9705
4.5105 5.6274 -2.0417 0.9705
2.6529 6.1472 -1.8954 0.9726
2.0959 6.3674 -1.8977 0.9725
0.3023 6.0753 -1.7220 0.9750
-0.2667 6.7151 -1.9025 0.9724
-1.4567 6.5589 -1.9020 0.9725
-2.2661 5.3990 -1.6576 0.9760
-3.6480 5.6141 -1.8954 0.9726
-4.1288 5.2582 -1.8926 0.9726
-4.9869 4.4297 -1.8883 0.9727
-5.5858 4.1318 -1.9669 0.9715
-6.1225 3.7323 -2.0299 0.9706
-6.4259 3.1680 -2.0282 0.9707
-6.8523 1.9643 -2.0180 0.9708
-7.0543 0.7102 -2.0071 0.9710
-7.0291 -0.5529 -1.9960 0.9711
-6.9324 -1.1752 -1.9905 0.9712
-6.3218 -2.9468 -1.9745 0.9714
-4.8443 -4.9272 -1.9561 0.9717
-4.3763 -5.3296 -1.9522 0.9717
-3.8758 -5.6888 -1.9487 0.9718
-3.3469 -6.0025 -1.9456 0.9718
-2.7936 -6.2686 -1.9428 0.9719
-2.2199 -6.4853 -1.9405 0.9719
-1.0291 -6.7651 -1.9372 0.9720
-0.4206 -6.8265 -1.9362 0.9720
0.1906 -6.8349 -1.9357 0.9720
1.4037 -6.6932 -1.9360 0.9720
2.5749 -6.3439 -1.9382 0.9719
4.6561 -5.0660 -1.9479 0.9718
5.8662 -3.6719 -1.9592 0.9716
6.4558 -2.5817 -1.9683 0.9715
6.9631 -0.7842 -1.9837 0.9713
6.9794 1.0985 -2.0002 0.9711
6.8724 1.7222 -2.0057 0.9710
6.7095 2.3354 -2.0112 0.9709
5.8963 4.0618 -2.0269 0.9707
5.1032 5.0693 -2.0363 0.9705
4.6398 5.5163 -2.0406 0.9705
-1.6201 5.5435 -1.6350 0.9763
-2.1294 5.4296 -1.6511 0.9760
-2.6531 5.3123 -1.6810 0.9756
-3.5155 5.7007 -1.8960 0.9725
-4.0050 5.3564 -1.8934 0.9726
-4.4601 4.9693 -1.8903 0.9726
-6.0300 3.8743 -2.0290 0.9706
-6.3533 3.3210 -2.0295 0.9706
-6.8086 2.1272 -2.0194 0.9708
-7.0407 0.8773 -2.0086 0.9709
-7.0714 0.2444 -2.0031 0.9710
-7.0454 -0.3870 -1.9975 0.9711
-6.9633 -1.0118 -1.9920 0.9712
-6.6359 -2.2222 -1.9811 0.9713
-6.3941 -2.7986 -1.9759 0.9714
-5.7653 -3.8719 -1.9660 0.9715
-5.3839 -4.3612 -1.9615 0.9716
-4.9621 -4.8140 -1.9572 0.9717
-4.5033 -5.2273 -1.9532 0.9717
-3.4892 -5.9242 -1.9464 0.9718
-2.9419 -6.2030 -1.9435 0.9719
-1.7875 -6.6123 -1.9391 0.9719
1.2451 -6.7239 -1.9359 0.9720
2.9884 -6.1649 -1.9395 0.9719
4.5331 -5.1724 -1.9470 0.9718
6.3888 -2.7317 -1.9670 0.9715
6.6236 -2.1556 -1.9719 0.9715
7.0136 -0.3254 -1.9877 0.9712
7.0341 0.3031 -1.9931 0.9712
6.7580 2.1746 -2.0097 0.9709
6.5544 2.7769 -2.0152 0.9708
5.9867 3.9188 -2.0256 0.9707
5.6264 4.4485 -2.0305 0.9706
4.7663 5.4022 -2.0395 0.9705
4.2681 5.8108 -2.0411 0.9705
3.6344 6.0071 -1.9876 0.9712
2.9381 6.0106 -1.8940 0.9726
1.8266 6.4533 -1.8987 0.9725
1.1233 5.9563 -1.7159 0.9751
0.5796 5.9575 -1.6945 0.9754
0.0508 6.7196 -1.9023 0.9725
-0.5495 6.6981 -1.9026 0.9724
-1.1454 6.6215 -1.9023 0.9725
-3.3810 5.7841 -1.8967 0.9725
