ply
format ascii 1.0
element vertex 1592
property float32 x
property float32 y
property float32 z
property float32 I
end_header
-2.8011 -8.4092 -1.0528 0.9649
0.3088 -8.5581 -1.0172 0.9661
2.7925 -8.8927 -1.1072 0.9632
5.7348 -8.8984 -1.2575 0.9583
6.8843 -8.8360 -1.3305 0.9559
10.0011 -8.9521 -1.5944 0.9474
15.0625 -9.2620 -2.1004 0.9313
18.4716 -1.9335 -2.2062 0.9279
18.3708 -0.2736 -2.1824 0.9287
18.1134 1.3521 -2.1576 0.9294
17.7073 2.9287 -2.1320 0.9303
7.1612 2.5551 -0.9032 0.9698
5.7736 2.6627 -0.7552 0.9747
7.8947 7.9633 -1.3320 0.9558
6.6428 8.0212 -1.2371 0.9589
2.6361 7.5952 -0.9550 0.9681
1.3085 8.3603 -1.0052 0.9665
-0.1985 8.4314 -1.0018 0.9666
-0.9605 8.4676 -1.0123 0.9663
-1.1259 5.4881 -0.6655 0.9777
-4.0834 8.0277 -1.0699 0.9644
-3.8446 5.0640 -0.7552 0.9747
-5.2886 4.0474 -0.7911 0.9735
-5.2138 2.6776 -0.6962 0.9767
-5.5287 2.2405 -0.7086 0.9763
-14.8415 3.1048 -1.8011 0.9408
-15.1820 1.7817 -1.8158 0.9403
-15.4169 0.4228 -1.8320 0.9398
-15.4466 -3.7929 -1.8893 0.9379
0.8780 8.3182 -1.1851 0.9668
-1.3968 8.4909 -1.2192 0.9658
-3.7712 5.3952 -0.9327 0.9738
-4.2678 5.0724 -0.9393 0.9736
-7.8927 7.8383 -1.5761 0.9561
-8.9577 7.4313 -1.6491 0.9541
-5.3002 2.3945 -0.8241 0.9768
-6.1259 2.1321 -0.9190 0.9741
-9.3026 2.3310 -1.3588 0.9620
-12.8044 2.0155 -1.8366 0.9490
-13.0276 0.8705 -1.8500 0.9486
-13.1569 -0.2985 -1.8647 0.9482
-13.1217 -2.6802 -1.8976 0.9473
-12.9523 -3.8776 -1.9157 0.9468
-12.6791 -5.0685 -1.9347 0.9463
-12.3011 -6.2438 -1.9546 0.9458
-11.8122 -7.3907 -1.9743 0.9453
-8.9489 -8.1367 -1.7137 0.9523
-6.2891 -8.2029 -1.4645 0.9591
-4.2486 -8.2555 -1.3155 0.9632
-3.4224 -8.4241 -1.2883 0.9639
-1.7892 -8.5162 -1.2330 0.9655
-1.0035 -8.4875 -1.2110 0.9661
1.3052 -8.6053 -1.2332 0.9654
2.1366 -8.7340 -1.2740 0.9643
8.7710 -8.9315 -1.7737 0.9507
10.6854 -9.0930 -1.9880 0.9449
13.6692 -7.9404 -2.2398 0.9381
14.6945 -5.3215 -2.2144 0.9388
15.0053 -3.9604 -2.1989 0.9392
15.1804 -2.5847 -2.1819 0.9397
15.2210 -1.2087 -2.1634 0.9402
15.1302 0.1537 -2.1439 0.9407
14.9123 1.4896 -2.1234 0.9413
8.3953 2.3992 -1.2371 0.9653
6.5661 2.5299 -0.9970 0.9720
5.3879 2.6504 -0.8508 0.9760
4.7453 3.5034 -0.8358 0.9765
8.9318 7.9190 -1.6913 0.9529
7.5278 7.9836 -1.5547 0.9566
6.3249 8.0390 -1.4493 0.9595
5.3239 8.1755 -1.3823 0.9614
-1.1778 8.4805 -1.2131 0.9660
-7.4881 7.8186 -1.5339 0.9572
-8.7633 7.6487 -1.6481 0.9541
-5.1961 3.1061 -0.8577 0.9758
-5.2765 2.5448 -0.8300 0.9766
-8.1753 2.2676 -1.2021 0.9663
-12.9744 1.1940 -1.8461 0.9487
-13.1900 -1.1509 -1.8760 0.9479
-13.1508 -2.3446 -1.8927 0.9475
-12.7662 -4.7360 -1.9293 0.9465
-12.4176 -5.9165 -1.9490 0.9459
-11.9639 -7.0750 -1.9694 0.9454
-10.9050 -7.8420 -1.9032 0.9472
-9.3468 -8.0802 -1.7506 0.9513
-5.6417 -8.4307 -1.4373 0.9598
-4.6031 -8.4191 -1.3596 0.9620
-3.6837 -8.4537 -1.3066 0.9634
-1.9693 -8.3303 -1.2129 0.9660
-1.2216 -8.5002 -1.2168 0.9659
-0.4554 -8.5315 -1.2105 0.9661
3.6071 -8.6843 -1.3324 0.9627
4.6174 -8.8029 -1.4084 0.9606
10.0844 -9.0267 -1.9177 0.9468
11.9312 -8.8964 -2.1087 0.9416
14.0993 -7.0190 -2.2316 0.9384
14.5831 -5.6983 -2.2184 0.9387
14.9319 -4.3439 -2.2034 0.9391
15.2230 -1.5935 -2.1687 0.9400
14.9859 1.1186 -2.1292 0.9411
14.6800 2.4280 -2.1083 0.9417
6.9950 2.4957 -1.0523 0.9704
4.9337 2.8348 -0.8062 0.9773
4.7623 3.3350 -0.8238 0.9768
7.8980 7.9666 -1.5895 0.9557
6.6453 8.0243 -1.4762 0.9588
1.8526 7.4203 -1.0836 0.9696
0.5539 8.3984 -1.1925 0.9666
-0.9608 8.4702 -1.2078 0.9661
-1.5664 5.2157 -0.7716 0.9782
-3.4419 8.5888 -1.3110 0.9633
-7.1043 7.7999 -1.4949 0.9583
-5.1668 2.6534 -0.8230 0.9768
-12.9138 1.5155 -1.8423 0.9488
-13.0962 0.3592 -1.8563 0.9484
-13.1832 -0.8181 -1.8715 0.9480
-13.1719 -2.0094 -1.8879 0.9476
-13.0599 -3.2068 -1.9054 0.9471
-0.6239 8.4568 -1.3969 0.9662
-2.9601 8.3190 -1.4546 0.9648
-4.5789 7.9851 -1.5164 0.9634
-3.7728 5.3974 -1.0848 0.9737
-7.8184 6.4862 -1.6735 0.9597
-5.0418 3.4725 -1.0085 0.9755
-5.0965 2.8758 -0.9640 0.9766
-5.2554 2.3742 -0.9500 0.9769
-6.1465 2.1392 -1.0721 0.9740
-11.1353 1.7527 -1.8570 0.9553
-11.3187 0.7563 -1.8688 0.9551
-11.4343 -1.2870 -1.8956 0.9544
-10.9501 -4.3773 -1.9427 0.9533
-10.6088 -5.3848 -1.9599 0.9529
-10.1772 -6.3678 -1.9777 0.9525
-9.6564 -7.3179 -1.9960 0.9521
-8.7306 -7.9382 -1.9439 0.9533
-7.6757 -8.3476 -1.8682 0.9551
-6.3422 -8.2722 -1.7172 0.9586
-4.2946 -8.3449 -1.5461 0.9627
-3.4101 -8.3940 -1.4926 0.9639
-0.2453 -8.6701 -1.4289 0.9654
0.5306 -8.6705 -1.4310 0.9654
1.3033 -8.5929 -1.4318 0.9654
2.1403 -8.7489 -1.4838 0.9641
2.9820 -8.7250 -1.5190 0.9633
3.8701 -8.6959 -1.5680 0.9621
4.9429 -8.8756 -1.6736 0.9597
5.9699 -8.7726 -1.7481 0.9579
8.7215 -8.8810 -2.0506 0.9508
11.5567 -6.7133 -2.2017 0.9473
12.0561 -5.6295 -2.1920 0.9475
12.9369 -1.0274 -2.1379 0.9487
12.8771 0.1308 -2.1215 0.9491
12.7098 1.2696 -2.1042 0.9495
12.4389 2.3788 -2.0863 0.9500
8.1485 2.3287 -1.3961 0.9662
6.3146 2.4330 -1.1148 0.9729
4.7071 2.8638 -0.9077 0.9779
6.3272 8.0421 -1.6857 0.9594
5.3258 8.1784 -1.6078 0.9612
4.3630 8.2229 -1.5335 0.9630
2.3734 7.4346 -1.2857 0.9689
1.0883 8.3108 -1.3808 0.9666
0.3434 8.4109 -1.3868 0.9665
-0.4108 8.4466 -1.3931 0.9663
-1.2355 5.3392 -0.9028 0.9780
-3.7008 8.6041 -1.5430 0.9627
-4.3098 7.9721 -1.4929 0.9639
-4.9591 7.4871 -1.4794 0.9642
-5.0737 3.6852 -1.0330 0.9749
-5.1623 3.0859 -0.9908 0.9759
-5.2017 2.5087 -0.9514 0.9769
-5.6204 2.1154 -0.9893 0.9759
-8.5382 2.3683 -1.4597 0.9647
-11.3995 0.0270 -1.8779 0.9548
-11.4387 -0.9981 -1.8916 0.9545
-11.0296 -4.0917 -1.9380 0.9534
-10.7136 -5.1046 -1.9550 0.9530
-10.3072 -6.0953 -1.9727 0.9526
-6.6458 -8.2326 -1.7430 0.9580
-5.5229 -8.2531 -1.6360 0.9605
-3.6397 -8.3527 -1.5010 0.9637
-2.0142 -8.5203 -1.4423 0.9651
-0.4576 -8.5710 -1.4140 0.9658
0.3086 -8.5520 -1.4098 0.9659
1.0895 -8.6379 -1.4343 0.9653
2.7385 -8.7207 -1.5058 0.9636
6.8950 -8.8497 -1.8481 0.9555
8.2641 -8.8481 -1.9945 0.9521
9.8118 -8.7827 -2.1694 0.9480
11.3975 -7.0083 -2.2042 0.9472
12.3476 -4.8248 -2.1839 0.9477
12.6561 -3.6818 -2.1714 0.9480
12.9338 -1.3539 -2.1424 0.9486
12.5250 2.0716 -2.0914 0.9498
12.1827 3.1538 -2.0731 0.9503
4.7835 2.7485 -0.9088 0.9779
7.7457 7.8130 -1.8124 0.9564
6.6478 8.0273 -1.7170 0.9586
3.7198 8.2527 -1.4913 0.9640
1.8534 7.4236 -1.2605 0.9695
1.1736 7.4981 -1.2503 0.9697
0.5541 8.4010 -1.3870 0.9664
-0.1987 8.4366 -1.3902 0.9664
-1.1334 5.5247 -0.9291 0.9774
-1.5746 5.2431 -0.9019 0.9781
-4.0602 7.9822 -1.4753 0.9643
-5.0806 3.8883 -1.0540 0.9744
-5.1503 3.2565 -1.0038 0.9756
-7.3247 2.2307 -1.2614 0.9694
-10.9973 2.3006 -1.8509 0.9555
-11.2260 1.3174 -1.8620 0.9552
-11.4364 -0.7098 -1.8876 0.9546
0.8785 8.3232 -1.5731 0.9665
0.1327 8.4235 -1.5835 0.9663
-1.3617 5.2786 -1.0247 0.9781
-2.2701 6.3799 -1.2728 0.9728
-4.9797 3.4298 -1.1365 0.9757
-5.0469 2.8478 -1.0892 0.9767
-9.8428 1.5493 -1.8728 0.9603
-9.9975 0.6680 -1.8833 0.9600
-10.0781 -0.2286 -1.8948 0.9598
-10.0827 -1.1348 -1.9071 0.9595
-10.0098 -2.0446 -1.9203 0.9593
-9.8583 -2.9514 -1.9342 0.9590
-8.9285 -5.5865 -1.9796 0.9580
-8.4620 -6.4128 -1.9957 0.9577
-7.2807 -7.9179 -2.0218 0.9572
-5.4194 -8.5545 -1.9034 0.9596
-3.4215 -8.4221 -1.7087 0.9637
-2.5790 -8.4420 -1.6591 0.9647
-1.0033 -8.4862 -1.6062 0.9658
2.1536 -8.8033 -1.7035 0.9638
2.9512 -8.6349 -1.7152 0.9635
3.9125 -8.7912 -1.8086 0.9616
4.9273 -8.8476 -1.9035 0.9596
8.8562 -7.5364 -2.1858 0.9538
9.4709 -6.6995 -2.1805 0.9539
11.0313 -2.9115 -2.1445 0.9546
11.1830 -1.9041 -2.1322 0.9549
11.2379 -0.8924 -2.1189 0.9552
11.0635 1.1051 -2.0899 0.9558
8.2170 2.3483 -1.6063 0.9658
6.2660 2.4143 -1.2622 0.9730
4.5411 2.7628 -0.9991 0.9786
4.3102 3.1822 -1.0070 0.9784
6.6133 7.0137 -1.8119 0.9615
5.9148 7.5179 -1.7980 0.9618
5.1811 7.9562 -1.7846 0.9621
4.3644 8.2257 -1.7503 0.9628
3.4797 8.2667 -1.6858 0.9642
2.3772 7.4465 -1.4692 0.9687
1.6729 7.4948 -1.4434 0.9692
1.0227 7.8096 -1.4804 0.9685
0.3435 8.4135 -1.5827 0.9663
-0.4109 8.4493 -1.5900 0.9662
-1.1785 8.4858 -1.6103 0.9657
-1.2401 5.3592 -1.0339 0.9779
-4.2754 7.9086 -1.6898 0.9641
-4.0622 5.0812 -1.2228 0.9739
-6.2176 6.4920 -1.6896 0.9641
-4.9944 3.6276 -1.1602 0.9752
-5.0153 2.9980 -1.0983 0.9765
-5.1415 2.4797 -1.0729 0.9770
-5.6111 2.1119 -1.1269 0.9759
-10.0892 -0.8803 -1.9036 0.9596
-10.0381 -1.7897 -1.9165 0.9593
-9.7002 -3.5985 -1.9447 0.9588
-9.4123 -4.4846 -1.9597 0.9585
-7.4714 -7.7275 -2.0203 0.9572
-6.4948 -8.0455 -1.9435 0.9588
-5.6196 -8.3977 -1.8993 0.9597
-0.4553 -8.5280 -1.6052 0.9658
0.3076 -8.5258 -1.6036 0.9659
2.7007 -8.6003 -1.6943 0.9640
3.5747 -8.6063 -1.7516 0.9628
4.5964 -8.7629 -1.8599 0.9605
6.7447 -8.6568 -2.0627 0.9563
7.9357 -8.4965 -2.1852 0.9538
8.6693 -7.7600 -2.1869 0.9537
10.3246 -5.1398 -2.1678 0.9541
10.6958 -4.1793 -2.1584 0.9543
11.1502 -2.1872 -2.1358 0.9548
11.2322 -1.1757 -2.1227 0.9551
11.2182 -0.1671 -2.1088 0.9554
11.1102 0.8293 -2.0941 0.9557
10.9113 1.8047 -2.0788 0.9560
10.6251 2.7505 -2.0629 0.9563
5.3939 2.4876 -1.1165 0.9761
4.3293 3.0318 -0.9934 0.9787
6.1144 7.3832 -1.8018 0.9617
5.3899 7.8401 -1.7883 0.9620
4.6254 8.2137 -1.7718 0.9624
2.6605 7.6656 -1.5251 0.9675
1.8543 7.4270 -1.4388 0.9693
0.5542 8.4035 -1.5830 0.9663
-1.5828 5.2704 -1.0343 0.9779
-4.7724 7.6129 -1.6889 0.9641
-3.8497 5.0708 -1.1967 0.9744
-6.0515 6.6441 -1.6892 0.9641
-5.0020 3.8281 -1.1839 0.9747
-4.9887 3.1544 -1.1094 0.9763
-7.6159 2.3194 -1.4964 0.9681
-9.7245 2.0344 -1.8674 0.9604
-9.9198 1.1641 -1.8773 0.9602
-10.0422 0.2754 -1.8882 0.9599
-10.0896 -0.6262 -1.9001 0.9597
-10.0603 -1.5347 -1.9128 0.9594
-9.9529 -2.4439 -1.9263 0.9591
-0.6000 8.1331 -1.7238 0.9672
-3.3751 7.3351 -1.7067 0.9675
-4.2731 5.0788 -1.4030 0.9732
-6.2182 5.1586 -1.7078 0.9675
-4.9829 3.4320 -1.2789 0.9756
-5.1237 2.3147 -1.1884 0.9773
-8.8113 1.3869 -1.8855 0.9642
-8.9445 0.5977 -1.8949 0.9640
-8.7950 -2.6330 -1.9406 0.9632
-7.0349 -6.3964 -2.0098 0.9619
-6.4822 -7.0495 -2.0243 0.9616
-5.8663 -7.6515 -2.0380 0.9613
-5.1281 -8.0947 -2.0255 0.9616
-4.1977 -8.1566 -1.9391 0.9632
-2.6242 -8.5900 -1.8986 0.9639
-0.2424 -8.5674 -1.8117 0.9656
2.1434 -8.7615 -1.9066 0.9638
3.0251 -8.8511 -1.9772 0.9625
3.8432 -8.6355 -1.9980 0.9621
4.7673 -8.5603 -2.0712 0.9607
6.5024 -7.9279 -2.1674 0.9589
7.1789 -7.3102 -2.1657 0.9590
7.7917 -6.6305 -2.1626 0.9590
9.7274 -2.5674 -2.1266 0.9597
9.8678 -1.6801 -2.1159 0.9599
9.9235 -0.7880 -2.1042 0.9601
9.8954 0.1005 -2.0918 0.9603
9.5955 1.8351 -2.0651 0.9608
6.2593 2.4117 -1.4179 0.9729
5.0557 2.4870 -1.1910 0.9772
4.4493 2.7069 -1.1009 0.9789
4.3434 3.8509 -1.2270 0.9765
5.8909 6.2476 -1.8151 0.9655
5.2732 6.7024 -1.8027 0.9657
4.6228 7.0989 -1.7907 0.9660
3.9452 7.4354 -1.7792 0.9662
3.2457 7.7108 -1.7684 0.9664
1.0690 8.1632 -1.7403 0.9669
0.3344 8.1893 -1.7325 0.9670
-0.3965 8.1539 -1.7256 0.9672
-1.2484 5.3950 -1.1705 0.9776
-3.8367 7.0970 -1.7053 0.9676
-4.0639 5.0833 -1.3757 0.9737
-6.0844 5.3105 -1.7071 0.9675
-4.9995 2.9885 -1.2312 0.9765
-5.0719 2.4461 -1.1903 0.9772
-8.5461 2.3705 -1.8747 0.9644
-8.9991 0.0213 -1.9022 0.9639
-8.9642 -1.5982 -1.9247 0.9635
-8.6489 -3.2085 -1.9499 0.9630
-8.0514 -4.7613 -1.9772 0.9625
-7.6485 -5.5002 -1.9914 0.9622
-6.0464 -7.4901 -2.0348 0.9614
-4.4506 -8.1401 -1.9610 0.9628
-3.6253 -8.3196 -1.9183 0.9636
-2.0152 -8.5246 -1.8516 0.9648
-1.2289 -8.5511 -1.8261 0.9653
0.3116 -8.6359 -1.8267 0.9653
1.9046 -8.7273 -1.8882 0.9641
3.6239 -8.7247 -1.9970 0.9621
5.5294 -8.5796 -2.1576 0.9591
6.3023 -8.0889 -2.1675 0.9589
7.6267 -6.8268 -2.1636 0.9590
8.1900 -6.1068 -2.1595 0.9591
8.6800 -5.3374 -2.1539 0.9592
9.4243 -3.6825 -2.1388 0.9595
9.8370 -1.9296 -2.1190 0.9598
9.9164 -1.0380 -2.1076 0.9601
9.9117 -0.1476 -2.0954 0.9603
9.6565 1.5971 -2.0689 0.9608
9.4115 2.4364 -2.0550 0.9610
5.3217 2.4543 -1.2388 0.9763
4.3279 3.0308 -1.1169 0.9786
6.0575 6.1101 -1.8187 0.9654
4.8080 6.9937 -1.7940 0.9659
4.1375 7.3473 -1.7824 0.9661
1.1626 7.4279 -1.5892 0.9697
0.5400 8.1882 -1.7346 0.9670
-0.1924 8.1700 -1.7274 0.9671
-1.1437 5.5747 -1.2029 0.9770
-1.5872 5.2849 -1.1664 0.9777
-3.6588 7.1929 -1.7058 0.9675
-4.2829 6.8321 -1.7045 0.9676
-3.8513 5.0729 -1.3463 0.9743
-5.4307 5.9625 -1.7048 0.9676
-4.9779 3.1475 -1.2449 0.9762
-5.0553 2.5961 -1.2013 0.9770
-5.3162 2.1545 -1.2125 0.9768
-8.4743 2.5809 -1.8725 0.9644
-8.7101 -2.9852 -1.9463 0.9631
0.7806 7.3958 -1.7478 0.9699
-0.5432 7.3621 -1.7350 0.9701
-1.3736 5.3249 -1.2924 0.9777
-2.2613 4.9145 -1.2714 0.9780
-3.6357 6.3403 -1.7177 0.9704
-5.1877 5.1519 -1.7183 0.9704
-5.8659 4.8664 -1.7913 0.9692
-5.0040 3.4465 -1.4280 0.9753
-5.1356 2.3201 -1.3244 0.9771
-6.2400 2.1718 -1.5528 0.9732
-7.7924 1.9526 -1.8880 0.9675
-7.9683 1.2542 -1.8958 0.9674
-8.0849 0.5402 -1.9044 0.9673
-8.1406 -0.1847 -1.9137 0.9671
-8.0646 -1.6472 -1.9345 0.9667
-5.8210 -6.3304 -2.0212 0.9653
-5.2661 -6.8686 -2.0341 0.9651
-4.6609 -7.3573 -2.0469 0.9648
-4.0066 -7.7852 -2.0578 0.9647
-2.5115 -8.2213 -2.0203 0.9653
-1.7366 -8.2655 -1.9850 0.9659
-0.2360 -8.3422 -1.9614 0.9663
1.2751 -8.4073 -1.9985 0.9657
2.0639 -8.4366 -2.0413 0.9649
2.8928 -8.4642 -2.1023 0.9639
4.4454 -7.9824 -2.1474 0.9632
5.1433 -7.5580 -2.1486 0.9631
6.4010 -6.5181 -2.1471 0.9632
6.9485 -5.9129 -2.1443 0.9632
7.4346 -5.2590 -2.1403 0.9633
7.8550 -4.5630 -2.1350 0.9634
8.2062 -3.8318 -2.1285 0.9635
8.8756 -0.7048 -2.0925 0.9641
8.8560 0.0900 -2.0815 0.9643
8.5991 1.6445 -2.0576 0.9647
6.2842 2.4213 -1.5828 0.9727
5.0154 2.4672 -1.3136 0.9773
4.4089 2.6823 -1.2129 0.9790
4.2734 3.1551 -1.2484 0.9784
5.3059 5.6271 -1.8177 0.9687
2.9308 6.9627 -1.7755 0.9694
2.2856 7.1593 -1.7663 0.9696
1.6293 7.2993 -1.7577 0.9697
0.9668 7.3826 -1.7499 0.9699
-0.3589 7.3802 -1.7366 0.9701
-0.7593 5.4675 -1.2973 0.9776
-1.2534 5.4164 -1.3066 0.9774
-1.7478 5.3313 -1.3186 0.9772
-2.8917 6.7229 -1.7200 0.9704
-4.0345 6.0912 -1.7171 0.9704
-4.0656 5.0854 -1.5302 0.9736
-4.9792 3.6166 -1.4463 0.9750
-5.0653 3.0279 -1.3869 0.9760
-5.0589 2.4399 -1.3200 0.9772
-5.6421 2.1236 -1.4168 0.9755
-7.7327 2.1449 -1.8860 0.9676
-7.9249 1.4517 -1.8935 0.9674
-8.1312 0.0193 -1.9110 0.9671
-8.1423 -0.7104 -1.9209 0.9670
-7.9751 -2.1715 -1.9426 0.9666
-7.7959 -2.8921 -1.9542 0.9664
-3.5055 -8.0447 -2.0624 0.9646
-2.7341 -8.2080 -2.0333 0.9651
0.3019 -8.3667 -1.9677 0.9662
1.8395 -8.4285 -2.0275 0.9652
4.2423 -8.0878 -2.1464 0.9632
4.9519 -7.6837 -2.1484 0.9631
5.6189 -7.2118 -2.1487 0.9631
6.8010 -6.0877 -2.1452 0.9632
7.7441 -4.7619 -2.1366 0.9633
8.4144 -3.2879 -2.1232 0.9636
8.6405 -2.5136 -2.1149 0.9637
8.7917 -1.7246 -2.1056 0.9639
8.4384 2.1845 -2.0486 0.9648
6.7198 2.3976 -1.6768 0.9711
5.3362 2.4610 -1.3811 0.9761
4.2100 3.5483 -1.2940 0.9776
5.4548 5.5021 -1.8209 0.9687
4.3355 6.3064 -1.7986 0.9690
3.7332 6.6294 -1.7881 0.9692
3.1090 6.8976 -1.7782 0.9694
1.8140 7.2658 -1.7601 0.9697
1.1528 7.3650 -1.7520 0.9698
-1.1440 5.5760 -1.3378 0.9769
-1.5896 5.2928 -1.2988 0.9775
-3.3152 6.5175 -1.7185 0.9704
-4.9211 5.4029 -1.7176 0.9704
-5.3886 4.9464 -1.7191 0.9704
-4.9937 3.8218 -1.4779 0.9745
-5.1092 2.6238 -1.3499 0.9767
-7.6686 2.3355 -1.8840 0.9676
-7.8769 1.6478 -1.8913 0.9675
-8.1455 -0.5055 -1.9181 0.9670
-8.1114 -1.2374 -1.9284 0.9668
0.7119 6.7448 -1.7561 0.9724
-1.0430 6.3400 -1.6636 0.9738
-1.2642 4.9007 -1.3104 0.9793
-1.7482 4.9132 -1.3502 0.9787
-2.2566 4.9041 -1.3977 0.9779
-3.8230 5.4693 -1.7277 0.9728
-4.2768 5.0832 -1.7200 0.9729
-4.8587 4.8252 -1.7730 0.9721
-6.2394 2.1716 -1.7105 0.9731
-7.2657 1.1437 -1.9044 0.9701
-7.3691 0.4924 -1.9122 0.9699
-7.4073 -0.8337 -1.9300 0.9697
-7.3403 -1.4993 -1.9398 0.9695
-7.2152 -2.1601 -1.9501 0.9694
-6.7914 -3.4471 -1.9720 0.9690
-5.7346 -5.2141 -2.0068 0.9685
-4.7711 -6.2230 -2.0303 0.9681
-2.3409 -7.6626 -2.0745 0.9674
0.4967 -8.1173 -2.1057 0.9670
2.6560 -7.7713 -2.1264 0.9666
3.3447 -7.5153 -2.1299 0.9666
4.0066 -7.1944 -2.1321 0.9665
4.6354 -6.8115 -2.1333 0.9665
6.2634 -5.3300 -2.1294 0.9666
7.0837 -4.1149 -2.1211 0.9667
7.8452 -2.0706 -2.1008 0.9670
8.0196 -0.6369 -2.0830 0.9673
8.0060 0.0813 -2.0730 0.9675
7.9263 0.7918 -2.0625 0.9676
6.2876 2.4226 -1.7446 0.9725
5.0230 2.4709 -1.4494 0.9771
2.6691 6.3410 -1.7813 0.9720
2.0824 6.5231 -1.7729 0.9721
1.4851 6.6535 -1.7651 0.9722
0.8816 6.7321 -1.7579 0.9723
0.2760 6.7589 -1.7515 0.9724
-0.3275 6.7344 -1.7457 0.9725
-1.1343 4.9017 -1.3027 0.9794
-1.6111 4.9142 -1.3390 0.9789
-2.1122 4.9107 -1.3841 0.9782
-4.6227 4.8267 -1.7304 0.9728
-5.4342 4.7430 -1.8676 0.9706
-6.2308 3.7246 -1.8795 0.9705
-5.0592 2.4400 -1.4543 0.9771
-5.6513 2.1270 -1.5634 0.9754
-7.2269 1.3238 -1.9023 0.9701
-7.3649 -1.3131 -1.9370 0.9696
-7.0893 -2.6299 -1.9578 0.9692
-6.5829 -3.8929 -1.9802 0.9689
-6.2454 -4.4912 -1.9917 0.9687
-5.8537 -5.0605 -2.0035 0.9685
-5.4102 -5.5957 -2.0153 0.9684
-3.7983 -6.9471 -2.0500 0.9678
-3.1799 -7.2975 -2.0610 0.9676
-2.5286 -7.5910 -2.0716 0.9675
0.2930 -8.1186 -2.1034 0.9670
6.9831 -4.2939 -2.1225 0.9667
7.5923 -2.9666 -2.1105 0.9669
7.7992 -2.2689 -2.1031 0.9670
7.9391 -1.5573 -2.0947 0.9671
8.0165 -0.1194 -2.0759 0.9674
7.3911 2.6371 -2.0318 0.9681
5.3750 2.4788 -1.5325 0.9758
4.5390 2.6080 -1.3554 0.9786
4.2254 2.9590 -1.3356 0.9789
4.2092 3.5477 -1.4253 0.9775
4.9564 4.9994 -1.8228 0.9713
3.9438 5.7366 -1.8025 0.9716
1.0511 6.7153 -1.7599 0.9723
0.4456 6.7566 -1.7532 0.9724
-1.4761 4.9152 -1.3288 0.9790
-1.9684 4.9117 -1.3700 0.9784
-3.0279 5.9526 -1.7292 0.9728
-4.0349 5.3147 -1.7277 0.9728
-4.4947 4.9349 -1.7283 0.9728
-5.7510 4.4014 -1.8751 0.9705
-5.0275 2.5819 -1.4633 0.9769
-6.9963 2.1307 -1.8936 0.9702
-7.3180 0.8588 -1.9078 0.9700
-7.4196 -0.4605 -1.9248 0.9698
-7.2925 -1.7907 -1.9442 0.9694
0.6537 6.1933 -1.7630 0.9744
0.0978 6.2065 -1.7572 0.9745
-0.4554 6.1724 -1.7521 0.9746
-1.7489 4.9150 -1.4768 0.9785
-5.4875 3.7795 -1.8863 0.9727
-5.8139 3.2806 -1.8898 0.9726
-6.0975 2.7547 -1.8941 0.9726
-6.3361 2.2052 -1.8992 0.9725
-6.7633 0.4519 -1.9189 0.9722
-6.7932 -0.7646 -1.9352 0.9720
-6.7289 -1.3744 -1.9442 0.9719
-6.4406 -2.5746 -1.9636 0.9716
-6.2171 -3.1557 -1.9738 0.9714
-5.6162 -4.2561 -1.9949 0.9711
-5.2418 -4.7661 -2.0056 0.9710
-3.3103 -6.4322 -2.0479 0.9704
-2.7360 -6.7345 -2.0578 0.9702
-2.1336 -6.9840 -2.0673 0.9701
1.1151 -7.3521 -2.1051 0.9696
1.7713 -7.2407 -2.1102 0.9695
3.0413 -6.8336 -2.1175 0.9694
3.6428 -6.5411 -2.1195 0.9694
4.7501 -5.7915 -2.1205 0.9693
5.6953 -4.8466 -2.1171 0.9694
6.0959 -4.3121 -2.1138 0.9694
6.4435 -3.7430 -2.1095 0.9695
6.9687 -2.5237 -2.0982 0.9697
7.1423 -1.8851 -2.0912 0.9698
7.2551 -1.2353 -2.0834 0.9699
7.2974 0.0741 -2.0660 0.9701
6.9154 1.9763 -2.0361 0.9705
6.6765 2.5724 -2.0255 0.9707
4.2087 3.1073 -1.4810 0.9785
4.4144 4.6817 -1.8216 0.9736
3.4759 5.3376 -1.8032 0.9739
2.4480 5.8157 -1.7863 0.9741
0.2535 6.2076 -1.7588 0.9745
-0.7455 5.3676 -1.5341 0.9777
-1.1355 4.9070 -1.4258 0.9793
-2.1130 4.9125 -1.5139 0.9780
-3.3882 5.1154 -1.7370 0.9748
-3.8315 4.7927 -1.7371 0.9748
-4.5796 4.7817 -1.8743 0.9729
-5.0108 4.3734 -1.8828 0.9727
-5.3887 3.9140 -1.8854 0.9727
-5.7266 3.4232 -1.8887 0.9726
-6.7982 0.0161 -1.9245 0.9721
-6.8017 -0.5935 -1.9328 0.9720
-6.7523 -1.2039 -1.9417 0.9719
-6.6496 -1.8106 -1.9510 0.9718
-6.2850 -2.9945 -1.9709 0.9715
-5.3515 -4.6263 -2.0026 0.9710
-3.4655 -6.3384 -2.0450 0.9704
-2.8999 -6.6550 -2.0551 0.9703
-2.3049 -6.9196 -2.0647 0.9701
-1.6853 -7.1291 -2.0738 0.9700
-1.0464 -7.2809 -2.0823 0.9699
-0.3936 -7.3729 -2.0902 0.9698
0.9299 -7.3721 -2.1035 0.9696
2.2365 -7.1221 -2.1133 0.9694
3.4770 -6.6289 -2.1191 0.9694
4.0575 -6.2958 -2.1204 0.9693
5.9889 -4.4656 -2.1148 0.9694
6.3516 -3.9056 -2.1108 0.9695
7.2297 -1.4182 -2.0857 0.9698
7.2984 -0.7640 -2.0774 0.9700
7.2535 0.5414 -2.0591 0.9702
7.1417 1.1812 -2.0492 0.9704
6.9728 1.8050 -2.0390 0.9705
6.7488 2.4079 -2.0285 0.9707
5.4187 2.4990 -1.6893 0.9755
4.5277 2.6015 -1.4783 0.9785
4.2296 3.5649 -1.5659 0.9773
4.5370 4.5764 -1.8243 0.9736
4.0890 4.9375 -1.8148 0.9737
3.1145 5.5308 -1.7969 0.9740
1.5173 6.0775 -1.7733 0.9743
0.4092 6.2049 -1.7604 0.9745
-0.6786 5.9829 -1.7046 0.9753
-1.4766 4.9169 -1.4533 0.9789
-2.7837 5.4727 -1.7382 0.9748
-3.2593 5.1991 -1.7371 0.9748
-3.7099 4.8867 -1.7369 0.9748
-4.3653 4.7928 -1.8352 0.9734
-4.8931 4.4916 -1.8803 0.9728
-5.2868 4.0461 -1.8847 0.9727
-5.6361 3.5637 -1.8877 0.9727
-5.6870 2.3047 -1.7371 0.9748
-6.4263 1.9571 -1.9017 0.9725
-6.7177 0.7884 -1.9148 0.9723
-6.8060 -0.4224 -1.9304 0.9720
-6.7715 -1.0330 -1.9391 0.9719
-6.6838 -1.6412 -1.9483 0.9718
-6.5428 -2.2424 -1.9580 0.9717
0.6037 5.7196 -1.7690 0.9762
0.0903 5.7332 -1.7636 0.9763
-0.8100 4.9235 -1.5347 0.9793
-1.2692 4.9201 -1.5628 0.9790
-5.0723 3.4935 -1.8944 0.9746
-5.3733 3.0320 -1.8977 0.9745
-5.8537 2.0373 -1.9064 0.9744
-6.0294 1.5108 -1.9118 0.9743
-6.2795 -0.1425 -1.9319 0.9741
-6.2669 -0.7054 -1.9397 0.9740
-6.2054 -1.2675 -1.9481 0.9738
-5.9349 -2.3725 -1.9659 0.9736
-5.7267 -2.9067 -1.9753 0.9735
-5.1688 -3.9171 -1.9947 0.9732
-4.8222 -4.3845 -2.0046 0.9731
-4.4332 -4.8212 -2.0145 0.9730
-3.5390 -5.5864 -2.0340 0.9727
-0.1916 -6.7729 -2.0840 0.9720
0.4151 -6.7833 -2.0903 0.9720
1.0218 -6.7367 -2.0958 0.9719
1.6227 -6.6333 -2.1004 0.9718
3.3360 -5.9902 -2.1089 0.9717
3.8592 -5.6709 -2.1098 0.9717
5.2162 -4.4388 -2.1067 0.9717
5.9031 -3.4291 -2.0998 0.9718
6.5482 -1.7283 -2.0830 0.9721
6.6536 -1.1329 -2.0760 0.9721
6.6359 0.6629 -2.0512 0.9725
5.0857 2.5018 -1.7433 0.9766
4.4042 2.6795 -1.5857 0.9787
4.8110 4.2655 -1.9776 0.9735
4.1606 4.4125 -1.8654 0.9749
3.6478 4.6364 -1.8145 0.9756
2.7401 5.1642 -1.7981 0.9758
2.2584 5.3654 -1.7905 0.9759
1.7633 5.5235 -1.7834 0.9760
0.2341 5.7338 -1.7651 0.9763
-0.2780 5.7158 -1.7601 0.9763
-1.6122 4.9176 -1.5918 0.9786
-2.6990 4.9925 -1.7456 0.9765
-3.8065 4.7614 -1.8750 0.9748
-5.2929 3.1639 -1.8967 0.9745
-5.5654 2.6841 -1.9005 0.9745
-5.7966 2.1817 -1.9050 0.9744
-6.2754 -0.5475 -1.9375 0.9740
-6.1306 -1.6693 -1.9543 0.9738
-5.7898 -2.7586 -1.9726 0.9735
-5.5472 -3.2804 -1.9822 0.9734
-4.9237 -4.2565 -2.0019 0.9731
-4.5464 -4.7022 -2.0118 0.9730
-3.6730 -5.4887 -2.0313 0.9727
-2.1154 -6.3506 -2.0588 0.9724
-1.5462 -6.5405 -2.0672 0.9723
-0.9596 -6.6775 -2.0750 0.9722
0.8521 -6.7555 -2.0943 0.9719
1.4552 -6.6680 -2.0992 0.9718
2.0487 -6.5239 -2.1032 0.9718
3.1842 -6.0707 -2.1085 0.9717
4.2159 -5.4111 -2.1099 0.9717
4.6805 -5.0112 -2.1091 0.9717
5.1050 -4.5695 -2.1073 0.9717
5.8187 -3.5779 -2.1010 0.9718
6.1017 -3.0375 -2.0964 0.9719
6.3322 -2.4743 -2.0911 0.9719
6.6297 -1.3005 -2.0780 0.9721
6.7044 -0.0999 -2.0623 0.9723
6.6585 0.4970 -2.0537 0.9724
6.5586 1.0848 -2.0447 0.9726
6.2028 2.2131 -2.0257 0.9728
4.5270 2.6011 -1.6059 0.9784
4.9276 4.1531 -1.9821 0.9734
4.3592 4.3971 -1.9044 0.9744
3.3309 4.8452 -1.8085 0.9757
0.8910 5.6926 -1.7723 0.9762
0.3780 5.7310 -1.7666 0.9763
-0.1348 5.7253 -1.7615 0.9763
-0.6438 5.6760 -1.7570 0.9764
-1.0098 4.9220 -1.5454 0.9792
-1.4772 4.9186 -1.5796 0.9787
-4.1293 4.5336 -1.8861 0.9747
-4.5287 4.1570 -1.8908 0.9746
-4.8871 3.7402 -1.8929 0.9746
-5.2094 3.2939 -1.8957 0.9745
-5.4931 2.8210 -1.8993 0.9745
-5.7361 2.3246 -1.9037 0.9744
-6.0923 1.2745 -1.9144 0.9743
-6.2652 0.1718 -1.9278 0.9741
-6.2800 -0.3897 -1.9353 0.9740
-6.2459 -0.9528 -1.9433 0.9739
0.0839 5.3217 -1.7692 0.9778
-0.3906 5.2947 -1.7648 0.9779
-0.8022 4.8764 -1.6427 0.9794
-1.2506 4.8480 -1.6642 0.9791
-1.7239 4.8447 -1.7093 0.9786
-2.2049 4.7917 -1.7533 0.9780
-2.7090 4.7242 -1.8102 0.9773
-3.2581 4.6611 -1.8904 0.9763
-3.6714 4.3636 -1.8956 0.9762
-4.0503 4.0224 -1.8975 0.9762
-4.3970 3.6478 -1.8991 0.9762
-4.7110 3.2446 -1.9014 0.9762
-4.9898 2.8156 -1.9045 0.9761
-5.5961 1.4023 -1.9177 0.9760
-5.7158 0.8997 -1.9234 0.9759
-5.7920 0.3870 -1.9296 0.9758
-5.8239 -0.1321 -1.9364 0.9757
-5.7517 -1.1748 -1.9514 0.9756
-5.3025 -2.6915 -1.9766 0.9752
-5.0638 -3.1684 -1.9856 0.9751
-4.4601 -4.0553 -2.0038 0.9749
-4.0989 -4.4576 -2.0129 0.9748
-3.7011 -4.8274 -2.0220 0.9747
-2.8078 -5.4558 -2.0396 0.9745
-0.7314 -6.1859 -2.0705 0.9741
0.3827 -6.2539 -2.0827 0.9739
1.4955 -6.1133 -2.0920 0.9738
2.0387 -5.9652 -2.0955 0.9738
2.5664 -5.7665 -2.0981 0.9737
3.0735 -5.5189 -2.0998 0.9737
3.5554 -5.2245 -2.1007 0.9737
4.0075 -4.8861 -2.1006 0.9737
4.4257 -4.5067 -2.0996 0.9737
4.8062 -4.0899 -2.0978 0.9737
5.6890 -2.6565 -2.0871 0.9739
6.1852 -0.4912 -2.0625 0.9742
6.1270 0.6120 -2.0468 0.9744
6.0230 1.1518 -2.0384 0.9745
5.8708 1.6778 -2.0296 0.9746
5.0578 2.4881 -1.8737 0.9765
4.4307 2.6956 -1.7239 0.9784
4.8242 3.5617 -1.9933 0.9750
3.4931 4.4398 -1.8778 0.9765
2.9693 4.5597 -1.8087 0.9773
2.5398 4.7868 -1.8013 0.9774
1.6354 5.1229 -1.7876 0.9776
1.1675 5.2303 -1.7814 0.9777
-0.2581 5.3063 -1.7659 0.9779
-1.1220 4.8489 -1.6544 0.9792
-1.5886 4.8456 -1.6951 0.9787
-2.0828 4.8423 -1.7522 0.9780
-3.1328 4.7299 -1.8858 0.9764
-4.3031 3.7557 -1.8986 0.9762
-4.6264 3.3604 -1.9007 0.9762
-5.5550 1.5408 -1.9162 0.9760
-5.6866 1.0417 -1.9217 0.9759
-5.7751 0.5315 -1.9278 0.9759
-5.6811 -1.5468 -1.9572 0.9755
-5.5438 -2.0566 -1.9655 0.9754
-5.3616 -2.5546 -1.9742 0.9753
-4.5545 -3.9373 -2.0012 0.9749
-4.2039 -4.3480 -2.0104 0.9748
-2.9401 -5.3774 -2.0372 0.9745
-1.9526 -5.8619 -2.0538 0.9743
0.2258 -6.2569 -2.0812 0.9740
2.4204 -5.8272 -2.0974 0.9738
3.4232 -5.3116 -2.1005 0.9737
4.3122 -4.6169 -2.1000 0.9737
4.7036 -4.2103 -2.0984 0.9737
5.0547 -3.7690 -2.0959 0.9738
5.3624 -3.2974 -2.0925 0.9738
5.6242 -2.7999 -2.0884 0.9739
6.0019 -1.7460 -2.0778 0.9740
6.1770 -0.6466 -2.0645 0.9742
6.1473 0.4589 -2.0491 0.9744
6.0571 1.0018 -2.0408 0.9745
5.3408 2.4631 -1.9550 0.9755
4.5484 2.6134 -1.7437 0.9781
4.5702 3.8519 -1.9868 0.9751
4.1794 4.2157 -1.9733 0.9753
3.6659 4.4266 -1.9105 0.9761
3.0862 4.4892 -1.8109 0.9773
2.6620 4.7271 -1.8033 0.9774
1.2993 5.2043 -1.7831 0.9776
0.8268 5.2822 -1.7772 0.9777
0.3508 5.3190 -1.7719 0.9778
-0.1252 5.3148 -1.7672 0.9778
-1.4555 4.8465 -1.6821 0.9789
-1.9409 4.8432 -1.7344 0.9782
-2.4005 4.7193 -1.7600 0.9779
-3.8426 4.2188 -1.8969 0.9762
-4.8380 3.0591 -1.9027 0.9762
-5.1008 2.6195 -1.9060 0.9761
-5.5105 1.6782 -1.9148 0.9760
-5.7547 0.6754 -1.9260 0.9759
-5.7903 -0.8833 -1.9470 0.9756
-5.5869 -1.9148 -1.9631 0.9754
0.5221 4.9465 -1.7787 0.9791
0.0782 4.9603 -1.7741 0.9791
-1.2317 4.7748 -1.7634 0.9793
-1.6666 4.6839 -1.7779 0.9791
-2.1597 4.6936 -1.8476 0.9783
-3.0465 4.3583 -1.9016 0.9777
-3.7777 3.7516 -1.9039 0.9776
-5.0657 1.7631 -1.9181 0.9775
-5.2555 -1.5734 -1.9618 0.9770
-5.1145 -2.0445 -1.9697 0.9769
-4.9317 -2.5032 -1.9778 0.9768
-4.1443 -3.7682 -2.0031 0.9765
-3.8074 -4.1406 -2.0115 0.9764
-3.0352 -4.7912 -2.0282 0.9762
-2.6056 -5.0630 -2.0363 0.9761
-2.1514 -5.2956 -2.0440 0.9760
-1.6760 -5.4863 -2.0515 0.9759
-0.1638 -5.7885 -2.0708 0.9757
0.3546 -5.7949 -2.0762 0.9756
0.8725 -5.7529 -2.0808 0.9756
1.8882 -5.5249 -2.0879 0.9755
2.8462 -5.1107 -2.0919 0.9755
3.7110 -4.5246 -2.0927 0.9754
5.0396 -2.9275 -2.0842 0.9755
5.7333 0.0582 -2.0504 0.9759
5.6845 0.5678 -2.0429 0.9760
5.4501 1.5575 -2.0270 0.9762
5.2676 2.0296 -2.0187 0.9763
4.7822 2.9095 -2.0018 0.9765
4.4843 3.3107 -1.9933 0.9766
4.1531 3.6823 -1.9849 0.9767
3.3941 4.3140 -1.9629 0.9770
2.9051 4.4612 -1.9038 0.9776
2.3867 4.4982 -1.8210 0.9786
1.9500 4.6326 -1.7974 0.9789
1.5233 4.7717 -1.7912 0.9789
0.6463 4.9358 -1.7801 0.9791
-0.2406 4.9466 -1.7710 0.9792
-0.6741 4.8539 -1.7525 0.9794
-1.1145 4.8165 -1.7679 0.9792
-1.5361 4.6855 -1.7633 0.9793
-2.0177 4.6911 -1.8262 0.9785
-2.5228 4.6665 -1.8970 0.9777
-2.9346 4.4306 -1.9004 0.9777
-3.3229 4.1564 -1.9030 0.9776
-3.6819 3.8444 -1.9036 0.9776
-4.0133 3.5028 -1.9049 0.9776
-5.4206 0.0129 -1.9385 0.9772
-5.4187 -0.4728 -1.9451 0.9772
-5.1582 -1.9136 -1.9675 0.9769
-4.7749 -2.8237 -1.9838 0.9767
-4.5228 -3.2525 -1.9922 0.9766
-3.9053 -4.0392 -2.0092 0.9764
-3.1507 -4.7083 -2.0259 0.9762
-2.7287 -4.9907 -2.0341 0.9761
-2.2809 -5.2345 -2.0419 0.9760
-1.8111 -5.4372 -2.0494 0.9759
-1.3230 -5.5965 -2.0565 0.9759
0.2092 -5.7979 -2.0747 0.9757
0.7277 -5.7695 -2.0796 0.9756
1.2424 -5.6929 -2.0837 0.9756
2.2416 -5.3967 -2.0898 0.9755
3.1699 -4.9186 -2.0926 0.9754
3.5967 -4.6164 -2.0928 0.9754
4.9671 -3.0543 -2.0852 0.9755
5.4093 -2.1136 -2.0768 0.9756
5.6685 -1.1119 -2.0657 0.9758
5.7029 0.4257 -2.0451 0.9760
5.6208 0.9296 -2.0373 0.9761
5.4936 1.4221 -2.0293 0.9762
5.3230 1.8992 -2.0211 0.9763
4.2491 3.5813 -1.9872 0.9767
3.5073 4.2351 -1.9664 0.9769
2.5275 4.4884 -1.8421 0.9784
2.0675 4.5869 -1.7992 0.9789
1.6439 4.7365 -1.7929 0.9789
0.3270 4.9573 -1.7766 0.9791
-1.8789 4.6884 -1.8062 0.9788
-2.8211 4.5001 -1.8993 0.9777
-3.5840 3.9349 -1.9034 0.9776
-3.9234 3.6014 -1.9045 0.9776
-4.2333 3.2398 -1.9063 0.9776
-4.5115 2.8526 -1.9088 0.9776
-5.1364 1.5643 -1.9201 0.9774
-5.2692 1.1023 -1.9251 0.9774
-5.4235 -0.3366 -1.9432 0.9772
-5.3161 -1.3054 -1.9575 0.9770
0.4883 4.6264 -1.7828 0.9803
0.0731 4.6401 -1.7784 0.9803
-0.3415 4.6284 -1.7785 0.9803
-0.7633 4.6400 -1.8020 0.9801
-1.2001 4.6525 -1.8413 0.9796
-1.6593 4.6632 -1.8968 0.9790
-2.4769 4.3194 -1.9081 0.9789
-3.2069 3.8115 -1.9089 0.9789
-3.5358 3.5114 -1.9096 0.9789
-4.3539 2.4568 -1.9158 0.9788
-4.5637 2.0618 -1.9191 0.9788
-4.7391 1.6494 -1.9230 0.9787
-2.3034 0.1539 -0.8847 0.9902
-2.2947 -0.0521 -0.8796 0.9902
-2.3021 -0.2591 -0.8878 0.9901
-5.0030 -1.0219 -1.9568 0.9784
-4.9095 -1.4698 -1.9639 0.9783
-4.6045 -2.3372 -1.9788 0.9781
-4.1480 -3.1435 -1.9945 0.9780
-3.2043 -4.1794 -2.0182 0.9777
-2.4280 -4.7179 -2.0334 0.9775
-0.6311 -5.3383 -2.0600 0.9772
-0.1524 -5.3877 -2.0655 0.9772
0.3300 -5.3926 -2.0704 0.9771
1.2888 -5.2681 -2.0784 0.9770
1.7565 -5.1394 -2.0813 0.9770
2.2107 -4.9673 -2.0836 0.9770
2.6472 -4.7535 -2.0851 0.9770
3.0621 -4.4997 -2.0858 0.9770
3.4515 -4.2082 -2.0857 0.9770
3.8120 -3.8817 -2.0849 0.9770
4.1401 -3.5232 -2.0833 0.9770
4.4332 -3.1359 -2.0810 0.9770
4.6886 -2.7236 -2.0779 0.9770
4.9041 -2.2899 -2.0741 0.9771
5.0782 -1.8390 -2.0697 0.9771
5.2094 -1.3749 -2.0647 0.9772
5.3405 -0.4241 -2.0530 0.9773
5.2958 0.5290 -2.0395 0.9775
4.9114 1.8923 -2.0170 0.9777
4.7044 2.3142 -2.0092 0.9778
4.4614 2.7143 -2.0012 0.9779
3.5405 3.7548 -1.9777 0.9781
3.1776 4.0388 -1.9693 0.9782
2.7885 4.2821 -1.9583 0.9783
2.3759 4.4778 -1.9426 0.9785
1.8985 4.5104 -1.8753 0.9793
1.4489 4.5386 -1.8258 0.9798
1.0192 4.5662 -1.7929 0.9802
0.1895 4.6399 -1.7796 0.9803
-0.2251 4.6278 -1.7756 0.9803
-1.0758 4.6492 -1.8287 0.9798
-1.5279 4.6604 -1.8795 0.9792
-2.3669 4.3782 -1.9073 0.9789
-2.7505 4.1527 -1.9088 0.9789
-3.1102 3.8904 -1.9088 0.9789
-3.4462 3.5983 -1.9094 0.9789
-3.7562 3.2784 -1.9106 0.9789
-4.2892 2.5640 -1.9150 0.9788
-4.5083 2.1743 -1.9181 0.9788
-4.8432 1.3434 -1.9261 0.9787
-4.9562 0.9079 -1.9309 0.9786
-2.2874 0.0054 -0.8766 0.9902
-5.0221 -0.8954 -1.9549 0.9784
-4.9397 -1.3450 -1.9619 0.9783
-4.8177 -1.7872 -1.9692 0.9782
-3.6424 -3.7672 -2.0081 0.9778
-3.3044 -4.0933 -2.0160 0.9777
-2.5428 -4.6508 -2.0313 0.9775
-2.1250 -4.8768 -2.0386 0.9775
-1.6869 -5.0643 -2.0456 0.9774
-0.7641 -5.3166 -2.0583 0.9773
0.6771 -5.3684 -2.0736 0.9771
2.5269 -4.8175 -2.0847 0.9770
2.9483 -4.5747 -2.0856 0.9770
3.3452 -4.2935 -2.0858 0.9770
4.0516 -3.6267 -2.0838 0.9770
4.3548 -3.2471 -2.0817 0.9770
4.6209 -2.8414 -2.0788 0.9770
4.8478 -2.4134 -2.0753 0.9771
5.1770 -1.5061 -2.0662 0.9772
5.3445 -0.0796 -2.0484 0.9774
5.2374 0.8662 -2.0343 0.9775
4.7662 2.1981 -2.0114 0.9778
4.5330 2.6045 -2.0035 0.9779
4.2654 2.9870 -1.9955 0.9779
3.9659 3.3427 -1.9876 0.9780
3.6374 3.6690 -1.9799 0.9781
3.2826 3.9638 -1.9723 0.9782
1.5726 4.5311 -1.8380 0.9797
-0.1091 4.6348 -1.7766 0.9803
-1.3987 4.6574 -1.8636 0.9794
-2.2557 4.4346 -1.9066 0.9789
-2.6458 4.2205 -1.9089 0.9789
-3.0117 3.9670 -1.9087 0.9789
-3.3546 3.6831 -1.9091 0.9789
-3.6721 3.3707 -1.9102 0.9789
-4.2220 2.6696 -1.9142 0.9788
-4.8049 1.4634 -1.9248 0.9787
-4.9283 1.0310 -1.9295 0.9787
-2.3014 0.2701 -0.8880 0.9901
-5.0381 -0.7685 -1.9530 0.9784
-4.9668 -1.2196 -1.9599 0.9783
-0.3398 4.6062 -1.8903 0.9802
-0.7595 4.6169 -1.9150 0.9800
-1.5677 4.4057 -1.9139 0.9800
-2.6791 3.8328 -1.9139 0.9800
-3.0108 3.5785 -1.9140 0.9800
-4.2833 1.9351 -1.9237 0.9799
-2.1115 0.5291 -0.8909 0.9906
-2.0331 0.3200 -0.8423 0.9911
-1.9960 -0.0453 -0.8171 0.9914
-2.0190 -0.2272 -0.8315 0.9913
-4.6012 -1.3775 -1.9657 0.9795
-4.3134 -2.1894 -1.9798 0.9793
-4.1157 -2.5752 -1.9870 0.9792
-3.3229 -3.6137 -2.0092 0.9790
-2.6462 -4.1771 -2.0238 0.9789
-1.4591 -4.7761 -2.0439 0.9786
-0.5897 -4.9878 -2.0556 0.9785
-0.1424 -5.0330 -2.0607 0.9785
0.3082 -5.0369 -2.0653 0.9784
1.2035 -4.9194 -2.0728 0.9783
2.0640 -4.6377 -2.0776 0.9783
2.4715 -4.4378 -2.0790 0.9783
2.8587 -4.2008 -2.0796 0.9783
3.8655 -3.2894 -2.0773 0.9783
4.1394 -2.9281 -2.0751 0.9783
4.9910 -0.3963 -2.0491 0.9786
4.9915 0.0507 -2.0430 0.9787
4.9513 0.4946 -2.0365 0.9787
4.5953 1.7705 -2.0155 0.9789
4.4027 2.1658 -2.0081 0.9790
4.1763 2.5408 -2.0007 0.9791
3.9182 2.8928 -1.9933 0.9792
3.3167 3.5175 -1.9787 0.9793
2.9787 3.7860 -1.9716 0.9794
1.4406 4.5124 -1.9387 0.9797
0.1872 4.5851 -1.8781 0.9804
-0.2238 4.6019 -1.8857 0.9803
-1.0543 4.5564 -1.9141 0.9800
-1.4567 4.4433 -1.9138 0.9800
-1.8484 4.2974 -1.9146 0.9800
-2.5824 3.8988 -1.9140 0.9800
-2.9201 3.6526 -1.9139 0.9800
-3.5264 3.0778 -1.9157 0.9800
-3.7906 2.7532 -1.9174 0.9800
-4.0262 2.4068 -1.9198 0.9799
-4.2315 2.0408 -1.9227 0.9799
-4.4048 1.6579 -1.9262 0.9799
-4.5447 1.2606 -1.9302 0.9798
-2.0606 0.3775 -0.8574 0.9910
-2.0149 -0.1758 -0.8278 0.9913
-2.0555 -0.3665 -0.8545 0.9910
-4.6298 -1.2606 -1.9639 0.9795
-3.6963 -3.1954 -1.9997 0.9791
-3.4089 -3.5257 -2.0072 0.9790
-3.0917 -3.8300 -2.0145 0.9790
-2.7473 -4.1054 -2.0218 0.9789
-1.5769 -4.7340 -2.0422 0.9787
-1.1514 -4.8705 -2.0483 0.9786
-0.7139 -4.9677 -2.0541 0.9785
0.1819 -5.0400 -2.0641 0.9784
1.0794 -4.9459 -2.0719 0.9784
1.5188 -4.8366 -2.0748 0.9783
1.9467 -4.6868 -2.0771 0.9783
2.3592 -4.4977 -2.0786 0.9783
2.7525 -4.2709 -2.0795 0.9783
3.1230 -4.0083 -2.0797 0.9783
3.4675 -3.7125 -2.0791 0.9783
3.7827 -3.3860 -2.0778 0.9783
4.0660 -3.0318 -2.0758 0.9783
4.3149 -2.6533 -2.0732 0.9783
4.5274 -2.2538 -2.0698 0.9784
4.7015 -1.8371 -2.0659 0.9784
4.8362 -1.4069 -2.0614 0.9785
4.9303 -0.9671 -2.0563 0.9785
4.9666 0.3707 -2.0384 0.9787
4.7892 1.2398 -2.0247 0.9788
4.6428 1.6565 -2.0175 0.9789
3.4073 3.4369 -1.9807 0.9793
3.0757 3.7139 -1.9736 0.9794
2.7222 3.9598 -1.9667 0.9794
2.3470 4.1678 -1.9577 0.9795
1.9566 4.3408 -1.9487 0.9796
1.5548 4.4797 -1.9407 0.9797
0.3021 4.5800 -1.8786 0.9804
-0.5232 4.6127 -1.8999 0.9801
-0.9400 4.5820 -1.9144 0.9800
-1.7399 4.3416 -1.9143 0.9800
-2.1213 4.1703 -1.9149 0.9800
-2.4841 3.9625 -1.9141 0.9800
-3.1495 3.4579 -1.9143 0.9800
-4.5089 1.3732 -1.9291 0.9798
-2.0812 0.4354 -0.8702 0.9909
-1.9970 0.0548 -0.8176 0.9914
-2.0085 -0.1246 -0.8236 0.9913
-2.0277 -0.3093 -0.8395 0.9912
-4.5505 -1.5596 -1.9687 0.9794
0.4655 4.4102 -1.9327 0.9808
-0.7164 4.3548 -1.9234 0.9809
-1.1018 4.2711 -1.9224 0.9809
-2.1904 3.8198 -1.9190 0.9810
-2.5221 3.6081 -1.9185 0.9810
-2.8343 3.3687 -1.9187 0.9810
-3.1249 3.1033 -1.9194 0.9810
-3.3917 2.8138 -1.9206 0.9810
-3.8465 2.1705 -1.9248 0.9809
-1.4733 0.2319 -0.6500 0.9935
-1.4595 0.0975 -0.6375 0.9936
-1.4376 -0.0326 -0.6267 0.9937
-1.4715 -0.1656 -0.6453 0.9936
-1.4752 -0.3013 -0.6562 0.9935
-4.2056 -1.6812 -1.9739 0.9804
-4.0524 -2.0569 -1.9806 0.9804
-3.1190 -3.3920 -2.0083 0.9801
-2.1298 -4.1384 -2.0284 0.9799
-0.1334 -4.7168 -2.0565 0.9796
0.2888 -4.7197 -2.0608 0.9796
0.7104 -4.6836 -2.0646 0.9795
1.9333 -4.3441 -2.0722 0.9795
2.6776 -3.9346 -2.0742 0.9794
3.6208 -3.0812 -2.0720 0.9795
4.1017 -2.3827 -2.0673 0.9795
4.5610 -1.2038 -2.0558 0.9796
4.6392 -0.7899 -2.0509 0.9797
4.6790 -0.3716 -2.0456 0.9797
4.6804 0.0475 -2.0399 0.9798
4.5694 0.8739 -2.0275 0.9799
4.4585 1.2742 -2.0209 0.9800
4.1327 2.0330 -2.0072 0.9801
3.6796 2.7166 -1.9933 0.9802
2.7992 3.5578 -1.9729 0.9804
2.1082 3.9733 -1.9603 0.9806
1.7386 4.1305 -1.9531 0.9806
0.1806 4.4240 -1.9296 0.9809
-1.7411 4.0479 -1.9204 0.9810
-3.7895 2.2653 -1.9241 0.9809
-3.9824 1.9207 -1.9269 0.9809
-1.4244 0.0034 -0.6208 0.9938
-1.4662 -0.1279 -0.6414 0.9936
-1.4706 -0.2622 -0.6510 0.9935
-1.4932 -0.4066 -0.6744 0.9933
-1.5014 -0.5570 -0.6979 0.9930
-4.0987 -1.9529 -1.9787 0.9804
-3.9214 -2.3190 -1.9855 0.9803
-3.7116 -2.6691 -1.9924 0.9803
-3.1999 -3.3096 -2.0063 0.9801
-2.5777 -3.8520 -2.0200 0.9800
-1.8635 -4.2765 -2.0330 0.9799
-1.4786 -4.4390 -2.0391 0.9798
-1.0795 -4.5662 -2.0449 0.9797
-0.2514 -4.7090 -2.0552 0.9796
1.0112 -4.6335 -2.0669 0.9795
1.4228 -4.5307 -2.0697 0.9795
1.8235 -4.3901 -2.0718 0.9795
2.5780 -4.0002 -2.0741 0.9794
2.9251 -3.7543 -2.0742 0.9794
4.0423 -2.4856 -2.0681 0.9795
4.6212 -0.9065 -2.0524 0.9797
4.6839 -0.0698 -2.0415 0.9798
4.6578 0.3477 -2.0356 0.9798
4.3569 1.5545 -2.0160 0.9800
4.1864 1.9307 -2.0092 0.9801
3.7501 2.6261 -1.9953 0.9802
3.4885 2.9402 -1.9883 0.9803
3.2010 3.2288 -1.9815 0.9804
1.8436 4.0903 -1.9553 0.9806
1.4654 4.2222 -1.9478 0.9807
0.2916 4.4206 -1.9308 0.9809
-0.4977 4.3875 -1.9244 0.9809
-0.8867 4.3220 -1.9228 0.9809
-1.6395 4.0912 -1.9208 0.9810
-1.9969 3.9257 -1.9195 0.9810
-2.3384 3.7302 -1.9187 0.9810
-2.9649 3.2552 -1.9189 0.9810
-3.2452 2.9789 -1.9199 0.9810
-3.7303 2.3587 -1.9234 0.9809
-3.9313 2.0189 -1.9261 0.9809
-1.4774 0.3091 -0.6578 0.9934
-1.4404 0.0395 -0.6280 0.9937
-1.4576 -0.0905 -0.6365 0.9936
-1.4735 -0.2248 -0.6496 0.9935
-1.4911 -0.5110 -0.6869 0.9931
0.4399 4.1677 -1.9399 0.9817
0.0659 4.1819 -1.9360 0.9817
-0.3073 4.1647 -1.9330 0.9818
-0.6769 4.1147 -1.9302 0.9818
-1.3946 3.9194 -1.9257 0.9818
-2.0668 3.6043 -1.9232 0.9819
-2.6744 3.1787 -1.9229 0.9819
-3.2002 2.6549 -1.9247 0.9818
-3.4276 2.3607 -1.9265 0.9818
-1.2563 0.5675 -0.6381 0.9939
-1.2644 0.4401 -0.6197 0.9941
-1.2702 0.3183 -0.6062 0.9942
-1.2742 0.2006 -0.5971 0.9943
-1.2708 0.0849 -0.5895 0.9944
-1.2634 -0.0287 -0.5850 0.9944
-3.4337 -2.6022 -1.9943 0.9812
-2.6471 -3.4527 -2.0138 0.9810
-2.3356 -3.6868 -2.0202 0.9809
-0.9076 -4.3198 -2.0433 0.9807
-0.5195 -4.3942 -2.0482 0.9807
-0.1254 -4.4328 -2.0527 0.9806
1.0592 -4.3297 -2.0632 0.9805
1.4432 -4.2227 -2.0656 0.9805
2.8349 -3.4564 -2.0692 0.9805
3.4012 -2.8943 -2.0672 0.9805
3.8535 -2.2385 -2.0628 0.9805
4.0319 -1.8827 -2.0598 0.9806
4.3606 -0.7424 -2.0475 0.9807
4.3669 0.4362 -2.0314 0.9808
4.1944 1.1987 -2.0193 0.9810
2.9351 3.1128 -1.9804 0.9813
2.6371 3.3518 -1.9741 0.9814
2.3201 3.5628 -1.9680 0.9814
1.9868 3.7446 -1.9622 0.9815
1.2821 4.0160 -1.9514 0.9816
0.9160 4.1037 -1.9463 0.9816
0.5445 4.1581 -1.9412 0.9817
0.1707 4.1811 -1.9370 0.9817
-1.2963 3.9542 -1.9262 0.9818
-1.9761 3.6553 -1.9234 0.9819
-2.2939 3.4632 -1.9228 0.9819
-2.5939 3.2445 -1.9228 0.9819
-2.8739 3.0008 -1.9233 0.9819
-3.3664 2.4452 -1.9259 0.9818
-3.5752 2.1372 -1.9280 0.9818
-1.2748 0.6148 -0.6551 0.9938
-1.2590 0.4739 -0.6227 0.9941
-1.2706 0.3525 -0.6104 0.9942
-1.2716 0.2329 -0.5984 0.9943
-1.2737 0.1172 -0.5921 0.9944
-1.2588 0.0030 -0.5827 0.9945
-1.2732 -0.1111 -0.5916 0.9944
-1.2695 -0.6049 -0.6509 0.9938
-3.6929 -2.1839 -1.9859 0.9813
-2.7303 -3.3822 -2.0120 0.9810
-2.4251 -3.6240 -2.0184 0.9810
-1.3903 -4.1739 -2.0364 0.9808
1.7129 -4.1239 -2.0670 0.9805
2.0756 -3.9571 -2.0684 0.9805
2.7475 -3.5264 -2.0693 0.9805
3.0507 -3.2662 -2.0688 0.9805
3.9853 -1.9840 -2.0607 0.9806
4.2592 -1.2391 -2.0533 0.9806
4.3434 -0.8520 -2.0488 0.9807
4.3207 0.7146 -2.0272 0.9809
3.9397 1.8169 -2.0082 0.9811
3.0149 3.0410 -1.9822 0.9813
2.7226 3.2876 -1.9758 0.9814
2.0817 3.6967 -1.9638 0.9815
1.3833 3.9855 -1.9528 0.9816
1.0193 4.0826 -1.9478 0.9816
-0.0984 4.1782 -1.9346 0.9817
-0.4704 4.1470 -1.9319 0.9818
-1.1972 3.9866 -1.9267 0.9818
-1.5469 3.8601 -1.9249 0.9818
-2.7976 3.0715 -1.9231 0.9819
-3.0621 2.8108 -1.9240 0.9818
-3.5194 2.2253 -1.9274 0.9818
-1.2519 0.5073 -0.6252 0.9941
-1.2675 0.2652 -0.5994 0.9943
-1.2751 0.1496 -0.5943 0.9944
-1.2700 -0.0788 -0.5890 0.9944
-1.2745 -0.1944 -0.5968 0.9943
-1.2700 -0.3118 -0.6053 0.9943
-1.2653 -0.4337 -0.6191 0.9941
0.0623 3.9542 -1.9399 0.9825
-0.6399 3.8898 -1.9337 0.9826
-0.9834 3.8124 -1.9313 0.9826
-1.9542 3.4079 -1.9270 0.9826
-2.2502 3.2192 -1.9266 0.9827
-3.0258 2.5102 -1.9285 0.9826
-3.2406 2.2319 -1.9301 0.9826
-3.4307 1.9358 -1.9322 0.9826
-1.0986 0.4963 -0.5913 0.9946
-1.1246 0.3914 -0.5841 0.9947
-1.1429 0.1799 -0.5675 0.9949
-1.1442 -0.1288 -0.5648 0.9949
-1.1373 -0.2323 -0.5694 0.9948
-1.1310 -0.3386 -0.5791 0.9948
-1.0901 -0.5533 -0.5997 0.9946
-3.0173 -2.7435 -2.0004 0.9820
-2.7688 -3.0112 -2.0066 0.9819
-2.4965 -3.2562 -2.0127 0.9819
-2.2023 -3.4764 -2.0187 0.9818
-1.5577 -3.8342 -2.0301 0.9817
-1.2123 -3.9683 -2.0354 0.9817
-0.8553 -4.0707 -2.0404 0.9816
-0.4895 -4.1402 -2.0450 0.9816
0.6286 -4.1448 -2.0564 0.9815
0.9975 -4.0776 -2.0592 0.9815
1.7102 -3.8426 -2.0631 0.9814
2.0475 -3.6766 -2.0643 0.9814
2.3682 -3.4801 -2.0648 0.9814
3.2028 -2.7255 -2.0629 0.9814
3.7976 -1.7733 -2.0559 0.9815
3.9343 -1.4248 -2.0525 0.9815
4.0382 -1.0658 -2.0487 0.9816
4.1086 -0.6995 -2.0444 0.9816
4.1476 0.0421 -2.0346 0.9817
4.1164 0.4112 -2.0292 0.9817
3.6689 1.8048 -2.0057 0.9819
3.0313 2.6876 -1.9872 0.9821
2.7707 2.9385 -1.9811 0.9822
2.4898 3.1646 -1.9752 0.9822
2.1910 3.3645 -1.9694 0.9823
1.2113 3.7942 -1.9537 0.9824
0.8656 3.8780 -1.9490 0.9825
0.5148 3.9311 -1.9448 0.9825
0.1614 3.9535 -1.9409 0.9825
-0.1919 3.9451 -1.9374 0.9826
-0.8879 3.8371 -1.9319 0.9826
-2.7174 2.8373 -1.9271 0.9826
-3.1828 2.3118 -1.9296 0.9826
-3.3800 2.0205 -1.9316 0.9826
-1.0880 0.5247 -0.5925 0.9946
-1.1190 0.4212 -0.5865 0.9947
-1.1404 0.2089 -0.5687 0.9948
-1.1442 0.1053 -0.5636 0.9949
-1.1409 -0.2034 -0.5685 0.9948
-1.1326 -0.3084 -0.5758 0.9948
-1.0901 -0.5194 -0.5923 0.9946
-3.4856 -2.0613 -1.9864 0.9821
-3.2978 -2.3715 -1.9925 0.9821
-2.8410 -2.9384 -2.0049 0.9820
-2.2868 -3.4173 -2.0170 0.9818
-1.6520 -3.7911 -2.0285 0.9817
-1.3104 -3.9339 -2.0339 0.9817
-0.9563 -4.0453 -2.0390 0.9817
-0.2226 -4.1694 -2.0481 0.9816
1.6130 -3.8835 -2.0627 0.9814
2.2802 -3.5381 -2.0647 0.9814
2.5872 -3.3206 -2.0648 0.9814
2.8726 -3.0756 -2.0644 0.9814
3.1342 -2.8054 -2.0633 0.9814
3.7536 -1.8686 -2.0568 0.9815
4.0124 -1.1673 -2.0498 0.9816
4.0923 -0.8027 -2.0456 0.9816
4.1285 0.3082 -2.0308 0.9817
4.0734 0.6737 -2.0252 0.9818
3.8661 1.3794 -2.0135 0.9819
3.5374 2.0325 -2.0012 0.9820
3.1003 2.6130 -1.9889 0.9821
2.8459 2.8706 -1.9828 0.9822
1.9660 3.4913 -1.9654 0.9823
1.3068 3.7653 -1.9550 0.9824
0.6135 3.9193 -1.9459 0.9825
-0.0930 3.9506 -1.9384 0.9825
-0.7918 3.8594 -1.9326 0.9826
-1.4626 3.6497 -1.9287 0.9826
-2.3749 3.1282 -1.9266 0.9827
-1.0916 0.5606 -0.6019 0.9945
-1.1305 0.3443 -0.5797 0.9947
-1.1385 0.0312 -0.5587 0.9949
-1.1426 -0.0709 -0.5615 0.9949
0.3938 3.7309 -1.9463 0.9832
-0.2751 3.7286 -1.9396 0.9833
-0.9314 3.6109 -1.9346 0.9833
-2.1315 3.0494 -1.9301 0.9834
-2.6408 2.6226 -1.9308 0.9834
-3.0694 2.1140 -1.9335 0.9833
-0.9500 0.5360 -0.5659 0.9951
-1.0203 0.2557 -0.5457 0.9953
-1.0346 0.1629 -0.5433 0.9953
-1.0368 0.0693 -0.5391 0.9953
-1.0375 -0.1168 -0.5416 0.9953
-1.0286 -0.2101 -0.5446 0.9953
-1.0174 -0.3046 -0.5509 0.9952
-0.9698 -0.6068 -0.5935 0.9949
-3.0636 -2.3217 -1.9942 0.9828
-2.8524 -2.5936 -2.0000 0.9828
-2.0809 -3.2848 -2.0173 0.9826
-1.7842 -3.4669 -2.0227 0.9826
-1.4714 -3.6217 -2.0280 0.9825
-0.8076 -3.8441 -2.0378 0.9825
-0.4622 -3.9092 -2.0421 0.9824
-0.1115 -3.9425 -2.0461 0.9824
0.2413 -3.9436 -2.0497 0.9824
0.9415 -3.8486 -2.0555 0.9823
1.2827 -3.7531 -2.0576 0.9823
2.7825 -2.8334 -2.0602 0.9823
3.0226 -2.5722 -2.0590 0.9823
3.4254 -1.9898 -2.0551 0.9823
3.8125 -1.0062 -2.0456 0.9824
3.9144 -0.3108 -2.0371 0.9825
3.9173 0.0398 -2.0323 0.9825
3.8281 0.7321 -2.0219 0.9826
2.3554 2.9938 -1.9762 0.9830
1.7757 3.3468 -1.9655 0.9831
1.4661 3.4831 -1.9605 0.9831
1.1465 3.5914 -1.9558 0.9832
0.1529 3.7435 -1.9437 0.9833
-0.1817 3.7359 -1.9404 0.9833
-1.7699 3.2739 -1.9307 0.9834
-2.3233 2.9061 -1.9302 0.9834
-2.8051 2.4483 -1.9316 0.9834
-0.9761 0.4708 -0.5622 0.9951
-1.0191 0.2827 -0.5487 0.9952
-1.0315 0.1890 -0.5440 0.9953
-1.0298 0.0024 -0.5342 0.9954
-1.0376 -0.0905 -0.5403 0.9953
-1.0321 -0.1840 -0.5439 0.9953
-1.0194 -0.2776 -0.5481 0.9953
-1.0065 -0.3734 -0.5569 0.9952
-0.9593 -0.5673 -0.5782 0.9950
-3.1183 -2.2424 -1.9925 0.9828
-2.9141 -2.5192 -1.9984 0.9828
-2.4337 -3.0148 -2.0100 0.9827
-0.9031 -3.8202 -2.0365 0.9825
1.1880 -3.7830 -2.0571 0.9823
1.5223 -3.6650 -2.0588 0.9823
1.8445 -3.5165 -2.0600 0.9823
3.1800 -2.3712 -2.0578 0.9823
3.7880 -1.1020 -2.0466 0.9824
3.9078 -0.4090 -2.0384 0.9825
3.9197 -0.0584 -2.0337 0.9825
3.8481 0.6365 -2.0235 0.9826
3.7658 0.9748 -2.0180 0.9826
3.5124 1.6199 -2.0066 0.9827
1.8604 3.3037 -1.9669 0.9831
1.5540 3.4477 -1.9619 0.9831
1.2369 3.5639 -1.9571 0.9831
0.9117 3.6517 -1.9526 0.9832
0.5808 3.7106 -1.9485 0.9832
-0.0881 3.7410 -1.9413 0.9833
-0.7499 3.6553 -1.9358 0.9833
-1.6875 3.3175 -1.9309 0.9834
-1.9763 3.1526 -1.9303 0.9834
-2.7424 2.5174 -1.9312 0.9834
-2.9582 2.2640 -1.9325 0.9834
-0.9987 0.4047 -0.5590 0.9952
-1.0278 0.2150 -0.5448 0.9953
-1.0374 0.1217 -0.5418 0.9953
-1.0366 -0.0643 -0.5388 0.9953
-1.0351 -0.1579 -0.5432 0.9953
-1.0117 -0.3467 -0.5548 0.9952
0.3735 3.5383 -1.9487 0.9839
-0.5749 3.4946 -1.9397 0.9840
-1.4765 3.2087 -1.9346 0.9840
-2.2727 2.7012 -1.9335 0.9840
-2.7191 2.2558 -1.9351 0.9840
-0.8988 0.4060 -0.5402 0.9955
-0.9159 0.3188 -0.5311 0.9956
-0.9469 0.0633 -0.5198 0.9957
-0.9436 -0.0214 -0.5170 0.9957
-0.8871 -0.4503 -0.5449 0.9955
-2.9018 -2.1991 -1.9941 0.9835
-2.2336 -2.9133 -2.0106 0.9834
-1.9698 -3.1094 -2.0160 0.9834
-1.0834 -3.5462 -2.0309 0.9832
-0.7641 -3.6368 -2.0354 0.9832
-0.1055 -3.7291 -2.0433 0.9831
0.8903 -3.6394 -2.0521 0.9831
1.2129 -3.5489 -2.0541 0.9830
2.1131 -3.1051 -2.0571 0.9830
2.3818 -2.9040 -2.0571 0.9830
2.6309 -2.6790 -2.0565 0.9830
3.0614 -2.1656 -2.0538 0.9830
3.5127 -1.2721 -2.0462 0.9831
1.8879 -0.1499 -1.0373 0.9914
1.8749 0.0191 -1.0269 0.9915
1.8891 0.1887 -1.0398 0.9914
1.8845 0.3604 -1.0508 0.9913
3.2838 1.6154 -2.0044 0.9834
3.1178 1.8969 -1.9989 0.9835
2.9279 2.1617 -1.9933 0.9835
2.7157 2.4078 -1.9878 0.9836
2.2320 2.8369 -1.9771 0.9837
1.9647 3.0170 -1.9719 0.9837
1.6832 3.1724 -1.9669 0.9838
1.0871 3.4051 -1.9577 0.9838
0.4622 3.5297 -1.9497 0.9839
-0.1723 3.5436 -1.9431 0.9839
-0.4873 3.5092 -1.9404 0.9840
-1.3959 3.2452 -1.9349 0.9840
-1.6792 3.1061 -1.9339 0.9840
-1.9493 2.9430 -1.9334 0.9840
-2.2043 2.7572 -1.9334 0.9840
-0.8926 0.4305 -0.5428 0.9955
-0.9112 0.3430 -0.5333 0.9956
-0.9245 0.2564 -0.5255 0.9956
-0.9474 0.0872 -0.5211 0.9957
-0.9474 -0.0827 -0.5208 0.9957
-0.9248 -0.2518 -0.5250 0.9956
-0.9120 -0.3383 -0.5328 0.9956
-0.8939 -0.4259 -0.5423 0.9955
-2.9536 -2.1240 -1.9926 0.9835
-2.7599 -2.3859 -1.9981 0.9835
-2.5428 -2.6300 -2.0036 0.9835
-2.0456 -3.0568 -2.0145 0.9834
-1.7691 -3.2356 -2.0197 0.9833
-1.4768 -3.3891 -2.0248 0.9833
-0.8544 -3.6143 -2.0341 0.9832
-0.1988 -3.7234 -2.0422 0.9831
0.1347 -3.7327 -2.0457 0.9831
0.4681 -3.7113 -2.0488 0.9831
0.7986 -3.6594 -2.0514 0.9831
1.4394 -3.4654 -2.0552 0.9830
1.7440 -3.3250 -2.0564 0.9830
2.0346 -3.1569 -2.0570 0.9830
2.3084 -2.9628 -2.0571 0.9830
2.7967 -2.5034 -2.0558 0.9830
3.4812 -1.3603 -2.0471 0.9831
1.8850 -0.3698 -1.0521 0.9913
1.8891 -0.1977 -1.0403 0.9914
1.8762 -0.0279 -1.0277 0.9915
3.4588 1.2341 -2.0114 0.9834
3.1668 1.8196 -2.0004 0.9835
2.7773 2.3408 -1.9893 0.9836
2.0411 2.9690 -1.9733 0.9837
1.4731 3.2683 -1.9635 0.9838
0.2340 3.5475 -1.9472 0.9839
-0.7114 3.4675 -1.9387 0.9840
-1.3144 3.2798 -1.9352 0.9840
-1.8751 2.9911 -1.9335 0.9840
-2.1344 2.8115 -1.9334 0.9840
-2.6019 2.3884 -1.9344 0.9840
-2.8065 2.1479 -1.9356 0.9840
-0.8661 0.5476 -0.5612 0.9953
-0.9070 0.3675 -0.5360 0.9955
-0.9219 0.2808 -0.5279 0.9956
-0.9372 0.1961 -0.5244 0.9956
-0.9441 0.0259 -0.5173 0.9957
-0.9467 -0.0588 -0.5195 0.9957
-0.9446 -0.1441 -0.5234 0.9957
-0.9301 -0.2284 -0.5246 0.9956
0.3547 3.3605 -1.9510 0.9845
0.0532 3.3732 -1.9477 0.9845
-0.2479 3.3595 -1.9449 0.9846
-0.8395 3.2543 -1.9404 0.9846
-1.1257 3.1636 -1.9387 0.9846
-1.9215 2.7489 -1.9364 0.9846
-2.5834 2.1432 -1.9380 0.9846
-0.7981 0.5497 -0.5595 0.9955
-0.8447 0.3816 -0.5352 0.9957
-0.8607 0.2996 -0.5262 0.9958
-0.8712 0.2183 -0.5185 0.9959
-0.8768 -0.1791 -0.5166 0.9959
-0.8653 -0.2591 -0.5215 0.9958
-0.8537 -0.3413 -0.5308 0.9958
-0.8334 -0.4230 -0.5396 0.9957
-2.5622 -2.3296 -1.9993 0.9841
-2.3501 -2.5558 -2.0046 0.9841
-1.8676 -2.9480 -2.0148 0.9840
-1.6008 -3.1105 -2.0197 0.9840
-1.3198 -3.2486 -2.0244 0.9839
-1.0267 -3.3609 -2.0289 0.9839
-0.7241 -3.4463 -2.0332 0.9839
-0.4143 -3.5039 -2.0371 0.9838
