ply
format ascii 1.0
element vertex 1586
property float32 x
property float32 y
property float32 z
property float32 I
end_header
-8.4138 12.9358 0.2607 0.9401
-10.1988 12.9729 0.2788 0.9361
-12.2451 7.4450 0.2421 0.9443
-10.7485 -15.9009 0.3242 0.9261
12.4828 9.5218 -0.0884 0.9391
8.1008 8.8715 -0.0676 0.9531
6.7987 8.9348 -0.0632 0.9561
5.6479 8.9908 -0.0598 0.9584
-2.1164 13.4860 -0.0769 0.9469
-4.4303 12.7347 -0.0759 0.9475
-2.9207 6.4643 -0.0399 0.9720
-8.7036 12.6269 -0.0863 0.9405
-10.8344 13.0454 -0.0955 0.9344
-12.2720 7.0176 -0.0796 0.9450
-8.3046 -16.0290 -0.1016 0.9303
-6.3437 -15.5009 -0.0943 0.9352
-4.9397 -16.0320 -0.0944 0.9351
-0.4757 -15.7558 -0.0887 0.9389
0.9798 -16.4802 -0.0929 0.9361
2.4841 -16.5533 -0.0942 0.9352
4.0826 -16.7903 -0.0973 0.9332
5.6876 -16.7090 -0.0994 0.9318
5.3306 -9.5921 -0.0618 0.9571
13.7281 8.3915 -0.0906 0.9377
12.8145 9.5057 -0.0898 0.9382
8.3120 8.8612 -0.0684 0.9526
5.7809 8.9343 -0.0599 0.9583
2.8789 9.1255 -0.0539 0.9624
2.0118 9.1676 -0.0528 0.9632
1.2617 9.9238 -0.0563 0.9608
0.3395 9.1988 -0.0518 0.9638
-0.4731 8.9732 -0.0506 0.9647
-2.9435 12.4693 -0.0721 0.9500
-2.8612 6.5660 -0.0403 0.9718
-7.0348 12.8611 -0.0825 0.9430
-12.8433 13.2656 -0.1040 0.9288
0.7577 -16.4694 -0.0928 0.9362
5.4347 -16.6967 -0.0989 0.9322
5.3170 -9.8773 -0.0632 0.9561
17.6016 8.4089 -0.1098 0.9249
12.9072 9.3087 -0.0896 0.9383
7.1706 8.9167 -0.0644 0.9553
5.9793 8.9747 -0.0607 0.9578
3.9074 9.0254 -0.0554 0.9614
2.1396 9.1614 -0.0530 0.9631
1.3962 9.9173 -0.0564 0.9607
-2.7621 12.4452 -0.0718 0.9503
-3.9431 12.3959 -0.0732 0.9493
-2.8293 6.7381 -0.0411 0.9712
-6.8064 12.8501 -0.0819 0.9435
-10.1920 12.9642 -0.0928 0.9362
10.4956 2.1691 -0.3018 0.9580
8.3397 3.3594 -0.2532 0.9647
16.9143 8.6452 -0.5349 0.9268
6.3367 5.8000 -0.2419 0.9662
5.6446 8.9856 -0.2988 0.9584
3.6267 9.0341 -0.2741 0.9618
1.8735 9.1196 -0.2622 0.9634
0.2172 9.2502 -0.2605 0.9637
-0.5940 8.9745 -0.2533 0.9646
-2.1153 13.4791 -0.3842 0.9469
-2.9259 6.4760 -0.2001 0.9720
-7.2626 12.8647 -0.4160 0.9426
-13.0722 13.1446 -0.5220 0.9285
-17.9070 -7.0741 -0.5421 0.9258
-10.1683 -15.9483 -0.5326 0.9271
0.9803 -16.4886 -0.4651 0.9360
4.0926 -16.8316 -0.4877 0.9330
7.4572 -16.8043 -0.5177 0.9291
8.3315 3.2269 -0.2516 0.9649
17.0465 8.4263 -0.5354 0.9267
12.8043 9.4981 -0.4489 0.9382
8.3066 8.8553 -0.3419 0.9526
6.9785 8.9203 -0.3189 0.9557
5.7775 8.9291 -0.2995 0.9583
3.7653 9.0274 -0.2754 0.9616
2.8774 9.1207 -0.2693 0.9625
1.2610 9.9188 -0.2815 0.9608
0.3393 9.1942 -0.2591 0.9639
-0.4729 8.9687 -0.2529 0.9647
-1.9291 13.4701 -0.3832 0.9470
-2.8685 6.5827 -0.2022 0.9717
-7.0306 12.8535 -0.4125 0.9431
-8.5642 12.7884 -0.4334 0.9403
-12.8468 13.2692 -0.5201 0.9288
-12.1226 7.1496 -0.3963 0.9452
-14.9266 -7.2543 -0.4673 0.9357
-12.7107 -7.6529 -0.4178 0.9424
-8.6817 -16.2204 -0.5180 0.9290
-4.8423 -14.9978 -0.4438 0.9389
-3.7168 -16.4105 -0.4738 0.9349
-0.6654 -15.2535 -0.4299 0.9407
3.8516 -16.8198 -0.4859 0.9333
5.4376 -16.7057 -0.4947 0.9321
5.2657 -9.7822 -0.3128 0.9565
8.5443 2.3329 -0.2494 0.9652
17.5829 8.4000 -0.5487 0.9250
12.9040 9.3064 -0.4480 0.9383
6.4771 5.6168 -0.2414 0.9663
5.9758 8.9694 -0.3035 0.9578
3.9053 9.0206 -0.2768 0.9614
2.1385 9.1567 -0.2648 0.9631
1.3955 9.9122 -0.2819 0.9607
0.5006 9.9429 -0.2803 0.9609
-1.7439 13.4611 -0.3822 0.9471
-3.9409 12.3893 -0.3661 0.9493
-12.1005 7.3571 -0.3988 0.9449
-15.5348 -7.2940 -0.4832 0.9336
-10.9704 -7.8006 -0.3790 0.9476
10.1816 2.1042 -0.5273 0.9592
8.2447 3.3211 -0.4508 0.9650
13.2637 8.3540 -0.7950 0.9391
12.4633 9.5069 -0.7950 0.9391
6.3033 5.7694 -0.4334 0.9664
8.0902 8.8598 -0.6085 0.9531
6.7904 8.9239 -0.5687 0.9561
5.6413 8.9804 -0.5378 0.9584
4.4461 8.7242 -0.4966 0.9615
2.7439 9.1224 -0.4831 0.9626
1.8725 9.1149 -0.4719 0.9634
0.2171 9.2455 -0.4690 0.9636
-2.1142 13.4721 -0.6916 0.9468
-3.1157 12.4497 -0.6508 0.9499
-4.4255 12.7209 -0.6831 0.9475
-8.6926 12.6109 -0.7768 0.9405
-10.8196 13.0276 -0.8588 0.9344
-13.0624 13.1348 -0.9394 0.9285
-12.2090 6.9816 -0.7133 0.9452
-14.4171 -7.2473 -0.8183 0.9374
-11.9028 -7.3858 -0.7104 0.9454
-9.9639 -7.4952 -0.6323 0.9513
-8.4713 -7.6500 -0.5789 0.9553
-7.1546 -7.7305 -0.5342 0.9587
-6.0999 -7.9059 -0.5064 0.9608
-5.1153 -8.0230 -0.4825 0.9626
-4.9477 -16.0577 -0.8521 0.9349
-1.9677 -16.3532 -0.8353 0.9362
-0.4459 -14.7707 -0.7494 0.9425
2.4866 -16.5704 -0.8498 0.9351
4.0948 -16.8404 -0.8789 0.9329
5.3506 -9.6281 -0.5586 0.9568
7.1068 -8.6749 -0.5687 0.9561
10.0176 -8.5288 -0.6672 0.9487
10.7518 2.0721 -0.5553 0.9571
8.3202 2.3921 -0.4390 0.9659
8.2311 3.1880 -0.4476 0.9653
16.9738 8.3904 -0.9602 0.9270
6.3438 5.6520 -0.4309 0.9665
5.7742 8.9239 -0.5390 0.9583
4.5907 8.7171 -0.4996 0.9613
3.7633 9.0225 -0.4958 0.9616
1.2604 9.9138 -0.5068 0.9608
0.3391 9.1896 -0.4664 0.9638
-1.9281 13.4631 -0.6897 0.9470
-2.9378 12.4452 -0.6485 0.9501
-4.2320 12.7116 -0.6794 0.9478
-2.8733 6.5937 -0.3648 0.9716
-8.5670 12.7926 -0.7808 0.9402
-10.5158 13.0131 -0.8485 0.9352
-12.8503 13.2728 -0.9369 0.9287
-12.0903 7.1306 -0.7118 0.9453
-18.6152 -7.0667 -1.0098 0.9233
-12.1192 -7.2968 -0.7174 0.9449
-8.6279 -7.5839 -0.5826 0.9550
-6.2791 -7.9163 -0.5124 0.9603
-9.6540 -14.7029 -0.8920 0.9320
-1.8708 -8.2601 -0.4295 0.9666
-2.1892 -16.3425 -0.8362 0.9361
-0.6439 -14.7610 -0.7493 0.9425
3.8536 -16.8286 -0.8755 0.9332
5.4405 -16.7147 -0.8914 0.9320
3.6111 -8.4411 -0.4656 0.9639
7.0709 -8.8712 -0.5753 0.9556
8.2156 -8.6004 -0.6032 0.9535
8.4053 2.2950 -0.4419 0.9657
14.0245 8.3163 -0.8269 0.9368
6.4573 5.5996 -0.4335 0.9663
8.5168 8.8388 -0.6225 0.9520
7.1616 8.9056 -0.5796 0.9553
5.9723 8.9641 -0.5463 0.9578
4.9041 9.0166 -0.5205 0.9597
2.9925 9.0602 -0.4839 0.9625
0.5003 9.9378 -0.5046 0.9609
-0.3624 9.2236 -0.4681 0.9637
-2.7600 12.4354 -0.6460 0.9503
-5.3604 12.7659 -0.7022 0.9461
-3.3866 6.3937 -0.3669 0.9714
-8.3982 12.9117 -0.7811 0.9402
-12.0443 7.3229 -0.7149 0.9451
-7.6327 -7.8157 -0.5540 0.9572
-10.9209 -13.3954 -0.8765 0.9331
8.2135 2.4812 -0.6291 0.9662
10.1473 7.7403 -0.9358 0.9501
8.0849 8.8540 -0.8791 0.9530
4.4436 8.7194 -0.7176 0.9615
2.7425 9.1176 -0.6981 0.9625
1.8715 9.1103 -0.6819 0.9634
0.1978 8.4252 -0.6179 0.9668
-4.4231 12.7140 -0.9870 0.9474
-2.9262 6.4765 -0.5211 0.9719
-7.2539 12.8494 -1.0819 0.9425
-8.6870 12.6029 -1.1223 0.9405
-14.3818 -7.2295 -1.1802 0.9375
-8.3816 -7.5690 -0.8281 0.9557
-7.0513 -7.6189 -0.7612 0.9592
-5.9113 -7.6614 -0.7095 0.9619
-5.0565 -7.9308 -0.6896 0.9630
-3.2546 -7.9526 -0.6300 0.9661
0.4873 -8.1964 -0.6020 0.9676
1.2279 -8.1824 -0.6067 0.9674
2.8422 -8.3497 -0.6467 0.9652
6.9186 -8.4452 -0.8005 0.9572
8.1153 -8.2704 -0.8496 0.9546
9.8957 -8.4250 -0.9529 0.9492
10.3949 2.0033 -0.7762 0.9584
8.1639 3.1620 -0.6419 0.9655
13.2406 8.0935 -1.1378 0.9397
5.7708 8.9187 -0.7789 0.9583
4.5882 8.7122 -0.7220 0.9613
3.7817 9.0667 -0.7203 0.9614
2.0087 9.1535 -0.6871 0.9631
1.2644 9.9456 -0.7351 0.9606
-1.9271 13.4562 -0.9967 0.9469
-2.7513 11.6550 -0.8781 0.9531
-2.8905 6.6332 -0.5305 0.9714
-7.0223 12.8383 -1.0729 0.9430
-12.6697 13.0864 -1.3355 0.9296
-12.1358 -7.3068 -1.0387 0.9448
-10.0732 -7.3679 -0.9151 0.9512
-8.5275 -7.4956 -0.8325 0.9555
-7.2059 -7.5795 -0.7668 0.9589
-5.1358 -7.8217 -0.6861 0.9632
2.2595 -16.5677 -1.2260 0.9351
3.5614 -8.3248 -0.6639 0.9643
5.4765 -8.2976 -0.7290 0.9609
8.0662 -8.4440 -0.8562 0.9542
9.5810 -8.3814 -0.9334 0.9502
10.9423 1.9570 -0.8150 0.9564
8.3182 2.2712 -0.6322 0.9660
8.1578 3.0344 -0.6382 0.9657
6.4352 5.5804 -0.6245 0.9664
7.1571 8.9000 -0.8374 0.9552
3.9223 9.0598 -0.7239 0.9612
2.9909 9.0555 -0.6992 0.9625
2.1363 9.1473 -0.6888 0.9630
0.5000 9.9328 -0.7292 0.9609
-1.7422 13.4473 -0.9942 0.9471
-3.9367 12.3759 -0.9522 0.9492
-5.3574 12.7587 -1.0146 0.9460
-3.3736 6.3692 -0.5285 0.9715
-10.1716 12.9383 -1.2067 0.9361
-11.9634 7.2737 -1.0266 0.9454
-6.2302 -7.6418 -0.7229 0.9612
-5.4080 -8.0004 -0.7081 0.9620
8.1070 2.4490 -0.8130 0.9665
13.2403 8.3393 -1.5023 0.9391
8.0796 8.8482 -1.1503 0.9530
6.7820 8.9129 -1.0752 0.9560
5.6348 8.9700 -1.0170 0.9583
4.4411 8.7145 -0.9390 0.9615
2.7411 9.1129 -0.9136 0.9625
1.8706 9.1056 -0.8924 0.9633
1.1293 9.9471 -0.9611 0.9606
-0.5625 8.4984 -0.8177 0.9664
-2.1120 13.4582 -1.3079 0.9467
-4.3323 12.4530 -1.2658 0.9484
-2.9337 6.4931 -0.6840 0.9718
-7.1046 12.5849 -1.3874 0.9436
-8.6815 12.5949 -1.4686 0.9404
-19.2858 4.9399 -1.9113 0.9231
-19.2460 3.1293 -1.8720 0.9246
-19.0658 1.3677 -1.8351 0.9261
-18.7543 -0.3368 -1.8008 0.9274
-16.3705 -6.4670 -1.6898 0.9317
-14.3440 -7.2105 -1.5413 0.9375
-11.8774 -7.3700 -1.3420 0.9454
-9.8815 -7.4332 -1.1871 0.9515
-8.4029 -7.5882 -1.0870 0.9555
-7.0057 -7.5696 -0.9902 0.9594
-5.9465 -7.7071 -0.9346 0.9616
-3.2128 -7.8505 -0.8144 0.9665
-0.9964 -8.2811 -0.8008 0.9670
-0.2502 -8.2869 -0.7959 0.9672
1.2134 -8.0861 -0.7850 0.9677
2.7477 -8.0721 -0.8186 0.9663
6.8118 -8.3148 -1.0319 0.9577
8.1995 -8.3563 -1.1240 0.9540
14.9681 -8.6931 -1.6618 0.9328
10.0791 1.9424 -0.9854 0.9596
8.0414 3.1145 -0.8279 0.9659
16.2968 8.0558 -1.7453 0.9296
13.2374 8.0915 -1.4895 0.9396
10.0659 7.4668 -1.2032 0.9509
8.2900 8.8377 -1.1633 0.9525
6.9656 8.9038 -1.0853 0.9556
5.7674 8.9134 -1.0192 0.9582
2.8728 9.1064 -0.9167 0.9624
0.3388 9.1802 -0.8820 0.9638
-1.9261 13.4493 -1.3044 0.9469
-2.9143 6.6877 -0.7004 0.9711
-6.8778 12.5742 -1.3760 0.9440
-12.2964 12.7007 -1.6972 0.9314
-17.4126 8.2678 -1.8506 0.9255
-19.2612 3.3975 -1.8777 0.9244
-19.1013 1.6280 -1.8405 0.9259
-18.8089 -0.0854 -1.8058 0.9272
-18.3929 -1.7361 -1.7737 0.9285
-12.5288 -7.5434 -1.4040 0.9429
-7.2838 -7.6613 -1.0149 0.9584
-3.3080 -7.7835 -0.8119 0.9666
-2.5874 -8.0138 -0.8085 0.9667
-1.7660 -7.7971 -0.7675 0.9684
-0.3492 -8.0040 -0.7692 0.9683
1.1166 -8.1875 -0.7933 0.9673
2.6669 -8.1935 -0.8272 0.9660
5.4366 -8.2372 -0.9475 0.9611
6.6784 -8.3787 -1.0287 0.9579
11.6997 -8.5151 -1.3892 0.9435
14.4596 -8.6591 -1.6181 0.9345
10.6767 1.9095 -1.0413 0.9574
8.0351 2.9888 -0.8230 0.9661
8.2394 3.9363 -0.8767 0.9640
13.2254 7.8425 -1.4762 0.9401
10.1253 7.3024 -1.1985 0.9511
7.1527 8.8945 -1.0958 0.9552
5.9653 8.9536 -1.0329 0.9577
4.8985 9.0065 -0.9843 0.9596
3.9202 9.0549 -0.9473 0.9611
2.9893 9.0507 -0.9151 0.9624
1.3986 9.9340 -0.9631 0.9605
-1.7413 13.4403 -1.3011 0.9470
-2.7470 12.3771 -1.2172 0.9503
-3.3535 6.3311 -0.6878 0.9716
-17.3588 8.5294 -1.8568 0.9252
-19.1339 1.8896 -1.8459 0.9256
-18.8608 0.1673 -1.8108 0.9270
-17.3266 -4.6062 -1.7212 0.9305
-16.6049 -6.0501 -1.6967 0.9314
-15.1377 -7.1075 -1.6055 0.9350
-12.8390 -7.4974 -1.4274 0.9420
-8.9271 -7.6371 -1.1279 0.9539
-5.2406 -7.7527 -0.8984 0.9631
9.4650 1.9561 -1.1481 0.9618
15.4556 7.8997 -2.0618 0.9325
12.2733 7.7302 -1.7230 0.9432
10.0739 7.6843 -1.5050 0.9502
7.8561 8.6035 -1.3839 0.9542
5.1881 8.2590 -1.1586 0.9615
4.4386 8.7097 -1.1612 0.9614
0.1986 8.4573 -1.0049 0.9665
-0.5622 8.4941 -1.0112 0.9663
-2.1109 13.4512 -1.6174 0.9466
-2.8168 11.2553 -1.3782 0.9543
-2.9453 6.5187 -0.8497 0.9716
-7.1003 12.5774 -1.7156 0.9435
-8.6759 12.5868 -1.8159 0.9403
-11.4802 8.0070 -1.6626 0.9452
-11.4989 6.5755 -1.5735 0.9480
-15.7112 4.0243 -1.9265 0.9368
-15.6475 1.1225 -1.8635 0.9388
-15.1335 -1.6335 -1.8081 0.9405
-14.7235 -2.9400 -1.7835 0.9413
-11.7158 -7.2698 -1.6378 0.9460
-10.2010 -7.6736 -1.5163 0.9499
-8.2500 -7.4502 -1.3204 0.9562
-7.0478 -7.6151 -1.2325 0.9591
-5.9347 -7.6918 -1.1540 0.9616
-4.9082 -7.6983 -1.0845 0.9639
-3.1712 -7.7488 -0.9946 0.9668
0.4758 -8.0033 -0.9524 0.9682
1.2293 -8.1915 -0.9839 0.9672
2.7671 -8.1291 -1.0200 0.9660
3.6094 -8.1335 -1.0570 0.9648
4.5237 -8.1403 -1.1062 0.9632
5.5527 -8.1725 -1.1737 0.9610
12.1802 -8.6173 -1.7723 0.9417
14.1900 -8.2412 -1.9492 0.9360
15.1649 -7.0763 -1.9878 0.9348
16.0268 -5.7962 -2.0244 0.9337
16.7879 -4.4203 -2.0621 0.9325
17.4359 -2.9551 -2.1007 0.9312
18.3427 0.2064 -2.1790 0.9288
18.5775 1.8793 -2.2180 0.9275
10.0470 1.9363 -1.2154 0.9596
8.0779 2.3224 -0.9984 0.9667
15.7055 7.7635 -2.0811 0.9319
6.2821 5.5970 -0.9994 0.9667
3.7776 9.0569 -1.1657 0.9612
2.8713 9.1016 -1.1337 0.9623
2.0067 9.1441 -1.1120 0.9630
-1.9251 13.4423 -1.6130 0.9468
-2.7899 11.8186 -1.4425 0.9523
-8.4659 12.6417 -1.8073 0.9406
-15.5241 5.7325 -1.9658 0.9355
-15.6964 4.2456 -1.9315 0.9366
-15.4811 -0.0703 -1.8390 0.9395
-13.0620 -6.3481 -1.7251 0.9432
-12.0395 -7.2488 -1.6693 0.9450
-6.0528 -7.6310 -1.1570 0.9615
-2.5397 -7.8661 -0.9819 0.9673
-1.7999 -7.9469 -0.9679 0.9677
-1.0639 -7.9423 -0.9519 0.9682
-0.3444 -7.8954 -0.9388 0.9687
1.1039 -8.0942 -0.9704 0.9676
1.8567 -8.1082 -0.9881 0.9670
4.3853 -8.1466 -1.0990 0.9634
5.4115 -8.1992 -1.1670 0.9612
7.9506 -8.3230 -1.3672 0.9547
11.7974 -8.5861 -1.7332 0.9429
14.0215 -8.3968 -1.9414 0.9363
15.0279 -7.2594 -1.9825 0.9350
17.3466 -3.1799 -2.0949 0.9314
17.8885 -1.6456 -2.1339 0.9302
18.5523 1.6257 -2.2122 0.9277
10.7221 1.9176 -1.2938 0.9571
8.0177 2.9823 -1.0161 0.9661
8.1778 3.9068 -1.0766 0.9642
12.9759 7.6945 -1.7920 0.9410
4.6465 5.7781 -0.8807 0.9706
5.9295 8.8999 -1.2703 0.9578
2.1341 9.1379 -1.1147 0.9629
0.4995 9.9227 -1.1802 0.9608
-0.3333 8.4830 -1.0084 0.9664
-2.7456 12.3705 -1.5052 0.9502
-3.9324 12.3625 -1.5410 0.9491
-8.2148 12.6298 -1.7897 0.9411
-9.9948 12.7134 -1.9210 0.9369
-11.5225 12.2253 -1.9955 0.9346
-12.3417 10.9433 -1.9593 0.9357
-13.0280 9.6160 -1.9234 0.9369
-11.4935 6.9880 -1.5978 0.9473
-15.4579 5.9448 -1.9673 0.9355
-15.7432 2.9952 -1.9036 0.9375
-15.5161 0.1376 -1.8432 0.9394
-15.2372 -1.2323 -1.8159 0.9403
-14.8564 -2.5543 -1.7906 0.9411
-14.3802 -3.8229 -1.7675 0.9418
-13.1659 -6.1817 -1.7277 0.9431
-10.6988 -7.6075 -1.5594 0.9485
-8.8094 -7.5365 -1.3771 0.9544
-6.2788 -7.7015 -1.1803 0.9608
-5.2823 -7.8144 -1.1204 0.9627
9.5792 1.9797 -1.3860 0.9613
8.0525 2.4325 -1.1919 0.9666
8.0099 3.2265 -1.2235 0.9657
13.3378 6.8172 -2.1224 0.9413
11.8029 7.4339 -1.9764 0.9452
7.8509 8.5978 -1.6497 0.9541
4.4989 5.9124 -1.0527 0.9704
4.4362 8.7048 -1.3843 0.9613
3.5384 8.8141 -1.3457 0.9624
0.1985 8.4529 -1.1980 0.9664
-1.8316 11.6712 -1.6739 0.9534
-4.3275 12.4393 -1.8661 0.9482
-2.9530 6.5357 -1.0162 0.9714
-8.0855 11.7302 -2.0186 0.9441
-8.9711 10.8019 -1.9895 0.9449
-9.7543 9.8084 -1.9600 0.9456
-10.4323 8.7619 -1.9303 0.9464
-11.0035 7.6746 -1.9008 0.9472
-11.4390 6.5412 -1.8671 0.9482
-12.4257 5.6970 -1.9368 0.9463
-13.2433 3.3922 -1.9370 0.9463
-13.3017 2.1628 -1.9095 0.9470
-12.8808 -1.3903 -1.8357 0.9490
-11.6649 -4.6081 -1.7771 0.9506
-11.1059 -5.5828 -1.7612 0.9510
-10.4782 -6.5019 -1.7473 0.9514
-5.9756 -7.7448 -1.3860 0.9613
-3.1745 -7.7569 -1.1875 0.9667
-2.4709 -8.0194 -1.1890 0.9667
-1.7036 -8.0197 -1.1617 0.9674
-0.9544 -7.9315 -1.1319 0.9682
-0.2402 -7.9558 -1.1278 0.9684
0.4826 -8.1170 -1.1521 0.9677
11.1229 -7.8692 -1.9305 0.9464
11.9563 -6.9439 -1.9591 0.9457
12.7193 -5.9351 -1.9887 0.9449
13.4023 -4.8471 -2.0193 0.9440
14.4914 -2.4560 -2.0826 0.9423
14.8788 -1.1677 -2.1146 0.9415
15.2959 1.5473 -2.1783 0.9398
8.0916 2.3264 -1.1929 0.9666
7.9997 3.0984 -1.2155 0.9659
10.0607 7.4629 -1.7749 0.9507
4.5507 5.8169 -1.0464 0.9706
4.5805 8.6976 -1.3928 0.9611
3.6736 8.8074 -1.3521 0.9622
1.9514 8.8925 -1.2899 0.9639
1.2562 9.8808 -1.4113 0.9606
-2.7657 11.7159 -1.7056 0.9525
-4.1384 12.4303 -1.8563 0.9484
-3.4716 6.3468 -1.0250 0.9712
-7.9443 11.8628 -2.0229 0.9440
-11.4050 6.7264 -1.8761 0.9479
-11.9809 5.6887 -1.8792 0.9478
-13.0444 4.8168 -1.9702 0.9454
-12.5562 -2.3326 -1.8095 0.9497
-11.7424 -4.4576 -1.7796 0.9505
-11.1941 -5.4403 -1.7635 0.9510
-9.8671 -7.2173 -1.7321 0.9518
-5.0859 -7.7458 -1.3129 0.9633
-4.1917 -7.8315 -1.2586 0.9648
-3.3286 -7.8321 -1.2058 0.9662
-2.5567 -7.9186 -1.1790 0.9669
-1.7674 -7.8034 -1.1337 0.9682
-0.3461 -7.9347 -1.1253 0.9684
1.1103 -8.1416 -1.1643 0.9673
5.3916 -8.1689 -1.3868 0.9612
6.6671 -8.3645 -1.5156 0.9577
7.9489 -8.3212 -1.6305 0.9546
12.6099 -6.0913 -1.9842 0.9450
13.3055 -5.0149 -2.0147 0.9442
13.9133 -3.8636 -2.0460 0.9433
14.4239 -2.6441 -2.0778 0.9425
14.8280 -1.3640 -2.1098 0.9416
10.7092 1.9153 -1.5415 0.9570
8.1516 2.2257 -1.1973 0.9664
8.1868 3.9111 -1.2856 0.9640
12.4781 7.3993 -2.0555 0.9431
10.1088 7.2905 -1.7659 0.9509
8.2644 8.5768 -1.6876 0.9530
4.8917 6.0830 -1.1060 0.9690
3.8101 8.8006 -1.3588 0.9620
2.0754 8.8864 -1.2930 0.9638
1.3902 9.8743 -1.4129 0.9605
0.4514 8.9658 -1.2720 0.9644
-0.3331 8.4787 -1.2023 0.9663
-5.2414 12.4825 -1.9182 0.9468
-3.3229 6.2734 -1.0059 0.9717
-7.8010 11.9936 -2.0272 0.9438
-10.2404 9.0802 -1.9392 0.9462
-11.3399 6.8946 -1.8804 0.9478
-11.7295 5.7634 -1.8517 0.9486
-13.0078 5.0025 -1.9747 0.9453
-13.2053 3.7626 -1.9455 0.9460
-13.2814 1.3116 -1.8910 0.9475
-13.1684 0.1168 -1.8659 0.9482
-12.5836 -2.1635 -1.8091 0.9497
-10.6731 -6.2326 -1.7512 0.9513
-7.7854 -7.9720 -1.5788 0.9560
-6.1984 -7.6029 -1.3899 0.9611
7.9913 2.4140 -1.3752 0.9667
11.2315 5.7406 -2.0779 0.9502
10.0167 7.6406 -2.0754 0.9502
7.8456 8.5921 -1.9168 0.9539
2.6628 8.8527 -1.5229 0.9632
1.8271 8.8939 -1.4958 0.9639
-0.5616 8.4853 -1.4009 0.9661
-1.7812 11.3504 -1.8927 0.9545
-4.1079 11.8081 -2.0596 0.9506
-2.9878 6.6129 -1.1954 0.9710
-6.0144 10.6538 -2.0155 0.9516
-6.8616 9.9546 -1.9918 0.9522
-8.9122 7.4852 -1.9173 0.9539
-11.0103 5.0481 -1.9954 0.9521
-11.2703 3.9908 -1.9696 0.9527
-11.4356 2.9291 -1.9447 0.9533
-11.5084 1.8712 -1.9208 0.9538
-11.2025 -1.2092 -1.8562 0.9553
-10.9377 -2.1841 -1.8374 0.9558
-9.7102 -4.8812 -1.7904 0.9569
-8.5727 -6.4487 -1.7672 0.9574
-7.9105 -7.1436 -1.7559 0.9577
-4.0795 -7.8739 -1.4609 0.9647
-1.6703 -7.8626 -1.3242 0.9679
-0.9551 -7.9377 -1.3171 0.9681
-0.2388 -7.9079 -1.3033 0.9684
0.4751 -7.9904 -1.3186 0.9681
1.2154 -8.0991 -1.3492 0.9673
1.9722 -8.1109 -1.3751 0.9667
2.7934 -8.2064 -1.4281 0.9655
3.6162 -8.1488 -1.4687 0.9645
6.6800 -8.1539 -1.7365 0.9582
8.0183 -8.1716 -1.8860 0.9546
8.8529 -7.5372 -1.9154 0.9540
9.6090 -6.7982 -1.9391 0.9534
10.3082 -5.9867 -1.9638 0.9528
11.5061 -4.1613 -2.0157 0.9516
11.9896 -3.1569 -2.0425 0.9510
12.6889 -0.9958 -2.0968 0.9497
12.8912 0.1450 -2.1238 0.9491
12.9871 1.3138 -2.1504 0.9485
10.3909 2.0025 -1.7433 0.9580
7.9214 3.0681 -1.3994 0.9661
10.0062 7.4225 -2.0524 0.9507
6.2351 5.5551 -1.3757 0.9667
5.6321 8.7043 -1.7079 0.9588
4.5779 8.6927 -1.6185 0.9610
3.6716 8.8026 -1.5712 0.9621
0.3309 8.9670 -1.4782 0.9643
-0.4471 8.4798 -1.3989 0.9662
-3.4460 6.3001 -1.1830 0.9713
-6.7397 10.0639 -1.9954 0.9521
-7.5200 9.3058 -1.9710 0.9527
-8.2174 8.4876 -1.9462 0.9532
-8.8283 7.6190 -1.9211 0.9538
-9.3507 6.7100 -1.8960 0.9544
-11.2375 4.1496 -1.9734 0.9526
-11.5032 2.0291 -1.9243 0.9538
-11.4997 0.9801 -1.9013 0.9543
-11.4092 -0.0518 -1.8796 0.9548
-10.6534 -2.9857 -1.8227 0.9561
-10.2532 -3.8923 -1.8067 0.9565
-9.2552 -5.5724 -1.7797 0.9571
-8.0175 -7.0473 -1.7585 0.9576
-4.2001 -7.8473 -1.4663 0.9646
-2.5864 -8.0106 -1.3867 0.9665
-1.0613 -7.9231 -1.3169 0.9681
-0.3415 -7.8281 -1.2908 0.9687
2.6214 -8.0538 -1.3953 0.9662
3.5048 -8.1925 -1.4679 0.9645
8.7353 -7.6415 -1.9120 0.9540
10.2075 -6.1127 -1.9600 0.9529
10.8525 -5.2424 -1.9855 0.9523
11.9226 -3.3108 -2.0384 0.9511
12.3326 -2.2607 -2.0655 0.9504
12.6499 -1.1637 -2.0927 0.9498
12.9797 1.1374 -2.1465 0.9486
7.9207 2.9462 -1.3922 0.9663
6.3399 5.4978 -1.3824 0.9666
8.2587 8.5710 -1.9608 0.9529
3.8080 8.7958 -1.5790 0.9619
1.3317 9.4590 -1.5736 0.9620
0.4511 8.9611 -1.4781 0.9643
-0.3329 8.4743 -1.3971 0.9662
-2.5271 11.3860 -1.9214 0.9538
-3.8010 11.9495 -2.0657 0.9504
-4.8053 11.4440 -2.0447 0.9509
-9.2782 6.8483 -1.8997 0.9543
-9.7242 5.9123 -1.8748 0.9549
-10.8961 5.3539 -2.0000 0.9520
-11.2025 4.3082 -1.9773 0.9525
-11.2667 -0.9112 -1.8621 0.9552
-11.0251 -1.8956 -1.8429 0.9557
-10.3175 -3.7592 -1.8090 0.9565
-9.8598 -4.6294 -1.7944 0.9568
-9.3385 -5.4533 -1.7815 0.9571
-8.7576 -6.2272 -1.7703 0.9574
-8.1215 -6.9479 -1.7607 0.9576
-7.2975 -7.4725 -1.7207 0.9585
-6.1887 -7.5910 -1.6135 0.9611
7.9316 3.1950 -1.6072 0.9658
9.6899 4.9527 -2.0454 0.9567
9.2777 5.8435 -2.0609 0.9564
8.7758 6.6941 -2.0746 0.9561
4.4957 5.9083 -1.3955 0.9702
4.4311 8.6949 -1.8343 0.9611
3.5345 8.8045 -1.7833 0.9621
0.9991 8.8008 -1.6648 0.9646
-0.5613 8.4809 -1.5976 0.9660
-3.5484 10.1997 -2.0298 0.9570
-6.6310 7.9843 -1.9508 0.9586
-7.2380 7.2781 -1.9293 0.9591
-7.7714 6.5271 -1.9076 0.9595
-8.2290 5.7394 -1.8858 0.9600
-9.3029 5.3197 -2.0143 0.9573
-9.6489 4.4238 -1.9951 0.9577
-9.8925 3.5029 -1.9725 0.9582
-10.0531 2.5750 -1.9506 0.9586
-10.1317 0.7268 -1.9093 0.9595
-9.9027 -1.0689 -1.8721 0.9603
-9.6799 -1.9329 -1.8554 0.9606
-9.3894 -2.7678 -1.8399 0.9609
-9.0346 -3.5691 -1.8258 0.9612
-8.6190 -4.3327 -1.8132 0.9615
-7.6204 -5.7324 -1.7923 0.9619
-7.0450 -6.3620 -1.7842 0.9621
-5.7438 -7.4444 -1.7673 0.9625
-4.8437 -7.5970 -1.6935 0.9640
-3.9954 -7.7116 -1.6325 0.9653
-3.2072 -7.8367 -1.5916 0.9661
-2.5540 -8.2891 -1.6303 0.9653
-0.9679 -8.0438 -1.5228 0.9676
0.4853 -8.1630 -1.5370 0.9673
2.7666 -8.1276 -1.6138 0.9657
6.3535 -7.7554 -1.8844 0.9600
7.0975 -7.2331 -1.9047 0.9596
8.4503 -5.9784 -1.9456 0.9587
9.0513 -5.2567 -1.9674 0.9583
9.5935 -4.4766 -1.9899 0.9578
10.0707 -3.6422 -2.0129 0.9573
10.8049 -1.8312 -2.0599 0.9564
11.0504 -0.8672 -2.0834 0.9559
11.2729 1.1404 -2.1297 0.9549
11.2417 2.1665 -2.1519 0.9545
8.0452 2.3130 -1.5734 0.9665
7.9216 3.0681 -1.5967 0.9660
9.7513 4.8202 -2.0446 0.9567
4.5752 8.6877 -1.8455 0.9608
3.6695 8.7977 -1.7917 0.9619
2.7893 8.8416 -1.7426 0.9630
1.1181 8.7950 -1.6664 0.9646
-0.4469 8.4754 -1.5953 0.9660
-1.5569 10.8714 -2.0642 0.9563
-3.4157 10.2596 -2.0325 0.9569
-4.2813 9.8247 -2.0144 0.9573
-6.5340 8.0857 -1.9540 0.9586
-7.1517 7.3869 -1.9326 0.9590
-8.1654 5.8594 -1.8890 0.9599
-9.2364 5.4474 -2.0155 0.9573
-9.6052 4.5607 -1.9986 0.9576
-10.1254 1.7860 -1.9326 0.9590
-9.7177 -1.8053 -1.8578 0.9606
-9.4371 -2.6448 -1.8421 0.9609
-9.0917 -3.4514 -1.8279 0.9612
-8.2206 -4.9495 -1.8036 0.9617
-5.8486 -7.3735 -1.7690 0.9624
-4.9824 -7.5881 -1.7062 0.9637
-4.0989 -7.6581 -1.6326 0.9653
-3.3966 -7.9921 -1.6322 0.9653
-1.8135 -8.0069 -1.5431 0.9671
-1.0812 -8.0712 -1.5306 0.9674
1.8824 -8.2206 -1.5851 0.9663
3.5455 -8.2875 -1.6943 0.9640
4.3291 -8.0421 -1.7167 0.9635
7.6949 -6.7314 -1.9217 0.9592
8.9649 -5.3686 -1.9641 0.9584
9.5163 -4.5970 -1.9865 0.9579
10.0036 -3.7704 -2.0094 0.9574
11.0192 -1.0137 -2.0799 0.9560
11.1901 -0.0242 -2.1033 0.9555
11.2526 2.0125 -2.1486 0.9545
8.0994 2.2115 -1.5781 0.9664
7.9204 2.9461 -1.5884 0.9662
9.4107 5.5804 -2.0565 0.9564
4.7554 8.7432 -1.8707 0.9603
3.8059 8.7909 -1.8006 0.9618
0.4509 8.9565 -1.6856 0.9642
-2.3649 10.6554 -2.0515 0.9565
-6.4354 8.1858 -1.9572 0.9585
-7.0638 7.4946 -1.9358 0.9589
-7.6195 6.7562 -1.9141 0.9594
-8.1000 5.9787 -1.8923 0.9599
-9.8283 3.7797 -1.9792 0.9580
-10.0136 2.8532 -1.9571 0.9585
-10.1400 1.0014 -1.9152 0.9594
-10.0854 0.0895 -1.8957 0.9598
-9.9557 -0.8052 -1.8774 0.9602
-9.4833 -2.5211 -1.8444 0.9608
-9.1474 -3.3329 -1.8299 0.9612
-8.7496 -4.1081 -1.8168 0.9614
-8.2936 -4.8431 -1.8052 0.9617
-7.7833 -5.5344 -1.7951 0.9619
-7.2223 -6.1787 -1.7865 0.9621
-6.6145 -6.7731 -1.7794 0.9622
-5.9526 -7.3014 -1.7707 0.9624
9.8956 2.0451 -2.1359 0.9595
9.5296 3.8387 -2.1717 0.9589
9.1270 4.6650 -2.1667 0.9590
6.6831 5.0978 -1.7767 0.9662
5.6691 5.1889 -1.6245 0.9691
5.6990 6.2412 -1.7865 0.9660
4.4941 5.9062 -1.5688 0.9701
4.4286 8.6900 -2.0617 0.9609
3.5325 8.7996 -2.0043 0.9620
1.8252 8.8845 -1.9172 0.9636
0.9634 8.4859 -1.8053 0.9657
-2.3220 9.2783 -2.0217 0.9617
-3.1198 8.9678 -2.0070 0.9619
-3.8785 8.5842 -1.9911 0.9622
-5.8577 7.0531 -1.9380 0.9632
-7.8429 5.4701 -2.0212 0.9617
-8.8067 3.1184 -1.9748 0.9625
-8.9606 2.2952 -1.9552 0.9629
-8.8653 -0.9569 -1.8848 0.9642
-8.1091 -3.2034 -1.8430 0.9650
-7.3217 -4.5431 -1.8214 0.9654
-6.8527 -5.1548 -1.8126 0.9655
-6.3382 -5.7237 -1.8052 0.9657
-5.7815 -6.2469 -1.7992 0.9658
-4.5565 -7.1466 -1.7916 0.9659
-3.1393 -7.6709 -1.7520 0.9667
-2.3773 -7.7156 -1.7066 0.9675
-1.6477 -7.7562 -1.6761 0.9681
0.4696 -7.8982 -1.6725 0.9682
3.5416 -7.9808 -1.8456 0.9649
4.2839 -7.7086 -1.8642 0.9646
5.0016 -7.3614 -1.8812 0.9643
5.6879 -6.9429 -1.8972 0.9640
6.3424 -6.4636 -1.9142 0.9637
8.0601 -4.6811 -1.9702 0.9626
9.5724 -1.6224 -2.0523 0.9611
9.9037 0.1114 -2.0936 0.9603
9.9486 1.0064 -2.1137 0.9599
9.9089 1.9096 -2.1331 0.9596
9.7828 2.8126 -2.1517 0.9592
9.5692 3.7062 -2.1691 0.9589
8.2025 5.0139 -2.0321 0.9615
6.8642 5.0918 -1.8066 0.9657
5.7563 5.1286 -1.6296 0.9690
5.6942 6.0703 -1.7593 0.9665
5.3315 8.2397 -2.0745 0.9607
2.7878 8.8368 -1.9587 0.9628
1.9484 8.8785 -1.9214 0.9635
1.0781 8.4803 -1.8070 0.9657
0.3306 8.9577 -1.8948 0.9640
-0.2960 5.6133 -1.1882 0.9773
-1.3661 9.5389 -2.0369 0.9614
-2.1997 9.3182 -2.0238 0.9616
-3.0027 9.0191 -2.0093 0.9619
-3.7676 8.6461 -1.9936 0.9622
-5.7709 7.1413 -1.9408 0.9632
-6.8151 5.8815 -1.9029 0.9639
-7.6200 5.4680 -1.9825 0.9624
-8.5385 4.0542 -1.9980 0.9621
-8.9422 2.4187 -1.9581 0.9628
-9.0545 0.7717 -1.9209 0.9635
-9.0052 -0.0409 -1.9035 0.9639
-8.7067 -1.6175 -1.8719 0.9644
-8.4627 -2.3717 -1.8578 0.9647
-7.8000 -3.7908 -1.8332 0.9652
-7.3877 -4.4480 -1.8228 0.9654
-6.4180 -5.6413 -1.8062 0.9657
-5.2779 -6.6540 -1.7953 0.9659
-4.6529 -7.0863 -1.7919 0.9659
-3.2571 -7.6638 -1.7602 0.9665
-1.0439 -7.7926 -1.6619 0.9684
-0.3433 -7.8696 -1.6651 0.9683
1.8134 -7.9189 -1.7172 0.9673
3.4131 -7.9782 -1.8343 0.9651
4.1736 -7.7532 -1.8612 0.9646
4.8965 -7.4187 -1.8789 0.9643
5.5870 -7.0095 -1.8947 0.9640
6.2466 -6.5392 -1.9116 0.9637
6.8698 -6.0096 -1.9293 0.9634
7.4510 -5.4228 -1.9480 0.9630
8.4653 -4.0892 -1.9872 0.9623
9.2457 -2.5675 -2.0283 0.9615
9.7514 -0.8970 -2.0700 0.9608
9.9472 0.8717 -2.1107 0.9600
9.8072 2.6778 -2.1489 0.9593
9.6067 3.5734 -2.1666 0.9590
8.2610 4.8987 -2.0301 0.9615
5.9083 5.1235 -1.6531 0.9685
5.6783 5.8929 -1.7298 0.9671
5.4401 8.1653 -2.0740 0.9607
3.8038 8.7860 -2.0238 0.9616
2.9166 8.8304 -1.9658 0.9627
2.0721 8.8724 -1.9259 0.9634
1.1931 8.4747 -1.8090 0.9656
-0.2205 5.6121 -1.1872 0.9773
-0.7717 5.9564 -1.2696 0.9757
-2.8847 9.0687 -2.0116 0.9618
-3.3002 6.2305 -1.4903 0.9716
-6.7457 5.9814 -1.9057 0.9638
-8.1722 4.9687 -2.0217 0.9617
-8.4964 4.1748 -2.0011 0.9620
-8.7463 3.3636 -1.9808 0.9624
-8.9222 2.5422 -1.9610 0.9628
-9.0250 1.7170 -1.9419 0.9631
-9.0560 0.8943 -1.9236 0.9635
-9.0169 0.0800 -1.9061 0.9638
-8.9101 -0.7206 -1.8896 0.9641
-5.3685 -6.5849 -1.7959 0.9659
-4.7486 -7.0249 -1.7923 0.9659
8.8365 1.8262 -2.1207 0.9636
8.4945 3.4218 -2.1523 0.9631
8.2080 4.1952 -2.1664 0.9628
6.6094 5.0416 -1.9537 0.9664
4.4925 5.9041 -1.7436 0.9700
4.6372 7.3820 -2.0488 0.9648
2.5113 8.3491 -2.0491 0.9648
1.7513 8.5251 -2.0454 0.9649
0.9629 8.4814 -2.0061 0.9655
-0.3697 5.5856 -1.3156 0.9773
-2.6956 5.9662 -1.5387 0.9735
-4.0500 5.8756 -1.6772 0.9711
-5.2407 6.3102 -1.9278 0.9669
-7.0909 4.9457 -2.0318 0.9651
-7.4361 4.2522 -2.0132 0.9654
-7.9281 2.8073 -1.9767 0.9660
-8.1556 1.3260 -1.9419 0.9666
-8.1252 -0.1459 -1.9099 0.9672
-7.8504 -1.5676 -1.8814 0.9676
-7.0201 -3.5289 -1.8466 0.9682
-6.6427 -4.1219 -1.8373 0.9684
-6.2201 -4.6790 -1.8293 0.9685
-4.7119 -6.1070 -1.8128 0.9688
-3.5399 -6.8324 -1.8085 0.9689
-2.2653 -7.3521 -1.8081 0.9689
-1.5989 -7.5266 -1.8084 0.9689
-0.2331 -7.7210 -1.8154 0.9688
0.4601 -7.7393 -1.8221 0.9686
1.1561 -7.7041 -1.8309 0.9685
1.8516 -7.6149 -1.8418 0.9683
2.5428 -7.4701 -1.8546 0.9681
3.2204 -7.2569 -1.8659 0.9679
3.8824 -6.9862 -1.8784 0.9677
4.5241 -6.6585 -1.8919 0.9675
5.1406 -6.2749 -1.9064 0.9672
5.7272 -5.8367 -1.9219 0.9670
6.2789 -5.3457 -1.9381 0.9667
8.5839 -1.4548 -2.0462 0.9649
8.7584 -0.6874 -2.0648 0.9645
7.7461 4.7349 -2.1337 0.9634
6.7884 5.0356 -1.9865 0.9659
4.0657 7.7201 -2.0506 0.9648
2.6236 8.3162 -2.0495 0.9648
1.8661 8.5036 -2.0461 0.9649
-0.2943 5.5819 -1.3137 0.9773
-1.2157 8.4884 -2.0153 0.9654
-3.9328 5.8727 -1.6611 0.9714
-5.1622 6.3881 -1.9303 0.9668
-5.6633 5.8495 -1.9135 0.9671
-7.6778 3.6455 -1.9975 0.9657
-7.9005 2.9174 -1.9793 0.9660
-8.0569 2.1793 -1.9616 0.9663
-8.1476 1.4372 -1.9444 0.9666
-8.1735 0.6966 -1.9279 0.9669
-8.0373 -0.7586 -1.8974 0.9674
-7.8791 -1.4637 -1.8834 0.9676
-7.3940 -2.8069 -1.8588 0.9680
-7.0725 -3.4372 -1.8481 0.9682
-6.2861 -4.5980 -1.8304 0.9685
-5.8274 -5.1222 -1.8234 0.9686
-5.3292 -5.6054 -1.8178 0.9687
-4.7949 -6.0451 -1.8134 0.9688
-4.2278 -6.4389 -1.8103 0.9688
-3.6315 -6.7849 -1.8086 0.9689
-2.3639 -7.3216 -1.8082 0.9689
-0.3365 -7.7137 -1.8146 0.9688
1.0519 -7.7128 -1.8295 0.9685
1.7476 -7.6317 -1.8401 0.9683
2.4399 -7.4961 -1.8527 0.9681
3.1198 -7.2925 -1.8642 0.9679
3.7844 -7.0304 -1.8765 0.9677
5.0501 -6.3358 -1.9042 0.9673
5.6415 -5.9057 -1.9195 0.9670
6.1987 -5.4225 -1.9356 0.9667
7.1909 -4.3062 -1.9699 0.9661
7.6160 -3.6790 -1.9878 0.9658
8.3010 -2.3051 -2.0247 0.9652
8.5520 -1.5677 -2.0434 0.9649
8.7367 -0.8037 -2.0620 0.9646
8.8938 0.7794 -2.0983 0.9640
8.5654 3.1860 -2.1478 0.9631
8.3018 3.9661 -2.1623 0.9629
6.9720 5.0282 -2.0203 0.9653
4.8313 7.2516 -2.0479 0.9648
4.1684 7.6640 -2.0504 0.9648
-0.2192 5.5783 -1.3120 0.9773
-0.7459 5.7575 -1.3645 0.9764
-2.5705 8.0811 -1.9930 0.9658
-3.0994 5.8514 -1.5562 0.9732
-5.0826 6.4651 -1.9328 0.9668
-6.1041 5.4124 -1.9173 0.9670
-7.6387 3.7533 -2.0003 0.9656
-8.0377 2.2902 -1.9642 0.9662
-8.1382 1.5483 -1.9470 0.9665
-8.1457 0.0723 -1.9145 0.9671
-7.9065 -1.3594 -1.8855 0.9676
-7.1238 -3.3448 -1.8496 0.9682
-6.7607 -3.9479 -1.8400 0.9683
-6.3512 -4.5161 -1.8316 0.9685
-5.4061 -5.5358 -1.8185 0.9687
-4.8770 -5.9821 -1.8140 0.9688
-4.3147 -6.3829 -1.8107 0.9688
7.3913 3.7778 -2.1492 0.9663
7.0532 4.4424 -2.1582 0.9661
6.3142 4.8165 -2.0562 0.9677
5.2591 5.7595 -2.0194 0.9683
3.5590 6.9837 -2.0295 0.9681
0.8800 7.7514 -2.0199 0.9683
0.1825 7.7744 -2.0135 0.9684
-1.1954 7.6174 -1.9964 0.9686
-1.8622 7.4408 -1.9860 0.9688
-2.5056 7.2021 -1.9744 0.9690
-2.6970 5.9692 -1.6960 0.9733
-3.3043 5.8531 -1.7403 0.9726
-4.7364 5.7031 -1.9195 0.9698
-5.3389 5.3685 -1.9604 0.9692
-7.0028 3.2107 -1.9946 0.9687
-7.2020 2.5502 -1.9782 0.9689
-7.4040 -0.1329 -1.9173 0.9699
-7.3107 -0.7891 -1.9039 0.9701
-6.9631 -2.0526 -1.8796 0.9705
-6.7132 -2.6520 -1.8689 0.9706
-6.4158 -3.2252 -1.8592 0.9708
-5.2657 -4.7552 -1.8370 0.9711
-4.8060 -5.1928 -1.8320 0.9712
-4.3131 -5.5901 -1.8281 0.9712
-3.7904 -5.9450 -1.8255 0.9713
-3.2409 -6.2554 -1.8241 0.9713
-2.6682 -6.5197 -1.8240 0.9713
-1.4666 -6.9038 -1.8274 0.9713
-0.2140 -7.0869 -1.8358 0.9711
1.6947 -6.9698 -1.8572 0.9708
4.1259 -6.0725 -1.9009 0.9701
4.6851 -5.7188 -1.9141 0.9699
6.1750 -4.3687 -1.9585 0.9692
6.9678 -3.2513 -1.9908 0.9687
7.2912 -2.6369 -2.0075 0.9685
7.7727 -1.3173 -2.0412 0.9680
7.9239 -0.6219 -2.0579 0.9677
8.0114 0.0901 -2.0744 0.9674
8.0330 0.8126 -2.0905 0.9672
7.6878 2.9776 -2.1346 0.9665
7.4350 3.6752 -2.1474 0.9663
6.4744 4.8027 -2.0872 0.9672
5.3336 5.6860 -2.0185 0.9683
4.2536 6.5739 -2.0273 0.9682
3.6521 6.9348 -2.0293 0.9681
3.0176 7.2348 -2.0296 0.9681
2.3568 7.4707 -2.0283 0.9682
0.2869 7.7753 -2.0145 0.9684
-0.8227 5.7442 -1.5024 0.9763
-1.7637 7.4713 -1.9876 0.9688
-2.4109 7.2417 -1.9762 0.9690
-3.2001 5.8504 -1.7266 0.9728
-3.9012 5.8255 -1.8153 0.9714
-5.1966 5.3674 -1.9343 0.9696
-5.9755 5.1569 -2.0436 0.9679
-6.6997 3.9513 -2.0139 0.9684
-6.9679 3.3084 -1.9971 0.9686
-7.4132 -0.0337 -1.9194 0.9698
-7.1885 -1.3354 -1.8931 0.9702
-6.9963 -1.9608 -1.8813 0.9704
-6.4633 -3.1411 -1.8606 0.9707
-6.1276 -3.6893 -1.8519 0.9709
-5.3315 -4.6864 -1.8379 0.9711
-4.8770 -5.1298 -1.8327 0.9712
-4.3889 -5.5333 -1.8286 0.9712
-3.3248 -6.2118 -1.8242 0.9713
-2.7553 -6.4831 -1.8239 0.9713
-0.9386 -7.0067 -1.8304 0.9712
-0.3089 -7.0803 -1.8350 0.9711
0.9643 -7.0710 -1.8477 0.9709
2.2295 -6.8497 -1.8651 0.9707
2.8489 -6.6593 -1.8754 0.9705
3.4539 -6.4163 -1.8867 0.9703
4.0400 -6.1211 -1.8990 0.9702
4.6030 -5.7750 -1.9121 0.9699
5.1384 -5.3791 -1.9261 0.9697
6.5343 -3.9131 -1.9720 0.9690
7.5240 -2.0894 -2.0218 0.9683
7.9053 -0.7272 -2.0555 0.9677
8.0025 -0.0173 -2.0720 0.9675
8.0340 0.7040 -2.0881 0.9672
7.8935 2.1552 -2.1186 0.9668
7.7197 2.8715 -2.1326 0.9665
7.4772 3.5721 -2.1455 0.9663
7.1669 4.2499 -2.1574 0.9662
5.8390 5.0634 -2.0011 0.9686
4.3405 6.5148 -2.0269 0.9682
3.7444 6.8845 -2.0291 0.9681
2.4572 7.4396 -2.0286 0.9681
1.7795 7.6192 -2.0258 0.9682
-0.2190 5.5753 -1.4447 0.9772
-2.6857 6.3962 -1.7962 0.9717
-3.0975 5.8479 -1.7134 0.9730
-3.8154 5.8660 -1.8118 0.9715
-5.0621 5.3708 -1.9109 0.9700
-5.9087 5.2392 -2.0447 0.9679
-6.9315 3.4058 -1.9996 0.9686
-7.1487 2.7492 -1.9831 0.9688
-7.4030 1.4084 -1.9512 0.9693
-7.4211 0.0658 -1.9215 0.9698
-7.3444 -0.5940 -1.9078 0.9700
-7.2128 -1.2401 -1.8949 0.9702
-6.5097 -3.0565 -1.8620 0.9707
-5.8086 -4.1302 -1.8454 0.9710
-5.3965 -4.6167 -1.8388 0.9711
-3.9499 -5.8433 -1.8262 0.9713
6.7152 3.4323 -2.1350 0.9691
6.4121 4.0386 -2.1453 0.9690
5.3156 4.8654 -2.0400 0.9705
4.7706 5.2244 -2.0028 0.9710
3.7774 6.0133 -2.0103 0.9709
0.7982 7.0311 -2.0032 0.9710
0.1656 7.0541 -1.9975 0.9711
-1.6918 6.7599 -1.9727 0.9714
-2.2775 6.5466 -1.9622 0.9716
-2.6600 5.8874 -1.8289 0.9735
-3.2696 5.7918 -1.8828 0.9727
-5.1098 5.1381 -2.0514 0.9703
-5.5196 4.6358 -2.0406 0.9705
-5.8676 4.0925 -2.0252 0.9707
-6.4045 2.9363 -1.9945 0.9711
-6.8005 1.1057 -1.9505 0.9718
-6.8237 0.4895 -1.9367 0.9720
-6.7938 -0.1220 -1.9236 0.9721
-6.3997 -1.8865 -1.8888 0.9726
-5.9018 -2.9668 -1.8700 0.9729
-5.2371 -3.9395 -1.8552 0.9731
-3.9729 -5.1492 -1.8412 0.9733
-2.4582 -6.0066 -1.8373 0.9734
-1.9121 -6.2058 -1.8383 0.9734
-1.3509 -6.3595 -1.8405 0.9733
-0.1970 -6.5258 -1.8482 0.9732
0.3886 -6.5368 -1.8538 0.9731
1.5591 -6.4120 -1.8681 0.9729
4.2996 -5.2482 -1.9207 0.9722
5.6561 -4.0016 -1.9614 0.9716
6.0361 -3.5056 -1.9760 0.9714
6.3734 -2.9740 -1.9910 0.9712
6.6645 -2.4103 -2.0063 0.9710
6.9059 -1.8183 -2.0216 0.9707
7.3165 0.7402 -2.0818 0.9699
7.2697 1.4010 -2.0959 0.9697
7.1606 2.0587 -2.1092 0.9695
5.4481 4.8540 -2.0657 0.9701
4.8383 5.1580 -2.0020 0.9710
3.8571 5.9610 -2.0100 0.9709
1.5205 6.9287 -2.0081 0.9709
0.2603 7.0545 -1.9984 0.9711
-0.8188 5.7176 -1.6351 0.9763
-3.7893 5.6583 -1.9278 0.9721
-5.0428 5.2086 -2.0524 0.9703
-5.4630 4.7147 -2.0428 0.9704
-5.8188 4.1756 -2.0275 0.9707
-6.1222 3.6107 -2.0121 0.9709
-6.5668 2.4249 -1.9817 0.9713
-6.7070 1.8141 -1.9669 0.9715
-6.7924 1.1981 -1.9526 0.9717
-6.8237 0.5816 -1.9387 0.9719
-6.8016 -0.0309 -1.9255 0.9721
-6.6030 -1.2267 -1.9012 0.9725
-6.2097 -2.3573 -1.8803 0.9728
-4.9089 -4.3149 -1.8502 0.9732
-4.4914 -4.7243 -1.8454 0.9733
-4.0427 -5.0967 -1.8416 0.9733
-3.0630 -5.7228 -1.8376 0.9734
-2.5385 -5.9729 -1.8373 0.9734
-1.9949 -6.1789 -1.8381 0.9734
0.3008 -6.5382 -1.8529 0.9732
0.8875 -6.5077 -1.8593 0.9731
2.0504 -6.2994 -1.8754 0.9728
2.6189 -6.1216 -1.8849 0.9727
3.7100 -5.6212 -1.9067 0.9724
4.7132 -4.9339 -1.9316 0.9720
5.9818 -3.5822 -1.9738 0.9714
6.6240 -2.4966 -2.0040 0.9710
7.0697 -1.2960 -2.0347 0.9706
7.2110 -0.6633 -2.0500 0.9703
7.3182 0.6413 -2.0797 0.9699
7.2807 1.3021 -2.0938 0.9697
7.0186 2.6107 -2.1199 0.9693
6.7943 3.2459 -2.1316 0.9692
5.5839 4.8422 -2.0924 0.9697
4.4409 5.5223 -2.0061 0.9710
3.3951 6.2422 -2.0116 0.9709
2.8238 6.5225 -2.0121 0.9709
0.9872 7.0123 -2.0047 0.9710
0.3551 7.0536 -1.9994 0.9711
-0.2189 5.5723 -1.5787 0.9771
-0.7424 5.7303 -1.6358 0.9763
-1.5121 6.8130 -1.9756 0.9714
-2.1046 6.6162 -1.9655 0.9715
-3.0651 5.7866 -1.8538 0.9731
-4.1895 5.3290 -1.9190 0.9722
-4.9748 5.2782 -2.0533 0.9703
-6.0802 3.6967 -2.0144 0.9709
-6.7831 1.2905 -1.9547 0.9717
-6.8224 0.6738 -1.9408 0.9719
-6.6248 -1.1390 -1.9030 0.9724
-6.4587 -1.7170 -1.8919 0.9726
-5.9875 -2.8113 -1.8726 0.9729
-5.6870 -3.3209 -1.8643 0.9730
-5.3464 -3.8016 -1.8572 0.9731
-4.9685 -4.2506 -1.8510 0.9732
-4.1117 -5.0434 -1.8421 0.9733
-3.6386 -5.3828 -1.8393 0.9734
6.6518 1.3747 -2.0892 0.9720
6.5398 1.9755 -2.1013 0.9718
6.3709 2.5663 -2.1126 0.9717
6.1459 3.1413 -2.1230 0.9715
5.1375 4.7023 -2.1422 0.9713
3.9237 5.1565 -1.9930 0.9732
2.9483 5.7852 -1.9971 0.9732
2.4190 6.0259 -1.9972 0.9732
1.3041 6.3479 -1.9933 0.9732
0.7296 6.4263 -1.9893 0.9733
-0.3689 5.5731 -1.7179 0.9769
-2.0853 5.9941 -1.9520 0.9738
-2.5992 5.7528 -1.9417 0.9739
-3.6450 5.2880 -1.9754 0.9735
-4.7013 4.7273 -2.0506 0.9725
-5.8944 2.7025 -1.9944 0.9732
-6.0699 2.1493 -1.9806 0.9734
-6.2699 1.0194 -1.9538 0.9738
-6.2948 0.4516 -1.9411 0.9739
-6.2705 -0.1126 -1.9290 0.9741
-6.0791 -1.2139 -1.9067 0.9744
-3.6790 -4.7683 -1.8524 0.9751
-3.2338 -5.0720 -1.8501 0.9751
-2.2767 -5.5631 -1.8488 0.9752
-0.7204 -5.9874 -1.8549 0.9751
-0.1824 -6.0413 -1.8590 0.9750
0.3597 -6.0501 -1.8642 0.9750
3.0075 -5.4118 -1.9043 0.9744
3.9688 -4.8445 -1.9263 0.9741
5.2125 -3.6877 -1.9639 0.9736
5.5594 -3.2287 -1.9774 0.9735
6.1308 -2.2173 -2.0052 0.9731
6.7009 0.0754 -2.0612 0.9723
6.7104 0.6788 -2.0745 0.9722
6.6637 1.2842 -2.0873 0.9720
6.1831 3.0564 -2.1215 0.9715
5.2006 4.6335 -2.1424 0.9713
3.0254 5.7448 -1.9970 0.9732
1.3894 6.3314 -1.9937 0.9732
0.8160 6.4181 -1.9900 0.9733
0.2380 6.4491 -1.9849 0.9734
-0.2941 5.5777 -1.7180 0.9769
-0.8158 5.6964 -1.7700 0.9762
-2.5239 5.7919 -1.9433 0.9739
-3.5407 5.2871 -1.9572 0.9737
-4.6421 4.7948 -2.0527 0.9725
-5.0182 4.3308 -2.0388 0.9726
-5.3483 3.8379 -2.0247 0.9728
-6.0469 2.2329 -1.9826 0.9734
-6.1796 1.6715 -1.9690 0.9736
-6.2619 1.1045 -1.9558 0.9737
-6.0998 -1.1332 -1.9083 0.9744
-5.9423 -1.6654 -1.8981 0.9745
-5.4987 -2.6723 -1.8804 0.9747
-5.2167 -3.1409 -1.8729 0.9748
-4.8977 -3.5824 -1.8664 0.9749
-4.1585 -4.3740 -1.8563 0.9751
-3.7435 -4.7196 -1.8528 0.9751
-3.3020 -5.0289 -1.8504 0.9751
-2.3510 -5.5319 -1.8488 0.9752
-1.8476 -5.7225 -1.8496 0.9751
-1.3296 -5.8707 -1.8514 0.9751
-0.8005 -5.9755 -1.8544 0.9751
-0.2633 -6.0361 -1.8583 0.9750
0.8213 -6.0219 -1.8693 0.9749
1.3617 -5.9464 -1.8763 0.9748
2.4209 -5.6588 -1.8931 0.9746
2.9323 -5.4473 -1.9028 0.9744
3.4266 -5.1916 -1.9133 0.9743
3.9000 -4.8929 -1.9245 0.9742
4.3487 -4.5524 -1.9364 0.9740
4.7691 -4.1719 -1.9489 0.9738
5.5099 -3.2996 -1.9754 0.9735
6.4961 -1.1908 -2.0314 0.9727
6.6220 -0.6091 -2.0454 0.9726
6.6743 1.1937 -2.0854 0.9720
6.4274 2.3908 -2.1093 0.9717
6.2191 2.9711 -2.1199 0.9716
5.2628 4.5638 -2.1426 0.9713
4.7057 4.8837 -2.0860 0.9720
3.1019 5.7032 -1.9969 0.9732
2.0357 6.1633 -1.9964 0.9732
1.4745 6.3136 -1.9942 0.9732
0.9023 6.4087 -1.9906 0.9733
0.3246 6.4480 -1.9858 0.9733
-0.2190 5.5741 -1.7158 0.9769
-0.7402 5.7133 -1.7720 0.9762
-1.3837 6.2344 -1.9642 0.9736
-1.9267 6.0570 -1.9550 0.9738
-2.4480 5.8300 -1.9448 0.9739
-2.9431 5.5563 -1.9340 0.9740
-4.5820 4.8615 -2.0548 0.9724
-5.3019 3.9134 -2.0269 0.9728
-5.8320 2.8656 -1.9986 0.9732
-6.2528 1.1896 -1.9577 0.9737
-6.2925 0.6214 -1.9449 0.9739
-6.2828 0.0557 -1.9325 0.9740
-6.1195 -1.0522 -1.9098 0.9743
-5.9687 -1.5867 -1.8996 0.9745
-5.2614 -3.0724 -1.8740 0.9748
-4.9477 -3.5181 -1.8673 0.9749
-4.5991 -3.9346 -1.8616 0.9750
-4.2181 -4.3193 -1.8569 0.9751
-3.8074 -4.6701 -1.8533 0.9751
6.0270 1.8206 -2.0928 0.9738
5.8689 2.3641 -2.1032 0.9737
5.6594 2.8926 -2.1127 0.9736
5.3998 3.4010 -2.1213 0.9735
5.0921 3.8842 -2.1288 0.9734
3.1738 5.0523 -1.9833 0.9752
-0.3687 5.5700 -1.8556 0.9767
-2.3953 5.3015 -1.9338 0.9758
-3.9572 4.7647 -2.0588 0.9742
-4.9854 3.4771 -2.0204 0.9747
-5.2423 2.9977 -2.0074 0.9749
-5.4539 2.5005 -1.9944 0.9750
-5.6193 1.9897 -1.9815 0.9752
-5.8102 0.9447 -1.9567 0.9755
-5.8360 0.4187 -1.9449 0.9756
-5.7515 -0.6208 -1.9229 0.9759
-5.6433 -1.1269 -1.9129 0.9760
-5.4930 -1.6192 -1.9036 0.9761
-3.8117 -4.1185 -1.8654 0.9766
-2.1181 -5.1756 -1.8589 0.9767
-1.1638 -5.4784 -1.8617 0.9767
-0.6701 -5.5691 -1.8646 0.9766
0.3345 -5.6255 -1.8732 0.9765
3.2471 -4.7790 -1.9206 0.9759
3.6816 -4.4940 -1.9311 0.9758
4.0924 -4.1706 -1.9423 0.9757
4.4758 -3.8106 -1.9539 0.9755
4.8285 -3.4161 -1.9661 0.9754
5.4289 -2.5332 -1.9914 0.9751
5.6704 -2.0508 -2.0043 0.9749
6.0224 -1.0207 -2.0304 0.9746
6.1904 0.6262 -2.0682 0.9741
5.8958 2.2835 -2.1017 0.9737
5.6940 2.8146 -2.1113 0.9736
5.4418 3.3264 -2.1201 0.9735
5.1411 3.8136 -2.1278 0.9734
4.3949 4.6852 -2.1353 0.9733
3.8523 4.9243 -2.0782 0.9740
3.2408 5.0085 -1.9830 0.9752
2.7818 5.2823 -1.9845 0.9751
2.2985 5.5106 -1.9847 0.9751
1.7954 5.6912 -1.9837 0.9752
1.2777 5.8224 -1.9815 0.9752
0.7505 5.9031 -1.9780 0.9752
0.2189 5.9328 -1.9734 0.9753
-0.2939 5.5746 -1.8556 0.9767
-0.8136 5.6812 -1.9077 0.9761
-1.8480 5.5507 -1.9446 0.9756
-2.8716 5.2499 -1.9891 0.9751
-3.4593 5.1655 -2.0665 0.9741
-4.2859 4.4268 -2.0482 0.9744
-4.6355 4.0005 -2.0354 0.9745
-5.2067 3.0708 -2.0093 0.9748
-5.4251 2.5759 -1.9963 0.9750
-5.7233 1.5480 -1.9708 0.9753
-5.8024 1.0235 -1.9585 0.9755
-5.8351 0.4973 -1.9466 0.9756
-5.8220 -0.0264 -1.9353 0.9758
-5.7640 -0.5441 -1.9245 0.9759
-5.6623 -1.0519 -1.9144 0.9760
-4.5536 -3.3307 -1.8753 0.9765
-3.0718 -4.6784 -1.8604 0.9767
-2.6392 -4.9310 -1.8591 0.9767
-2.1873 -5.1466 -1.8588 0.9767
-1.7188 -5.3237 -1.8596 0.9767
-1.2369 -5.4612 -1.8613 0.9767
-0.7445 -5.5581 -1.8641 0.9766
-0.2449 -5.6136 -1.8678 0.9766
1.7617 -5.4124 -1.8920 0.9763
2.2485 -5.2559 -1.9002 0.9762
3.1802 -4.8183 -1.9190 0.9760
4.7778 -3.4773 -1.9642 0.9754
5.8421 -1.6223 -2.0154 0.9748
6.1155 -0.5626 -2.0414 0.9744
6.1794 -0.0134 -2.0541 0.9743
6.1546 1.1007 -2.0783 0.9740
5.9216 2.2027 -2.1001 0.9737
4.8490 4.2050 -2.1335 0.9733
3.9531 4.9158 -2.0968 0.9738
3.3125 4.9719 -1.9859 0.9751
2.8522 5.2441 -1.9843 0.9752
2.3722 5.4794 -1.9847 0.9751
1.8718 5.6673 -1.9839 0.9752
-0.2189 5.5710 -1.8533 0.9768
-0.7380 5.6962 -1.9093 0.9761
-1.2740 5.7401 -1.9545 0.9755
-3.3911 5.2136 -2.0674 0.9741
-3.8332 4.8759 -2.0617 0.9742
-5.1701 3.1434 -2.0113 0.9748
-5.3953 2.6510 -1.9982 0.9750
-5.5746 2.1439 -1.9853 0.9751
-5.7935 1.1022 -1.9603 0.9754
-5.6802 -0.9766 -1.9158 0.9760
-5.5424 -1.4734 -1.9063 0.9761
-5.3635 -1.9542 -1.8975 0.9762
-4.5999 -3.2708 -1.8762 0.9765
-4.2768 -3.6587 -1.8709 0.9766
-3.9232 -4.0172 -1.8665 0.9766
-3.5416 -4.3441 -1.8631 0.9767
-3.1348 -4.6374 -1.8607 0.9767
5.6830 1.1745 -2.0752 0.9756
5.5826 1.6864 -2.0855 0.9755
5.2384 2.6775 -2.1038 0.9753
4.7106 3.5932 -2.1187 0.9751
3.6041 4.7365 -2.1284 0.9750
2.5475 4.9988 -2.0064 0.9764
1.1088 5.3974 -1.9705 0.9769
-0.3615 5.4616 -1.9574 0.9770
-2.3560 5.2144 -2.0462 0.9760
-2.8476 5.0442 -2.0714 0.9757
-3.2777 4.7552 -2.0653 0.9758
-3.6698 4.4187 -2.0541 0.9759
-4.3480 3.6518 -2.0305 0.9762
-4.6296 3.2290 -2.0185 0.9763
-5.0694 2.3242 -1.9943 0.9766
-5.2255 1.8503 -1.9824 0.9767
-5.3383 1.3674 -1.9706 0.9769
-5.4177 -0.0973 -1.9377 0.9772
-5.3595 -0.5785 -1.9277 0.9774
-4.9458 -1.9538 -1.9017 0.9777
-4.7331 -2.3793 -1.8944 0.9777
-4.4860 -2.7836 -1.8880 0.9778
-3.8969 -3.5191 -1.8777 0.9779
-3.5592 -3.8457 -1.8738 0.9780
-1.0868 -5.1161 -1.8704 0.9780
-0.1584 -5.2456 -1.8767 0.9780
0.7829 -5.2173 -1.8866 0.9778
1.2506 -5.1433 -1.8929 0.9778
1.7120 -5.0295 -1.8999 0.9777
2.1639 -4.8762 -1.9077 0.9776
2.6030 -4.6840 -1.9163 0.9775
3.0260 -4.4537 -1.9255 0.9774
3.8108 -3.8837 -1.9458 0.9772
4.4925 -3.1784 -1.9680 0.9769
4.7870 -2.7801 -1.9796 0.9768
5.2687 -1.9055 -2.0036 0.9765
5.4508 -1.4352 -2.0157 0.9763
5.6863 -0.4463 -2.0397 0.9761
5.7389 0.5806 -2.0628 0.9758
5.6939 1.0973 -2.0736 0.9757
5.4594 2.1145 -2.0936 0.9754
5.2707 2.6054 -2.1026 0.9753
5.0358 3.0782 -2.1106 0.9752
4.7562 3.5281 -2.1177 0.9752
4.4343 3.9507 -2.1238 0.9751
4.0727 4.3418 -2.1288 0.9750
3.6679 4.6885 -2.1288 0.9750
2.1248 5.0942 -1.9739 0.9768
1.1813 5.3832 -1.9709 0.9769
0.6940 5.4585 -1.9677 0.9769
0.2025 5.4869 -1.9635 0.9769
-0.2883 5.4683 -1.9582 0.9770
-0.7738 5.4034 -1.9520 0.9771
-1.7324 5.2036 -1.9613 0.9770
-2.2717 5.2132 -2.0336 0.9761
-2.7808 5.0839 -2.0723 0.9757
-3.6132 4.4713 -2.0558 0.9759
-3.9761 4.1069 -2.0442 0.9760
-4.3025 3.7131 -2.0323 0.9761
-4.5900 3.2937 -2.0203 0.9763
-5.0423 2.3942 -1.9961 0.9766
-5.2048 1.9219 -1.9841 0.9767
-5.3242 1.4401 -1.9724 0.9768
-5.4001 0.9525 -1.9609 0.9770
-5.4328 0.4631 -1.9499 0.9771
-5.3709 -0.5070 -1.9292 0.9773
-5.1454 -1.4420 -1.9109 0.9776
-4.7672 -2.3169 -1.8955 0.9777
-4.2504 -3.1089 -1.8832 0.9779
-3.6114 -3.7986 -1.8744 0.9780
-3.2519 -4.0998 -1.8713 0.9780
-2.4649 -4.6054 -1.8680 0.9781
-1.1551 -5.1002 -1.8701 0.9780
-0.6952 -5.1902 -1.8726 0.9780
1.1809 -5.1569 -1.8919 0.9778
1.6434 -5.0490 -1.8988 0.9777
2.0969 -4.9016 -1.9065 0.9776
2.5382 -4.7152 -1.9150 0.9775
4.1147 -3.5995 -1.9550 0.9770
4.4456 -3.2355 -1.9663 0.9769
5.0101 -2.4202 -1.9897 0.9766
5.4262 -1.5068 -2.0139 0.9764
5.5725 -1.0215 -2.0260 0.9762
5.7316 -0.0124 -2.0497 0.9759
5.6177 1.5339 -2.0825 0.9756
5.0738 3.0087 -2.1095 0.9753
4.4851 3.8894 -2.1230 0.9751
3.7310 4.6396 -2.1291 0.9750
3.2916 4.9405 -2.1230 0.9751
1.7304 5.2392 -1.9731 0.9768
1.2537 5.3679 -1.9713 0.9769
0.7673 5.4502 -1.9683 0.9769
0.2762 5.4856 -1.9642 0.9769
-0.7017 5.4160 -1.9530 0.9771
-1.1791 5.3125 -1.9460 0.9771
-1.6547 5.2020 -1.9521 0.9771
-2.1885 5.2119 -2.0215 0.9763
-2.7134 5.1228 -2.0731 0.9757
-3.1526 4.8470 -2.0677 0.9757
-3.5559 4.5231 -2.0575 0.9759
-3.9241 4.1634 -2.0459 0.9760
-4.8027 2.9200 -2.0100 0.9764
-5.0142 2.4638 -1.9979 0.9765
-5.3813 -0.4352 -1.9307 0.9773
-5.2944 -0.9103 -1.9211 0.9774
-5.1677 -1.3738 -1.9122 0.9775
-5.0025 -1.8227 -1.9040 0.9776
-4.8005 -2.2540 -1.8965 0.9777
-4.5635 -2.6649 -1.8898 0.9778
-3.9926 -3.4157 -1.8790 0.9779
-3.6631 -3.7509 -1.8749 0.9780
-3.3073 -4.0566 -1.8717 0.9780
5.2887 1.0930 -2.0696 0.9771
5.0538 2.0358 -2.0879 0.9769
4.6443 2.9252 -2.1034 0.9768
4.0718 3.7269 -2.1153 0.9766
3.7300 4.0848 -2.1198 0.9766
2.5113 4.9277 -2.1195 0.9766
1.5170 5.0434 -2.0183 0.9777
0.5787 5.0974 -1.9660 0.9783
-0.8087 5.1536 -1.9991 0.9779
-1.2931 5.1669 -2.0411 0.9774
-2.2311 4.9380 -2.0765 0.9771
-3.0513 4.4267 -2.0603 0.9772
-3.4176 4.1150 -2.0499 0.9773
-3.7521 3.7728 -2.0391 0.9775
-4.0524 3.4035 -2.0280 0.9776
-4.5430 2.5978 -2.0055 0.9778
-4.7304 2.1688 -1.9942 0.9780
-4.8780 1.7273 -1.9831 0.9781
-4.9853 1.2770 -1.9721 0.9782
-5.0521 0.8214 -1.9615 0.9783
-4.9214 -0.9827 -1.9232 0.9787
-4.2011 -2.6068 -1.8947 0.9790
-3.9401 -2.9639 -1.8894 0.9791
-3.6506 -3.2967 -1.8850 0.9791
-2.9946 -3.8813 -1.8786 0.9792
-2.6328 -4.1295 -1.8768 0.9792
-2.2517 -4.3461 -1.8758 0.9793
0.7332 -4.8861 -1.8934 0.9791
1.1710 -4.8158 -1.8993 0.9790
2.0251 -4.5634 -1.9132 0.9788
2.8302 -4.1655 -1.9299 0.9787
4.1959 -2.9685 -1.9697 0.9782
4.9149 -1.7775 -2.0029 0.9779
5.0827 -1.3383 -2.0142 0.9777
5.2110 -0.8832 -2.0254 0.9776
5.3424 0.0601 -2.0474 0.9774
5.3430 0.5405 -2.0580 0.9773
5.2991 1.0212 -2.0681 0.9771
5.0775 1.9666 -2.0866 0.9769
4.6808 2.8612 -2.1023 0.9768
4.4199 3.2787 -2.1089 0.9767
3.7833 4.0333 -2.1192 0.9766
3.0090 4.6503 -2.1226 0.9766
1.5896 5.0387 -2.0247 0.9776
1.1122 5.0681 -1.9884 0.9780
0.1888 5.1164 -1.9620 0.9783
-0.7378 5.1514 -1.9942 0.9780
-1.7164 5.1554 -2.0823 0.9770
-2.1654 4.9692 -2.0773 0.9770
-2.9939 4.4705 -2.0619 0.9772
-4.0097 3.4604 -2.0297 0.9776
-4.5115 2.6608 -2.0072 0.9778
-4.7049 2.2339 -1.9959 0.9779
-4.8585 1.7940 -1.9847 0.9781
-4.9718 1.3448 -1.9738 0.9782
-2.2883 -0.0104 -0.8769 0.9902
-4.9374 -0.9172 -1.9245 0.9787
-4.8148 -1.3494 -1.9162 0.9788
-4.4633 -2.1691 -1.9017 0.9790
-4.2376 -2.5514 -1.8955 0.9790
-3.6957 -3.2485 -1.8856 0.9791
-2.6883 -4.0943 -1.8770 0.9792
-2.3099 -4.3157 -1.8759 0.9792
-1.9144 -4.5045 -1.8756 0.9793
-1.5043 -4.6593 -1.8763 0.9792
-0.2142 -4.9103 -1.8835 0.9792
0.2264 -4.9206 -1.8876 0.9791
0.6674 -4.8934 -1.8926 0.9791
1.1057 -4.8287 -1.8983 0.9790
1.5385 -4.7266 -1.9048 0.9789
2.3748 -4.4117 -1.9200 0.9788
3.1517 -3.9541 -1.9377 0.9786
3.8447 -3.3633 -1.9575 0.9784
4.4302 -2.6530 -1.9789 0.9781
4.8865 -1.8417 -2.0012 0.9779
5.0601 -1.4051 -2.0125 0.9778
5.1944 -0.9522 -2.0238 0.9776
5.2877 -0.4864 -2.0349 0.9775
5.3457 0.4684 -2.0564 0.9773
5.3085 0.9494 -2.0666 0.9772
4.9298 2.3551 -2.0937 0.9769
4.7164 2.7967 -2.1013 0.9768
3.4706 4.3158 -2.1223 0.9766
3.0716 4.6103 -2.1230 0.9765
2.6436 4.8606 -2.1203 0.9766
2.1644 4.9994 -2.0877 0.9769
1.1827 5.0640 -1.9928 0.9780
-0.2016 5.1323 -1.9683 0.9782
-1.6460 5.1747 -2.0810 0.9770
-2.5320 4.7803 -2.0730 0.9771
-2.9358 4.5136 -2.0634 0.9772
-3.3111 4.2117 -2.0531 0.9773
-3.6554 3.8783 -2.0423 0.9774
-3.9662 3.5168 -2.0313 0.9775
-4.4792 2.7233 -2.0089 0.9778
-4.6784 2.2988 -1.9976 0.9779
-4.9574 1.4125 -1.9754 0.9782
-5.0364 0.9582 -1.9646 0.9783
-2.3036 0.2275 -0.8871 0.9901
-2.2900 0.0203 -0.8776 0.9902
-2.3042 -0.1863 -0.8859 0.9901
-4.8355 -1.2855 -1.9174 0.9788
-4.4943 -2.1102 -1.9027 0.9790
-4.2734 -2.4955 -1.8964 0.9790
-3.7402 -3.1997 -1.8862 0.9791
-3.4319 -3.5142 -1.8824 0.9792
-3.0989 -3.8010 -1.8794 0.9792
