ply
format ascii 1.0
element vertex 1583
property float32 x
property float32 y
property float32 z
property float32 I
end_header
-2.3382 5.5361 -0.1692 0.9762
-7.6642 14.4136 -0.4597 0.9368
-16.7024 10.1854 -0.5509 0.9247
-18.8930 5.4403 -0.5536 0.9243
-10.5661 -15.3111 -0.5238 0.9283
-5.4454 -9.6226 -0.3113 0.9567
-2.7143 -16.9651 -0.4838 0.9336
-1.1950 -17.1501 -0.4841 0.9335
8.5706 17.7567 -0.5552 0.9241
1.7874 19.0879 -0.5398 0.9262
0.0563 13.1308 -0.3697 0.9488
-1.1283 13.2751 -0.3751 0.9481
-3.6563 13.5830 -0.3961 0.9453
-2.1406 5.8275 -0.1748 0.9755
-10.5223 14.7617 -0.5104 0.9300
-14.0306 13.6969 -0.5521 0.9245
-14.2799 11.6492 -0.5189 0.9289
-14.6781 9.9388 -0.4991 0.9315
-12.1651 6.7429 -0.3916 0.9459
-12.0717 -15.8255 -0.5605 0.9234
-9.0831 -14.4055 -0.4795 0.9341
-6.6681 -16.4833 -0.5007 0.9313
-2.0070 -17.0512 -0.4834 0.9336
-0.5521 -19.6511 -0.5536 0.9243
5.7913 13.3903 -0.4108 0.9433
0.6780 13.0551 -0.3681 0.9490
-1.6940 13.3440 -0.3788 0.9476
-2.3100 5.5640 -0.1696 0.9762
-7.5155 14.3451 -0.4560 0.9373
-9.1881 14.2821 -0.4782 0.9343
-0.5724 13.2072 -0.6704 0.9484
-1.7784 13.3540 -0.6832 0.9475
-3.0415 13.5079 -0.7022 0.9461
-2.3369 5.5329 -0.3046 0.9762
-14.1681 12.5717 -0.9606 0.9269
-14.4023 10.6491 -0.9084 0.9308
-14.1053 6.9626 -0.7977 0.9389
-15.2251 -7.0245 -0.8503 0.9350
-12.8607 -7.3867 -0.7521 0.9423
-5.4459 -9.6235 -0.5608 0.9567
-5.8085 -16.5886 -0.8914 0.9320
-1.1950 -17.1504 -0.8719 0.9335
8.5693 17.7541 -0.9997 0.9241
-2.3580 13.4246 -0.6912 0.9469
-2.1559 5.8690 -0.3171 0.9753
-8.5090 14.5162 -0.8533 0.9348
-10.5220 14.7613 -0.9193 0.9300
-14.0311 13.6974 -0.9944 0.9245
-14.2804 11.6496 -0.9346 0.9288
-14.6775 9.9385 -0.8989 0.9315
-12.1155 6.7154 -0.7025 0.9460
-13.9421 -7.1481 -0.7946 0.9392
-11.9877 -7.5630 -0.7188 0.9448
-10.4753 -13.7327 -0.8759 0.9332
-6.6682 -16.4837 -0.9018 0.9313
-5.1209 -16.8326 -0.8923 0.9320
-2.0071 -17.0516 -0.8707 0.9335
-0.5521 -19.6517 -0.9970 0.9243
2.6948 18.9893 -0.9727 0.9261
-2.9524 13.4970 -0.7007 0.9462
-4.3940 13.9849 -0.7434 0.9430
-2.3086 5.5608 -0.3053 0.9762
-7.5154 14.3448 -0.8213 0.9372
-9.1878 14.2818 -0.8612 0.9342
-0.5724 13.2069 -0.9693 0.9484
-3.0415 13.5076 -1.0152 0.9460
-7.5207 14.1437 -1.1745 0.9378
-8.7301 13.3894 -1.1720 0.9379
-11.5166 14.6302 -1.3652 0.9280
-11.3197 12.0068 -1.2099 0.9360
-13.8898 12.3247 -1.3616 0.9282
-14.1071 6.9635 -1.1535 0.9389
-16.9606 4.8838 -1.2941 0.9317
-15.1500 -6.9898 -1.2234 0.9353
-10.6834 -7.4737 -0.9560 0.9491
-9.2598 -7.7917 -0.8873 0.9526
-6.7244 -8.0958 -0.7717 0.9587
-5.4588 -9.6464 -0.8127 0.9565
-7.5222 -16.5815 -1.3350 0.9296
-2.3156 -14.4734 -1.0747 0.9429
2.1164 -19.4126 -1.4318 0.9247
8.5222 17.6564 -1.4375 0.9244
1.7884 19.0993 -1.4065 0.9259
0.0563 13.1303 -0.9628 0.9487
-0.4348 5.1156 -0.3764 0.9796
-3.6562 13.5825 -1.0313 0.9451
-8.1032 11.3680 -1.0236 0.9455
-13.4685 13.1482 -1.3801 0.9273
-14.2809 11.6500 -1.3513 0.9287
-15.4725 6.8549 -1.2408 0.9344
-16.7418 5.6965 -1.2967 0.9315
-11.7057 -7.3851 -1.0148 0.9460
-6.2015 -8.1299 -0.7497 0.9598
-8.9752 -14.2343 -1.2338 0.9347
-8.3413 -16.2802 -1.3413 0.9293
-5.1210 -16.8329 -1.2901 0.9319
-3.5288 -16.8665 -1.2635 0.9332
5.7366 13.2638 -1.0596 0.9437
2.5976 18.3045 -1.3556 0.9285
-1.6939 13.3435 -0.9862 0.9475
-2.9523 13.4968 -1.0130 0.9461
-2.3025 5.5458 -0.4403 0.9762
-6.3426 12.1063 -1.0021 0.9467
-9.1876 14.2814 -1.2451 0.9342
-1.7783 13.3535 -1.2933 0.9473
-3.0414 13.5074 -1.3292 0.9459
-7.5798 11.6252 -1.3324 0.9458
-11.3379 12.0261 -1.5868 0.9357
-8.4821 6.2717 -1.0128 0.9585
-12.4168 6.1291 -1.3294 0.9459
-16.8943 4.8647 -1.6878 0.9318
-18.0262 -6.4413 -1.8378 0.9260
-12.7176 -7.3045 -1.4080 0.9428
-10.7078 -7.4908 -1.2546 0.9488
-9.1304 -7.6828 -1.1456 0.9532
-5.4672 -9.6612 -1.0657 0.9564
-7.5223 -16.5818 -1.7481 0.9294
8.4465 17.4995 -1.8655 0.9249
5.3710 14.2431 -1.4614 0.9407
3.5146 19.0493 -1.8597 0.9251
0.0563 13.1301 -1.2606 0.9486
-0.4347 5.1137 -0.4927 0.9796
-2.3579 13.4241 -1.3085 0.9467
-3.6561 13.5822 -1.3504 0.9450
-2.1738 5.9179 -0.6053 0.9750
-2.5851 5.4754 -0.5813 0.9760
-8.3496 14.2443 -1.5852 0.9358
-9.4432 6.3942 -1.0949 0.9552
-12.0265 6.6661 -1.3201 0.9462
-15.4230 6.8329 -1.6195 0.9345
-16.7097 5.6856 -1.6945 0.9315
-16.6933 -6.7581 -1.7290 0.9302
-13.7996 -7.0750 -1.4888 0.9396
-7.2314 -7.9082 -1.0288 0.9579
-8.3415 -16.2805 -1.7562 0.9291
-3.8962 -9.6314 -0.9975 0.9591
-5.1211 -16.8332 -1.6892 0.9317
-0.5354 -19.0555 -1.8301 0.9263
1.1635 -19.0519 -1.8325 0.9262
4.5335 -18.5940 -1.8374 0.9260
6.0876 18.4239 -1.8628 0.9250
0.5085 9.7920 -0.9413 0.9614
-2.9523 13.4965 -1.3264 0.9460
-0.5724 13.2064 -1.5702 0.9481
-3.0414 13.5071 -1.6446 0.9458
-2.3410 5.5427 -0.7147 0.9761
-8.4575 12.9713 -1.8394 0.9395
-9.5673 12.1539 -1.8374 0.9396
-10.5991 11.2424 -1.8354 0.9397
-8.6929 6.4275 -1.2842 0.9574
-11.4418 6.9774 -1.5919 0.9474
-15.5000 6.0020 -1.9744 0.9352
-15.9852 4.6030 -1.9760 0.9352
-16.3200 3.1604 -1.9746 0.9352
-16.6029 0.2179 -1.9724 0.9353
-16.0548 -4.1699 -1.9704 0.9354
-14.7741 -6.8164 -1.9327 0.9366
-12.8020 -7.3530 -1.7537 0.9423
-10.6439 -7.4461 -1.5430 0.9490
-9.2250 -7.7624 -1.4321 0.9526
-7.8709 -7.9214 -1.3265 0.9560
-6.6083 -7.9560 -1.2285 0.9592
-5.6073 -8.1254 -1.1727 0.9610
-5.4937 -9.7080 -1.3250 0.9561
-6.3226 -13.9372 -1.8179 0.9402
-3.1146 -8.8952 -1.1195 0.9627
-2.3699 -9.3701 -1.1481 0.9618
-2.3192 -14.4958 -1.7438 0.9426
0.3012 -15.4330 -1.8336 0.9397
1.6747 -15.3612 -1.8355 0.9397
3.0379 -15.1679 -1.8375 0.9396
4.3801 -14.8539 -1.8396 0.9395
7.5336 -15.0198 -1.9960 0.9346
16.1777 -5.0782 -2.0141 0.9340
16.9737 0.8859 -2.0190 0.9338
16.1505 5.3412 -2.0207 0.9338
15.6125 6.7573 -2.0208 0.9338
14.9491 8.1193 -2.0207 0.9338
12.2659 11.7705 -2.0194 0.9338
11.1654 12.8096 -2.0185 0.9338
9.9763 13.7449 -2.0174 0.9339
5.1558 13.6724 -1.7357 0.9428
4.1954 15.0695 -1.8581 0.9389
-3.6561 13.5820 -1.6708 0.9449
-2.1672 5.8997 -0.7466 0.9750
-2.5865 5.4782 -0.7196 0.9759
-7.8354 13.3671 -1.8405 0.9395
-9.0786 10.5975 -1.6576 0.9453
-8.1208 6.6248 -1.2449 0.9587
-9.3808 6.3520 -1.3457 0.9554
-11.5104 6.3801 -1.5633 0.9484
-15.7544 5.3605 -1.9768 0.9352
-16.5782 1.0080 -1.9729 0.9353
-16.4801 -1.9443 -1.9712 0.9353
-16.2369 -3.4016 -1.9706 0.9354
-15.8668 -4.8316 -1.9702 0.9354
-8.4962 -7.7733 -1.3679 0.9547
-6.1594 -8.0747 -1.2064 0.9599
-3.5290 -16.8671 -2.0470 0.9329
-1.7149 -14.5693 -1.7426 0.9426
-0.4333 -15.4214 -1.8326 0.9397
0.9414 -15.4148 -1.8345 0.9397
3.6662 -15.0366 -1.8385 0.9396
5.4023 -15.8635 -1.9906 0.9347
9.4405 -13.9342 -1.9993 0.9344
12.8267 -10.9823 -2.0058 0.9342
15.3155 -7.2261 -2.0116 0.9341
16.3800 -4.4046 -2.0148 0.9340
16.7185 -2.9320 -2.0162 0.9339
16.9233 -1.4339 -2.0175 0.9339
16.9926 0.0774 -2.0185 0.9338
16.3851 4.5663 -2.0205 0.9338
15.9159 6.0066 -2.0207 0.9338
13.7617 9.9941 -2.0203 0.9338
11.7651 12.2667 -2.0190 0.9338
10.6222 13.2585 -2.0180 0.9339
8.6785 13.0640 -1.8630 0.9388
7.4770 13.7754 -1.8618 0.9388
4.9099 14.8596 -1.8590 0.9389
3.5654 15.2242 -1.8574 0.9390
0.5059 9.7406 -1.1586 0.9615
-0.4910 13.1965 -1.5686 0.9482
-2.9522 13.4962 -1.6411 0.9459
-3.9016 12.4176 -1.5461 0.9489
-2.3130 5.5713 -0.7166 0.9760
-5.9475 11.3522 -1.5223 0.9497
-0.5655 13.0466 -1.8503 0.9486
-1.7223 12.9329 -1.8486 0.9487
-2.8634 12.7167 -1.8469 0.9487
-7.0926 10.8779 -1.8400 0.9489
-8.0247 10.1943 -1.8382 0.9489
-8.8917 9.4314 -1.8366 0.9490
-7.9828 7.0833 -1.5122 0.9578
-8.4837 6.2729 -1.4950 0.9583
-13.0334 5.0469 -1.9803 0.9451
-13.7047 2.6540 -1.9779 0.9452
-13.9448 0.1831 -1.9760 0.9452
-13.7476 -2.2896 -1.9747 0.9453
-13.1199 -4.6882 -1.9741 0.9453
-12.6503 -5.8366 -1.9740 0.9453
-7.7667 -7.8165 -1.5613 0.9565
-5.2590 -9.2933 -1.5130 0.9578
-5.3304 -11.7500 -1.8281 0.9492
-3.0935 -8.8348 -1.3263 0.9629
-1.4714 -9.1965 -1.3196 0.9631
-0.8995 -12.9091 -1.8335 0.9491
1.4049 -12.8865 -1.8367 0.9490
7.4175 -11.9906 -1.9977 0.9446
8.4627 -11.2938 -1.9996 0.9446
10.3491 -9.6327 -2.0033 0.9445
12.5564 -6.5742 -2.0082 0.9443
13.1010 -5.4350 -2.0097 0.9443
14.2065 -0.5248 -2.0143 0.9442
14.2025 0.7414 -2.0151 0.9442
14.0846 2.0025 -2.0157 0.9441
13.0616 5.6533 -2.0166 0.9441
10.2630 9.8485 -2.0154 0.9442
9.3428 10.7186 -2.0147 0.9442
7.7117 10.6248 -1.8602 0.9483
6.7325 11.2630 -1.8592 0.9484
5.7005 11.8104 -1.8581 0.9484
4.6243 12.2629 -1.8569 0.9484
3.5125 12.6167 -1.8556 0.9485
2.3744 12.8694 -1.8542 0.9485
-4.0886 11.1306 -1.6801 0.9532
-2.5856 5.4764 -0.8581 0.9758
-6.5702 11.2087 -1.8409 0.9489
-7.5342 10.5698 -1.8392 0.9489
-8.4369 9.8485 -1.8375 0.9490
-8.1856 6.6776 -1.4968 0.9582
-13.5670 3.3041 -1.9785 0.9451
-13.9235 0.8466 -1.9764 0.9452
-13.8429 -1.6331 -1.9750 0.9452
-12.3976 -6.3562 -1.9740 0.9453
-11.4458 -7.2211 -1.9175 0.9468
-8.5105 -7.7863 -1.6344 0.9545
-7.2568 -7.9359 -1.5237 0.9575
-6.0652 -7.9512 -1.4169 0.9604
-5.4194 -8.5950 -1.4397 0.9598
-0.3636 -12.9403 -1.8342 0.9490
4.5199 -13.2724 -1.9866 0.9449
5.7062 -12.8707 -1.9948 0.9447
6.8351 -12.3237 -1.9967 0.9447
9.8743 -10.1095 -2.0023 0.9445
10.7440 -9.1991 -2.0041 0.9445
14.1620 -1.1999 -2.0138 0.9442
14.2188 0.0647 -2.0147 0.9442
13.9911 2.5852 -2.0159 0.9441
13.7083 3.8203 -2.0163 0.9441
13.3155 5.0252 -2.0166 0.9441
12.8159 6.1900 -2.0166 0.9441
9.8442 10.2640 -2.0151 0.9442
7.2628 10.9329 -1.8597 0.9484
5.2044 12.0332 -1.8576 0.9484
4.1105 12.4401 -1.8564 0.9484
0.8985 6.3315 -0.9061 0.9745
0.5032 9.6894 -1.3747 0.9616
-0.4856 13.0506 -1.8504 0.9486
-1.6432 12.9441 -1.8488 0.9487
-2.7856 12.7348 -1.8470 0.9487
-2.3143 5.5744 -0.8552 0.9759
-7.0263 10.9218 -1.8401 0.9489
-5.2491 9.8717 -1.8419 0.9557
-6.1015 9.3579 -1.8404 0.9557
-6.9043 8.7710 -1.8389 0.9558
-8.3365 7.3972 -1.8361 0.9558
-9.5020 5.7944 -1.8334 0.9559
-11.5571 3.3279 -1.9813 0.9524
-11.8014 2.2854 -1.9803 0.9524
-11.9526 1.2259 -1.9794 0.9525
-11.3009 -4.0382 -1.9770 0.9525
-10.8965 -5.0274 -1.9769 0.9525
-10.4064 -5.9770 -1.9770 0.9525
-7.8176 -7.8677 -1.8272 0.9560
-5.2252 -9.2335 -1.7478 0.9579
-4.5897 -10.1172 -1.8302 0.9560
-3.0882 -8.8196 -1.5394 0.9628
-2.3700 -9.3704 -1.5923 0.9616
-1.4672 -9.1707 -1.5300 0.9630
-0.7742 -11.1108 -1.8348 0.9559
0.2175 -11.1437 -1.8362 0.9558
1.2089 -11.0886 -1.8376 0.9558
2.1923 -10.9457 -1.8390 0.9558
4.4429 -11.2597 -1.9941 0.9521
5.4315 -10.8287 -1.9957 0.9521
8.8959 -8.2802 -2.0021 0.9519
9.6044 -7.4615 -2.0036 0.9519
10.2374 -6.5822 -2.0050 0.9519
10.7896 -5.6491 -2.0064 0.9518
11.9190 -2.6039 -2.0098 0.9517
12.1090 -1.5339 -2.0108 0.9517
12.1982 0.6368 -2.0123 0.9517
12.0964 1.7199 -2.0128 0.9517
11.8978 2.7897 -2.0132 0.9517
11.2171 4.8550 -2.0136 0.9517
10.1780 6.7652 -2.0133 0.9517
8.8144 8.4585 -2.0125 0.9517
8.0108 9.1904 -2.0084 0.9518
6.6240 9.1262 -1.8577 0.9553
4.8973 10.1462 -1.8560 0.9554
3.9730 10.5358 -1.8550 0.9554
2.0404 11.0592 -1.8526 0.9554
0.5877 6.2765 -1.0385 0.9748
-1.9398 11.0435 -1.8471 0.9556
-2.9122 10.8185 -1.8457 0.9556
-3.8599 10.5080 -1.8442 0.9556
-5.6518 9.6418 -1.8412 0.9557
-6.4819 9.0935 -1.8397 0.9557
-7.9783 7.7886 -1.8368 0.9558
-10.1729 5.6387 -1.9161 0.9539
-11.0055 4.8758 -1.9830 0.9524
-11.3890 3.8751 -1.9818 0.9524
-11.8835 1.7937 -1.9799 0.9524
-11.9910 0.7291 -1.9790 0.9525
-10.6787 -5.4749 -1.9769 0.9525
-10.1501 -6.4037 -1.9771 0.9525
-7.4400 -8.1363 -1.8163 0.9563
0.6796 -11.1290 -1.8368 0.9558
1.6683 -11.0330 -1.8382 0.9558
2.6453 -10.8494 -1.8397 0.9557
3.8997 -11.4512 -1.9929 0.9521
4.9079 -11.0700 -1.9949 0.9521
5.8780 -10.5982 -1.9965 0.9521
6.8031 -10.0414 -1.9981 0.9520
8.4884 -8.6906 -2.0013 0.9519
9.2349 -7.9070 -2.0028 0.9519
11.0179 -5.1984 -2.0070 0.9518
11.4435 -4.2002 -2.0082 0.9518
11.7783 -3.1672 -2.0093 0.9518
12.1646 -1.0307 -2.0112 0.9517
12.1629 1.1422 -2.0125 0.9517
10.4890 6.2736 -2.0134 0.9517
9.8881 7.1810 -2.0132 0.9517
9.2082 8.0306 -2.0128 0.9517
5.3759 9.9044 -1.8565 0.9553
2.5652 10.9535 -1.8533 0.9554
0.5006 9.6384 -1.5900 0.9616
-0.4174 11.2182 -1.8494 0.9555
-2.3951 10.9495 -1.8465 0.9556
-0.4258 9.8251 -1.8485 0.9608
-1.2973 9.7417 -1.8472 0.9608
-2.1573 9.5810 -1.8459 0.9608
-2.3497 5.5632 -1.1351 0.9757
-5.3486 8.2032 -1.8407 0.9609
-7.8530 5.8065 -1.8357 0.9610
-9.4698 4.6744 -1.9850 0.9579
-9.8428 3.8114 -1.9839 0.9580
-10.3529 2.0049 -1.9821 0.9580
-10.4861 1.0755 -1.9813 0.9580
-10.1927 -2.6473 -1.9794 0.9580
-9.5610 -4.4112 -1.9791 0.9580
-8.6291 -6.0365 -1.9794 0.9580
-7.4121 -7.4596 -1.9766 0.9581
-5.5305 -8.0142 -1.8302 0.9611
-4.0261 -8.8749 -1.8317 0.9611
-2.3920 -9.4576 -1.8336 0.9611
-0.6789 -9.7433 -1.8358 0.9610
0.1907 -9.7714 -1.8370 0.9610
1.0599 -9.7222 -1.8382 0.9610
2.0182 -10.0765 -1.9316 0.9590
3.8943 -9.8692 -1.9942 0.9577
5.5896 -9.0358 -1.9971 0.9577
7.7935 -7.2541 -2.0012 0.9576
8.9671 -5.7654 -2.0038 0.9575
9.8581 -4.0897 -2.0061 0.9575
10.4369 -2.2801 -2.0080 0.9575
10.6798 0.5575 -2.0101 0.9574
10.1588 3.3596 -2.0112 0.9574
9.4029 5.1069 -2.0112 0.9574
8.9105 5.9227 -2.0111 0.9574
8.3471 6.6910 -2.0108 0.9574
7.7171 7.4055 -2.0103 0.9574
6.9024 7.9188 -1.9745 0.9581
5.7999 7.9908 -1.8559 0.9606
3.4793 9.2267 -1.8535 0.9607
0.5877 6.2765 -1.1849 0.9747
-2.5519 9.4801 -1.8453 0.9608
-2.5813 5.4673 -1.1364 0.9757
-5.6823 7.9717 -1.8401 0.9609
-6.3645 7.4294 -1.8388 0.9610
-6.9955 6.8291 -1.8375 0.9610
-7.5703 6.1757 -1.8363 0.9610
-8.0847 5.4743 -1.8352 0.9610
-9.2349 5.1188 -1.9846 0.9579
-10.2481 2.4958 -1.9825 0.9580
-10.5200 0.6396 -1.9810 0.9580
-10.4610 -1.2342 -1.9799 0.9580
-10.3078 -2.1595 -1.9795 0.9580
-9.3699 -4.8039 -1.9792 0.9580
-8.3719 -6.3896 -1.9795 0.9580
-7.7717 -7.1104 -1.9799 0.9580
-7.0765 -7.7388 -1.9710 0.9582
-6.0160 -7.8866 -1.8644 0.9604
-5.1944 -8.2381 -1.8305 0.9611
-4.4427 -8.6711 -1.8313 0.9611
-1.1414 -9.6968 -1.8352 0.9610
1.4652 -9.6900 -1.8420 0.9609
4.3016 -9.7025 -1.9949 0.9577
5.1514 -9.2880 -1.9963 0.9577
5.9615 -8.7992 -1.9977 0.9577
6.7254 -8.2397 -1.9991 0.9576
8.0901 -6.9268 -2.0018 0.9576
10.0216 -3.6783 -2.0065 0.9575
10.3141 -2.7735 -2.0075 0.9575
10.5245 -1.8457 -2.0084 0.9574
10.6511 -0.9024 -2.0092 0.9574
10.6487 1.0000 -2.0104 0.9574
10.5197 1.9437 -2.0108 0.9574
10.3066 2.8723 -2.0111 0.9574
10.0110 3.7781 -2.0112 0.9574
8.6567 6.2867 -2.0109 0.9574
6.1746 7.7071 -1.8562 0.9606
4.7075 8.6728 -1.8548 0.9606
3.0930 9.3607 -1.8530 0.9607
0.8988 6.3338 -1.2024 0.9743
0.5104 9.8279 -1.8498 0.9607
-2.0987 9.5944 -1.8460 0.9608
-2.3221 5.5932 -1.1383 0.9757
-5.2985 8.2362 -1.8408 0.9609
-2.9358 5.5212 -1.3218 0.9748
-5.3835 6.8389 -1.8398 0.9650
-5.9669 6.3290 -1.8386 0.9651
-7.1429 5.2814 -1.8778 0.9643
-8.0260 4.8944 -1.9871 0.9623
-9.0208 2.5975 -1.9843 0.9623
-9.2462 -1.5399 -1.9814 0.9624
-8.1265 -4.6675 -1.9810 0.9624
-5.3186 -7.7071 -1.9794 0.9624
-2.8943 -8.2660 -1.8513 0.9648
-2.1282 -8.4144 -1.8347 0.9651
4.2327 -8.4387 -1.9956 0.9621
4.9698 -8.0338 -1.9969 0.9621
6.3228 -7.0347 -1.9993 0.9621
7.9698 -5.1242 -2.0028 0.9620
8.7606 -3.6344 -2.0048 0.9620
9.0532 -2.8419 -2.0057 0.9619
9.2739 -2.0260 -2.0066 0.9619
9.4208 -1.1934 -2.0073 0.9619
9.2540 2.1698 -2.0092 0.9619
9.0252 2.9848 -2.0094 0.9619
8.7242 3.7760 -2.0094 0.9619
7.9163 5.2619 -2.0093 0.9619
6.8563 6.5794 -2.0086 0.9619
6.1844 7.0951 -1.9895 0.9623
5.1533 7.0999 -1.8544 0.9648
3.8107 7.8951 -1.8531 0.9648
3.0919 8.1992 -1.8523 0.9648
2.3491 8.4378 -1.8514 0.9648
0.5877 6.2765 -1.3325 0.9746
0.0375 8.7445 -1.8484 0.9649
-0.4338 5.1042 -1.0828 0.9793
-3.0078 8.1881 -1.8439 0.9650
-2.5743 5.4523 -1.2745 0.9757
-5.6608 6.6079 -1.8392 0.9651
-6.2224 6.0745 -1.8381 0.9651
-8.2201 4.5563 -1.9866 0.9623
-8.8890 3.0245 -1.9847 0.9623
-9.2770 1.4002 -1.9832 0.9624
-9.3099 -1.0983 -1.9816 0.9624
-9.1737 -1.9219 -1.9812 0.9624
-8.6865 -3.5166 -1.9809 0.9624
-7.9262 -5.0007 -1.9810 0.9624
-6.9165 -6.3279 -1.9816 0.9624
-6.3275 -6.9197 -1.9820 0.9624
-4.9883 -7.9112 -1.9769 0.9625
-4.1505 -8.1008 -1.9240 0.9635
-3.3214 -8.2106 -1.8722 0.9644
-2.5300 -8.3161 -1.8374 0.9651
-1.0154 -8.6265 -1.8360 0.9651
-0.2473 -8.8038 -1.8617 0.9646
3.0404 -8.9280 -1.9936 0.9622
3.8251 -8.6276 -1.9949 0.9622
4.5803 -8.2584 -1.9962 0.9621
5.9789 -7.3252 -1.9987 0.9621
6.6109 -6.7683 -1.9999 0.9621
8.1774 -4.7905 -2.0033 0.9620
9.1651 -2.4645 -2.0061 0.9619
9.3516 -1.6400 -2.0069 0.9619
9.4636 -0.8019 -2.0076 0.9619
9.3461 1.7269 -2.0090 0.9619
9.1566 2.5518 -2.0093 0.9619
8.8939 3.3565 -2.0094 0.9619
8.5602 4.1345 -2.0094 0.9619
8.1581 4.8794 -2.0094 0.9619
4.8537 7.3064 -1.8541 0.9648
4.1829 7.7064 -1.8535 0.9648
3.4793 8.0447 -1.8527 0.9648
0.8989 6.3342 -1.3523 0.9742
0.4537 8.7355 -1.8490 0.9649
-1.1003 8.6673 -1.8468 0.9649
-1.8658 8.5298 -1.8457 0.9649
-2.8742 5.4860 -1.3091 0.9750
-0.3404 7.8529 -1.8473 0.9682
-2.3522 5.5692 -1.4209 0.9755
-3.3077 5.0729 -1.4233 0.9754
-4.8427 6.1520 -1.8401 0.9683
-5.3678 5.6936 -1.8391 0.9684
-7.2215 4.4038 -1.9879 0.9658
-7.5812 3.7422 -1.9870 0.9659
-8.1177 2.3375 -1.9854 0.9659
-8.2906 1.6055 -1.9847 0.9659
-8.3979 0.8613 -1.9841 0.9659
-8.1645 -2.1205 -1.9825 0.9659
-7.6587 -3.5335 -1.9823 0.9659
-6.9120 -4.8354 -1.9825 0.9659
-6.4553 -5.4318 -1.9828 0.9659
-5.3926 -6.4924 -1.9836 0.9659
-4.7950 -6.9483 -1.9841 0.9659
-3.4900 -7.6932 -1.9854 0.9659
0.1652 -8.4652 -1.9899 0.9658
0.9182 -8.4218 -1.9910 0.9658
3.1147 -7.8936 -1.9944 0.9657
5.6855 -6.3256 -1.9989 0.9657
7.5502 -3.9531 -2.0030 0.9656
8.1381 -2.5546 -2.0047 0.9656
8.3361 -1.8212 -2.0054 0.9655
8.4679 -1.0727 -2.0060 0.9655
8.4565 1.2023 -2.0075 0.9655
8.3172 1.9502 -2.0077 0.9655
8.1114 2.6826 -2.0079 0.9655
7.1148 4.7291 -2.0078 0.9655
6.6651 5.3427 -2.0076 0.9655
6.1624 5.9135 -2.0073 0.9655
3.4254 7.0969 -1.8520 0.9681
2.7794 7.3706 -1.8513 0.9682
2.1118 7.5854 -1.8505 0.9682
1.4280 7.7397 -1.8497 0.9682
-1.3587 7.7356 -1.8459 0.9682
-1.7697 6.5742 -1.6001 0.9724
-2.5646 5.4318 -1.4117 0.9756
-2.9470 5.0275 -1.3696 0.9763
-5.0923 5.9444 -1.8396 0.9683
-5.5979 5.4648 -1.8386 0.9684
-7.0056 4.7436 -1.9884 0.9658
-7.3963 4.0996 -1.9875 0.9658
-7.7283 3.4239 -1.9866 0.9659
-8.3488 1.2601 -1.9844 0.9659
-8.4354 -0.2392 -1.9833 0.9659
-8.2566 -1.7298 -1.9826 0.9659
-8.0692 -2.4572 -1.9824 0.9659
-7.8182 -3.1651 -1.9823 0.9659
-7.1339 -4.5008 -1.9824 0.9659
-6.7059 -5.1181 -1.9826 0.9659
-5.1194 -6.7112 -1.9838 0.9659
-3.8514 -7.5170 -1.9850 0.9659
-3.1667 -7.8280 -1.9846 0.9659
-2.4555 -8.0712 -1.9828 0.9659
-1.7272 -8.2553 -1.9822 0.9659
-0.9866 -8.3820 -1.9836 0.9659
-0.2375 -8.4517 -1.9871 0.9659
1.2669 -8.3786 -1.9915 0.9658
2.0084 -8.2372 -1.9927 0.9658
3.4403 -7.7598 -1.9949 0.9657
4.1193 -7.4272 -1.9961 0.9657
4.7665 -7.0353 -1.9972 0.9657
6.9361 -4.9413 -2.0015 0.9656
7.3517 -4.3068 -2.0025 0.9656
8.0056 -2.9383 -2.0042 0.9656
8.2385 -2.2153 -2.0050 0.9656
8.4058 -1.4742 -2.0057 0.9655
8.5388 0.0389 -2.0068 0.9655
8.5033 0.7985 -2.0073 0.9655
7.9934 3.0167 -2.0080 0.9655
4.9311 6.1549 -1.8535 0.9681
3.7599 6.9271 -1.8524 0.9681
3.1276 7.2315 -1.8517 0.9681
0.4079 7.8541 -1.8484 0.9682
-1.6779 7.6706 -1.8454 0.9683
-2.3257 5.6019 -1.4255 0.9754
-2.8529 5.4454 -1.4448 0.9751
-3.2597 5.0669 -1.4160 0.9755
-0.2245 5.1789 -1.3422 0.9788
-1.8697 5.8259 -1.5842 0.9750
-2.6458 4.9757 -1.4591 0.9770
-3.3076 5.0728 -1.5680 0.9753
-4.3964 5.5850 -1.8403 0.9711
-4.8782 5.1742 -1.8412 0.9710
-5.7285 5.0830 -1.9829 0.9689
-6.1782 4.5682 -1.9894 0.9688
-6.8841 3.3981 -1.9877 0.9688
-7.6643 0.1006 -1.9846 0.9688
-7.5581 -1.2588 -1.9839 0.9688
-6.9560 -3.2093 -1.9835 0.9688
-6.2778 -4.3917 -1.9837 0.9688
-5.8628 -4.9333 -1.9839 0.9688
-5.4016 -5.4362 -1.9842 0.9688
-4.8976 -5.8964 -1.9846 0.9688
-4.3547 -6.3102 -1.9851 0.9688
-3.1694 -6.9863 -1.9863 0.9688
-1.8825 -7.4430 -1.9878 0.9688
2.1776 -7.3847 -1.9934 0.9687
3.4554 -6.8890 -1.9955 0.9687
4.0567 -6.5577 -1.9965 0.9686
4.6263 -6.1740 -1.9976 0.9686
5.1599 -5.7408 -1.9986 0.9686
5.6529 -5.2616 -1.9995 0.9686
6.1014 -4.7401 -2.0005 0.9686
6.5019 -4.1804 -2.0014 0.9686
6.8509 -3.5869 -2.0022 0.9686
7.5632 -1.6523 -2.0044 0.9685
7.7370 0.4039 -2.0060 0.9685
7.6717 1.0907 -2.0063 0.9685
7.5452 1.7691 -2.0066 0.9685
6.4544 4.2902 -2.0066 0.9685
6.0465 4.8468 -2.0064 0.9685
5.5905 5.3647 -2.0061 0.9685
5.0812 5.8294 -2.0022 0.9686
4.2023 5.7897 -1.8523 0.9709
3.1079 6.4389 -1.8512 0.9709
1.9162 6.8827 -1.8498 0.9709
0.0306 7.1350 -1.8474 0.9709
-0.4259 5.0103 -1.3019 0.9794
-1.2331 7.0206 -1.8456 0.9710
-1.9387 5.2777 -1.4558 0.9770
-2.3374 4.9506 -1.4175 0.9776
-2.9469 5.0274 -1.5088 0.9762
-6.3610 4.3072 -1.9890 0.9688
-7.4524 1.8149 -1.9860 0.9688
-7.5820 1.1444 -1.9854 0.9688
-7.6100 -0.8978 -1.9840 0.9688
-7.4990 -1.5710 -1.9838 0.9688
-7.3288 -2.2317 -1.9836 0.9688
-7.1009 -2.8747 -1.9835 0.9688
-6.4793 -4.0878 -1.9836 0.9688
-5.6536 -5.1725 -1.9840 0.9688
-5.1720 -5.6560 -1.9844 0.9688
-4.6493 -6.0951 -1.9848 0.9688
-4.0898 -6.4862 -1.9854 0.9688
-3.4976 -6.8264 -1.9860 0.9688
-2.2340 -7.3434 -1.9874 0.9688
-0.8980 -7.6294 -1.9890 0.9688
-0.2158 -7.6826 -1.9899 0.9687
0.4687 -7.6750 -1.9909 0.9687
1.1502 -7.6066 -1.9919 0.9687
1.8232 -7.4779 -1.9929 0.9687
2.4825 -7.2898 -1.9939 0.9687
3.1228 -7.0437 -1.9949 0.9687
3.7390 -6.7414 -1.9960 0.9686
5.3947 -5.5232 -1.9990 0.9686
6.9951 -3.3004 -2.0026 0.9685
7.6263 -1.3375 -2.0047 0.9685
7.7142 0.7244 -2.0061 0.9685
7.6203 1.4080 -2.0064 0.9685
7.4656 2.0806 -2.0067 0.9685
7.2514 2.7367 -2.0068 0.9685
6.9793 3.3710 -2.0068 0.9685
6.6515 3.9783 -2.0067 0.9685
6.2707 4.5539 -2.0066 0.9685
4.7191 5.8904 -1.9542 0.9693
3.9581 5.9582 -1.8521 0.9709
2.8377 6.5612 -1.8509 0.9709
0.3702 7.1273 -1.8479 0.9709
-0.8979 7.0732 -1.8461 0.9710
-2.0398 4.9131 -1.3774 0.9783
-3.2596 5.0668 -1.5599 0.9754
-0.2239 5.1661 -1.4638 0.9787
-0.8607 6.4629 -1.8458 0.9733
-1.4316 6.3578 -1.8449 0.9733
-1.8425 5.7409 -1.7069 0.9752
-2.0771 4.9177 -1.5113 0.9781
-2.6536 4.9903 -1.6000 0.9768
-3.2884 5.0434 -1.7044 0.9753
-4.0214 5.1087 -1.8406 0.9733
-5.6520 4.1791 -1.9899 0.9712
-6.2982 3.1089 -1.9884 0.9712
-6.8889 1.3341 -1.9864 0.9713
-7.0129 0.0921 -1.9855 0.9713
-6.9920 -0.5321 -1.9851 0.9713
-6.0788 -3.4914 -1.9845 0.9713
-5.7445 -4.0186 -1.9846 0.9713
-5.3648 -4.5142 -1.9849 0.9713
-3.9845 -5.7738 -1.9860 0.9713
-3.4559 -6.1070 -1.9865 0.9713
-2.3204 -6.6269 -1.9877 0.9712
-1.7223 -6.8095 -1.9884 0.9712
-0.4886 -7.0125 -1.9900 0.9712
0.7625 -6.9941 -1.9917 0.9712
1.3823 -6.9017 -1.9926 0.9712
2.5860 -6.5537 -1.9945 0.9711
3.7100 -5.9973 -1.9964 0.9711
4.2308 -5.6462 -1.9973 0.9711
4.7185 -5.2498 -1.9983 0.9711
5.5791 -4.3343 -2.0000 0.9711
7.0234 -0.8897 -2.0042 0.9710
7.0730 0.3692 -2.0050 0.9710
7.0132 0.9971 -2.0053 0.9710
6.8975 1.6173 -2.0056 0.9710
5.5275 4.4308 -2.0055 0.9710
5.1107 4.9043 -2.0052 0.9710
3.9598 5.4556 -1.9084 0.9724
2.3057 6.1143 -1.8499 0.9732
1.1847 6.4214 -1.8485 0.9732
-0.4248 4.9981 -1.4200 0.9794
-1.6936 6.2916 -1.8445 0.9733
-2.3373 4.9505 -1.5498 0.9775
-2.9469 5.0273 -1.6497 0.9761
-3.5925 5.0400 -1.7522 0.9746
-5.8193 3.9404 -1.9895 0.9712
-6.6460 2.2613 -1.9874 0.9712
-6.8187 1.6606 -1.9867 0.9712
-6.9374 1.0471 -1.9862 0.9713
-7.0014 0.4257 -1.9857 0.9713
-6.7062 -2.0421 -1.9846 0.9713
-6.2379 -3.1982 -1.9845 0.9713
-5.9289 -3.7406 -1.9846 0.9713
-5.5731 -4.2536 -1.9847 0.9713
-5.1733 -4.7331 -1.9850 0.9713
-4.7325 -5.1754 -1.9853 0.9713
-4.2542 -5.5770 -1.9857 0.9713
-3.7421 -5.9348 -1.9862 0.9713
-2.0439 -6.7185 -1.9880 0.9712
-1.4387 -6.8763 -1.9888 0.9712
1.0521 -6.9580 -1.9921 0.9712
2.2706 -6.6676 -1.9940 0.9711
3.9564 -5.8396 -1.9968 0.9711
5.7552 -4.1000 -2.0004 0.9711
6.9722 -1.2227 -2.0039 0.9710
6.8247 1.9020 -2.0057 0.9710
6.3801 3.0815 -2.0058 0.9710
5.7324 4.1630 -2.0056 0.9710
5.3387 4.6559 -2.0053 0.9710
3.1188 5.7459 -1.8508 0.9732
2.5944 5.9987 -1.8502 0.9732
0.3385 6.5171 -1.8474 0.9732
-0.8211 6.4682 -1.8458 0.9733
-2.6117 4.9851 -1.5932 0.9769
-3.2576 5.0636 -1.7045 0.9753
-0.2167 4.9996 -1.5392 0.9793
-0.7921 5.9476 -1.8455 0.9752
-1.3175 5.8511 -1.8447 0.9752
-2.0770 4.9176 -1.6419 0.9779
-3.8401 4.8783 -1.9096 0.9744
-4.4343 4.7034 -1.9882 0.9733
-5.5227 3.3678 -1.9896 0.9733
-6.0280 2.3342 -1.9882 0.9733
-6.2099 1.7881 -1.9877 0.9733
-6.3427 1.2283 -1.9871 0.9733
-6.4571 0.0848 -1.9862 0.9733
-6.4380 -0.4899 -1.9859 0.9733
-6.3680 -1.0606 -1.9856 0.9733
-6.2478 -1.6227 -1.9855 0.9733
-6.0783 -2.1720 -1.9853 0.9733
-5.8609 -2.7041 -1.9853 0.9733
-5.2894 -3.7002 -1.9855 0.9733
-4.9397 -4.1565 -1.9857 0.9733
-4.5509 -4.5801 -1.9859 0.9733
-3.1819 -5.6228 -1.9872 0.9733
-2.6698 -5.8851 -1.9877 0.9733
-2.1363 -6.1012 -1.9883 0.9733
-1.0219 -6.3875 -1.9896 0.9733
0.7019 -6.4382 -1.9920 0.9733
1.8333 -6.2172 -1.9937 0.9732
2.3802 -6.0321 -1.9946 0.9732
2.9087 -5.7989 -1.9954 0.9732
3.4145 -5.5196 -1.9963 0.9732
5.1340 -3.9885 -1.9996 0.9732
5.4705 -3.5173 -2.0004 0.9731
6.2113 -1.9498 -2.0024 0.9731
6.3619 -1.3899 -2.0029 0.9731
6.4620 -0.8186 -2.0034 0.9731
6.5106 -0.2405 -2.0039 0.9731
6.5073 0.3397 -2.0042 0.9731
6.1886 2.0467 -2.0049 0.9731
5.9822 2.5892 -2.0049 0.9731
5.7280 3.1110 -2.0049 0.9731
4.2812 4.9116 -2.0041 0.9731
3.8150 5.2560 -1.9976 0.9732
2.6143 5.4164 -1.8499 0.9751
1.6121 5.7904 -1.8487 0.9752
0.5600 5.9801 -1.8474 0.9752
0.0257 6.0039 -1.8467 0.9752
-0.4238 4.9857 -1.5390 0.9793
-1.0378 5.9085 -1.8452 0.9752
-1.5587 5.7903 -1.8444 0.9752
-1.9130 5.2077 -1.7064 0.9770
-2.9034 4.9531 -1.7659 0.9763
-4.1983 4.9008 -1.9849 0.9734
-4.6326 4.5224 -1.9913 0.9733
-5.3572 3.6275 -1.9900 0.9733
-5.9112 2.6188 -1.9886 0.9733
-6.1188 2.0819 -1.9880 0.9733
-6.2779 1.5289 -1.9874 0.9733
-6.3874 0.9641 -1.9869 0.9733
-6.4464 0.3920 -1.9864 0.9733
-5.9830 -2.4221 -1.9853 0.9733
-5.7438 -2.9448 -1.9853 0.9733
-4.7634 -4.3580 -1.9858 0.9733
-4.3574 -4.7652 -1.9861 0.9733
-3.9170 -5.1350 -1.9865 0.9733
-3.4454 -5.4643 -1.9869 0.9733
-2.9464 -5.7506 -1.9874 0.9733
-2.4238 -5.9916 -1.9880 0.9733
-1.3245 -6.3304 -1.9893 0.9733
-0.7563 -6.4255 -1.9900 0.9733
-0.1818 -6.4698 -1.9908 0.9733
0.3947 -6.4629 -1.9915 0.9733
1.5351 -6.2959 -1.9932 0.9732
2.6288 -5.9294 -1.9950 0.9732
3.1472 -5.6745 -1.9958 0.9732
4.1066 -5.0313 -1.9976 0.9732
5.2959 -3.7728 -2.0000 0.9732
5.6126 -3.2880 -2.0007 0.9731
5.8849 -2.7766 -2.0014 0.9731
6.2877 -1.6908 -2.0027 0.9731
6.5155 0.0297 -2.0041 0.9731
6.0985 2.3016 -2.0049 0.9731
5.8696 2.8350 -2.0049 0.9731
5.5940 3.3458 -2.0049 0.9731
5.2738 3.8300 -2.0047 0.9731
4.5105 4.7028 -2.0042 0.9731
2.3872 5.5194 -1.8496 0.9751
0.8441 5.9479 -1.8478 0.9752
-1.7971 5.7195 -1.8440 0.9752
-2.0397 4.9129 -1.6362 0.9780
-2.5787 4.9221 -1.7091 0.9770
-0.2152 4.9644 -1.6517 0.9793
-0.7328 5.5028 -1.8453 0.9769
-1.2190 5.4137 -1.8446 0.9769
-1.6951 5.2817 -1.8439 0.9769
-2.0464 4.8450 -1.7483 0.9781
-4.1112 4.3607 -1.9922 0.9751
-4.8154 3.5605 -1.9907 0.9751
-5.1113 3.1169 -1.9900 0.9751
-5.3665 2.6490 -1.9894 0.9751
-5.5792 2.1604 -1.9888 0.9751
-5.7477 1.6551 -1.9882 0.9751
-5.9768 0.0785 -1.9869 0.9751
-5.8945 -0.9817 -1.9863 0.9751
-5.6264 -2.0105 -1.9861 0.9751
-4.8961 -3.4251 -1.9862 0.9751
-3.8192 -4.5980 -1.9869 0.9751
-3.3957 -4.9206 -1.9873 0.9751
-0.4163 -5.9744 -1.9907 0.9751
0.6496 -5.9580 -1.9922 0.9751
1.1775 -5.8789 -1.9930 0.9750
1.6965 -5.7531 -1.9938 0.9750
2.2025 -5.5817 -1.9946 0.9750
2.6914 -5.3658 -1.9954 0.9750
3.6026 -4.8077 -1.9970 0.9750
4.0176 -4.4699 -1.9978 0.9750
4.4010 -4.0964 -1.9985 0.9750
4.7497 -3.6900 -1.9993 0.9750
5.3321 -2.7917 -2.0007 0.9749
5.5610 -2.3070 -2.0013 0.9749
5.7458 -1.8037 -2.0018 0.9749
6.0223 -0.2225 -2.0032 0.9749
5.9682 0.8485 -2.0038 0.9749
5.7243 1.8931 -2.0041 0.9749
5.5333 2.3949 -2.0042 0.9749
5.2983 2.8776 -2.0042 0.9749
5.0210 3.3374 -2.0041 0.9749
4.7038 3.7706 -2.0039 0.9749
4.3492 4.1736 -2.0037 0.9749
3.5360 4.8717 -2.0010 0.9749
2.9973 5.0143 -1.9419 0.9757
2.4184 5.0104 -1.8494 0.9768
1.9625 5.2043 -1.8488 0.9768
1.4913 5.3566 -1.8483 0.9768
1.0085 5.4663 -1.8477 0.9768
-0.4227 4.9733 -1.6591 0.9792
-0.9602 5.4667 -1.8450 0.9769
-2.8023 4.7807 -1.8420 0.9769
-3.8956 4.5474 -1.9904 0.9751
-4.2877 4.1858 -1.9918 0.9751
-4.6414 3.7863 -1.9911 0.9751
-5.2353 2.9018 -1.9897 0.9751
-5.4710 2.4238 -1.9891 0.9751
-5.6633 1.9270 -1.9885 0.9751
-5.8107 1.4151 -1.9880 0.9751
-5.9745 -0.1694 -1.9867 0.9751
-5.9349 -0.7002 -1.9865 0.9751
-5.8484 -1.2252 -1.9863 0.9751
-5.7158 -1.7405 -1.9861 0.9751
-5.5381 -2.2421 -1.9860 0.9751
-5.3167 -2.7259 -1.9860 0.9751
-5.0533 -3.1881 -1.9861 0.9751
-4.7500 -3.6253 -1.9863 0.9751
-4.4091 -4.0340 -1.9865 0.9751
-4.0333 -4.4108 -1.9867 0.9751
-3.1890 -5.0577 -1.9875 0.9751
-2.7271 -5.3226 -1.9880 0.9751
-0.1682 -5.9875 -1.9911 0.9751
0.8962 -5.9270 -1.9926 0.9750
3.3690 -4.9727 -1.9966 0.9750
3.7995 -4.6551 -1.9974 0.9750
4.5678 -3.9110 -1.9989 0.9750
4.8994 -3.4904 -1.9996 0.9750
5.8164 -1.5640 -2.0021 0.9749
5.9339 -1.0407 -2.0026 0.9749
6.0043 -0.5087 -2.0030 0.9749
6.0269 0.0274 -2.0034 0.9749
6.0014 0.5636 -2.0037 0.9749
5.9282 1.0954 -2.0039 0.9749
5.8077 1.6185 -2.0041 0.9749
5.6409 2.1289 -2.0042 0.9749
4.8782 3.5426 -2.0040 0.9749
4.5432 3.9622 -2.0038 0.9749
3.3248 5.0049 -1.9973 0.9750
2.6717 4.9222 -1.8616 0.9767
2.2083 5.1058 -1.8491 0.9768
1.2677 5.4131 -1.8480 0.9768
0.2881 5.5483 -1.8468 0.9769
-0.1927 5.1789 -1.7227 0.9784
-1.1859 5.4212 -1.8446 0.9769
-1.6628 5.2921 -1.8439 0.9769
-2.0096 4.8404 -1.7421 0.9782
-3.0816 4.7901 -1.8933 0.9763
-0.6811 5.1146 -1.8452 0.9783
-1.1330 5.0318 -1.8445 0.9783
-1.5756 4.9093 -1.8438 0.9783
-2.0053 4.7479 -1.8431 0.9783
-2.5087 4.7179 -1.9109 0.9776
-3.0364 4.6569 -1.9881 0.9767
-3.8219 4.0538 -1.9924 0.9766
-4.1659 3.6965 -1.9917 0.9766
-4.4767 3.3101 -1.9910 0.9766
-5.1872 2.0086 -1.9892 0.9766
-5.3440 1.5388 -1.9887 0.9767
-5.4584 1.0571 -1.9882 0.9767
-5.5297 0.5671 -1.9878 0.9767
-5.5572 0.0730 -1.9875 0.9767
-5.5409 -0.4217 -1.9872 0.9767
-5.3774 -1.3967 -1.9868 0.9767
-5.2316 -1.8694 -1.9867 0.9767
-5.0444 -2.3274 -1.9867 0.9767
-4.5525 -3.1847 -1.9868 0.9767
-4.2514 -3.5774 -1.9870 0.9767
-3.5511 -4.2753 -1.9875 0.9767
-3.1572 -4.5751 -1.9878 0.9767
-2.7383 -4.8388 -1.9883 0.9767
-2.2975 -5.0644 -1.9887 0.9767
-1.8383 -5.2501 -1.9892 0.9766
-0.8793 -5.4960 -1.9904 0.9766
0.6038 -5.5387 -1.9924 0.9766
1.0946 -5.4650 -1.9931 0.9766
2.0473 -5.1884 -1.9946 0.9766
2.9366 -4.7470 -1.9961 0.9766
3.3485 -4.4686 -1.9969 0.9766
4.0903 -3.8072 -1.9983 0.9765
4.4143 -3.4294 -1.9990 0.9765
4.7034 -3.0241 -1.9996 0.9765
5.1680 -2.1440 -2.0008 0.9765
5.3396 -1.6761 -2.0014 0.9765
5.5963 -0.2067 -2.0026 0.9765
5.5934 0.2920 -2.0030 0.9765
5.4543 1.2789 -2.0034 0.9765
4.9233 2.6740 -2.0035 0.9765
4.3710 3.5037 -2.0033 0.9765
2.3170 4.8004 -1.9062 0.9776
0.0221 5.1625 -1.8461 0.9783
-0.4217 4.9607 -1.7804 0.9791
-0.8925 5.0811 -1.8448 0.9783
-1.7775 4.8389 -1.8435 0.9783
-2.2157 4.6930 -1.8559 0.9782
-3.6253 4.2319 -1.9927 0.9766
-3.9860 3.8912 -1.9920 0.9766
-5.2654 1.7916 -1.9890 0.9766
-5.5480 0.3373 -1.9877 0.9767
-5.4380 -1.1392 -1.9869 0.9767
-4.6987 -2.9644 -1.9867 0.9767
-4.0996 -3.7508 -1.9871 0.9767
-3.3710 -4.4193 -1.9877 0.9767
-2.5355 -4.9487 -1.9885 0.9767
-1.1396 -5.4470 -1.9901 0.9766
0.3395 -5.5601 -1.9920 0.9766
2.2611 -5.0999 -1.9950 0.9766
3.1314 -4.6220 -1.9965 0.9766
4.5534 -3.2439 -1.9993 0.9765
4.8255 -2.8269 -1.9999 0.9765
5.4052 -1.4535 -2.0016 0.9765
5.5796 -0.4727 -2.0025 0.9765
5.5768 0.5237 -2.0031 0.9765
5.5087 1.0178 -2.0033 0.9765
5.3967 1.5040 -2.0034 0.9765
5.2417 1.9782 -2.0035 0.9765
4.8081 2.8758 -2.0035 0.9765
3.8770 4.0423 -2.0029 0.9765
3.0958 4.6601 -2.0007 0.9765
2.6551 4.8916 -1.9903 0.9766
2.0549 4.7512 -1.8512 0.9782
1.1781 5.0306 -1.8477 0.9783
0.7257 5.1139 -1.8471 0.9783
0.2678 5.1565 -1.8465 0.9783
-0.1907 5.1263 -1.8345 0.9784
-0.6498 5.1188 -1.8452 0.9783
-1.1022 5.0388 -1.8445 0.9783
-3.0073 4.6747 -1.9878 0.9767
-0.2085 4.8116 -1.8456 0.9796
-1.4778 4.6047 -1.8533 0.9795
-2.8402 4.3560 -1.9928 0.9780
-3.2171 4.0869 -1.9932 0.9780
-4.1781 3.0893 -1.9913 0.9780
-4.4350 2.7045 -1.9907 0.9780
-4.6567 2.2986 -1.9901 0.9780
-4.9879 1.4363 -1.9891 0.9780
-5.0948 0.9866 -1.9887 0.9780
-2.3040 -0.1753 -0.8855 0.9902
-4.8833 -1.7450 -1.9873 0.9780
-4.4968 -2.5828 -1.9873 0.9780
-3.9684 -3.3392 -1.9875 0.9780
-3.6560 -3.6794 -1.9877 0.9780
-3.3146 -3.9906 -1.9880 0.9780
-2.9470 -4.2704 -1.9883 0.9780
-2.5559 -4.5165 -1.9887 0.9780
-2.1444 -4.7270 -1.9891 0.9780
-1.7158 -4.9002 -1.9896 0.9780
-1.2734 -5.0347 -1.9902 0.9780
-0.3612 -5.1837 -1.9913 0.9780
0.5635 -5.1690 -1.9926 0.9780
1.4717 -4.9907 -1.9940 0.9780
2.3345 -4.6542 -1.9954 0.9779
2.7402 -4.4296 -1.9961 0.9779
3.1245 -4.1697 -1.9967 0.9779
3.8165 -3.5524 -1.9981 0.9779
4.1188 -3.1998 -1.9987 0.9779
4.3884 -2.8216 -1.9993 0.9779
4.6234 -2.4207 -1.9999 0.9779
4.8217 -2.0003 -2.0004 0.9779
4.7967 2.0761 -2.0030 0.9779
4.3527 2.8932 -2.0029 0.9779
3.7704 3.6181 -2.0025 0.9779
3.4331 3.9387 -2.0023 0.9779
3.0686 4.2278 -2.0020 0.9779
2.2628 4.6880 -1.9949 0.9779
1.2931 4.6446 -1.8476 0.9796
0.4492 4.7974 -1.8465 0.9796
-0.8328 4.7411 -1.8447 0.9796
-1.2508 4.6467 -1.8441 0.9796
-1.6988 4.6248 -1.8881 0.9791
-2.2043 4.6686 -1.9785 0.9781
-2.6269 4.4814 -1.9906 0.9780
-3.3833 3.9494 -1.9929 0.9780
-3.7200 3.6315 -1.9922 0.9780
-4.0270 3.2851 -1.9916 0.9780
-4.3020 2.9130 -1.9910 0.9780
-4.7475 2.1033 -1.9899 0.9780
-5.0426 1.2281 -1.9889 0.9780
-5.1308 0.7744 -1.9885 0.9780
-2.3028 0.1400 -0.8841 0.9902
-2.3013 -0.2715 -0.8880 0.9901
-5.0759 -1.0634 -1.9874 0.9780
-4.8067 -1.9459 -1.9872 0.9780
-4.6145 -2.3658 -1.9872 0.9780
-4.3859 -2.7671 -1.9873 0.9780
-4.1226 -3.1465 -1.9874 0.9780
-3.5005 -3.8281 -1.9878 0.9780
-3.1465 -4.1249 -1.9881 0.9780
-2.3666 -4.6190 -1.9889 0.9780
-1.9468 -4.8124 -1.9894 0.9780
-1.5113 -4.9677 -1.9899 0.9780
-1.0637 -5.0839 -1.9904 0.9780
-0.6073 -5.1598 -1.9910 0.9780
0.7775 -5.1420 -1.9929 0.9780
1.6776 -4.9262 -1.9943 0.9780
2.1100 -4.7591 -1.9950 0.9779
2.9220 -4.3129 -1.9964 0.9779
3.2952 -4.0372 -1.9971 0.9779
3.6426 -3.7293 -1.9977 0.9779
3.9612 -3.3916 -1.9984 0.9779
4.7204 -2.2271 -2.0002 0.9779
5.0428 -1.3560 -2.0012 0.9779
5.1446 -0.9022 -2.0016 0.9779
5.2054 -0.4411 -2.0020 0.9779
5.1391 0.9496 -2.0027 0.9779
5.0346 1.4031 -2.0029 0.9779
4.7065 2.2732 -2.0030 0.9779
3.2666 4.0774 -2.0021 0.9779
2.8904 4.3511 -2.0018 0.9779
2.4870 4.5819 -1.9978 0.9779
2.0418 4.7208 -1.9710 0.9782
0.6771 4.7714 -1.8468 0.9796
0.2499 4.8112 -1.8462 0.9796
-0.1791 4.8129 -1.8457 0.9796
-0.6063 4.7763 -1.8450 0.9796
-2.4082 4.5966 -1.9886 0.9780
-0.6012 4.5144 -1.8640 0.9805
-1.0224 4.5404 -1.9048 0.9801
-2.2866 4.3003 -1.9933 0.9792
-3.0125 3.8270 -1.9933 0.9792
-3.3400 3.5427 -1.9927 0.9792
-3.6408 3.2305 -1.9921 0.9792
-4.1533 2.5327 -1.9910 0.9792
-4.5340 1.7557 -1.9899 0.9792
-2.0124 -0.1531 -0.8260 0.9913
-2.0431 -0.3403 -0.8477 0.9911
-4.5735 -1.6343 -1.9878 0.9792
-4.4100 -2.0346 -1.9877 0.9792
-4.2115 -2.4189 -1.9878 0.9792
-3.9798 -2.7841 -1.9878 0.9792
-2.7599 -3.9994 -1.9888 0.9792
-2.0083 -4.4269 -1.9895 0.9792
-1.6068 -4.5890 -1.9900 0.9792
0.0950 -4.8666 -1.9921 0.9792
0.9565 -4.7757 -1.9934 0.9792
1.3780 -4.6732 -1.9940 0.9792
1.7889 -4.5335 -1.9947 0.9792
2.1858 -4.3578 -1.9953 0.9791
2.5657 -4.1475 -1.9960 0.9791
2.9254 -3.9040 -1.9966 0.9791
3.8561 -2.9957 -1.9985 0.9791
4.1085 -2.6416 -1.9991 0.9791
4.3283 -2.2662 -1.9996 0.9791
4.7632 1.1168 -2.0023 0.9791
4.6452 1.5362 -2.0024 0.9791
4.4902 1.9434 -2.0025 0.9791
4.2995 2.3352 -2.0025 0.9791
4.0745 2.7083 -2.0024 0.9791
3.5295 3.3870 -2.0021 0.9791
0.8357 4.5296 -1.8851 0.9803
-2.4642 4.2038 -1.9943 0.9792
-2.8275 3.9667 -1.9937 0.9792
-3.1681 3.6982 -1.9930 0.9792
-3.4835 3.4006 -1.9924 0.9792
-3.7711 3.0763 -1.9918 0.9792
-4.2542 2.3580 -1.9907 0.9792
-4.4459 1.9697 -1.9902 0.9792
-2.0259 0.3058 -0.8385 0.9912
-2.0081 0.1221 -0.8234 0.9913
-3.2784 -3.5852 -1.9883 0.9792
-2.9468 -3.8632 -1.9886 0.9792
-2.2164 -4.3258 -1.9893 0.9792
-1.8231 -4.5068 -1.9897 0.9792
-0.5688 -4.8320 -1.9912 0.9792
-0.1367 -4.8648 -1.9918 0.9792
0.2967 -4.8591 -1.9924 0.9792
1.5708 -4.6127 -1.9943 0.9792
2.3650 -4.2641 -1.9956 0.9791
2.7359 -4.0381 -1.9963 0.9791
3.4104 -3.4916 -1.9976 0.9791
3.7086 -3.1753 -1.9982 0.9791
4.2150 -2.4692 -1.9993 0.9791
4.5882 -1.6840 -2.0003 0.9791
4.7209 -1.2695 -2.0008 0.9791
4.8160 -0.8446 -2.0012 0.9791
4.8729 -0.4129 -2.0015 0.9791
4.8911 0.0223 -2.0018 0.9791
4.8108 0.8889 -2.0022 0.9791
4.7129 1.3134 -2.0024 0.9791
4.5775 1.7276 -2.0025 0.9791
4.1989 2.5114 -2.0024 0.9791
3.9586 2.8748 -2.0023 0.9791
3.6869 3.2154 -2.0022 0.9791
3.3858 3.5302 -2.0020 0.9791
3.0580 3.8169 -2.0017 0.9791
1.5220 4.6061 -1.9854 0.9793
0.6411 4.5173 -1.8673 0.9805
-0.1677 4.5060 -1.8455 0.9807
-0.5729 4.5126 -1.8617 0.9805
-0.9928 4.5387 -1.9015 0.9801
-2.1488 4.0410 -1.9947 0.9802
-2.4990 3.8327 -1.9940 0.9802
-2.8292 3.5941 -1.9934 0.9802
-3.4193 3.0340 -1.9923 0.9803
-3.6747 2.7171 -1.9917 0.9803
-3.9008 2.3788 -1.9912 0.9803
-4.0959 2.0218 -1.9907 0.9803
-1.5454 0.5984 -0.7222 0.9928
-1.4936 0.4301 -0.6774 0.9932
-1.4701 0.2847 -0.6526 0.9935
-1.4698 0.1507 -0.6439 0.9936
-1.4317 0.0188 -0.6240 0.9938
-1.4628 -0.1113 -0.6394 0.9936
-1.4724 -0.2452 -0.6505 0.9935
-1.4918 -0.3875 -0.6717 0.9933
-3.9559 -2.2721 -1.9882 0.9803
-3.7383 -2.6152 -1.9883 0.9803
-3.2162 -3.2368 -1.9886 0.9803
-2.5923 -3.7565 -1.9891 0.9803
-2.2483 -3.9729 -1.9895 0.9803
-1.1200 -4.4284 -1.9907 0.9803
0.0892 -4.5706 -1.9923 0.9803
0.8983 -4.4851 -1.9935 0.9802
2.0527 -4.0924 -1.9953 0.9802
2.4093 -3.8948 -1.9959 0.9802
2.7471 -3.6661 -1.9965 0.9802
3.0633 -3.4082 -1.9971 0.9802
3.3553 -3.1231 -1.9977 0.9802
3.6209 -2.8130 -1.9983 0.9802
4.2384 -1.7583 -1.9998 0.9802
4.3789 -1.3746 -2.0002 0.9802
4.5549 -0.5770 -2.0010 0.9802
4.5473 0.6465 -2.0017 0.9802
4.3613 1.4423 -2.0020 0.9802
4.2158 1.8247 -2.0020 0.9802
3.8255 2.5428 -2.0019 0.9802
3.5839 2.8729 -2.0018 0.9802
3.3138 3.1800 -2.0016 0.9802
2.6971 3.7160 -2.0011 0.9802
2.3555 3.9406 -2.0008 0.9802
1.2274 4.4086 -1.9944 0.9802
0.8292 4.4941 -1.9917 0.9803
0.4197 4.4820 -1.9619 0.9805
0.0192 4.4776 -1.9514 0.9807
-0.3807 4.4791 -1.9591 0.9806
-0.7897 4.4959 -1.9894 0.9803
-1.5768 4.2926 -1.9930 0.9802
-1.9544 4.1394 -1.9950 0.9802
-2.3142 3.9479 -1.9944 0.9802
-2.9754 3.4732 -1.9932 0.9802
-3.5418 2.8893 -1.9920 0.9803
-3.7837 2.5620 -1.9915 0.9803
-1.4571 0.0886 -0.6362 0.9937
-1.4775 -0.3095 -0.6579 0.9934
-1.4939 -0.4549 -0.6806 0.9932
-4.2286 -1.7119 -1.9882 0.9803
-3.8584 -2.4343 -1.9882 0.9803
-3.3664 -3.0799 -1.9885 0.9803
-2.0818 -4.0631 -1.9897 0.9803
-1.3293 -4.3695 -1.9905 0.9803
-0.9355 -4.4716 -1.9910 0.9803
-0.5342 -4.5382 -1.9915 0.9803
0.2787 -4.5636 -1.9926 0.9802
1.0837 -4.4446 -1.9938 0.9802
1.8553 -4.1848 -1.9950 0.9802
2.2209 -4.0044 -1.9956 0.9802
2.5691 -3.7921 -1.9962 0.9802
3.4824 -2.9817 -1.9980 0.9802
3.7349 -2.6608 -1.9985 0.9802
4.1494 -1.9577 -1.9995 0.9802
4.5753 -0.3877 -2.0011 0.9802
4.2978 1.6220 -2.0020 0.9802
3.7167 2.6992 -2.0019 0.9802
3.4616 3.0189 -2.0017 0.9802
2.8711 3.5837 -2.0013 0.9802
2.1899 4.0345 -2.0006 0.9802
1.0427 4.4524 -1.9929 0.9802
0.6381 4.4963 -1.9792 0.9804
-0.1666 4.4774 -1.9527 0.9806
-0.9757 4.4605 -1.9899 0.9803
-0.5684 4.2681 -1.9931 0.9812
-1.3176 4.1055 -1.9958 0.9812
-1.6771 3.9708 -1.9953 0.9812
-2.3529 3.6087 -1.9941 0.9812
-2.9535 3.1328 -1.9930 0.9812
-3.6731 2.2399 -1.9914 0.9812
-3.8569 1.9038 -1.9910 0.9812
-1.2704 0.3658 -0.6119 0.9942
-1.2702 0.2460 -0.5989 0.9943
-1.2720 -0.0968 -0.5905 0.9944
-1.2705 -0.3300 -0.6076 0.9942
-3.7254 -2.1397 -1.9886 0.9812
-3.5204 -2.4627 -1.9887 0.9812
-3.2875 -2.7663 -1.9888 0.9812
-3.0287 -3.0481 -1.9890 0.9812
-2.7458 -3.3058 -1.9892 0.9812
-1.7762 -3.9154 -1.9902 0.9812
-1.4212 -4.0587 -1.9906 0.9812
-1.0547 -4.1700 -1.9910 0.9812
-0.6797 -4.2483 -1.9915 0.9812
-0.2991 -4.2930 -1.9920 0.9812
1.5817 -4.0086 -1.9947 0.9812
1.9326 -3.8531 -1.9953 0.9812
2.2684 -3.6669 -1.9959 0.9812
2.8840 -3.2087 -1.9970 0.9812
3.1589 -2.9402 -1.9976 0.9812
3.6318 -2.3351 -1.9986 0.9811
3.9900 -1.6553 -1.9995 0.9811
4.1222 -1.2940 -1.9999 0.9811
4.2218 -0.9223 -2.0003 0.9811
4.3198 -0.1596 -2.0009 0.9811
4.3173 0.2254 -2.0012 0.9811
4.1054 1.3577 -2.0016 0.9811
3.3737 2.7043 -2.0014 0.9811
2.5390 3.4981 -2.0008 0.9811
2.2174 3.7095 -2.0005 0.9811
1.8782 3.8914 -2.0001 0.9811
0.7822 4.2398 -1.9957 0.9812
0.4016 4.2887 -1.9939 0.9812
0.0185 4.3055 -1.9930 0.9812
-0.3646 4.2896 -1.9927 0.9812
-1.1202 4.1614 -1.9948 0.9812
-2.5002 3.5075 -1.9938 0.9812
-3.3349 2.7205 -1.9922 0.9812
-3.5628 2.4125 -1.9917 0.9812
-3.7624 2.0854 -1.9912 0.9812
-1.2656 0.4306 -0.6188 0.9941
-1.2699 0.0772 -0.5889 0.9944
-1.2695 -0.3866 -0.6143 0.9942
-3.8229 -1.9600 -1.9886 0.9812
-3.4153 -2.6067 -1.9887 0.9812
-2.8998 -3.1712 -1.9891 0.9812
-1.9603 -3.8261 -1.9900 0.9812
-0.8809 -4.2106 -1.9912 0.9812
-0.5030 -4.2733 -1.9917 0.9812
0.2624 -4.2970 -1.9927 0.9812
0.6438 -4.2578 -1.9933 0.9812
1.0203 -4.1848 -1.9938 0.9812
2.0910 -3.7701 -1.9956 0.9812
3.0149 -3.0868 -1.9973 0.9812
3.2785 -2.8071 -1.9978 0.9812
3.5161 -2.5049 -1.9983 0.9812
3.7259 -2.1827 -1.9988 0.9811
3.9062 -1.8430 -1.9993 0.9811
4.0556 -1.4885 -1.9997 0.9811
4.1727 -1.1221 -2.0001 0.9811
4.3069 -0.3649 -2.0008 0.9811
4.3229 0.0197 -2.0010 0.9811
4.2518 0.7856 -2.0014 0.9811
4.1653 1.1608 -2.0015 0.9811
3.7110 2.2196 -2.0016 0.9811
3.2585 2.8418 -2.0013 0.9811
2.7028 3.3736 -2.0009 0.9811
2.3916 3.6001 -2.0006 0.9811
1.7151 3.9656 -1.9999 0.9811
0.2233 4.3005 -1.9933 0.9812
-1.9999 3.8172 -1.9947 0.9812
-2.3308 3.6231 -1.9941 0.9812
-0.5374 4.0353 -1.9969 0.9820
-0.8940 3.9704 -1.9963 0.9820
-1.2433 3.8741 -1.9958 0.9820
-2.5139 3.1935 -1.9936 0.9821
-3.2655 2.4145 -1.9921 0.9821
-3.4665 2.1139 -1.9916 0.9821
-1.0864 0.5363 -0.5943 0.9946
-1.1166 0.4324 -0.5874 0.9947
-1.1390 0.2206 -0.5691 0.9948
-1.1361 0.0149 -0.5573 0.9950
-1.1435 -0.0870 -0.5626 0.9949
-1.1422 -0.1902 -0.5680 0.9949
-1.1329 -0.2943 -0.5742 0.9948
-1.1229 -0.4013 -0.5849 0.9947
-1.0954 -0.5054 -0.5917 0.9946
-3.3226 -2.3244 -1.9890 0.9821
-3.1028 -2.6109 -1.9892 0.9821
-2.8585 -2.8768 -1.9893 0.9821
-2.5915 -3.1201 -1.9895 0.9821
-1.9981 -3.5309 -1.9901 0.9821
0.0793 -4.0615 -1.9926 0.9821
0.7982 -3.9852 -1.9937 0.9821
2.1405 -3.4602 -1.9958 0.9820
3.2165 -2.4988 -1.9979 0.9820
3.4268 -2.2033 -1.9984 0.9820
3.6101 -1.8901 -1.9988 0.9820
3.7647 -1.5618 -1.9993 0.9820
4.0456 -0.5125 -2.0003 0.9820
4.0734 0.2126 -2.0008 0.9820
4.0387 0.5742 -2.0010 0.9820
3.9718 0.9313 -2.0011 0.9820
3.7442 1.6205 -2.0012 0.9820
2.9432 2.8243 -2.0009 0.9820
2.6800 3.0746 -2.0007 0.9820
1.7722 3.6716 -1.9998 0.9820
1.4382 3.8140 -1.9994 0.9820
1.0930 3.9260 -1.9990 0.9820
0.3797 4.0546 -1.9976 0.9820
-1.0577 3.9294 -1.9961 0.9820
-1.4027 3.8187 -1.9955 0.9820
-2.3594 3.3100 -1.9939 0.9821
-2.6438 3.0862 -1.9934 0.9821
-2.9071 2.8380 -1.9929 0.9821
-3.1473 2.5675 -1.9924 0.9821
-3.3624 2.2768 -1.9919 0.9821
-1.1149 0.6180 -0.6253 0.9943
-1.1013 0.4879 -0.5909 0.9946
-1.1329 0.2759 -0.5720 0.9948
-1.1386 -0.0323 -0.5588 0.9949
-1.1443 -0.1350 -0.5652 0.9949
-1.1364 -0.2381 -0.5695 0.9948
-1.1123 -0.4503 -0.5886 0.9947
-1.0914 -0.5596 -0.6016 0.9946
-3.2235 -2.4602 -1.9891 0.9821
-2.1637 -3.4316 -1.9899 0.9821
-1.8501 -3.6110 -1.9903 0.9821
-1.5218 -3.7620 -1.9906 0.9821
-0.8314 -3.9738 -1.9914 0.9821
-0.4747 -4.0329 -1.9919 0.9821
0.6076 -4.0181 -1.9934 0.9821
0.9629 -3.9492 -1.9939 0.9821
1.3107 -3.8489 -1.9945 0.9820
1.6484 -3.7181 -1.9950 0.9820
1.9732 -3.5576 -1.9955 0.9820
2.2825 -3.3689 -1.9961 0.9820
2.8449 -2.9127 -1.9972 0.9820
3.0935 -2.6487 -1.9977 0.9820
3.3177 -2.3635 -1.9981 0.9820
4.0163 -0.7044 -2.0002 0.9820
4.0636 -0.3443 -2.0004 0.9820
4.0612 0.3814 -2.0009 0.9820
3.9299 1.0952 -2.0012 0.9820
3.6737 1.7744 -2.0012 0.9820
3.5013 2.0941 -2.0012 0.9820
2.8234 2.9438 -2.0008 0.9820
1.9450 3.5834 -2.0000 0.9820
1.6183 3.7416 -1.9997 0.9820
1.2787 3.8700 -1.9993 0.9820
0.9292 3.9676 -1.9988 0.9820
-0.1513 4.0676 -1.9966 0.9820
-1.2196 3.8817 -1.9958 0.9820
-1.5597 3.7568 -1.9953 0.9820
-1.8872 3.6021 -1.9947 0.9820
-0.5081 3.8153 -1.9968 0.9828
-0.8453 3.7540 -1.9963 0.9828
-1.4964 3.5430 -1.9952 0.9828
-2.3771 3.0197 -1.9937 0.9828
-3.0879 2.2832 -1.9923 0.9828
-1.0030 0.3884 -0.5580 0.9952
-1.0314 0.0135 -0.5351 0.9954
-1.0373 -0.0789 -0.5397 0.9953
-1.0200 -0.2649 -0.5467 0.9953
-2.4508 -2.9506 -1.9898 0.9829
-2.1788 -3.1573 -1.9901 0.9829
-1.8896 -3.3391 -1.9904 0.9829
-1.5853 -3.4945 -1.9907 0.9829
-1.2683 -3.6223 -1.9910 0.9829
-0.6066 -3.7913 -1.9919 0.9828
-0.2669 -3.8311 -1.9923 0.9828
0.4164 -3.8195 -1.9932 0.9828
1.4113 -3.5767 -1.9948 0.9828
1.7244 -3.4379 -1.9953 0.9828
2.0239 -3.2717 -1.9958 0.9828
2.3075 -3.0795 -1.9963 0.9828
2.8181 -2.6231 -1.9973 0.9828
3.0410 -2.3625 -1.9978 0.9828
3.7659 -0.8227 -1.9997 0.9828
3.8531 -0.1423 -2.0003 0.9828
3.8509 0.2010 -2.0005 0.9828
3.3893 1.8408 -2.0009 0.9828
3.2120 2.1350 -2.0008 0.9828
3.0092 2.4121 -2.0007 0.9828
2.2647 3.1202 -2.0001 0.9828
1.3597 3.6058 -1.9992 0.9828
1.0334 3.7118 -1.9988 0.9828
0.6989 3.7882 -1.9984 0.9828
-0.6658 3.7905 -1.9965 0.9828
-1.3263 3.6107 -1.9955 0.9828
-1.6418 3.4775 -1.9950 0.9828
-1.9442 3.3167 -1.9945 0.9828
-2.2310 3.1298 -1.9940 0.9828
-2.4999 2.9182 -1.9935 0.9828
-2.9761 2.4278 -1.9925 0.9828
-0.9498 0.5264 -0.5633 0.9951
-1.0121 0.3444 -0.5546 0.9952
-1.0214 0.2488 -0.5454 0.9953
-1.0365 0.0630 -0.5387 0.9953
-1.0335 -0.0293 -0.5364 0.9954
-0.9988 -0.4044 -0.5590 0.9952
-0.9655 -0.4950 -0.5629 0.9951
-0.9713 -0.6128 -0.5958 0.9948
-3.0484 -2.3266 -1.9894 0.9829
-2.8295 -2.5887 -1.9896 0.9829
-2.5882 -2.8305 -1.9897 0.9829
-2.3264 -3.0498 -1.9900 0.9829
-2.0461 -3.2451 -1.9902 0.9829
-1.7496 -3.4148 -1.9905 0.9829
-0.1079 -3.8393 -1.9925 0.9828
0.2342 -3.8345 -1.9930 0.9828
0.5745 -3.7994 -1.9935 0.9828
0.9105 -3.7342 -1.9940 0.9828
1.8657 -3.3638 -1.9955 0.9828
2.4335 -2.9815 -1.9965 0.9828
2.9248 -2.5042 -1.9975 0.9828
3.4846 -1.6441 -1.9988 0.9828
3.6177 -1.3278 -1.9992 0.9828
3.7221 -1.0009 -1.9996 0.9828
3.7970 -0.6659 -1.9999 0.9828
3.8417 -0.3255 -2.0002 0.9828
3.8559 0.0175 -2.0004 0.9828
3.7152 1.0354 -2.0008 0.9828
2.9065 2.5348 -2.0007 0.9828
2.6692 2.7830 -2.0005 0.9828
1.8389 3.3878 -1.9997 0.9828
1.5299 3.5374 -1.9994 0.9828
0.8785 3.7511 -1.9986 0.9828
0.1997 3.8457 -1.9978 0.9828
-1.1532 3.6702 -1.9958 0.9828
-1.4747 3.5521 -1.9953 0.9828
-2.0798 3.2329 -1.9942 0.9828
-0.1579 3.6430 -1.9971 0.9835
-0.4812 3.6136 -1.9967 0.9835
-0.8006 3.5557 -1.9962 0.9835
-1.1135 3.4695 -1.9957 0.9835
-1.4174 3.3559 -1.9952 0.9835
-1.7099 3.2157 -1.9947 0.9835
-2.2516 2.8604 -1.9938 0.9835
-0.9097 0.3523 -0.5343 0.9956
-0.9236 0.2660 -0.5264 0.9956
-0.9397 0.1820 -0.5242 0.9956
-0.9425 0.0124 -0.5163 0.9957
-0.9472 -0.0721 -0.5203 0.9957
-0.9269 -0.2407 -0.5245 0.9956
-0.9143 -0.3267 -0.5317 0.9956
-2.5609 -2.5773 -1.9899 0.9836
-2.3217 -2.7951 -1.9901 0.9836
-1.7900 -3.1631 -1.9906 0.9836
-1.5017 -3.3103 -1.9909 0.9836
-0.5746 -3.5914 -1.9920 0.9835
0.0710 -3.6379 -1.9929 0.9835
0.3944 -3.6180 -1.9933 0.9835
0.7149 -3.5694 -1.9938 0.9835
1.6333 -3.2563 -1.9953 0.9835
2.8802 -2.2376 -1.9976 0.9835
3.0685 -1.9729 -1.9981 0.9835
1.8759 -0.5889 -1.0769 0.9911
1.8863 -0.4121 -1.0575 0.9912
1.8816 -0.0695 -1.0312 0.9914
2.8498 2.2844 -2.0004 0.9835
2.1448 2.9551 -1.9999 0.9835
1.8732 3.1337 -1.9996 0.9835
0.9787 3.5154 -1.9986 0.9835
0.3401 3.6317 -1.9978 0.9835
-1.8415 3.1416 -1.9945 0.9835
-2.1132 2.9646 -1.9940 0.9835
-2.3680 2.7642 -1.9936 0.9835
-2.8191 2.2998 -1.9926 0.9835
-0.8761 0.4856 -0.5486 0.9954
-0.9004 0.3989 -0.5394 0.9955
-0.9171 0.3121 -0.5306 0.9956
-0.9305 0.2266 -0.5246 0.9956
-0.9448 0.1426 -0.5233 0.9957
-0.9469 -0.1117 -0.5222 0.9957
-0.9372 -0.1963 -0.5244 0.9956
-0.9070 -0.3672 -0.5359 0.9955
-0.8860 -0.4542 -0.5453 0.9955
-0.8658 -0.5462 -0.5607 0.9953
-2.8878 -2.2041 -1.9897 0.9836
-2.6805 -2.4524 -1.9898 0.9836
-2.2039 -2.8892 -1.9902 0.9836
-0.7447 -3.5596 -1.9918 0.9836
-0.4252 -3.6125 -1.9922 0.9835
-0.1022 -3.6368 -1.9926 0.9835
2.5476 -2.6083 -1.9969 0.9835
2.7702 -2.3718 -1.9974 0.9835
3.1480 -1.8442 -1.9982 0.9835
3.3002 -1.5571 -1.9986 0.9835
1.8855 -0.3307 -1.0484 0.9913
1.8732 0.0085 -1.0260 0.9915
1.8888 0.1774 -1.0391 0.9914
1.8840 0.3481 -1.0494 0.9913
1.8831 0.5248 -1.0707 0.9911
3.4174 1.2897 -2.0006 0.9835
3.2891 1.5886 -2.0006 0.9835
3.1347 1.8749 -2.0006 0.9835
2.5279 2.6357 -2.0002 0.9835
2.0203 3.0413 -1.9998 0.9835
1.7415 3.2085 -1.9995 0.9835
0.5126 3.6119 -1.9980 0.9835
-0.4591 3.6166 -1.9967 0.9835
-0.7788 3.5605 -1.9962 0.9835
-1.0922 3.4763 -1.9958 0.9835
-1.3968 3.3645 -1.9953 0.9835
-0.1498 3.4557 -1.9970 0.9842
-0.7595 3.3730 -1.9961 0.9842
-1.3446 3.1835 -1.9952 0.9842
