ply
format ascii 1.0
element vertex 1549
property float32 x
property float32 y
property float32 z
property float32 I
end_header
4.8392 -18.6720 3.4012 0.9246
6.4449 -18.0417 3.3781 0.9251
9.8086 15.6145 3.2514 0.9278
8.7825 17.2310 3.4102 0.9245
5.8825 14.6484 2.7834 0.9379
1.5659 5.2026 0.9580 0.9782
0.3187 13.3605 2.3565 0.9472
-4.6569 13.4130 2.5036 0.9440
-6.0837 13.4896 2.6093 0.9417
-9.3376 13.5703 2.9045 0.9353
-12.5891 12.6827 3.1510 0.9300
-11.8940 10.0099 2.7411 0.9388
-8.4261 -10.8725 2.4254 0.9457
-10.6040 -16.5510 3.4660 0.9233
-6.8760 -16.6902 3.1829 0.9293
-2.0730 -16.8690 2.9968 0.9333
-0.5548 -16.9255 2.9860 0.9335
2.5096 -17.0385 3.0368 0.9324
6.2107 -18.4172 3.4271 0.9241
7.4862 -17.0028 3.2758 0.9273
2.1535 9.5988 1.7346 0.9608
0.5570 13.3516 2.3563 0.9472
-0.2661 5.5620 0.9819 0.9776
-1.8574 13.4412 2.3926 0.9464
-5.7433 13.3663 2.5652 0.9426
-7.2522 13.4235 2.6903 0.9399
-8.9761 13.5568 2.8669 0.9361
-11.0030 13.7648 3.1072 0.9309
-12.5726 13.1264 3.2049 0.9288
-11.4828 10.0192 2.6871 0.9400
-12.3609 8.9734 2.6933 0.9398
6.2017 15.4432 2.5494 0.9349
1.5653 5.2004 0.8320 0.9783
0.3186 13.3591 2.0471 0.9474
-2.1037 13.4490 2.0854 0.9464
-4.7012 13.5407 2.1958 0.9436
-7.5396 13.3790 2.3526 0.9397
-8.1110 9.7837 1.9469 0.9499
-12.4998 12.5926 2.7181 0.9307
-12.0593 10.1491 2.4146 0.9382
-12.9273 9.0369 2.4163 0.9382
-10.6054 -16.5532 3.0117 0.9235
-8.6618 -16.6258 2.8719 0.9269
-2.1200 -9.8605 1.5451 0.9600
-0.5549 -16.9272 2.5945 0.9338
0.9646 -16.9834 2.6060 0.9335
2.5099 -17.0402 2.6386 0.9327
7.5948 -17.2494 2.8873 0.9266
0.5569 13.3503 2.0470 0.9474
-4.4289 13.5309 2.1811 0.9440
-7.2427 13.4059 2.3343 0.9402
-8.8741 13.4028 2.4625 0.9370
-7.9813 9.9847 1.9582 0.9496
-12.4274 12.9748 2.7523 0.9299
-12.9147 9.3755 2.4448 0.9375
-14.8451 8.8670 2.6490 0.9324
1.5648 5.1990 0.7070 0.9783
1.5156 13.3135 1.7449 0.9474
0.3186 13.3578 1.7400 0.9475
-0.3620 5.5051 0.7184 0.9780
-6.1330 13.5990 1.9426 0.9416
-11.3022 13.6331 2.3061 0.9311
-12.7851 12.8801 2.3633 0.9294
-12.0581 10.1480 2.0523 0.9384
-12.9280 9.0374 2.0541 0.9384
-10.9006 -11.7290 2.0851 0.9375
-6.8775 -16.6939 2.3512 0.9298
-5.2069 -16.7561 2.2849 0.9317
-0.5545 -16.9150 2.2039 0.9340
-1.8570 13.4385 1.7666 0.9467
-5.8387 13.5884 1.9259 0.9421
-10.9305 13.6741 2.2796 0.9318
-12.7683 13.3307 2.4038 0.9282
-12.9154 9.3760 2.0783 0.9377
-2.1239 13.5782 1.4758 0.9462
-6.1343 13.6018 1.6023 0.9417
-12.8623 10.8248 1.8052 0.9346
-12.9287 9.0378 1.6939 0.9385
-10.5080 6.0247 1.3007 0.9524
-8.7275 -16.7519 2.0283 0.9268
-5.2074 -16.7577 1.8844 0.9318
-2.1246 -9.8817 1.0854 0.9602
-2.0736 -16.8741 1.8256 0.9339
2.5104 -17.0437 1.8499 0.9330
1.7727 13.4338 1.4551 0.9469
-0.2640 5.5184 0.5933 0.9780
-3.1292 13.5583 1.4942 0.9456
-5.8398 13.5909 1.5884 0.9422
-9.0786 13.7116 1.7659 0.9360
-11.0159 13.7810 1.8945 0.9315
-12.7691 13.3315 1.9823 0.9284
-12.8479 11.2104 1.8310 0.9337
-12.9161 9.3765 1.7139 0.9378
-15.0229 8.9731 1.8790 0.9320
1.5472 13.5910 1.1579 0.9466
0.3217 13.4862 1.1420 0.9473
-7.6566 13.5866 1.3202 0.9393
-9.5804 13.9232 1.4307 0.9344
-12.9129 13.0089 1.5517 0.9291
-12.9901 10.9324 1.4372 0.9341
-13.0571 9.1276 1.3486 0.9380
-10.4762 6.0064 1.0223 0.9527
-8.7720 -16.8373 1.6072 0.9266
-5.2079 -16.7594 1.4856 0.9320
-2.1269 -9.8922 0.8565 0.9602
-0.5619 -17.1419 1.4519 0.9335
0.9768 -17.1988 1.4583 0.9332
2.5106 -17.0454 1.4585 0.9332
0.5685 13.6273 1.1546 0.9467
-0.2642 5.5218 0.4680 0.9781
-3.1699 13.7349 1.1933 0.9450
-4.5015 13.7525 1.2250 0.9436
-5.9321 13.8057 1.2720 0.9415
-7.4498 13.7891 1.3268 0.9390
-11.0731 13.8525 1.5013 0.9313
-12.9756 11.3218 1.4578 0.9332
1.5471 13.5897 0.8481 0.9467
0.3216 13.4850 0.8364 0.9474
-2.1235 13.5756 0.8521 0.9464
-3.4186 13.6927 0.8752 0.9450
-4.7714 13.7429 0.9021 0.9434
-7.6558 13.5850 0.9670 0.9394
-9.6146 13.9729 1.0518 0.9343
-11.6436 14.0448 1.1313 0.9295
-13.0530 13.1500 1.1490 0.9284
-12.9908 10.9330 1.0529 0.9342
-10.4155 5.9716 0.7445 0.9530
-10.7417 -16.7659 1.2347 0.9233
-8.7729 -16.8391 1.1774 0.9267
-2.0145 -16.3932 1.0242 0.9360
1.6600 5.1784 0.3372 0.9784
0.5684 13.6260 0.8457 0.9468
-4.4949 13.7326 0.8960 0.9437
-5.9235 13.7857 0.9304 0.9416
-7.4504 13.7903 0.9720 0.9391
-12.8968 13.4649 1.1562 0.9280
1.5632 5.1935 0.2139 0.9785
0.3216 13.4837 0.5318 0.9474
-3.4309 13.7418 0.5585 0.9449
-9.6134 13.9712 0.6687 0.9344
-11.7401 14.1613 0.7253 0.9290
-13.0512 13.1482 0.7305 0.9285
-12.9915 10.9336 0.6695 0.9343
-8.6665 -16.6348 0.7396 0.9277
-2.1264 -9.8899 0.3989 0.9603
-0.5552 -16.9354 0.6681 0.9344
0.9650 -16.9916 0.6711 0.9341
2.5111 -17.0488 0.6795 0.9333
0.5684 13.6247 0.5377 0.9469
-0.7621 5.5153 0.2195 0.9780
-3.1693 13.7321 0.5557 0.9451
-4.5111 13.7819 0.5718 0.9436
-5.9447 13.8351 0.5938 0.9415
-7.4511 13.7915 0.6181 0.9392
-11.7215 14.6637 0.7402 0.9276
-12.9771 11.3231 0.6791 0.9334
0.3216 13.4824 0.2278 0.9475
-3.4306 13.7405 0.2392 0.9449
-6.2290 13.8118 0.2559 0.9412
-7.6540 13.5820 0.2633 0.9395
-9.6123 13.9696 0.2864 0.9344
-13.0494 13.1464 0.3129 0.9286
-12.9922 10.9342 0.2868 0.9343
-10.3019 5.9065 0.2006 0.9536
-8.6674 -16.6365 0.3169 0.9277
-6.8399 -16.6026 0.3033 0.9307
-2.1294 -9.9039 0.1711 0.9603
-0.5552 -16.9370 0.2863 0.9345
0.9651 -16.9933 0.2875 0.9342
2.5114 -17.0505 0.2911 0.9334
1.6587 5.1744 0.0918 0.9785
1.7720 13.4287 0.2288 0.9473
-3.1690 13.7307 0.2380 0.9452
-4.5106 13.7805 0.2449 0.9436
-7.4517 13.7927 0.2648 0.9392
-12.8984 13.4665 0.3150 0.9281
-12.9778 11.3237 0.2909 0.9334
-10.3597 6.1878 0.2038 0.9529
7.1723 14.0717 -0.0889 0.9388
0.3215 13.4811 -0.0759 0.9475
-0.3597 5.4710 -0.0309 0.9783
-4.7764 13.7572 -0.0820 0.9434
-9.6111 13.9679 -0.0955 0.9344
-11.7417 14.1631 -0.1036 0.9291
-12.9160 13.0120 -0.1032 0.9293
-10.2672 5.8866 -0.0666 0.9538
-8.6683 -16.6383 -0.1056 0.9277
-6.8408 -16.6047 -0.1011 0.9307
-2.0746 -16.8824 -0.0958 0.9342
0.9652 -16.9949 -0.0958 0.9342
0.5683 13.6220 -0.0768 0.9469
-0.2658 5.5552 -0.0313 0.9780
-0.7565 5.4748 -0.0311 0.9781
-7.4523 13.7939 -0.0883 0.9392
-12.8992 13.4674 -0.1050 0.9281
7.1279 13.9846 -0.4420 0.9391
1.5620 5.1895 -0.1526 0.9785
0.3215 13.4798 -0.3797 0.9475
-6.2302 13.8145 -0.4267 0.9412
-12.7037 12.7981 -0.5078 0.9304
-12.8450 8.9793 -0.4413 0.9392
-17.4200 4.4865 -0.5065 0.9305
-10.7346 -16.7548 -0.5603 0.9235
-8.6692 -16.6400 -0.5283 0.9277
-6.6297 -16.0923 -0.4901 0.9327
-0.5616 -17.1312 -0.4826 0.9337
-0.2662 5.5641 -0.1569 0.9780
-3.1614 13.6979 -0.3958 0.9453
-5.9290 13.7984 -0.4229 0.9417
-9.2381 13.9525 -0.4712 0.9352
-11.7238 14.6666 -0.5287 0.9276
-12.7651 11.1381 -0.4770 0.9345
-10.2407 6.1167 -0.3359 0.9534
7.0919 13.9141 -0.7920 0.9394
1.5615 5.1881 -0.2748 0.9785
-0.8596 5.4954 -0.2821 0.9780
-3.4220 13.7061 -0.7164 0.9450
-4.7866 13.7865 -0.7401 0.9432
-6.2308 13.8158 -0.7686 0.9411
-7.6515 13.5774 -0.7904 0.9395
-9.6088 13.9646 -0.8597 0.9344
-11.7432 14.1650 -0.9331 0.9290
-12.7800 10.7556 -0.8471 0.9353
-9.4171 -8.4697 -0.6423 0.9505
-7.8548 -8.4518 -0.5851 0.9548
-12.0134 -15.5014 -0.9946 0.9245
-6.3136 -15.3250 -0.8406 0.9358
-5.2110 -16.7694 -0.8906 0.9321
-2.1392 -9.9494 -0.5161 0.9601
-2.0750 -16.8856 -0.8628 0.9341
0.9654 -16.9982 -0.8634 0.9341
2.5121 -17.0555 -0.8743 0.9333
17.8418 3.3672 -0.9208 0.9299
16.6658 4.7209 -0.8784 0.9330
1.7424 13.2048 -0.6755 0.9481
-0.7522 5.4430 -0.2787 0.9782
-3.1611 13.6965 -0.7129 0.9453
-5.9422 13.8292 -0.7633 0.9415
-7.4536 13.7963 -0.7952 0.9391
-11.7246 14.6676 -0.9523 0.9276
-12.6879 13.2467 -0.9302 0.9292
-10.1885 6.0856 -0.6019 0.9536
-12.2450 5.8988 -0.6893 0.9470
16.5063 3.4213 -1.2360 0.9346
16.5547 5.0102 -1.2682 0.9330
1.5041 13.2124 -0.9750 0.9481
0.3162 13.2564 -0.9723 0.9482
-0.3584 5.4514 -0.4006 0.9783
-0.8567 5.4773 -0.4065 0.9780
-11.5592 13.9430 -1.3280 0.9299
-12.7807 10.7562 -1.2248 0.9352
-10.1668 5.8290 -0.8593 0.9541
-15.7954 -7.9040 -1.2951 0.9316
-10.8984 -8.1649 -0.9985 0.9468
-9.1238 -8.2059 -0.8997 0.9520
-6.4199 -8.2838 -0.7684 0.9588
-5.4982 -8.5818 -0.7473 0.9599
-3.5544 -8.6277 -0.6842 0.9633
-5.2115 -16.7711 -1.2877 0.9320
-2.1516 -10.0075 -0.7505 0.9598
-0.5617 -17.1345 -1.2570 0.9336
1.7423 13.2035 -0.9765 0.9480
0.5526 13.2476 -0.9722 0.9482
-0.2665 5.5689 -0.4088 0.9779
-3.1677 13.7253 -1.0328 0.9451
-9.0662 13.6929 -1.2041 0.9363
-6.9479 6.0624 -0.6761 0.9637
-12.8339 9.3168 -1.1628 0.9384
-10.1201 6.0447 -0.8643 0.9538
-12.2158 5.8847 -0.9942 0.9471
-18.5635 3.3859 -1.3836 0.9271
7.8104 -16.9140 -1.7886 0.9279
16.4841 3.4167 -1.6162 0.9346
16.5634 5.0128 -1.6614 0.9328
16.5902 6.6916 -1.7174 0.9306
1.5607 5.1854 -0.5199 0.9785
1.5040 13.2111 -1.2765 0.9480
-0.8544 5.4622 -0.5308 0.9780
-3.3658 13.4812 -1.3340 0.9457
-3.7035 10.6669 -1.0840 0.9556
-6.1258 13.5830 -1.4305 0.9419
-9.1356 11.0196 -1.3742 0.9441
-12.1026 12.1925 -1.6493 0.9333
-11.9302 10.0404 -1.4970 0.9393
-17.4094 8.0071 -1.8397 0.9259
-17.9775 6.3912 -1.8317 0.9262
-14.7294 3.7935 -1.4602 0.9407
-13.0572 -8.0680 -1.4736 0.9402
-10.8559 -8.1330 -1.3023 0.9470
-9.1511 -8.2305 -1.1816 0.9517
-7.7016 -8.2869 -1.0861 0.9556
-6.4016 -8.2602 -1.0033 0.9589
-5.3806 -8.3982 -0.9576 0.9607
-2.6866 -8.6458 -0.8692 0.9643
-2.1535 -10.0160 -0.9836 0.9597
16.5280 4.6818 -1.6492 0.9333
16.6197 6.3611 -1.7085 0.9310
1.6562 5.1666 -0.5209 0.9784
0.5526 13.2463 -1.2728 0.9481
-3.1092 13.4717 -1.3273 0.9460
-7.3283 11.0681 -1.2744 0.9481
-10.2637 12.8400 -1.5781 0.9361
-10.0458 6.0003 -1.1234 0.9541
-14.7024 4.0677 -1.4645 0.9405
3.7802 -14.5860 -1.7899 0.9411
7.5728 -13.1619 -1.8038 0.9407
11.7943 -11.6718 -1.9710 0.9353
15.3470 -6.8933 -1.9985 0.9345
15.9578 -5.5133 -2.0055 0.9343
16.4440 -4.0791 -2.0125 0.9340
16.8003 -2.6018 -2.0194 0.9338
17.0525 1.9675 -2.0390 0.9332
16.8576 3.4941 -2.0450 0.9330
16.0499 6.4736 -2.0557 0.9327
15.4421 7.9003 -2.0604 0.9325
11.7691 12.8923 -2.0736 0.9321
9.7714 12.8434 -1.9170 0.9371
6.8363 13.4126 -1.7882 0.9412
1.5603 5.1840 -0.6431 0.9784
2.0103 9.7735 -1.1853 0.9606
1.5038 13.2098 -1.5793 0.9479
0.3161 13.2538 -1.5748 0.9480
-0.3590 5.4601 -0.6500 0.9782
-4.3823 12.6222 -1.5871 0.9476
-4.9356 10.9439 -1.4261 0.9528
-8.9638 13.0272 -1.8784 0.9383
-6.1192 6.1647 -1.0318 0.9656
-9.5500 6.6759 -1.3841 0.9541
-14.0751 6.4736 -1.8403 0.9395
-14.5465 5.1714 -1.8339 0.9397
-16.1296 4.1542 -1.9785 0.9351
-16.3810 2.6867 -1.9718 0.9353
-16.3526 -1.7390 -1.9534 0.9359
-16.0865 -3.1848 -1.9479 0.9361
-15.6964 -4.5979 -1.9429 0.9362
-12.7805 -7.8970 -1.7846 0.9413
-10.8883 -8.1573 -1.6161 0.9467
-6.3600 -8.2065 -1.2333 0.9590
-5.3430 -8.3396 -1.1765 0.9609
-2.6270 -8.4538 -1.0516 0.9650
-2.1685 -10.0859 -1.2254 0.9593
0.5337 -9.3966 -1.1180 0.9628
2.1422 -14.5438 -1.7462 0.9425
3.5178 -14.6446 -1.7891 0.9411
4.8239 -14.3047 -1.7932 0.9410
6.0987 -13.8515 -1.7978 0.9409
7.3326 -13.2874 -1.8027 0.9407
9.2192 -13.6576 -1.9574 0.9358
10.4353 -12.8184 -1.9634 0.9356
12.6336 -10.8264 -1.9763 0.9352
13.5972 -9.6869 -1.9831 0.9350
14.4590 -8.4622 -1.9900 0.9347
15.2109 -7.1610 -1.9971 0.9345
16.7399 -2.8992 -2.0181 0.9339
16.9891 -1.3960 -2.0249 0.9336
15.5739 7.6202 -2.0595 0.9325
11.9948 12.6776 -2.0731 0.9321
8.8305 13.5159 -1.9178 0.9370
1.6558 5.1653 -0.6443 0.9784
1.5862 12.0209 -1.4403 0.9523
0.5525 13.2451 -1.5747 0.9480
-0.2714 5.6721 -0.6745 0.9774
-4.6987 10.9352 -1.4138 0.9532
-7.3123 11.0440 -1.5734 0.9480
-6.5762 5.7380 -1.0367 0.9655
-7.6215 5.5329 -1.1187 0.9628
-10.0185 5.9840 -1.3862 0.9541
-16.0638 4.4443 -1.9798 0.9351
-16.3413 2.9806 -1.9731 0.9353
3.1840 -12.2853 -1.7982 0.9500
5.3428 -11.5702 -1.8057 0.9498
6.3705 -11.0723 -1.8100 0.9497
7.9603 -11.3506 -1.9643 0.9455
8.9665 -10.6214 -1.9695 0.9454
9.9071 -9.8042 -1.9749 0.9452
10.7741 -8.9044 -1.9805 0.9451
12.8627 -5.7774 -1.9979 0.9446
13.3669 -4.6182 -2.0038 0.9445
14.0569 -2.1769 -2.0154 0.9442
14.2982 0.3628 -2.0266 0.9439
14.2453 1.6436 -2.0318 0.9437
14.0756 2.9175 -2.0368 0.9436
13.7899 4.1734 -2.0414 0.9435
13.3897 5.4006 -2.0457 0.9433
11.5350 8.8035 -2.0560 0.9431
9.0563 9.9206 -1.9033 0.9472
7.1532 11.3873 -1.9054 0.9471
6.1076 11.9829 -1.9057 0.9471
1.5599 5.1826 -0.7669 0.9784
1.9909 9.6794 -1.4002 0.9609
-0.3603 5.4796 -0.7781 0.9781
-0.8499 5.4338 -0.7793 0.9780
-4.3661 12.5755 -1.8862 0.9476
-5.4604 12.1076 -1.8819 0.9478
-6.5050 11.5430 -1.8774 0.9479
-7.4915 10.8874 -1.8725 0.9480
-9.5861 5.4961 -1.5657 0.9563
-13.7590 2.2567 -1.9755 0.9452
-13.8675 1.0150 -1.9701 0.9454
-13.5378 -2.6802 -1.9554 0.9458
-13.2150 -3.8711 -1.9511 0.9459
-12.7902 -5.0266 -1.9472 0.9460
-12.2674 -6.1386 -1.9436 0.9461
-10.6158 -7.9531 -1.8794 0.9478
-9.3368 -8.3975 -1.7793 0.9505
-7.8240 -8.4186 -1.6284 0.9546
-5.3378 -8.3314 -1.4020 0.9608
-4.4351 -8.5130 -1.3601 0.9620
-3.4814 -8.4504 -1.2950 0.9638
-2.6473 -8.5194 -1.2640 0.9646
-1.5386 -12.5201 -1.7873 0.9503
-0.3063 -9.3451 -1.3248 0.9629
2.9631 -12.3355 -1.7975 0.9500
4.0618 -12.0448 -1.8011 0.9499
5.1332 -11.6585 -1.8049 0.9498
6.1690 -11.1788 -1.8091 0.9497
7.7526 -11.4850 -1.9633 0.9456
9.7252 -9.9739 -1.9738 0.9453
10.6075 -9.0901 -1.9793 0.9451
12.1266 -7.0972 -1.9908 0.9448
12.7500 -6.0025 -1.9967 0.9447
13.2746 -4.8531 -2.0026 0.9445
14.2085 -1.1675 -2.0200 0.9440
14.1188 2.6646 -2.0358 0.9436
12.3899 7.5037 -2.0524 0.9432
11.6870 8.5940 -2.0554 0.9431
10.8858 9.6163 -2.0580 0.9430
9.2303 9.7557 -1.9029 0.9472
8.3276 10.5496 -1.9043 0.9471
7.3548 11.2571 -1.9053 0.9471
6.3204 11.8720 -1.9057 0.9471
1.6553 5.1639 -0.7683 0.9783
1.4938 11.3209 -1.6180 0.9549
-0.2729 5.7026 -0.8089 0.9772
-6.3011 11.6630 -1.8783 0.9479
-7.2998 11.0251 -1.8735 0.9480
-6.4557 5.6329 -1.2139 0.9660
-9.5793 5.7217 -1.5810 0.9559
-10.8313 5.2178 -1.7035 0.9526
-13.7242 2.5032 -1.9766 0.9452
2.7478 -10.6023 -1.8043 0.9566
3.6908 -10.3320 -1.8074 0.9565
4.6082 -9.9795 -1.8108 0.9564
7.7258 -9.1517 -1.9730 0.9526
9.2761 -7.6664 -1.9825 0.9524
9.9489 -6.8235 -1.9874 0.9523
11.4896 -3.9696 -2.0026 0.9519
12.0727 -1.8696 -2.0126 0.9517
12.2206 1.4100 -2.0266 0.9514
12.0709 2.5019 -2.0308 0.9513
11.4754 4.6285 -2.0384 0.9511
11.0337 5.6449 -2.0418 0.9510
10.5001 6.6181 -2.0447 0.9509
7.7536 8.4935 -1.8946 0.9544
5.2281 10.2574 -1.8966 0.9544
2.1129 10.2726 -1.7277 0.9584
-0.8462 5.4098 -0.9020 0.9780
-2.7218 10.9015 -1.8510 0.9555
-3.7429 10.7805 -1.8800 0.9548
-4.6825 10.3827 -1.8763 0.9549
-5.5802 9.9020 -1.8724 0.9550
-6.4288 9.3430 -1.8683 0.9551
-7.2215 8.7108 -1.8640 0.9552
-6.1727 6.2186 -1.4434 0.9651
-6.6069 5.5604 -1.4226 0.9656
-10.8179 4.9755 -1.9616 0.9529
-11.8500 1.9436 -1.9782 0.9525
-11.9481 0.8745 -1.9736 0.9526
-11.9512 -0.1965 -1.9691 0.9527
-11.4011 -3.3397 -1.9571 0.9530
-11.0377 -4.3379 -1.9537 0.9531
-10.0591 -6.2154 -1.9479 0.9532
-9.4519 -7.0812 -1.9456 0.9533
-8.7493 -7.8691 -1.9386 0.9534
-7.5064 -8.0768 -1.8165 0.9563
-6.5879 -8.5006 -1.7717 0.9573
-5.3414 -8.3371 -1.6312 0.9607
-2.0590 -9.5766 -1.6137 0.9611
-1.3289 -10.8139 -1.7949 0.9568
0.5338 -9.3984 -1.5508 0.9626
1.5931 -10.8157 -1.8010 0.9566
6.6827 -9.9000 -1.9677 0.9527
8.3769 -8.5911 -1.9767 0.9525
9.1333 -7.8269 -1.9815 0.9524
10.9648 -5.1620 -1.9965 0.9521
11.4112 -4.1718 -2.0016 0.9519
11.7680 -3.1431 -2.0066 0.9518
12.2685 0.0923 -2.0212 0.9515
12.1087 2.2852 -2.0300 0.9513
10.0094 7.3604 -2.0468 0.9509
7.9028 8.3526 -1.8943 0.9545
7.1291 9.0313 -1.8955 0.9544
5.4102 10.1624 -1.8966 0.9544
2.7327 6.4686 -1.1568 0.9719
1.6549 5.1626 -0.8931 0.9783
2.2173 9.8828 -1.6686 0.9598
-0.5482 11.4565 -1.8895 0.9546
-2.5176 10.9083 -1.8443 0.9556
-3.5513 10.8496 -1.8807 0.9548
-6.2639 9.4604 -1.8692 0.9550
-7.0682 8.8424 -1.8649 0.9551
-6.5244 5.6929 -1.4265 0.9655
-7.6330 5.5412 -1.5539 0.9625
-9.5128 5.6820 -1.8254 0.9561
-10.3211 4.9720 -1.8873 0.9546
-11.3022 4.2467 -1.9890 0.9522
2.4145 -9.3165 -1.8090 0.9616
3.2425 -9.0771 -1.8117 0.9615
8.7239 -5.9833 -1.9884 0.9579
10.0654 -3.4775 -2.0016 0.9576
10.3587 -2.5695 -2.0060 0.9575
10.5697 -1.6369 -2.0104 0.9574
10.7365 0.2724 -2.0187 0.9572
10.3360 3.1281 -2.0298 0.9570
10.0307 4.0458 -2.0330 0.9569
9.6426 4.9332 -2.0359 0.9569
9.1746 5.7827 -2.0384 0.9568
8.6304 6.5868 -2.0406 0.9568
8.0011 7.3263 -2.0391 0.9568
6.0851 7.9982 -1.8890 0.9599
4.5657 8.9578 -1.8898 0.9599
2.5816 6.4287 -1.3021 0.9722
1.5591 5.1799 -1.0168 0.9782
1.1354 9.9741 -1.8868 0.9600
-0.3610 5.4907 -1.0343 0.9779
-0.8421 5.3834 -1.0242 0.9781
-2.4205 9.6950 -1.8782 0.9601
-4.0948 9.0795 -1.8721 0.9603
-4.8811 8.6614 -1.8687 0.9603
-9.9700 3.5445 -1.9889 0.9578
-10.3968 1.7052 -1.9803 0.9580
-8.8421 -5.4635 -1.9536 0.9586
-8.3096 -6.2254 -1.9516 0.9586
-7.7130 -6.9371 -1.9499 0.9587
-6.2784 -8.1013 -1.9265 0.9591
-5.2269 -8.1583 -1.8212 0.9613
-3.5140 -8.5295 -1.7339 0.9631
-2.6676 -8.5847 -1.6897 0.9641
-1.1685 -9.5084 -1.8007 0.9618
-0.3141 -9.5827 -1.8021 0.9617
3.9818 -9.0434 -1.8573 0.9606
5.0537 -9.1577 -1.9660 0.9583
5.8670 -8.6916 -1.9710 0.9582
8.0117 -6.8656 -1.9832 0.9580
8.6119 -6.1353 -1.9875 0.9579
9.1460 -5.3528 -1.9919 0.9578
9.6092 -4.5239 -1.9963 0.9577
10.5343 -1.8244 -2.0095 0.9574
10.6778 -0.8774 -2.0138 0.9573
10.5898 1.9986 -2.0256 0.9571
9.7265 4.7591 -2.0353 0.9569
9.2741 5.6167 -2.0379 0.9568
8.7448 6.4304 -2.0402 0.9568
6.9026 7.2955 -1.8878 0.9599
4.7248 8.8749 -1.8898 0.9599
2.7327 6.4687 -1.3199 0.9718
1.6545 5.1612 -1.0187 0.9782
2.1993 9.8029 -1.8884 0.9599
0.4181 10.0228 -1.8855 0.9600
-0.4790 10.0098 -1.8836 0.9600
-0.7392 5.3491 -1.0150 0.9783
-2.2478 9.7395 -1.8788 0.9601
-4.7275 8.7504 -1.8694 0.9603
-5.4803 8.2770 -1.8659 0.9604
-6.1858 7.7385 -1.8621 0.9605
-6.6206 5.7768 -1.6515 0.9649
-8.4323 5.0366 -1.8461 0.9608
-9.5482 4.5996 -1.9921 0.9578
-9.9096 3.7234 -1.9898 0.9578
-10.3691 1.8913 -1.9811 0.9580
3.1095 -8.7046 -1.9539 0.9629
3.9030 -8.4523 -1.9679 0.9627
5.3630 -7.6471 -1.9743 0.9625
7.2394 -5.9831 -1.9852 0.9623
8.2210 -4.6165 -1.9930 0.9622
8.6178 -3.8708 -1.9970 0.9621
9.2054 -2.2835 -2.0048 0.9620
9.3907 -1.4543 -2.0087 0.9619
9.5345 0.2419 -2.0160 0.9618
9.4910 1.0951 -2.0195 0.9617
8.1385 5.1297 -2.0335 0.9614
7.6548 5.8422 -2.0355 0.9614
7.0932 6.4950 -2.0330 0.9614
5.3960 7.0924 -1.8838 0.9642
2.5814 6.4282 -1.4643 0.9721
1.5586 5.1785 -1.1431 0.9781
1.0070 8.8456 -1.8819 0.9643
0.2121 8.8933 -1.8804 0.9643
-0.8379 5.3570 -1.1461 0.9781
-2.1478 8.6025 -1.8742 0.9644
-2.9041 8.3646 -1.8716 0.9644
-3.6347 8.0594 -1.8688 0.9645
-4.3336 7.6899 -1.8658 0.9646
-6.1851 6.2311 -1.8558 0.9647
-7.1680 5.0108 -1.8487 0.9649
-8.1794 4.6896 -1.9930 0.9622
-8.5680 3.9407 -1.9935 0.9622
-8.8685 3.1528 -1.9896 0.9623
-9.0971 2.3429 -1.9857 0.9623
-9.2525 1.5175 -1.9819 0.9624
-9.3339 0.6831 -1.9783 0.9625
-9.3410 -0.1536 -1.9748 0.9625
-9.2741 -0.9863 -1.9714 0.9626
-8.9228 -2.6138 -1.9654 0.9627
-8.6417 -3.3962 -1.9627 0.9628
-8.2933 -4.1500 -1.9603 0.9628
-6.2915 -6.7696 -1.9535 0.9629
-4.2506 -8.1588 -1.9446 0.9631
-2.5647 -8.2534 -1.8269 0.9653
-1.0417 -8.4765 -1.8052 0.9657
1.2478 -8.4717 -1.8101 0.9656
2.0360 -8.4760 -1.8426 0.9650
3.7484 -8.5134 -1.9663 0.9627
5.9051 -7.2537 -1.9771 0.9625
6.5418 -6.7091 -1.9807 0.9624
7.6610 -5.4579 -1.9883 0.9623
9.5339 0.0717 -2.0153 0.9618
8.9609 3.4297 -2.0282 0.9615
8.2270 4.9826 -2.0331 0.9614
2.7328 6.4688 -1.4844 0.9717
1.6540 5.1598 -1.1454 0.9781
0.3708 8.8896 -1.8807 0.9643
-0.4249 8.8790 -1.8790 0.9643
-0.7379 5.3400 -1.1395 0.9782
-2.7552 8.4175 -1.8722 0.9644
-4.8664 7.3498 -1.8633 0.9646
-6.0752 6.3428 -1.8565 0.9647
-6.6053 5.7634 -1.8530 0.9648
-7.0802 5.1399 -1.8494 0.9649
-8.0876 4.8307 -1.9913 0.9622
-8.8142 3.3119 -1.9903 0.9622
3.5152 -7.6123 -1.9706 0.9661
4.1875 -7.2780 -1.9734 0.9661
4.8286 -6.8850 -1.9764 0.9660
5.4333 -6.4361 -1.9796 0.9660
5.9967 -5.9345 -1.9828 0.9659
6.9816 -4.7884 -1.9897 0.9658
7.3948 -4.1525 -1.9932 0.9658
8.0445 -2.7793 -2.0003 0.9656
8.2753 -2.0527 -2.0038 0.9656
8.5662 0.2173 -2.0139 0.9654
8.5257 0.9837 -2.0170 0.9654
7.6803 3.9293 -2.0276 0.9652
7.3056 4.6047 -2.0296 0.9651
6.8707 5.2438 -2.0313 0.9651
6.3701 5.8329 -2.0299 0.9651
3.6329 7.1277 -1.8802 0.9677
2.5812 6.4277 -1.6279 0.9719
1.5290 5.0798 -1.2468 0.9784
1.6106 7.8306 -1.8789 0.9677
0.9038 7.9388 -1.8779 0.9677
0.1904 7.9822 -1.8765 0.9677
-3.2644 7.2384 -1.8662 0.9679
-3.8927 6.9076 -1.8635 0.9679
-4.4877 6.5220 -1.8606 0.9680
-5.0446 6.0849 -1.8576 0.9680
-6.0269 5.0722 -1.8513 0.9682
-7.3721 4.2267 -1.9972 0.9657
-7.7067 3.5445 -1.9936 0.9657
-7.9785 2.8365 -1.9901 0.9658
-8.4020 0.6150 -1.9799 0.9660
-8.4099 -0.1383 -1.9768 0.9660
-8.2265 -1.6287 -1.9709 0.9661
-8.0372 -2.3543 -1.9683 0.9662
-7.7850 -3.0596 -1.9659 0.9662
-7.4721 -3.7390 -1.9637 0.9663
-7.1010 -4.3877 -1.9618 0.9663
-6.1966 -5.5732 -1.9587 0.9663
-5.6705 -6.1014 -1.9576 0.9664
-5.1003 -6.5811 -1.9568 0.9664
-4.4905 -7.0089 -1.9563 0.9664
-1.7460 -8.1208 -1.9522 0.9664
1.2138 -8.2410 -1.9577 0.9664
1.9508 -8.1214 -1.9630 0.9663
2.6751 -7.9327 -1.9675 0.9662
3.3778 -7.6718 -1.9701 0.9661
4.0558 -7.3494 -1.9728 0.9661
5.8879 -6.0385 -1.9822 0.9659
6.4150 -5.4973 -1.9855 0.9659
7.3169 -4.2823 -1.9925 0.9658
8.4126 -1.4570 -2.0066 0.9655
8.5236 -0.7004 -2.0100 0.9655
8.5660 0.0644 -2.0133 0.9654
8.5393 0.8312 -2.0164 0.9654
8.4433 1.5935 -2.0194 0.9653
8.2785 2.3450 -2.0222 0.9653
8.0460 3.0795 -2.0248 0.9652
7.7475 3.7908 -2.0271 0.9652
7.3852 4.4727 -2.0292 0.9651
6.4807 5.7250 -2.0323 0.9651
3.7595 7.0617 -1.8802 0.9677
2.7328 6.4689 -1.6504 0.9716
1.7503 7.8013 -1.8791 0.9677
1.0454 7.9224 -1.8781 0.9677
0.3328 7.9788 -1.8768 0.9677
-0.3814 7.9701 -1.8753 0.9677
-0.7357 5.3237 -1.2631 0.9782
-2.4741 7.5586 -1.8692 0.9678
-3.7700 6.9780 -1.8640 0.9679
-5.4600 5.7005 -1.8552 0.9681
-6.6582 4.8336 -1.9337 0.9668
-7.6449 3.6828 -1.9943 0.9657
-7.9294 2.9794 -1.9908 0.9658
-8.3043 1.5147 -1.9839 0.9659
3.1944 -6.9177 -1.9728 0.9690
4.9354 -5.8463 -1.9810 0.9689
5.4464 -5.3898 -1.9839 0.9688
5.9155 -4.8890 -1.9870 0.9688
6.3389 -4.3475 -1.9902 0.9687
6.7129 -3.7696 -1.9934 0.9687
7.0343 -3.1596 -1.9966 0.9686
7.3003 -2.5222 -1.9998 0.9686
7.5085 -1.8625 -2.0030 0.9685
7.7440 -0.4974 -2.0092 0.9684
7.7689 0.1971 -2.0122 0.9684
7.6304 1.5816 -2.0176 0.9683
7.4677 2.2601 -2.0201 0.9683
7.2440 2.9218 -2.0224 0.9682
6.9610 3.5613 -2.0245 0.9682
6.2262 4.7519 -2.0279 0.9682
5.7793 5.2919 -2.0289 0.9681
3.8552 6.1372 -1.8765 0.9705
2.5810 6.4272 -1.7933 0.9718
1.5251 5.0670 -1.3701 0.9784
1.4594 7.0951 -1.8755 0.9705
-1.6179 6.4804 -1.7294 0.9728
-2.3641 6.8093 -1.8663 0.9707
-3.5298 6.2636 -1.8616 0.9707
-4.0699 5.9148 -1.8590 0.9708
-4.5756 5.5192 -1.8563 0.9708
-5.0430 5.0804 -1.8534 0.9709
-6.6911 3.8363 -1.9970 0.9686
-6.9959 3.2176 -1.9938 0.9687
-7.4332 1.9144 -1.9874 0.9688
-7.5628 1.2404 -1.9843 0.9688
-7.6319 0.5586 -1.9813 0.9689
-7.4756 -1.4800 -1.9731 0.9690
-7.3045 -2.1397 -1.9707 0.9690
-7.0761 -2.7810 -1.9685 0.9691
-6.7924 -3.3989 -1.9666 0.9691
-6.4556 -3.9889 -1.9648 0.9691
-6.0685 -4.5464 -1.9633 0.9692
-5.6342 -5.0674 -1.9620 0.9692
-3.4970 -6.7123 -1.9596 0.9692
-2.2465 -7.2294 -1.9601 0.9692
-1.5918 -7.4037 -1.9608 0.9692
-0.9241 -7.5199 -1.9617 0.9692
-0.2484 -7.5769 -1.9629 0.9692
0.4302 -7.5744 -1.9643 0.9691
1.7752 -7.3902 -1.9679 0.9691
5.3477 -5.4845 -1.9833 0.9688
6.9746 -3.2835 -1.9960 0.9686
7.7316 -0.6353 -2.0086 0.9685
7.5051 2.1259 -2.0197 0.9683
7.2934 2.7915 -2.0220 0.9682
7.0221 3.4358 -2.0241 0.9682
4.4893 5.6872 -1.8760 0.9705
2.7329 6.4690 -1.8183 0.9714
-0.7331 5.3049 -1.3866 0.9781
-2.2428 6.8520 -1.8667 0.9706
-3.4184 6.3273 -1.8621 0.9707
-4.4777 5.6017 -1.8568 0.9708
-7.4002 2.0474 -1.9880 0.9688
-7.5418 1.3756 -1.9849 0.9688
1.7463 -6.7382 -1.9705 0.9715
2.3440 -6.5617 -1.9725 0.9714
3.4828 -6.0533 -1.9771 0.9714
4.9836 -4.9319 -1.9849 0.9713
5.4122 -4.4730 -1.9877 0.9712
5.7988 -3.9771 -1.9906 0.9712
6.1401 -3.4479 -1.9935 0.9711
6.9997 -1.0840 -2.0052 0.9710
7.1003 0.1801 -2.0107 0.9709
7.0648 0.8151 -2.0133 0.9709
6.3585 3.2531 -2.0220 0.9707
6.0473 3.8116 -2.0236 0.9707
5.6865 4.3400 -2.0251 0.9707
4.0065 5.2661 -1.8732 0.9729
3.0057 5.8970 -1.8737 0.9729
2.4664 6.1417 -1.8736 0.9729
1.5213 5.0542 -1.4942 0.9783
0.7479 6.5696 -1.8718 0.9729
-1.2235 4.9006 -1.4299 0.9792
-2.1599 6.2210 -1.8643 0.9730
-2.7043 5.9964 -1.8622 0.9730
-3.2256 5.7238 -1.8599 0.9731
-5.4025 4.5467 -1.9989 0.9711
-6.3988 2.9430 -1.9939 0.9711
-6.8007 1.7515 -1.9880 0.9712
-6.9202 1.1350 -1.9852 0.9713
-6.9843 0.5112 -1.9825 0.9713
-6.9456 -0.7386 -1.9773 0.9714
-6.8436 -1.3549 -1.9750 0.9714
-6.6877 -1.9590 -1.9728 0.9714
-5.5578 -4.1638 -1.9660 0.9715
-5.1604 -4.6412 -1.9648 0.9716
-4.7226 -5.0815 -1.9639 0.9716
-4.2481 -5.4814 -1.9632 0.9716
-3.7403 -5.8380 -1.9628 0.9716
-3.2032 -6.1484 -1.9626 0.9716
-2.6409 -6.4104 -1.9627 0.9716
-2.0577 -6.6219 -1.9630 0.9716
-1.4580 -6.7814 -1.9636 0.9716
1.0132 -6.8791 -1.9684 0.9715
5.3300 -4.5676 -1.9871 0.9712
5.7252 -4.0788 -1.9900 0.9712
6.0758 -3.5559 -1.9929 0.9712
6.3787 -3.0030 -1.9959 0.9711
6.6314 -2.4244 -1.9988 0.9711
6.8315 -1.8246 -2.0017 0.9710
6.9951 1.3202 -2.0152 0.9708
6.4144 3.1385 -2.0216 0.9707
6.1134 3.7025 -2.0233 0.9707
5.7622 4.2372 -2.0248 0.9707
5.3637 4.7383 -2.0261 0.9707
4.9079 5.1872 -2.0216 0.9707
3.6198 5.5405 -1.8735 0.9729
3.1104 5.8424 -1.8737 0.9729
1.6231 5.0633 -1.5052 0.9781
0.8651 6.5558 -1.8720 0.9729
0.2755 6.6033 -1.8710 0.9729
-0.2325 4.8600 -1.3774 0.9800
-0.6741 4.8781 -1.3941 0.9797
-1.1302 4.8968 -1.4227 0.9793
-2.5975 6.0450 -1.8626 0.9730
-3.1237 5.7818 -1.8604 0.9731
-3.6234 5.4726 -1.8581 0.9731
-4.0927 5.1200 -1.8556 0.9731
-4.5703 4.7716 -1.8705 0.9729
-6.0574 3.6181 -1.9974 0.9711
-6.5853 2.4744 -1.9915 0.9712
-6.9007 1.2586 -1.9858 0.9713
1.6089 -6.2078 -1.9725 0.9735
2.1593 -6.0448 -1.9743 0.9735
2.6937 -5.8335 -1.9763 0.9735
4.1592 -4.9269 -1.9832 0.9734
4.5888 -4.5411 -1.9857 0.9733
4.9828 -4.1181 -1.9883 0.9733
5.3381 -3.6611 -1.9909 0.9733
5.6516 -3.1736 -1.9936 0.9732
5.9207 -2.6594 -1.9963 0.9732
6.4399 -0.9973 -2.0044 0.9731
6.5309 0.1657 -2.0094 0.9730
6.2738 1.8987 -2.0161 0.9729
6.0848 2.4542 -2.0180 0.9729
5.2275 3.9897 -2.0227 0.9729
4.4306 4.8534 -2.0213 0.9729
3.7372 4.9122 -1.8984 0.9745
3.2359 5.1514 -1.8711 0.9749
2.7627 5.4203 -1.8712 0.9749
2.2670 5.6453 -1.8711 0.9749
0.6875 6.0390 -1.8695 0.9749
-0.7635 4.8813 -1.5196 0.9795
-1.2234 4.9001 -1.5534 0.9791
-1.9861 5.7205 -1.8625 0.9750
-2.4869 5.5144 -1.8606 0.9750
-2.9666 5.2642 -1.8586 0.9750
-3.4213 4.9721 -1.8564 0.9751
-3.9332 4.7444 -1.8955 0.9745
-4.5793 4.6133 -1.9993 0.9732
-5.6316 3.2288 -1.9967 0.9732
-5.8897 2.7088 -1.9940 0.9732
-5.9692 -2.3459 -1.9727 0.9735
-5.7307 -2.8676 -1.9710 0.9735
-4.3521 -4.6828 -1.9663 0.9736
-3.4470 -5.3801 -1.9653 0.9736
-2.9520 -5.6663 -1.9652 0.9736
-2.4338 -5.9077 -1.9652 0.9736
-1.8963 -6.1026 -1.9656 0.9736
-1.3436 -6.2494 -1.9661 0.9736
-0.7800 -6.3470 -1.9669 0.9736
0.3630 -6.3916 -1.9691 0.9736
1.4976 -6.2344 -1.9721 0.9735
2.0507 -6.0812 -1.9739 0.9735
2.5887 -5.8794 -1.9759 0.9735
3.1072 -5.6305 -1.9780 0.9734
3.6022 -5.3364 -1.9803 0.9734
4.0696 -4.9991 -1.9827 0.9734
4.9072 -4.2053 -1.9878 0.9733
5.5926 -3.2731 -1.9931 0.9732
5.8707 -2.7638 -1.9958 0.9732
6.2860 -1.6789 -2.0012 0.9731
6.4194 -1.1118 -2.0039 0.9731
6.5085 0.6335 -2.0113 0.9730
6.3054 1.7861 -2.0157 0.9729
5.8975 2.8856 -2.0194 0.9729
4.5200 4.7773 -2.0229 0.9729
2.3674 5.6040 -1.8712 0.9749
1.6189 5.0501 -1.6312 0.9781
1.3312 5.9335 -1.8704 0.9749
0.7952 6.0264 -1.8696 0.9749
0.2532 6.0702 -1.8687 0.9749
-0.2318 4.8458 -1.4922 0.9799
-0.6740 4.8776 -1.5145 0.9796
-1.6090 4.9158 -1.5910 0.9786
-2.3886 5.5591 -1.8610 0.9750
-2.8729 5.3175 -1.8590 0.9750
-3.7926 4.7446 -1.8683 0.9749
-4.4943 4.6922 -1.9984 0.9732
-5.2618 3.8198 -1.9999 0.9732
-5.5746 3.3297 -1.9972 0.9732
1.4900 -5.7490 -1.9741 0.9753
1.9996 -5.5977 -1.9758 0.9753
2.4943 -5.4016 -1.9777 0.9752
3.8503 -4.5609 -1.9841 0.9752
4.2475 -4.2034 -1.9864 0.9751
4.6118 -3.8115 -1.9888 0.9751
4.9401 -3.3882 -1.9912 0.9751
5.2298 -2.9367 -1.9937 0.9750
5.6834 -1.9636 -1.9988 0.9750
5.8434 -1.4495 -2.0012 0.9749
6.0225 -0.3868 -2.0060 0.9749
5.9286 1.2288 -2.0126 0.9748
5.8006 1.7555 -2.0145 0.9748
5.1393 3.2392 -2.0193 0.9747
4.8321 3.6879 -2.0206 0.9747
4.1019 4.4934 -2.0224 0.9747
1.1323 5.5049 -1.8682 0.9766
-0.3197 4.8625 -1.6198 0.9797
-1.2233 4.8996 -1.6786 0.9789
-3.8404 4.6324 -2.0002 0.9750
-4.2471 4.2787 -2.0040 0.9749
-4.9290 3.4456 -1.9991 0.9750
-5.4500 2.5066 -1.9940 0.9750
-5.6452 2.0069 -1.9915 0.9751
-5.7948 1.4925 -1.9891 0.9751
-5.8978 0.9673 -1.9867 0.9751
-5.9537 0.4358 -1.9843 0.9752
-5.9621 -0.0980 -1.9821 0.9752
-5.9230 -0.6299 -1.9799 0.9752
-5.8371 -1.1556 -1.9779 0.9752
-5.7050 -1.6712 -1.9761 0.9753
-4.7436 -3.5538 -1.9702 0.9753
-4.4047 -3.9616 -1.9692 0.9753
-4.0314 -4.3377 -1.9684 0.9753
-3.1931 -4.9838 -1.9675 0.9754
-2.7346 -5.2489 -1.9674 0.9754
-1.2446 -5.7889 -1.9682 0.9753
-0.7225 -5.8791 -1.9690 0.9753
-0.1942 -5.9230 -1.9699 0.9753
0.3362 -5.9200 -1.9710 0.9753
0.8646 -5.8701 -1.9723 0.9753
1.3869 -5.7738 -1.9738 0.9753
2.3970 -5.4442 -1.9773 0.9752
3.3350 -4.9405 -1.9814 0.9752
3.7674 -4.6278 -1.9836 0.9752
4.8777 -3.4750 -1.9907 0.9751
5.9380 -1.0284 -2.0032 0.9749
6.0133 -0.4941 -2.0056 0.9749
6.0187 0.5858 -2.0101 0.9748
5.9484 1.1226 -2.0122 0.9748
5.6641 2.1679 -2.0160 0.9748
5.4521 2.6677 -2.0176 0.9747
5.1955 3.1466 -2.0191 0.9747
4.5575 4.0260 -2.0214 0.9747
4.1812 4.4192 -2.0222 0.9747
3.7602 4.7636 -2.0173 0.9747
2.6424 4.9634 -1.8691 0.9766
1.6146 5.0369 -1.7582 0.9780
1.2304 5.4842 -1.8683 0.9766
0.7350 5.5702 -1.8676 0.9766
0.2341 5.6109 -1.8667 0.9766
-0.2325 4.8590 -1.6170 0.9797
-1.1299 4.8957 -1.6702 0.9790
-1.6089 4.9153 -1.7192 0.9784
-4.5381 3.9597 -2.0020 0.9749
-5.1578 3.0808 -1.9970 0.9750
-5.4058 2.6041 -1.9945 0.9750
-5.6099 2.1079 -1.9920 0.9751
3.1836 -4.5394 -1.9827 0.9767
4.2877 -3.5437 -1.9892 0.9766
4.5926 -3.1499 -1.9915 0.9766
4.8614 -2.7299 -1.9938 0.9766
5.2821 -1.8249 -1.9985 0.9765
5.5821 0.6441 -2.0094 0.9764
5.3881 1.6307 -2.0131 0.9764
5.0195 2.5680 -2.0163 0.9763
4.1654 3.8141 -2.0197 0.9763
2.9573 4.7078 -1.9881 0.9767
1.9457 4.8451 -1.8671 0.9781
1.0515 5.1120 -1.8664 0.9781
0.1224 5.1301 -1.8351 0.9784
-0.7526 4.8117 -1.7416 0.9795
-1.6838 4.8497 -1.8359 0.9784
-2.1361 4.7365 -1.8581 0.9782
-2.6447 4.6929 -1.9264 0.9774
-3.1726 4.6107 -2.0015 0.9765
-3.5777 4.3155 -2.0046 0.9765
-4.2813 3.6031 -2.0011 0.9765
-4.5810 3.2023 -1.9988 0.9765
-4.8432 2.7768 -1.9964 0.9766
-5.2480 1.8657 -1.9918 0.9766
-5.3875 1.3876 -1.9895 0.9766
-5.5444 -0.0912 -1.9830 0.9767
-5.4290 -1.0748 -1.9791 0.9768
-5.3065 -1.5544 -1.9774 0.9768
-4.9373 -2.4706 -1.9743 0.9768
-4.6936 -2.9002 -1.9731 0.9768
-4.4131 -3.3063 -1.9719 0.9768
-4.0980 -3.6858 -1.9710 0.9769
-3.3741 -4.3537 -1.9698 0.9769
-2.5444 -4.8838 -1.9693 0.9769
-2.0977 -5.0918 -1.9694 0.9769
-1.6344 -5.2597 -1.9696 0.9769
-1.1580 -5.3860 -1.9701 0.9769
-0.1806 -5.5104 -1.9716 0.9769
0.3128 -5.5075 -1.9727 0.9768
0.8043 -5.4608 -1.9739 0.9768
2.6757 -4.8486 -1.9804 0.9767
3.1014 -4.5946 -1.9823 0.9767
3.5033 -4.3034 -1.9844 0.9767
3.8782 -3.9773 -1.9866 0.9767
4.8108 -2.8156 -1.9934 0.9766
5.0491 -2.3771 -1.9957 0.9766
5.2475 -1.9184 -1.9980 0.9765
5.4042 -1.4434 -2.0003 0.9765
5.5179 -0.9556 -2.0026 0.9765
5.5916 0.5442 -2.0090 0.9764
5.5259 1.0429 -2.0110 0.9764
5.4154 1.5340 -2.0128 0.9764
5.2610 2.0136 -2.0145 0.9764
4.5474 3.3439 -2.0185 0.9763
3.0800 4.7141 -2.0137 0.9764
2.0319 4.8097 -1.8672 0.9781
1.5936 4.9714 -1.8669 0.9781
1.1426 5.0928 -1.8665 0.9781
0.6826 5.1727 -1.8658 0.9781
0.2174 5.2108 -1.8650 0.9781
-0.2306 4.8192 -1.7254 0.9797
-1.5861 4.8457 -1.8234 0.9786
-2.5353 4.6926 -1.9074 0.9776
-3.0889 4.6653 -2.0009 0.9765
-3.4989 4.3772 -2.0039 0.9765
-3.8758 4.0466 -2.0038 0.9765
-4.2173 3.6798 -2.0015 0.9765
-4.7940 2.8634 -1.9969 0.9766
-5.2151 1.9595 -1.9922 0.9766
-5.4681 0.9974 -1.9877 0.9767
1.7367 -4.8616 -1.9784 0.9781
2.1661 -4.6908 -1.9800 0.9781
2.5789 -4.4823 -1.9817 0.9781
2.9720 -4.2378 -1.9836 0.9781
3.3422 -3.9590 -1.9855 0.9781
3.6864 -3.6481 -1.9875 0.9780
4.0020 -3.3075 -1.9896 0.9780
4.2862 -2.9397 -1.9917 0.9780
4.5367 -2.5476 -1.9939 0.9780
4.7514 -2.1342 -1.9961 0.9779
5.1640 -0.7997 -2.0025 0.9779
5.2201 -0.3353 -2.0046 0.9778
5.2065 0.6007 -2.0085 0.9778
5.1365 1.0646 -2.0102 0.9778
5.0250 1.5208 -2.0119 0.9778
4.6807 2.3947 -2.0148 0.9777
3.8838 3.5562 -2.0180 0.9777
3.1904 4.1935 -2.0192 0.9777
2.3501 4.6108 -1.9832 0.9781
1.8411 4.5847 -1.8933 0.9791
1.4028 4.6607 -1.8652 0.9794
0.5502 4.8333 -1.8642 0.9794
-0.3152 4.7933 -1.8408 0.9796
-1.1757 4.7091 -1.8600 0.9794
-1.6190 4.6632 -1.8917 0.9791
-2.5662 4.5537 -2.0031 0.9779
-4.5193 2.5911 -1.9963 0.9779
-4.8978 1.7412 -1.9920 0.9780
-5.0284 1.2951 -1.9899 0.9780
-5.1187 0.8395 -1.9878 0.9780
-2.3039 0.1686 -0.8853 0.9902
-2.3029 -0.2449 -0.8875 0.9901
-3.8272 -3.4422 -1.9726 0.9782
-3.5030 -3.7692 -1.9719 0.9782
-3.1513 -4.0662 -1.9714 0.9782
-2.7748 -4.3309 -1.9711 0.9782
-0.6278 -5.1084 -1.9724 0.9782
0.2921 -5.1432 -1.9742 0.9782
0.7511 -5.0995 -1.9753 0.9782
1.2047 -5.0153 -1.9766 0.9781
1.6494 -4.8911 -1.9781 0.9781
2.4981 -4.5268 -1.9814 0.9781
3.6200 -3.7126 -1.9871 0.9780
3.9415 -3.3777 -1.9892 0.9780
4.4896 -2.6275 -1.9935 0.9780
4.7116 -2.2181 -1.9956 0.9779
4.8963 -1.7901 -1.9978 0.9779
5.0422 -1.3467 -2.0000 0.9779
5.2123 -0.4283 -2.0042 0.9778
5.1538 0.9727 -2.0099 0.9778
5.0505 1.4306 -2.0116 0.9778
4.9062 1.8778 -2.0132 0.9777
4.4995 2.7250 -2.0158 0.9777
3.9463 3.4861 -2.0179 0.9777
3.6202 3.8263 -2.0186 0.9777
3.2646 4.1357 -2.0191 0.9777
2.8782 4.4054 -2.0166 0.9777
1.9390 4.5899 -1.9095 0.9789
1.4858 4.6351 -1.8653 0.9794
0.6364 4.8230 -1.8643 0.9794
-0.2292 4.7897 -1.8376 0.9797
-2.4840 4.5978 -2.0027 0.9779
-2.8885 4.3625 -2.0050 0.9778
-4.2212 3.0644 -1.9989 0.9779
-4.8670 1.8287 -1.9924 0.9780
-5.0056 1.3849 -1.9903 0.9780
-5.1039 0.9309 -1.9882 0.9780
1.6270 -4.5545 -1.9794 0.9793
2.4158 -4.1987 -1.9826 0.9793
3.1304 -3.7081 -1.9861 0.9792
3.7478 -3.0974 -1.9900 0.9792
4.0137 -2.7528 -1.9920 0.9792
4.2480 -2.3854 -1.9940 0.9792
4.6143 -1.5942 -1.9980 0.9791
4.8863 -0.3138 -2.0040 0.9791
4.8993 0.1243 -2.0058 0.9790
4.1645 2.6248 -2.0147 0.9789
3.9151 2.9880 -2.0157 0.9789
3.3229 3.6401 -2.0172 0.9789
2.6227 4.1751 -2.0180 0.9789
2.2346 4.3842 -2.0140 0.9790
1.3727 4.5606 -1.9493 0.9796
-0.7237 4.6268 -1.9166 0.9800
-1.6057 4.6247 -2.0036 0.9791
-2.0140 4.4658 -2.0050 0.9790
-2.4074 4.2719 -2.0069 0.9790
-2.7784 4.0379 -2.0060 0.9790
-3.1254 3.7699 -2.0042 0.9791
-3.4465 3.4721 -2.0023 0.9791
-4.0017 2.7974 -1.9983 0.9791
-4.2314 2.4260 -1.9963 0.9791
-4.7091 1.2128 -1.9902 0.9792
-2.0403 0.3346 -0.8462 0.9911
-1.9945 -0.0328 -0.8164 0.9914
-2.0182 -0.2146 -0.8307 0.9913
-4.4985 -1.7679 -1.9782 0.9793
-2.9529 -3.8102 -1.9729 0.9794
-2.6001 -4.0583 -1.9726 0.9794
-0.5882 -4.7867 -1.9738 0.9794
-0.1581 -4.8219 -1.9746 0.9794
0.2737 -4.8190 -1.9755 0.9794
1.9501 -4.4290 -1.9806 0.9793
2.7121 -4.0178 -1.9839 0.9793
3.3904 -3.4771 -1.9876 0.9792
3.6912 -3.1632 -1.9896 0.9792
3.9632 -2.8234 -1.9915 0.9792
4.4115 -2.0769 -1.9956 0.9791
4.5842 -1.6759 -1.9976 0.9791
4.7204 -1.2608 -1.9997 0.9791
4.8190 -0.8346 -2.0017 0.9791
4.8813 0.4751 -2.0073 0.9790
4.8234 0.9103 -2.0089 0.9790
4.5912 1.7572 -2.0120 0.9790
3.9674 2.9174 -2.0155 0.9789
3.3872 3.5800 -2.0171 0.9789
3.0544 3.8694 -2.0176 0.9789
2.6967 4.1276 -2.0179 0.9789
1.4615 4.5591 -1.9595 0.9795
1.0243 4.5655 -1.9150 0.9800
-0.6391 4.6249 -1.9108 0.9800
-1.0694 4.6334 -1.9462 0.9797
-1.5186 4.6395 -1.9980 0.9791
-1.9337 4.5004 -2.0047 0.9791
-2.3303 4.3133 -2.0065 0.9790
-2.7064 4.0875 -2.0064 0.9790
-3.0582 3.8258 -2.0046 0.9791
-3.3847 3.5338 -2.0027 0.9791
-3.6834 3.2139 -2.0007 0.9791
-3.9519 2.8689 -1.9987 0.9791
-4.1883 2.5017 -1.9967 0.9791
-4.3907 2.1151 -1.9946 0.9792
-4.6876 1.2969 -1.9906 0.9792
-2.0598 0.3757 -0.8569 0.9910
1.1393 -4.3958 -1.9791 0.9804
1.5286 -4.2792 -1.9804 0.9804
1.9064 -4.1284 -1.9818 0.9804
2.6151 -3.7289 -1.9849 0.9803
2.9405 -3.4832 -1.9866 0.9803
3.5201 -2.9093 -1.9903 0.9803
3.7696 -2.5854 -1.9921 0.9803
3.9894 -2.2402 -1.9940 0.9802
4.5387 -0.7029 -2.0016 0.9802
4.5875 -0.2946 -2.0034 0.9801
4.5994 0.1167 -2.0052 0.9801
4.5124 0.9353 -2.0084 0.9801
4.1108 2.1031 -2.0124 0.9801
3.9085 2.4635 -2.0135 0.9800
3.4103 3.1227 -2.0152 0.9800
3.1185 3.4161 -2.0158 0.9800
2.8013 3.6820 -2.0163 0.9800
2.4613 3.9181 -2.0165 0.9800
1.7216 4.2870 -2.0134 0.9800
0.9286 4.5148 -2.0088 0.9801
0.1093 4.5820 -1.9975 0.9802
-0.3020 4.5929 -2.0060 0.9801
-0.7113 4.5474 -2.0059 0.9801
-1.5106 4.3509 -2.0073 0.9801
-2.2609 4.0120 -2.0070 0.9801
-3.2359 3.2599 -2.0018 0.9802
-3.5111 2.9549 -2.0000 0.9802
-3.7576 2.6268 -1.9981 0.9802
-4.1573 1.9120 -1.9943 0.9802
-1.4915 0.3841 -0.6712 0.9933
-1.4727 0.2415 -0.6504 0.9935
-1.4338 -0.0236 -0.6250 0.9938
-1.4705 -0.1564 -0.6445 0.9936
-1.4934 -0.4375 -0.6782 0.9932
-4.2267 -1.6611 -1.9792 0.9804
-4.0588 -2.0310 -1.9780 0.9804
-3.6287 -2.7186 -1.9760 0.9804
-3.3699 -3.0309 -1.9753 0.9804
-2.0926 -4.0167 -1.9739 0.9804
-1.7253 -4.1877 -1.9739 0.9804
-1.3442 -4.3257 -1.9741 0.9804
-0.9523 -4.4294 -1.9745 0.9804
-0.5528 -4.4981 -1.9751 0.9804
-0.1485 -4.5311 -1.9758 0.9804
0.2572 -4.5282 -1.9766 0.9804
0.6612 -4.4894 -1.9777 0.9804
1.0605 -4.4149 -1.9788 0.9804
1.8321 -4.1611 -1.9815 0.9804
2.1984 -3.9837 -1.9830 0.9803
3.1846 -3.2661 -1.9881 0.9803
3.4670 -2.9711 -1.9899 0.9803
4.1428 -1.9503 -1.9956 0.9802
4.3047 -1.5737 -1.9975 0.9802
4.6000 0.0346 -2.0048 0.9801
4.5823 0.4460 -2.0065 0.9801
4.4365 1.2567 -2.0096 0.9801
4.3094 1.6494 -2.0110 0.9801
3.4652 3.0611 -2.0151 0.9800
3.1788 3.3597 -2.0157 0.9800
2.5307 3.8735 -2.0165 0.9800
2.1745 4.0845 -2.0166 0.9800
1.7984 4.2570 -2.0140 0.9800
1.4088 4.3948 -2.0113 0.9801
1.0092 4.4982 -2.0091 0.9801
0.6021 4.5629 -2.0058 0.9801
-1.8192 4.2338 -2.0083 0.9801
-2.8711 3.5917 -2.0040 0.9801
-3.1778 3.3178 -2.0022 0.9802
-3.7108 2.6939 -1.9985 0.9802
-3.9330 2.3492 -1.9966 0.9802
-4.1233 1.9863 -1.9947 0.9802
-1.4698 0.2681 -0.6511 0.9935
1.0731 -4.1407 -1.9800 0.9813
2.4629 -3.5119 -1.9855 0.9813
2.7692 -3.2803 -1.9871 0.9813
3.0539 -3.0222 -1.9888 0.9812
3.5495 -2.4344 -1.9923 0.9812
3.9333 -1.7667 -1.9959 0.9812
4.1925 -1.0400 -1.9995 0.9811
4.2724 -0.6617 -2.0012 0.9811
4.3181 -0.2773 -2.0029 0.9811
4.3054 0.4968 -2.0061 0.9811
4.0276 1.6245 -2.0103 0.9810
2.6358 3.4645 -2.0150 0.9810
1.6224 4.0402 -2.0153 0.9810
0.4913 4.3160 -2.0107 0.9810
-0.2848 4.3315 -2.0093 0.9810
-0.6708 4.2887 -2.0093 0.9810
-1.0517 4.2124 -2.0097 0.9810
-1.4236 4.1004 -2.0091 0.9811
-2.1280 3.7760 -2.0063 0.9811
-2.4551 3.5680 -2.0048 0.9811
-2.7619 3.3315 -2.0031 0.9811
-3.3053 2.7817 -1.9997 0.9811
-1.2608 0.5799 -0.6423 0.9939
-1.2632 0.4491 -0.6206 0.9941
-1.2737 0.2089 -0.5974 0.9943
-1.2695 -0.2513 -0.5990 0.9943
-1.2702 -0.3721 -0.6127 0.9942
-1.2551 -0.4933 -0.6242 0.9941
-3.8234 -1.9132 -1.9790 0.9813
-3.4184 -2.5610 -1.9771 0.9813
-3.1747 -2.8553 -1.9764 0.9814
-1.6254 -3.9453 -1.9751 0.9814
-0.8972 -4.1729 -1.9757 0.9814
-0.1399 -4.2685 -1.9769 0.9814
0.6229 -4.2290 -1.9787 0.9813
0.9990 -4.1587 -1.9798 0.9813
2.0706 -3.7521 -1.9837 0.9813
2.9990 -3.0757 -1.9885 0.9812
3.2648 -2.7977 -1.9902 0.9812
3.7174 -2.1756 -1.9937 0.9812
3.9005 -1.8363 -1.9955 0.9812
4.3129 0.4198 -2.0058 0.9811
4.2613 0.8042 -2.0073 0.9811
4.1753 1.1827 -2.0087 0.9811
3.2607 2.8804 -2.0139 0.9810
2.6971 3.4168 -2.0149 0.9810
1.6943 4.0106 -2.0153 0.9810
0.9517 4.2419 -2.0123 0.9810
0.5683 4.3070 -2.0109 0.9810
-0.2075 4.3361 -2.0094 0.9810
-1.3504 4.1257 -2.0094 0.9810
-1.7126 3.9858 -2.0081 0.9811
-2.0606 3.8140 -2.0066 0.9811
-2.3914 3.6118 -2.0051 0.9811
-2.9913 3.1231 -2.0018 0.9811
-3.2557 2.8407 -2.0000 0.9811
-3.4935 2.5361 -1.9983 0.9812
-3.7029 2.2117 -1.9965 0.9812
-1.2591 0.4731 -0.6226 0.9941
-1.2706 0.3515 -0.6103 0.9942
1.3592 -3.8051 -1.9820 0.9822
2.0177 -3.5069 -1.9846 0.9821
2.6138 -3.0962 -1.9876 0.9821
2.8824 -2.8524 -1.9892 0.9821
3.8490 -1.3298 -1.9975 0.9820
4.0310 -0.6243 -2.0009 0.9820
4.0615 0.4686 -2.0055 0.9819
4.0062 0.8304 -2.0069 0.9819
3.9185 1.1859 -2.0082 0.9819
3.7990 1.5323 -2.0094 0.9819
3.4690 2.1865 -2.0114 0.9819
3.2610 2.4888 -2.0123 0.9819
1.8647 3.6584 -2.0142 0.9819
1.5301 3.8103 -2.0141 0.9819
1.1833 3.9314 -2.0139 0.9819
0.8270 4.0207 -2.0135 0.9819
-0.2691 4.0920 -2.0115 0.9819
-0.9924 3.9747 -2.0095 0.9819
-2.0074 3.5622 -2.0057 0.9819
-2.3161 3.3660 -2.0042 0.9820
-3.1186 2.6246 -1.9994 0.9820
-1.1233 0.3993 -0.5848 0.9947
-1.1443 -0.1217 -0.5645 0.9949
-1.1383 -0.2254 -0.5692 0.9948
-1.1315 -0.3314 -0.5783 0.9948
-1.1153 -0.4383 -0.5878 0.9947
-2.7437 -2.9521 -1.9769 0.9822
-2.4683 -3.1850 -1.9765 0.9822
-2.1735 -3.3924 -1.9763 0.9822
-1.1957 -3.8478 -1.9764 0.9822
-0.8471 -3.9399 -1.9768 0.9822
-0.1321 -4.0301 -1.9779 0.9822
0.9431 -3.9260 -1.9806 0.9822
1.2910 -3.8282 -1.9817 0.9822
1.6290 -3.6999 -1.9830 0.9822
2.2649 -3.3554 -1.9858 0.9821
2.5577 -3.1419 -1.9873 0.9821
3.0812 -2.6405 -1.9905 0.9821
3.3077 -2.3564 -1.9921 0.9821
3.6806 -1.7328 -1.9955 0.9820
3.8240 -1.3980 -1.9972 0.9820
3.9370 -1.0515 -1.9989 0.9820
4.0186 -0.6960 -2.0005 0.9820
4.0680 -0.3342 -2.0022 0.9820
4.0848 0.0307 -2.0037 0.9820
3.8253 1.4641 -2.0092 0.9819
2.8210 2.9815 -2.0134 0.9819
2.5437 3.2225 -2.0138 0.9819
2.2458 3.4374 -2.0141 0.9819
1.9297 3.6246 -2.0142 0.9819
1.5979 3.7825 -2.0142 0.9819
-0.9214 3.9922 -2.0098 0.9819
-1.6155 3.7598 -2.0073 0.9819
-2.8222 2.9466 -2.0014 0.9820
-3.0718 2.6803 -1.9998 0.9820
-1.0882 0.5242 -0.5925 0.9946
-1.1325 0.3133 -0.5764 0.9948
-1.1405 0.2080 -0.5686 0.9948
0.9583 -3.6975 -1.9816 0.9829
1.6032 -3.4719 -1.9839 0.9829
2.9583 -2.4450 -1.9910 0.9829
3.5094 -1.5763 -1.9958 0.9828
3.8513 -0.2474 -2.0021 0.9828
3.8608 0.0980 -2.0035 0.9827
3.8392 0.4430 -2.0049 0.9827
3.5907 1.4483 -2.0086 0.9827
3.2786 2.0665 -2.0105 0.9827
3.0820 2.3522 -2.0113 0.9827
2.6154 2.8650 -2.0125 0.9827
2.3493 3.0879 -2.0128 0.9827
2.0641 3.2859 -2.0131 0.9827
1.4461 3.6009 -2.0131 0.9827
0.7816 3.7998 -2.0125 0.9827
-0.5987 3.8274 -2.0097 0.9827
-0.9379 3.7567 -2.0087 0.9827
-1.5900 3.5256 -2.0064 0.9827
-2.4633 2.9713 -2.0022 0.9828
-3.1559 2.2062 -1.9976 0.9828
-0.9532 0.5465 -0.5700 0.9951
-1.0094 0.3589 -0.5558 0.9952
-1.0339 0.1696 -0.5435 0.9953
-1.0319 -0.0170 -0.5354 0.9954
-1.0376 -0.1103 -0.5413 0.9953
-1.0180 -0.2982 -0.5503 0.9952
-0.9699 -0.4853 -0.5626 0.9951
-3.0531 -2.2873 -1.9791 0.9830
-2.5955 -2.7927 -1.9779 0.9830
-2.3350 -3.0130 -1.9775 0.9830
-2.0561 -3.2093 -1.9773 0.9830
-1.7610 -3.3801 -1.9772 0.9830
0.2164 -3.8097 -1.9796 0.9830
0.8921 -3.7137 -1.9814 0.9829
1.2211 -3.6210 -1.9825 0.9829
1.5408 -3.4995 -1.9836 0.9829
2.4189 -2.9714 -1.9877 0.9829
3.1278 -2.2283 -1.9923 0.9828
3.3171 -1.9413 -1.9939 0.9828
3.4801 -1.6384 -1.9955 0.9828
3.7222 -0.9941 -1.9987 0.9828
3.4792 1.7024 -2.0094 0.9827
3.1232 2.2966 -2.0112 0.9827
2.4039 3.0454 -2.0128 0.9827
1.8236 3.4254 -2.0131 0.9827
1.5101 3.5746 -2.0131 0.9827
1.1844 3.6949 -2.0129 0.9827
0.5074 3.8453 -2.0121 0.9827
0.1616 3.8741 -2.0115 0.9827
-0.8708 3.7732 -2.0089 0.9827
-2.1326 3.2209 -2.0040 0.9827
-2.4102 3.0152 -2.0025 0.9828
-2.6681 2.7856 -2.0010 0.9828
-0.9613 0.5742 -0.5809 0.9950
-0.9763 0.4703 -0.5622 0.9951
-1.0055 0.3778 -0.5572 0.9952
1.8080 -3.1425 -1.9857 0.9836
2.3418 -2.7740 -1.9884 0.9836
2.5822 -2.5554 -1.9898 0.9836
2.8024 -2.3161 -1.9912 0.9836
3.1748 -1.7828 -1.9942 0.9835
1.8943 -0.6545 -1.0977 0.9909
1.8860 -0.4678 -1.0643 0.9912
1.8789 0.0477 -1.0294 0.9915
1.8891 0.2180 -1.0415 0.9914
1.8789 0.5686 -1.0751 0.9911
3.2653 1.6705 -2.0088 0.9834
2.7080 2.4797 -2.0111 0.9834
2.4761 2.7124 -2.0115 0.9834
2.2242 2.9234 -2.0119 0.9834
1.9542 3.1109 -2.0121 0.9834
1.3690 3.4091 -2.0121 0.9834
0.0875 3.6698 -2.0105 0.9834
-0.5669 3.6239 -2.0090 0.9834
-0.8881 3.5570 -2.0080 0.9834
-1.7968 3.1885 -2.0046 0.9834
-2.3327 2.8138 -2.0019 0.9835
-2.5731 2.5922 -2.0004 0.9835
-0.8786 0.6142 -0.5871 0.9951
-0.8972 0.4126 -0.5409 0.9955
-0.9435 0.1547 -0.5237 0.9956
-0.9471 0.0693 -0.5201 0.9957
-0.9231 -0.2704 -0.5269 0.9956
-2.8931 -2.1674 -1.9799 0.9836
-2.6869 -2.4166 -1.9793 0.9837
-2.4595 -2.6465 -1.9788 0.9837
-2.2127 -2.8552 -1.9784 0.9837
-1.9485 -3.0412 -1.9782 0.9837
-1.6687 -3.2031 -1.9781 0.9837
-1.3758 -3.3395 -1.9782 0.9837
-0.7594 -3.5320 -1.9787 0.9837
-0.4407 -3.5865 -1.9791 0.9837
-0.1184 -3.6126 -1.9797 0.9837
0.5271 -3.5786 -1.9812 0.9836
1.1570 -3.4310 -1.9831 0.9836
1.7515 -3.1738 -1.9854 0.9836
2.2916 -2.8150 -1.9881 0.9836
2.7602 -2.3654 -1.9909 0.9836
3.1420 -1.8389 -1.9939 0.9835
3.4244 -1.2519 -1.9970 0.9835
1.8845 -0.5033 -1.0683 0.9911
1.8857 -0.3266 -1.0482 0.9913
1.8741 0.0141 -1.0265 0.9915
1.8890 0.1839 -1.0395 0.9914
1.8842 0.3556 -1.0502 0.9913
1.8824 0.5332 -1.0716 0.9911
3.4234 1.3103 -2.0077 0.9834
3.2942 1.6119 -2.0087 0.9834
2.9570 2.1744 -2.0103 0.9834
2.7517 2.4308 -2.0109 0.9834
2.0093 3.0754 -2.0121 0.9834
1.7265 3.2429 -2.0122 0.9834
0.1530 3.6679 -2.0107 0.9834
-0.1754 3.6656 -2.0100 0.9834
-0.5021 3.6338 -2.0091 0.9834
-0.8246 3.5727 -2.0082 0.9834
-2.2825 2.8554 -2.0021 0.9835
-2.7504 2.3999 -1.9993 0.9835
-0.8649 0.5166 -0.5518 0.9954
-0.8928 0.4301 -0.5428 0.9955
-0.9413 0.1717 -0.5241 0.9956
1.1560 -3.2360 -1.9839 0.9843
1.9765 -2.8183 -1.9874 0.9842
2.2220 -2.6321 -1.9887 0.9842
2.4500 -2.4245 -1.9900 0.9842
3.0118 -1.6913 -1.9943 0.9842
3.1532 -1.4163 -1.9957 0.9842
1.7098 -0.5907 -1.0444 0.9917
1.7316 -0.4295 -1.0300 0.9918
1.7403 -0.2695 -1.0168 0.9919
1.7380 -0.1116 -1.0055 0.9920
1.7320 0.0439 -1.0003 0.9920
1.7418 0.2010 -1.0123 0.9919
1.7327 0.3591 -1.0216 0.9919
1.7804 0.7181 -1.1084 0.9912
3.0965 1.5842 -2.0081 0.9841
2.7670 2.1118 -2.0096 0.9841
2.3480 2.5721 -2.0107 0.9840
1.8530 2.9498 -2.0112 0.9840
1.2982 3.2327 -2.0112 0.9840
1.0039 3.3354 -2.0111 0.9840
0.7017 3.4113 -2.0107 0.9840
0.3938 3.4596 -2.0103 0.9840
0.0830 3.4799 -2.0097 0.9841
-0.8422 3.3732 -2.0073 0.9841
-1.4279 3.1661 -2.0052 0.9841
-1.7042 3.0240 -2.0041 0.9841
-2.2126 2.6688 -2.0015 0.9841
-0.7992 0.5586 -0.5630 0.9955
-0.8432 0.3878 -0.5358 0.9957
-0.8598 0.3057 -0.5269 0.9958
-0.8702 0.2241 -0.5188 0.9959
-0.8792 -0.0145 -0.5077 0.9959
-0.8774 -0.1737 -0.5164 0.9959
-0.8657 -0.2536 -0.5208 0.9958
-0.8349 -0.4178 -0.5390 0.9957
-0.8065 -0.4983 -0.5473 0.9956
-0.8035 -0.6020 -0.5797 0.9954
-2.5500 -2.2934 -1.9801 0.9843
-2.1000 -2.7098 -1.9793 0.9843
-1.5837 -3.0399 -1.9790 0.9843
-1.3057 -3.1694 -1.9790 0.9843
-1.0173 -3.2737 -1.9792 0.9843
-0.7207 -3.3520 -1.9795 0.9843
1.0979 -3.2558 -1.9837 0.9843
1.3853 -3.1463 -1.9848 0.9842
1.6619 -3.0116 -1.9859 0.9842
2.4060 -2.4675 -1.9898 0.9842
2.8108 -2.0025 -1.9926 0.9842
2.9807 -1.7445 -1.9940 0.9842
3.1270 -1.4721 -1.9954 0.9842
1.7383 -0.3011 -1.0186 0.9919
1.7280 0.0130 -0.9977 0.9921
1.7359 0.3276 -1.0199 0.9919
1.7267 0.4891 -1.0361 0.9917
1.7172 0.6572 -1.0615 0.9915
3.1240 1.5286 -2.0080 0.9841
2.8041 2.0620 -2.0095 0.9841
2.1581 2.7340 -2.0110 0.9840
1.3557 3.2090 -2.0113 0.9840
1.0633 3.3171 -2.0111 0.9840
0.4555 3.4522 -2.0104 0.9840
-0.1663 3.4760 -2.0092 0.9841
-0.4762 3.4459 -2.0084 0.9841
-1.0811 3.3030 -2.0065 0.9841
-1.9154 2.8928 -2.0031 0.9841
-2.1649 2.7083 -2.0018 0.9841
-0.8017 0.5820 -0.5720 0.9954
