ply
format ascii 1.0
element vertex 1581
property float32 x
property float32 y
property float32 z
property float32 I
end_header
-10.1322 14.1587 1.0796 0.9326
-12.2706 14.2536 1.1663 0.9274
-13.7851 13.3771 1.1911 0.9259
-12.9967 -10.1691 1.0233 0.9360
-6.4433 -16.6623 1.1078 0.9309
-4.8702 -16.9788 1.0953 0.9317
-3.1453 -16.3814 1.0344 0.9353
-0.0226 13.6400 0.5378 0.9469
-2.5225 13.7877 0.5527 0.9454
-1.5104 5.4448 0.2228 0.9776
-3.7054 9.8370 0.4145 0.9588
-6.7394 13.9558 0.6111 0.9398
-8.3145 13.8855 0.6382 0.9373
-12.5922 14.3914 0.7540 0.9263
-13.9866 13.3558 0.7626 0.9255
-13.9201 11.0892 0.7018 0.9312
-14.1224 9.3141 0.6671 0.9345
-8.2983 -17.1532 0.7514 0.9266
-3.7360 -9.8974 0.4171 0.9585
-3.0077 -16.3751 0.6565 0.9355
-1.5642 -16.9530 0.6713 0.9341
-0.0403 -17.0429 0.6720 0.9341
1.2871 13.3623 0.5293 0.9477
0.0871 13.6335 0.5376 0.9469
-1.1270 13.5049 0.5344 0.9472
-2.4068 13.7809 0.5516 0.9455
-1.4673 5.4598 0.2229 0.9776
-5.0932 13.8585 0.5822 0.9426
-8.2552 14.0416 0.6423 0.9369
-12.5792 14.6121 0.7603 0.9257
-12.8363 10.3958 0.6513 0.9360
-14.0193 9.4088 0.6657 0.9346
-10.0477 -16.4517 0.7601 0.9257
-8.3991 -17.0111 0.7481 0.9269
-4.8709 -16.9810 0.6966 0.9317
-3.1426 -16.3671 0.6572 0.9355
-1.7011 -16.9449 0.6715 0.9341
-0.1773 -17.0348 0.6717 0.9341
-0.0226 13.6383 0.2304 0.9469
-1.2369 13.5097 0.2292 0.9472
-2.5222 13.7859 0.2367 0.9455
-10.3099 14.1649 0.2959 0.9323
-13.9865 13.3557 0.3267 0.9255
-13.9200 11.0892 0.3006 0.9313
-9.8744 -16.4643 0.3243 0.9261
-8.2995 -17.1555 0.3219 0.9266
-3.7274 -9.8745 0.1783 0.9587
-4.6651 -16.7714 0.2941 0.9327
1.2870 13.3607 0.2267 0.9477
-1.1269 13.5032 0.2289 0.9472
-8.2552 14.0415 0.2751 0.9369
-10.1290 14.1542 0.2940 0.9327
-12.5791 14.6119 0.3257 0.9258
-13.8306 13.4213 0.3255 0.9258
-14.0192 9.4087 0.2852 0.9347
-8.3990 -17.0109 0.3205 0.9269
-4.8083 -16.7629 0.2946 0.9326
-0.1773 -17.0369 0.2878 0.9341
-2.5126 13.7335 -0.0786 0.9457
-3.7046 9.8349 -0.0592 0.9588
-6.7217 13.9192 -0.0870 0.9400
-8.3144 13.8853 -0.0911 0.9373
-10.3083 14.1626 -0.0986 0.9323
-13.9199 11.0891 -0.1002 0.9313
-11.3173 6.0860 -0.0723 0.9499
-9.8758 -16.4666 -0.1081 0.9261
-3.7231 -9.8632 -0.0594 0.9587
-3.0980 -16.8667 -0.0966 0.9337
-0.0403 -17.0471 -0.0960 0.9341
1.2868 13.3590 -0.0756 0.9477
-1.4668 5.4577 -0.0318 0.9776
-5.0919 13.8547 -0.0831 0.9427
-8.2551 14.0413 -0.0917 0.9369
-10.1274 14.1519 -0.0980 0.9328
-13.8280 13.4187 -0.1085 0.9258
-12.8361 10.3956 -0.0930 0.9361
-11.2617 6.1734 -0.0723 0.9499
-3.8508 -9.9582 -0.0601 0.9582
-4.8089 -16.7651 -0.0982 0.9326
-3.2369 -16.8585 -0.0966 0.9336
-0.1773 -17.0390 -0.0959 0.9341
-0.0223 13.4346 -0.3783 0.9477
-1.2366 13.5063 -0.3819 0.9472
-2.4845 13.5799 -0.3887 0.9463
-1.5092 5.4404 -0.1590 0.9777
-3.7042 9.8338 -0.2959 0.9588
-8.3143 13.8852 -0.4557 0.9373
-10.3066 14.1603 -0.4932 0.9323
-12.5919 14.3911 -0.5384 0.9263
-9.8771 -16.4689 -0.5407 0.9260
-7.7261 -15.9702 -0.4995 0.9315
-3.7188 -9.8517 -0.2965 0.9587
-1.5794 -17.1178 -0.4840 0.9335
-0.0403 -17.0492 -0.4801 0.9341
1.2867 13.3574 -0.3779 0.9477
-1.4642 5.4482 -0.1589 0.9777
-5.0912 13.8529 -0.4156 0.9427
-6.5793 13.9088 -0.4333 0.9403
-8.2539 14.0393 -0.4586 0.9369
-13.5754 13.1736 -0.5326 0.9271
-12.8360 10.3955 -0.4651 0.9360
-13.8061 9.2657 -0.4682 0.9356
-11.2278 6.1548 -0.3605 0.9501
-10.0519 -16.4586 -0.5430 0.9257
-7.8587 -15.9165 -0.4998 0.9314
-3.8209 -9.8808 -0.2983 0.9585
-3.2676 -17.0182 -0.4879 0.9330
-1.7208 -17.1415 -0.4851 0.9334
-3.7037 9.8327 -0.5329 0.9588
-12.5918 14.3910 -0.9698 0.9263
-13.7083 10.9206 -0.8888 0.9322
-11.2560 6.0530 -0.6481 0.9501
-17.3357 3.9579 -0.9018 0.9313
-10.4438 -8.3080 -0.6768 0.9480
-8.3162 -13.8663 -0.8200 0.9373
-6.9602 -14.3870 -0.8105 0.9380
-3.7130 -9.8362 -0.5332 0.9588
-1.8623 -10.1388 -0.5228 0.9596
-1.5796 -17.1199 -0.8719 0.9335
-0.0403 -17.0513 -0.8647 0.9340
15.6825 5.0129 -0.8350 0.9362
15.9641 6.7313 -0.8786 0.9330
-1.1079 13.2758 -0.6756 0.9480
-2.3312 13.3479 -0.6872 0.9472
-8.2527 14.0373 -0.8258 0.9369
-10.1241 14.1474 -0.8823 0.9327
-13.5753 13.1735 -0.9593 0.9270
-17.2821 4.0922 -0.9007 0.9313
-17.9192 -7.4709 -0.9846 0.9252
-14.8239 -7.8054 -0.8496 0.9351
-6.4239 -8.6656 -0.5470 0.9577
-7.5220 -15.2347 -0.8617 0.9342
-3.8125 -9.8592 -0.5361 0.9585
-4.8668 -16.9668 -0.8952 0.9317
-1.2160 13.2805 -0.9778 0.9479
-1.4996 5.4059 -0.4113 0.9778
-3.7033 9.8316 -0.7703 0.9587
-7.5094 12.5409 -1.0718 0.9431
-12.4107 14.1840 -1.3819 0.9272
-11.2027 6.0244 -0.9326 0.9503
-16.1479 5.2459 -1.2449 0.9342
-16.2812 3.7172 -1.2245 0.9352
-17.8111 -7.5946 -1.4197 0.9253
-11.9052 -7.8398 -1.0452 0.9444
-8.7766 -8.3690 -0.8892 0.9525
-7.3737 -8.4154 -0.8204 0.9561
-3.7146 -9.8406 -0.7712 0.9587
-3.1340 -17.0623 -1.2720 0.9328
-0.8752 -9.4857 -0.6985 0.9625
5.2516 -19.2316 -1.4617 0.9232
15.5852 4.9818 -1.1997 0.9365
15.5974 6.5766 -1.2411 0.9344
1.2651 13.1341 -0.9675 0.9485
-1.1078 13.2741 -0.9767 0.9480
-1.4521 5.4031 -0.4102 0.9778
-6.4816 13.7023 -1.1114 0.9410
-8.4756 11.8437 -1.0679 0.9433
-13.5752 13.1734 -1.3870 0.9269
-12.8359 10.3954 -1.2111 0.9359
-13.8059 9.2656 -1.2191 0.9355
-16.1550 3.8254 -1.2173 0.9356
-17.8915 -7.4593 -1.4213 0.9252
-14.7205 -7.7509 -1.2198 0.9355
-12.2657 -7.9365 -1.0712 0.9431
-10.2615 -8.0290 -0.9553 0.9491
-8.8026 -8.2596 -0.8851 0.9527
-7.4405 -8.3550 -0.8203 0.9561
-5.2586 -8.6103 -0.7398 0.9603
-4.3040 -8.7172 -0.7128 0.9618
-3.2684 -17.0224 -1.2709 0.9328
-0.9518 -9.4809 -0.6987 0.9625
-0.1511 -14.5193 -1.0646 0.9434
1.2675 -15.9622 -1.1741 0.9378
15.5950 6.4283 -1.2368 0.9346
-0.0219 13.2084 -1.2681 0.9483
-1.2158 13.2788 -1.2802 0.9478
-2.4426 13.3511 -1.3030 0.9469
-6.6093 13.6863 -1.4591 0.9408
-7.7325 12.9135 -1.4450 0.9413
-8.1539 6.4957 -1.0008 0.9590
-16.0843 3.6722 -1.5839 0.9359
-17.4082 -7.4228 -1.8169 0.9268
-14.5424 -7.8072 -1.5846 0.9358
-11.9108 -7.8435 -1.3692 0.9443
-10.1081 -8.0409 -1.2400 0.9494
-3.7201 -9.8552 -1.0113 0.9586
-3.9457 -14.1850 -1.4135 0.9426
-3.1344 -17.0645 -1.6657 0.9327
-0.8680 -9.4077 -0.9070 0.9627
-0.0403 -17.0556 -1.6374 0.9338
4.7943 -17.5569 -1.7473 0.9295
6.3567 -17.0839 -1.7500 0.9294
8.5265 -17.8394 -1.8982 0.9236
15.6786 3.5018 -1.5423 0.9375
6.9186 14.1556 -1.5126 0.9386
5.5883 14.6258 -1.5032 0.9390
0.9422 9.7818 -0.9434 0.9613
-2.3306 13.3445 -1.3005 0.9470
-7.5870 12.9049 -1.4372 0.9416
-8.1585 6.6073 -1.0079 0.9587
-11.1109 6.0907 -1.2165 0.9504
-18.5313 6.1854 -1.8756 0.9245
-15.9518 3.7772 -1.5738 0.9362
-17.7448 -7.3982 -1.8457 0.9257
-14.6744 -7.7266 -1.5922 0.9355
-6.1563 -8.3046 -0.9925 0.9593
-4.1872 -8.4805 -0.9080 0.9627
-4.8680 -16.9711 -1.6950 0.9315
-0.9440 -9.4033 -0.9073 0.9627
-0.1511 -14.5212 -1.3942 0.9433
1.2567 -15.8270 -1.5243 0.9382
8.3811 -17.9039 -1.8979 0.9236
15.9278 3.4231 -1.5641 0.9366
15.4499 4.8019 -1.5533 0.9371
15.6179 6.4378 -1.6218 0.9344
-0.0219 13.2068 -1.5688 0.9482
-3.7032 9.8314 -1.2479 0.9586
-5.3180 11.0124 -1.4527 0.9519
-8.1840 11.2441 -1.6520 0.9455
-7.4451 5.9310 -1.1307 0.9624
-8.6238 5.6876 -1.2271 0.9592
-16.7380 2.2704 -2.0065 0.9342
-16.7354 -0.7447 -1.9899 0.9347
-16.5336 -2.2308 -1.9818 0.9350
-15.1673 -6.4673 -1.9586 0.9357
-14.1467 -7.5947 -1.9073 0.9374
-9.9593 -7.9226 -1.5117 0.9500
-7.1763 -8.1901 -1.2935 0.9571
-6.0690 -8.3261 -1.2239 0.9593
-4.0357 -8.3422 -1.1008 0.9634
-3.9149 -14.0745 -1.7353 0.9429
-1.6998 -9.2541 -1.1176 0.9628
-0.8682 -9.4091 -1.1224 0.9627
1.2802 -14.6297 -1.7444 0.9426
9.4797 -13.1349 -1.9242 0.9368
15.1537 -6.5462 -1.9608 0.9357
15.7391 -5.1831 -1.9684 0.9354
16.2040 -3.7682 -1.9762 0.9352
16.5432 -2.3117 -1.9842 0.9349
16.8286 0.6811 -2.0006 0.9344
16.7694 2.1940 -2.0089 0.9341
16.5735 3.7016 -2.0172 0.9339
16.2409 5.1914 -2.0254 0.9336
12.6112 11.9290 -2.0620 0.9325
6.4613 13.2199 -1.7479 0.9425
5.5224 14.4535 -1.8379 0.9396
4.4157 15.6313 -1.9294 0.9367
3.0014 15.9786 -1.9312 0.9366
0.9480 9.8421 -1.1745 0.9610
-1.1075 13.2708 -1.5819 0.9478
-2.3303 13.3428 -1.6089 0.9469
-4.9944 13.5896 -1.7198 0.9433
-7.5824 12.8971 -1.7771 0.9415
-9.3789 13.1061 -1.9144 0.9371
-6.8845 6.6808 -1.1395 0.9621
-7.4178 6.0075 -1.1339 0.9623
-8.5665 5.7492 -1.2255 0.9593
-14.4782 6.3237 -1.8767 0.9383
-16.1075 5.3764 -2.0171 0.9339
-16.7254 2.4058 -2.0072 0.9342
-16.8039 0.8951 -1.9989 0.9345
-16.5570 -2.0985 -1.9825 0.9350
-16.2370 -3.5580 -1.9745 0.9352
-15.2240 -6.3472 -1.9593 0.9357
-14.3891 -7.5763 -1.9317 0.9366
-12.3370 -7.9827 -1.7455 0.9425
-8.7000 -8.1634 -1.4171 0.9531
-6.2144 -8.3830 -1.2395 0.9588
-5.0699 -8.3013 -1.1554 0.9616
-4.1251 -8.3548 -1.1068 0.9632
-0.9441 -9.4046 -1.1228 0.9626
2.4948 -14.6317 -1.7631 0.9420
3.7981 -14.3625 -1.7647 0.9419
5.0750 -13.9822 -1.7669 0.9418
9.3717 -13.2079 -1.9237 0.9368
11.6383 -11.3851 -1.9339 0.9365
13.5674 -9.1849 -1.9462 0.9361
14.3852 -7.9611 -1.9530 0.9359
15.0954 -6.6656 -1.9602 0.9357
15.6914 -5.3077 -1.9677 0.9355
16.5180 -2.4438 -1.9835 0.9350
16.8273 0.5455 -1.9999 0.9344
16.7803 2.0583 -2.0082 0.9342
16.5967 3.5669 -2.0165 0.9339
16.2764 5.0588 -2.0246 0.9336
15.8203 6.5212 -2.0326 0.9334
8.4779 13.7568 -1.9195 0.9370
-2.4337 13.3022 -1.9161 0.9468
-7.9002 10.8541 -1.9021 0.9472
-7.0470 6.7292 -1.3806 0.9614
-8.6245 5.6881 -1.4638 0.9591
-10.6220 5.7121 -1.7088 0.9524
-13.5485 4.4014 -2.0184 0.9441
-13.8410 3.1600 -2.0116 0.9443
-14.0365 -0.6246 -1.9908 0.9448
-13.6070 -3.0966 -1.9773 0.9452
-13.2314 -4.2881 -1.9707 0.9454
-12.7537 -5.4381 -1.9645 0.9455
-4.9924 -8.3243 -1.3753 0.9615
-4.1215 -8.5195 -1.3410 0.9625
-0.8683 -9.4103 -1.3390 0.9625
2.2058 -12.3367 -1.7757 0.9506
6.9567 -11.7247 -1.9317 0.9464
7.9935 -11.0757 -1.9353 0.9463
8.9721 -10.3377 -1.9395 0.9462
11.4846 -7.6409 -1.9545 0.9458
12.1583 -6.6014 -1.9603 0.9456
12.7399 -5.5035 -1.9663 0.9455
13.2240 -4.3549 -1.9727 0.9453
13.6059 -3.1640 -1.9793 0.9451
13.8817 -1.9398 -1.9860 0.9449
14.0480 -0.6917 -1.9929 0.9448
14.1024 0.5707 -1.9998 0.9446
14.0434 1.8373 -2.0068 0.9444
13.8701 3.0978 -2.0137 0.9442
13.1828 5.5585 -2.0271 0.9438
12.6723 6.7377 -2.0335 0.9437
12.0546 7.8688 -2.0397 0.9435
10.5159 9.9471 -2.0510 0.9432
6.9691 11.5148 -1.9071 0.9471
3.6742 13.0063 -1.9150 0.9469
-1.1074 13.2691 -1.8866 0.9476
-1.4563 5.4189 -0.7950 0.9776
-4.6559 12.6686 -1.9124 0.9469
-5.7631 12.1833 -1.9096 0.9470
-7.8141 10.9194 -1.9025 0.9472
-8.5376 9.9173 -1.8542 0.9485
-6.9576 6.7516 -1.3737 0.9616
-12.1024 5.2860 -1.8712 0.9480
-13.5167 4.5116 -2.0190 0.9441
-13.8194 3.2723 -2.0122 0.9442
-14.0454 -0.5119 -1.9914 0.9448
-13.6356 -2.9879 -1.9779 0.9452
-12.8006 -5.3368 -1.9650 0.9455
-12.2339 -6.4416 -1.9590 0.9457
-11.5557 -7.4771 -1.9502 0.9459
-8.7747 -8.2335 -1.7049 0.9526
-7.2274 -8.1157 -1.5398 0.9570
-6.0600 -8.1747 -1.4418 0.9597
-5.0797 -8.3174 -1.3809 0.9614
-3.4575 -12.0537 -1.7768 0.9506
2.1063 -12.3533 -1.7756 0.9506
3.2062 -12.1244 -1.7770 0.9506
4.2833 -11.8011 -1.7788 0.9505
5.3297 -11.3854 -1.7812 0.9505
6.8611 -11.7784 -1.9314 0.9464
7.9027 -11.1376 -1.9350 0.9463
9.8059 -9.5925 -1.9436 0.9461
10.6525 -8.6983 -1.9486 0.9460
12.1015 -6.6972 -1.9597 0.9457
14.1022 0.4572 -1.9992 0.9446
13.6132 4.2311 -2.0199 0.9440
12.7225 6.6337 -2.0330 0.9437
9.6917 10.7952 -2.0556 0.9431
8.0417 10.7572 -1.9030 0.9472
6.0165 12.0630 -1.9100 0.9470
4.9194 12.5709 -1.9127 0.9469
1.2662 6.4541 -0.9319 0.9738
-0.0192 11.5746 -1.9068 0.9542
-1.0551 11.5242 -1.9064 0.9542
-2.0816 11.3781 -1.9055 0.9542
-3.6701 9.7433 -1.7152 0.9587
-5.9156 9.8793 -1.8970 0.9544
-6.7645 9.2939 -1.8937 0.9545
-7.4860 5.9636 -1.5767 0.9619
-8.6615 5.7125 -1.7093 0.9588
-10.0076 5.3817 -1.8719 0.9550
-11.2715 4.8154 -2.0192 0.9515
-11.8910 2.7148 -2.0093 0.9518
-12.0505 1.6345 -2.0034 0.9519
-11.9445 -1.6116 -1.9856 0.9523
-11.7181 -2.6667 -1.9798 0.9524
-10.9931 -4.6874 -1.9687 0.9527
-8.3198 -7.9334 -1.8938 0.9545
-6.1073 -8.3785 -1.7080 0.9588
-4.9602 -8.2706 -1.5887 0.9617
-3.5984 -9.5329 -1.6786 0.9595
-2.9047 -10.4428 -1.7857 0.9570
-1.7330 -9.4352 -1.5803 0.9619
0.9440 -10.7885 -1.7841 0.9570
1.9069 -10.6653 -1.7848 0.9570
2.8560 -10.4588 -1.7861 0.9570
3.7844 -10.1706 -1.7877 0.9570
5.0606 -10.5878 -1.9332 0.9535
6.0102 -10.1295 -1.9403 0.9534
6.9042 -9.5663 -1.9435 0.9533
9.2542 -7.4333 -1.9554 0.9530
9.9062 -6.5907 -1.9601 0.9529
11.7155 -2.7244 -1.9815 0.9524
11.9473 -1.6695 -1.9873 0.9523
12.0689 1.5790 -2.0052 0.9519
11.9142 2.6610 -2.0111 0.9517
11.6618 3.7277 -2.0169 0.9516
10.3359 6.7469 -2.0334 0.9512
9.0095 8.5221 -2.0430 0.9510
7.6000 8.6036 -1.8911 0.9545
6.8121 9.2669 -1.8947 0.9544
5.9651 9.8559 -1.8979 0.9544
5.0660 10.3652 -1.9006 0.9543
4.1226 10.7899 -1.9028 0.9543
3.1430 11.1259 -1.9046 0.9542
2.1357 11.3701 -1.9059 0.9542
0.9600 9.9662 -1.6494 0.9602
0.0739 11.5744 -1.9068 0.9542
-1.9901 11.3951 -1.9056 0.9542
-1.4565 5.4195 -0.9245 0.9775
-2.0160 5.4855 -0.9628 0.9766
-4.9319 10.4261 -1.9001 0.9543
-7.0289 6.8208 -1.6135 0.9611
-7.4451 6.0296 -1.5783 0.9619
-9.9664 5.4634 -1.8724 0.9550
-11.2266 4.9034 -2.0182 0.9515
-11.6063 3.8739 -2.0157 0.9516
-11.8719 2.8111 -2.0098 0.9517
-12.1107 0.6451 -1.9979 0.9520
-12.0836 -0.4404 -1.9920 0.9522
-11.7422 -2.5730 -1.9803 0.9524
-11.4321 -3.6036 -1.9747 0.9526
-8.4446 -7.9237 -1.9077 0.9541
-7.2580 -8.1501 -1.7979 0.9567
-6.2060 -8.3716 -1.7168 0.9586
-5.1384 -8.4135 -1.6241 0.9608
-3.6859 -9.5317 -1.6836 0.9594
2.7716 -10.4807 -1.7859 0.9570
3.7021 -10.1997 -1.7876 0.9570
8.4646 -8.2804 -1.9507 0.9531
9.1922 -7.5059 -1.9550 0.9530
9.8506 -6.6687 -1.9597 0.9529
10.9386 -4.8301 -1.9699 0.9527
11.6902 -2.8179 -1.9810 0.9524
11.9303 -1.7651 -1.9868 0.9523
12.0762 -0.6920 -1.9927 0.9521
12.1259 0.3931 -1.9987 0.9520
11.9321 2.5644 -2.0106 0.9517
11.6884 3.6328 -2.0164 0.9516
11.3483 4.6778 -2.0221 0.9515
10.9137 5.6905 -2.0276 0.9513
9.7733 7.5839 -2.0379 0.9511
7.6676 8.5406 -1.8908 0.9545
6.0433 9.8062 -1.8976 0.9544
3.2322 11.0994 -1.9045 0.9542
-0.0168 10.1016 -1.8987 0.9597
-1.8169 9.9309 -1.8976 0.9597
-1.4928 5.3812 -1.0497 0.9775
-2.0741 5.5064 -1.1060 0.9763
-4.3788 9.0674 -1.8926 0.9598
-5.1662 8.6277 -1.8902 0.9599
-5.9089 8.1182 -1.8873 0.9600
-7.8095 6.2213 -1.8767 0.9602
-8.3169 5.4852 -1.8726 0.9603
-9.4099 5.0602 -2.0082 0.9574
-10.1843 3.3085 -2.0127 0.9574
-10.4129 2.3774 -2.0076 0.9575
-10.5565 1.4319 -2.0024 0.9576
-10.6145 0.4798 -1.9972 0.9577
-10.5871 -0.4711 -1.9919 0.9578
-10.4752 -1.4134 -1.9868 0.9579
-10.2803 -2.3395 -1.9817 0.9580
-9.6509 -4.1151 -1.9720 0.9582
-8.7230 -5.7442 -1.9631 0.9584
-8.1569 -6.4887 -1.9591 0.9585
-7.5288 -7.1792 -1.9554 0.9585
-6.8303 -7.7952 -1.9481 0.9587
-5.8872 -8.0766 -1.8786 0.9601
-4.9194 -8.2025 -1.7978 0.9618
-4.1169 -8.5098 -1.7769 0.9623
-2.5557 -9.1881 -1.7926 0.9619
-0.0225 -9.5281 -1.7909 0.9620
1.6779 -9.3843 -1.7919 0.9619
2.5128 -9.2019 -1.7929 0.9619
4.4614 -9.3343 -1.9446 0.9588
6.0707 -8.4115 -1.9498 0.9587
6.8104 -7.8470 -1.9530 0.9586
8.1310 -6.5311 -1.9603 0.9584
8.7013 -5.7891 -1.9644 0.9584
9.9966 -3.2921 -1.9782 0.9581
10.2770 -2.3899 -1.9832 0.9580
10.4766 -1.4640 -1.9883 0.9579
10.5931 -0.5216 -1.9935 0.9578
10.6250 0.4300 -1.9987 0.9576
10.2075 3.2628 -2.0142 0.9573
9.0377 5.8995 -2.0286 0.9570
8.4914 6.6992 -2.0330 0.9569
6.6397 7.5165 -1.8851 0.9600
0.0645 10.1014 -1.8987 0.9597
-0.8400 10.0651 -1.8984 0.9597
-5.8442 8.1667 -1.8876 0.9600
-7.0768 6.8673 -1.8535 0.9607
-8.2742 5.5531 -1.8730 0.9603
-9.2223 5.0554 -1.9768 0.9581
-10.1596 3.3911 -2.0132 0.9573
-10.5931 -0.3860 -1.9924 0.9578
-10.4887 -1.3294 -1.9872 0.9579
-10.3011 -2.2573 -1.9822 0.9580
-10.0326 -3.1625 -1.9772 0.9581
-9.6857 -4.0382 -1.9724 0.9582
-8.7706 -5.6750 -1.9635 0.9584
-6.8966 -7.7442 -1.9491 0.9587
-5.9820 -8.0694 -1.8880 0.9599
-3.4426 -8.9024 -1.7941 0.9619
-2.6297 -9.1678 -1.7927 0.9619
-0.9518 -9.4815 -1.7911 0.9620
3.4751 -9.5744 -1.9145 0.9594
4.3857 -9.3689 -1.9444 0.9588
5.2132 -8.9496 -1.9468 0.9587
6.7460 -7.9003 -1.9527 0.9586
7.4394 -7.2776 -1.9561 0.9585
8.0768 -6.5951 -1.9599 0.9584
9.6024 -4.2401 -1.9730 0.9582
10.6257 0.3445 -1.9983 0.9577
10.4481 2.2455 -2.0087 0.9574
9.9299 4.0932 -2.0188 0.9572
9.5463 4.9776 -2.0236 0.9571
9.0830 5.8255 -2.0282 0.9570
7.9315 7.3825 -2.0367 0.9569
6.6989 7.4617 -1.8848 0.9600
6.0141 8.0448 -1.8879 0.9599
4.4953 9.0130 -1.8931 0.9598
2.8213 9.6884 -1.8967 0.9598
1.2661 6.4538 -1.2362 0.9736
-0.8162 8.9139 -1.8921 0.9641
-1.4958 5.3921 -1.1828 0.9774
-2.0514 5.4461 -1.2302 0.9765
-3.8821 8.0390 -1.8870 0.9642
-4.5809 7.6502 -1.8848 0.9642
-6.4198 6.1303 -1.8763 0.9644
-6.9303 5.5209 -1.8729 0.9644
-8.4146 4.5250 -2.0196 0.9617
-9.3833 1.2728 -2.0016 0.9620
-9.4160 -0.4190 -1.9923 0.9622
-8.5928 -3.6639 -1.9746 0.9625
-8.2134 -4.4094 -1.9705 0.9626
-7.2678 -5.7815 -1.9631 0.9627
-6.7096 -6.3980 -1.9597 0.9628
-6.1004 -6.9622 -1.9567 0.9629
-5.4450 -7.4699 -1.9540 0.9629
-4.7396 -7.9028 -1.9479 0.9630
-3.1104 -8.2398 -1.8617 0.9646
-2.3070 -8.2938 -1.8197 0.9654
-1.5360 -8.3623 -1.7972 0.9658
-0.0201 -8.4992 -1.7966 0.9658
0.7472 -8.5394 -1.8120 0.9656
1.5600 -8.7247 -1.8735 0.9644
3.2143 -8.6384 -1.9483 0.9630
4.7128 -7.9428 -1.9522 0.9629
5.4118 -7.4986 -1.9547 0.9629
6.0702 -6.9941 -1.9576 0.9628
8.1975 -4.4509 -1.9717 0.9626
8.5809 -3.7069 -1.9758 0.9625
9.1446 -2.1265 -1.9846 0.9623
9.3195 -1.3023 -1.9891 0.9623
9.4205 -0.4638 -1.9937 0.9622
9.4462 0.3823 -1.9984 0.9621
9.3958 1.2293 -2.0030 0.9620
9.2693 2.0703 -2.0076 0.9619
8.7905 3.7065 -2.0166 0.9617
8.0216 5.2362 -2.0249 0.9616
6.9848 6.6070 -2.0323 0.9615
5.2765 7.1779 -1.8831 0.9642
4.6187 7.6313 -1.8855 0.9642
2.4316 8.6078 -1.8907 0.9641
1.6521 8.7953 -1.8917 0.9641
0.8583 8.9106 -1.8922 0.9641
0.0572 8.9524 -1.8924 0.9641
-0.7444 8.9204 -1.8922 0.9641
-1.5395 8.8149 -1.8915 0.9641
-1.9906 5.4162 -1.2198 0.9767
-4.5197 7.6877 -1.8851 0.9642
-6.3713 6.1827 -1.8766 0.9644
-6.8868 5.5774 -1.8733 0.9644
-7.4023 4.9679 -1.8844 0.9642
-8.3765 4.5918 -2.0192 0.9617
-9.3748 1.3485 -2.0020 0.9620
-9.4359 0.5026 -1.9974 0.9621
-8.6237 -3.5954 -1.9750 0.9625
-8.2501 -4.3440 -1.9709 0.9626
-7.8127 -5.0552 -1.9670 0.9627
-6.1570 -6.9138 -1.9569 0.9629
-4.8049 -7.8673 -1.9486 0.9630
-4.0362 -8.1747 -1.9271 0.9634
-3.1844 -8.2348 -1.8663 0.9645
-2.3777 -8.2891 -1.8228 0.9654
-1.6032 -8.3500 -1.7973 0.9658
0.6770 -8.5255 -1.8078 0.9656
1.4843 -8.7053 -1.8667 0.9645
3.1444 -8.6633 -1.9482 0.9630
3.9109 -8.3546 -1.9499 0.9630
4.6482 -7.9796 -1.9520 0.9629
7.7076 -5.2179 -1.9675 0.9627
8.1599 -4.5158 -1.9714 0.9626
8.5492 -3.7750 -1.9755 0.9625
8.8720 -3.0010 -1.9797 0.9624
9.3068 -1.3770 -1.9887 0.9623
9.4145 -0.5395 -1.9933 0.9622
9.4469 0.3062 -1.9979 0.9621
9.4034 1.1534 -2.0026 0.9620
8.8183 3.6350 -2.0162 0.9618
8.4754 4.4192 -2.0204 0.9617
7.0367 6.5496 -2.0320 0.9615
5.9419 6.6185 -1.8801 0.9643
5.3334 7.1344 -1.8829 0.9642
4.6794 7.5931 -1.8853 0.9642
2.5007 8.5874 -1.8906 0.9641
1.2660 6.4535 -1.3901 0.9735
-0.0133 8.0304 -1.8873 0.9675
-0.7321 7.9959 -1.8871 0.9675
-1.4978 5.3993 -1.3169 0.9772
-2.0377 5.4098 -1.3586 0.9765
-3.4833 7.2130 -1.8825 0.9676
-4.1107 6.8650 -1.8806 0.9677
-7.1629 4.7241 -2.0166 0.9654
-7.5589 4.0649 -2.0171 0.9653
-7.8773 3.3654 -2.0132 0.9654
-8.3177 1.8990 -2.0051 0.9656
-8.4368 1.1444 -2.0010 0.9656
-8.2331 -1.8736 -1.9844 0.9659
-8.0163 -2.5980 -1.9805 0.9660
-6.9989 -4.6089 -1.9695 0.9662
-6.5474 -5.2084 -1.9663 0.9662
-6.0455 -5.7648 -1.9633 0.9663
-4.9075 -6.7325 -1.9581 0.9663
-3.6208 -7.4844 -1.9540 0.9664
-1.4958 -8.1436 -1.9459 0.9666
-0.0195 -8.2745 -1.9447 0.9666
1.4609 -8.1705 -1.9507 0.9665
2.1875 -8.0108 -1.9516 0.9665
2.8978 -7.7879 -1.9529 0.9664
3.5863 -7.5034 -1.9546 0.9664
4.2479 -7.1593 -1.9565 0.9664
6.5259 -5.2418 -1.9672 0.9662
7.3816 -4.0079 -1.9741 0.9661
7.7253 -3.3372 -1.9778 0.9660
8.0087 -2.6374 -1.9817 0.9659
8.3847 -1.1717 -1.9897 0.9658
8.4735 -0.4172 -1.9939 0.9657
8.4474 1.1052 -2.0022 0.9656
8.1481 2.6045 -2.0105 0.9655
7.8978 3.3301 -2.0144 0.9654
7.5823 4.0314 -2.0182 0.9653
6.7655 5.3377 -2.0253 0.9652
6.2705 5.9313 -2.0286 0.9652
2.8621 7.4907 -1.8846 0.9676
2.1814 7.7218 -1.8858 0.9676
-0.6678 8.0017 -1.8871 0.9675
-1.9772 5.3799 -1.3471 0.9767
-3.4254 7.2414 -1.8827 0.9676
-6.1839 5.0082 -1.8702 0.9678
-7.1223 4.7800 -2.0159 0.9654
-8.3036 1.9662 -2.0055 0.9655
-8.4858 0.4520 -1.9972 0.9657
-8.4744 -0.3088 -1.9930 0.9658
-8.3953 -1.0641 -1.9889 0.9658
-8.2494 -1.8077 -1.9848 0.9659
-8.0383 -2.5339 -1.9808 0.9660
-7.7642 -3.2370 -1.9770 0.9660
-7.4293 -3.9118 -1.9733 0.9661
-7.0368 -4.5532 -1.9698 0.9661
-4.9621 -6.6935 -1.9583 0.9663
-3.6812 -7.4556 -1.9542 0.9664
-2.9965 -7.7491 -1.9526 0.9664
-1.5614 -8.1320 -1.9461 0.9665
-0.0861 -8.2737 -1.9446 0.9666
1.3950 -8.1817 -1.9506 0.9665
2.1229 -8.0277 -1.9516 0.9665
2.8349 -7.8104 -1.9528 0.9664
4.1898 -7.1926 -1.9563 0.9664
4.8224 -6.7964 -1.9585 0.9663
5.4184 -6.3455 -1.9611 0.9663
6.4825 -5.2933 -1.9669 0.9662
6.9420 -4.6996 -1.9702 0.9661
7.3479 -4.0665 -1.9738 0.9661
7.9858 -2.7013 -1.9813 0.9660
8.2120 -1.9795 -1.9853 0.9659
8.3734 -1.2389 -1.9894 0.9658
8.4683 -0.4853 -1.9935 0.9657
8.4544 1.0370 -2.0019 0.9656
7.9229 3.2659 -2.0141 0.9654
7.6132 3.9696 -2.0179 0.9653
7.2404 4.6437 -2.0216 0.9653
6.8073 5.2823 -2.0250 0.9652
6.3171 5.8799 -2.0283 0.9652
4.1990 6.8136 -1.8810 0.9676
2.9220 7.4670 -1.8845 0.9676
-0.6631 7.2421 -1.8829 0.9704
-0.9883 5.4017 -1.4218 0.9776
-1.4967 5.3955 -1.4498 0.9771
-1.8474 4.9046 -1.3570 0.9786
-2.3795 4.9275 -1.4168 0.9776
-3.7244 6.2198 -1.8771 0.9705
-4.2616 5.8550 -1.8750 0.9705
-4.7628 5.4433 -1.8727 0.9706
-5.2239 4.9883 -1.8702 0.9706
-6.5078 4.2920 -2.0184 0.9683
-7.3757 2.3961 -2.0080 0.9685
-7.5467 1.7230 -2.0042 0.9685
-7.6562 1.0385 -2.0005 0.9686
-7.7038 0.3482 -1.9967 0.9686
-7.6894 -0.3422 -1.9929 0.9687
-7.6135 -1.0273 -1.9891 0.9688
-7.2815 -2.3598 -1.9819 0.9689
-3.8924 -6.4902 -1.9595 0.9692
-2.6685 -7.0692 -1.9564 0.9693
-1.3638 -7.4247 -1.9546 0.9693
1.9897 -7.2862 -1.9556 0.9693
3.8629 -6.5104 -1.9600 0.9692
4.9730 -5.7299 -1.9644 0.9691
5.4732 -5.2686 -1.9670 0.9691
7.0181 -3.0317 -1.9794 0.9689
7.2742 -2.3955 -1.9829 0.9689
7.6129 -1.0638 -1.9903 0.9687
7.6921 -0.3787 -1.9940 0.9687
7.7098 0.3120 -1.9978 0.9686
7.1626 3.0201 -2.0126 0.9684
6.8753 3.6555 -2.0161 0.9683
6.5311 4.2633 -2.0194 0.9683
4.2907 5.8369 -1.8757 0.9705
3.7549 6.2040 -1.8776 0.9705
1.9758 6.9943 -1.8818 0.9704
1.3423 7.1460 -1.8826 0.9704
0.0464 7.2731 -1.8832 0.9704
-0.6048 7.2473 -1.8830 0.9704
-0.9763 5.5902 -1.4693 0.9768
-1.9655 5.3480 -1.4753 0.9767
-2.3294 4.9243 -1.4104 0.9777
-3.6745 6.2502 -1.8772 0.9705
-6.0070 4.8649 -2.0014 0.9686
-6.4740 4.3449 -2.0187 0.9683
-6.8256 3.7416 -2.0154 0.9683
-7.5338 1.7839 -2.0046 0.9685
-7.7020 0.4103 -1.9970 0.9686
-7.6932 -0.2804 -1.9932 0.9687
-7.6228 -0.9661 -1.9895 0.9688
-7.0536 -2.9408 -1.9787 0.9689
-6.7506 -3.5544 -1.9753 0.9690
-6.3950 -4.1379 -1.9722 0.9690
-4.5119 -6.0863 -1.9616 0.9692
-3.9449 -6.4592 -1.9596 0.9692
-3.3478 -6.7805 -1.9579 0.9692
-2.7254 -7.0479 -1.9565 0.9693
-2.0823 -7.2595 -1.9554 0.9693
-1.4235 -7.4137 -1.9546 0.9693
-0.0785 -7.5464 -1.9540 0.9693
1.2689 -7.4421 -1.9547 0.9693
3.2063 -6.8494 -1.9581 0.9692
3.8100 -6.5407 -1.9599 0.9692
4.3848 -6.1797 -1.9619 0.9692
4.9262 -5.7691 -1.9642 0.9691
5.8920 -4.8112 -1.9695 0.9691
6.6765 -3.6949 -1.9757 0.9690
6.9924 -3.0876 -1.9791 0.9689
7.4577 -1.7976 -1.9862 0.9688
7.6875 -0.4405 -1.9937 0.9687
7.7107 0.2500 -1.9975 0.9686
7.6719 0.9410 -2.0013 0.9686
7.4086 2.3026 -2.0087 0.9685
7.1856 2.9619 -2.0123 0.9684
6.1706 4.7882 -2.0223 0.9682
5.7254 5.3291 -2.0252 0.9682
3.8043 6.1731 -1.8775 0.9705
3.2393 6.4948 -1.8792 0.9705
-0.0110 6.6398 -1.8797 0.9728
-0.6053 6.6115 -1.8795 0.9728
-0.9882 5.4016 -1.5545 0.9774
-1.8431 4.8932 -1.4802 0.9785
-2.3792 4.9267 -1.5488 0.9775
-5.0418 4.8144 -1.9735 0.9714
-5.5766 4.4425 -2.0184 0.9708
-5.9462 3.9217 -2.0165 0.9708
-6.7423 2.1903 -2.0069 0.9710
-6.9652 -0.9398 -1.9897 0.9712
-6.8415 -1.5569 -1.9863 0.9713
-6.6636 -2.1596 -1.9830 0.9713
-5.8233 -3.8348 -1.9739 0.9714
-3.0166 -6.2355 -1.9609 0.9716
-1.8541 -6.6658 -1.9587 0.9716
-0.6353 -6.8857 -1.9576 0.9717
-0.0163 -6.9146 -1.9575 0.9717
0.6028 -6.8890 -1.9577 0.9717
1.8229 -6.6754 -1.9589 0.9716
2.9878 -6.2511 -1.9614 0.9716
3.5383 -5.9634 -1.9630 0.9716
4.0619 -5.6281 -1.9649 0.9716
4.5544 -5.2476 -1.9670 0.9715
5.0119 -4.8246 -1.9694 0.9715
5.4308 -4.3622 -1.9720 0.9715
6.1394 -3.3334 -1.9777 0.9714
6.9643 -0.9732 -1.9907 0.9712
7.0506 0.2854 -1.9976 0.9711
7.0089 0.9170 -2.0011 0.9710
6.9105 1.5434 -2.0045 0.9710
6.5461 2.7602 -2.0112 0.9709
6.2826 3.3404 -2.0143 0.9709
5.6025 4.4201 -2.0202 0.9708
5.1911 4.9103 -2.0229 0.9707
3.9184 5.3304 -1.8728 0.9729
2.9102 5.9543 -1.8762 0.9728
2.3670 6.1952 -1.8775 0.9728
1.8039 6.3856 -1.8785 0.9728
0.0424 6.6397 -1.8797 0.9728
-0.5521 6.6162 -1.8795 0.9728
-0.9763 5.5900 -1.6065 0.9767
-3.3555 5.7074 -1.8743 0.9729
-4.9598 4.8129 -1.9565 0.9717
-5.9152 3.9699 -2.0167 0.9708
-6.2374 3.4192 -2.0137 0.9709
-6.8878 1.6310 -2.0038 0.9710
-7.0438 0.3752 -1.9969 0.9711
-7.0369 -0.2565 -1.9934 0.9712
-6.6817 -2.1062 -1.9833 0.9713
-6.4559 -2.6916 -1.9801 0.9713
-5.8547 -3.7883 -1.9741 0.9714
-5.0718 -4.7589 -1.9689 0.9715
-4.6199 -5.1878 -1.9666 0.9715
-3.0669 -6.2114 -1.9611 0.9716
-2.4968 -6.4568 -1.9598 0.9716
-1.9078 -6.6509 -1.9588 0.9716
-1.3042 -6.7925 -1.9580 0.9717
1.1626 -6.8184 -1.9581 0.9717
2.9372 -6.2745 -1.9612 0.9716
3.4900 -5.9912 -1.9629 0.9716
4.5116 -5.2835 -1.9668 0.9715
4.9724 -4.8642 -1.9692 0.9715
5.3949 -4.4052 -1.9717 0.9715
5.7756 -3.9100 -1.9745 0.9714
6.1115 -3.3822 -1.9774 0.9714
6.3997 -2.8259 -1.9805 0.9713
6.6378 -2.2453 -1.9837 0.9713
6.8235 -1.6447 -1.9870 0.9712
7.0150 0.8605 -2.0008 0.9710
6.9216 1.4876 -2.0042 0.9710
6.5672 2.7070 -2.0109 0.9709
6.3084 3.2893 -2.0141 0.9709
5.6372 4.3743 -2.0199 0.9708
3.9608 5.2982 -1.8727 0.9729
3.4739 5.6370 -1.8745 0.9728
2.4167 6.1756 -1.8774 0.9728
1.8551 6.3706 -1.8784 0.9728
-0.5563 6.0756 -1.8765 0.9748
-1.3486 4.8615 -1.5518 0.9791
-1.8429 4.8925 -1.6080 0.9784
-3.1261 5.2207 -1.8716 0.9749
-3.5776 4.9153 -1.8699 0.9749
-4.7420 4.5281 -2.0167 0.9729
-5.1302 4.0869 -2.0174 0.9729
-5.4682 3.6064 -2.0148 0.9730
-6.0065 2.5661 -2.0090 0.9730
-6.2027 2.0150 -2.0060 0.9731
-6.4424 0.8738 -1.9997 0.9732
-6.4122 -0.8652 -1.9901 0.9733
-6.2992 -1.4335 -1.9870 0.9733
-6.1361 -1.9887 -1.9840 0.9734
-5.9247 -2.5263 -1.9811 0.9734
-5.6667 -3.0422 -1.9782 0.9734
-5.3644 -3.5325 -1.9756 0.9735
-5.0202 -3.9935 -1.9731 0.9735
-4.6371 -4.4217 -1.9708 0.9735
-3.7665 -5.1672 -1.9667 0.9736
-3.2860 -5.4790 -1.9651 0.9736
-2.7803 -5.7470 -1.9636 0.9736
-2.2533 -5.9693 -1.9625 0.9737
1.6802 -6.1529 -1.9618 0.9737
2.2254 -5.9808 -1.9628 0.9736
2.7537 -5.7613 -1.9640 0.9736
3.7431 -5.1864 -1.9673 0.9736
4.6177 -4.4451 -1.9714 0.9735
5.9153 -2.5553 -1.9819 0.9734
6.1295 -2.0185 -1.9849 0.9734
6.4759 -0.3188 -1.9943 0.9732
6.3581 1.4200 -2.0038 0.9731
5.4874 3.5820 -2.0156 0.9729
5.1514 4.0642 -2.0182 0.9729
3.8263 5.2051 -1.9870 0.9733
3.1515 5.2072 -1.8721 0.9748
2.1754 5.6936 -1.8747 0.9748
1.6578 5.8683 -1.8756 0.9748
1.1261 5.9952 -1.8763 0.9748
0.4829 5.0132 -1.5491 0.9791
0.0390 6.1016 -1.8767 0.9748
-0.5074 6.0800 -1.8766 0.9748
-0.9714 5.5619 -1.7366 0.9766
-1.7970 4.8896 -1.6023 0.9784
-2.3286 4.9228 -1.6750 0.9775
-3.0842 5.2461 -1.8718 0.9749
-3.5383 4.9444 -1.8701 0.9749
-4.1043 4.7676 -1.9350 0.9740
-4.7043 4.5651 -2.0162 0.9729
-5.4397 3.6508 -2.0150 0.9730
-5.7367 3.1447 -2.0122 0.9730
-6.1871 2.0651 -2.0062 0.9731
-6.4199 -0.8137 -1.9904 0.9733
-6.1528 -1.9395 -1.9843 0.9734
-5.9456 -2.4788 -1.9813 0.9734
-5.3932 -3.4897 -1.9758 0.9735
-4.2571 -4.7803 -1.9688 0.9736
-3.8083 -5.1372 -1.9669 0.9736
-1.7585 -6.1304 -1.9616 0.9737
-0.6367 -6.3423 -1.9606 0.9737
0.5046 -6.3543 -1.9606 0.9737
1.0716 -6.2850 -1.9610 0.9737
2.1771 -5.9982 -1.9627 0.9736
2.7071 -5.7829 -1.9639 0.9736
3.2163 -5.5215 -1.9654 0.9736
3.7010 -5.2159 -1.9671 0.9736
4.1572 -4.8684 -1.9691 0.9736
4.9701 -4.0583 -1.9736 0.9735
6.4028 -0.9473 -1.9908 0.9733
6.4722 -0.3709 -1.9940 0.9732
6.4898 0.2104 -1.9972 0.9732
6.4552 0.7918 -2.0004 0.9732
6.0407 2.4900 -2.0096 0.9730
5.8019 3.0252 -2.0126 0.9730
5.1833 4.0222 -2.0180 0.9729
4.8083 4.4755 -2.0204 0.9729
3.1931 5.1813 -1.8720 0.9749
2.2210 5.6756 -1.8746 0.9748
1.7048 5.8546 -1.8755 0.9748
-0.0094 5.6383 -1.8742 0.9765
-1.3484 4.8608 -1.6768 0.9790
-3.4410 4.7276 -1.9437 0.9757
-3.9929 4.5635 -2.0156 0.9748
-5.3275 2.8649 -2.0107 0.9748
-5.7372 1.8638 -2.0052 0.9749
-5.8725 1.3408 -2.0023 0.9749
-5.9998 0.2712 -1.9964 0.9750
-5.9345 -0.8007 -1.9905 0.9751
-5.8305 -1.3269 -1.9876 0.9751
-5.4851 -2.3388 -1.9821 0.9752
-5.2468 -2.8168 -1.9795 0.9752
-4.2947 -4.0952 -1.9726 0.9753
-3.9069 -4.4588 -1.9706 0.9753
-3.4889 -4.7864 -1.9689 0.9753
-2.5757 -5.3241 -1.9660 0.9754
-2.0876 -5.5303 -1.9649 0.9754
-1.5834 -5.6925 -1.9640 0.9754
-0.0139 -5.9055 -1.9630 0.9754
1.5567 -5.7006 -1.9643 0.9754
2.0617 -5.5409 -1.9652 0.9754
3.4672 -4.8041 -1.9694 0.9753
3.8869 -4.4786 -1.9712 0.9753
4.2767 -4.1168 -1.9732 0.9753
4.6332 -3.7216 -1.9754 0.9753
4.9537 -3.2958 -1.9778 0.9752
5.4763 -2.3657 -1.9829 0.9752
5.8267 -1.3550 -1.9885 0.9751
6.0037 0.2430 -1.9973 0.9750
5.7484 1.8375 -2.0060 0.9749
5.3431 2.8408 -2.0115 0.9748
4.4120 4.1734 -2.0187 0.9747
3.5964 4.8924 -2.0184 0.9747
1.0406 5.5401 -1.8737 0.9765
0.4819 5.0030 -1.6707 0.9790
0.0360 5.6382 -1.8742 0.9765
-0.4689 5.6183 -1.8740 0.9765
-1.3056 4.8581 -1.6722 0.9790
-1.7967 4.8889 -1.7314 0.9783
-2.2951 4.8519 -1.7841 0.9776
-2.8505 4.8486 -1.8696 0.9766
-3.3823 4.7265 -1.9320 0.9758
-4.3574 4.2284 -2.0183 0.9747
-5.5365 2.4182 -2.0082 0.9749
-5.7227 1.9101 -2.0054 0.9749
-5.8623 1.3881 -2.0026 0.9749
-5.9939 -0.2184 -1.9937 0.9750
-5.8418 -1.2801 -1.9879 0.9751
-5.2699 -2.7748 -1.9797 0.9752
-4.3279 -4.0609 -1.9728 0.9753
-3.9430 -4.4276 -1.9708 0.9753
-3.5276 -4.7586 -1.9690 0.9753
-0.5899 -5.8763 -1.9631 0.9754
-0.0615 -5.9052 -1.9630 0.9754
0.4675 -5.8874 -1.9632 0.9754
0.9929 -5.8231 -1.9636 0.9754
2.0170 -5.5571 -1.9651 0.9754
2.9794 -5.1148 -1.9676 0.9754
3.4282 -4.8315 -1.9692 0.9753
3.8505 -4.5093 -1.9710 0.9753
4.2430 -4.1507 -1.9730 0.9753
4.6027 -3.7583 -1.9752 0.9753
5.4564 -2.4094 -1.9827 0.9752
5.6580 -1.9139 -1.9854 0.9751
6.0047 0.1946 -1.9970 0.9750
5.9719 0.7325 -2.0000 0.9750
5.8910 1.2661 -2.0029 0.9749
5.7622 1.7909 -2.0058 0.9749
5.5865 2.3028 -2.0086 0.9749
5.0997 3.2707 -2.0138 0.9748
4.4450 4.1373 -2.0185 0.9747
3.0363 4.9269 -1.9238 0.9759
2.5124 5.0373 -1.8711 0.9766
2.0525 5.2450 -1.8722 0.9765
1.0851 5.5314 -1.8737 0.9765
-1.3290 4.7908 -1.7779 0.9791
-2.8077 4.6890 -1.9544 0.9771
-3.3161 4.5559 -2.0151 0.9763
-3.7167 4.2478 -2.0184 0.9763
-4.0781 3.8942 -2.0165 0.9763
-4.4057 3.5097 -2.0143 0.9764
-4.6969 3.0977 -2.0120 0.9764
-5.3310 1.7319 -2.0045 0.9765
-5.4574 1.2460 -2.0018 0.9765
-5.5172 -0.7444 -1.9909 0.9766
-5.1010 -2.1750 -1.9831 0.9767
-4.8798 -2.6198 -1.9806 0.9767
-4.3247 -3.4402 -1.9762 0.9768
-3.9953 -3.8097 -1.9742 0.9768
-3.6348 -4.1483 -1.9723 0.9768
-2.8323 -4.7225 -1.9693 0.9769
-1.9425 -5.1461 -1.9670 0.9769
-1.4734 -5.2972 -1.9662 0.9769
-0.9930 -5.4063 -1.9657 0.9769
-0.5049 -5.4726 -1.9654 0.9769
0.4791 -5.4751 -1.9654 0.9769
1.4486 -5.3047 -1.9664 0.9769
2.8106 -4.7369 -1.9697 0.9769
3.2258 -4.4697 -1.9712 0.9769
3.6161 -4.1665 -1.9729 0.9768
3.9784 -3.8297 -1.9748 0.9768
4.8692 -2.6437 -1.9814 0.9767
5.2759 -1.7374 -1.9864 0.9767
5.5159 -0.7708 -1.9917 0.9766
5.5704 -0.2743 -1.9944 0.9766
5.5802 0.2258 -1.9972 0.9766
5.5452 0.7255 -1.9999 0.9765
5.3413 1.7073 -2.0053 0.9765
5.1736 2.1815 -2.0079 0.9764
4.7131 3.0766 -2.0127 0.9764
4.4237 3.4900 -2.0150 0.9763
2.9180 4.8214 -2.0154 0.9763
2.3169 4.7405 -1.8869 0.9778
0.9662 5.1436 -1.8716 0.9780
0.0334 5.2346 -1.8720 0.9780
-0.4353 5.2162 -1.8718 0.9780
-2.2348 4.7245 -1.8690 0.9780
-3.2788 4.5817 -2.0148 0.9764
-3.6828 4.2779 -2.0186 0.9763
-4.3777 3.5454 -2.0145 0.9764
-4.9284 2.7016 -2.0098 0.9764
-5.1440 2.2467 -2.0073 0.9764
-5.5339 0.7960 -1.9993 0.9765
-5.5718 -0.2031 -1.9938 0.9766
-5.5237 -0.7001 -1.9911 0.9766
-5.4315 -1.1902 -1.9884 0.9767
-4.9013 -2.5807 -1.9808 0.9767
-3.6683 -4.1192 -1.9725 0.9768
-3.2821 -4.4274 -1.9708 0.9769
-2.4366 -4.9349 -1.9681 0.9769
-1.5161 -5.2853 -1.9663 0.9769
-1.0365 -5.3982 -1.9657 0.9769
-0.5490 -5.4684 -1.9654 0.9769
1.4058 -5.3160 -1.9664 0.9769
2.3335 -4.9849 -1.9683 0.9769
2.7722 -4.7590 -1.9696 0.9769
3.1895 -4.4951 -1.9710 0.9769
3.5822 -4.1951 -1.9727 0.9768
4.2813 -3.4960 -1.9766 0.9768
4.8472 -2.6825 -1.9811 0.9767
5.0742 -2.2406 -1.9836 0.9767
5.5088 -0.8150 -1.9914 0.9766
5.5673 -0.3190 -1.9942 0.9766
5.4744 1.1765 -2.0024 0.9765
5.3542 1.6641 -2.0050 0.9765
4.7372 3.0382 -2.0125 0.9764
2.9574 4.7988 -2.0158 0.9763
2.3691 4.7500 -1.8982 0.9777
1.0075 5.1356 -1.8715 0.9780
-0.4449 4.8591 -1.8699 0.9793
-0.8779 4.7988 -1.8695 0.9793
-2.2464 4.6517 -1.9796 0.9781
-2.7013 4.5113 -2.0151 0.9777
-3.0994 4.2582 -2.0183 0.9777
-4.6164 2.4825 -2.0087 0.9778
-4.8145 2.0569 -2.0063 0.9778
-2.3136 0.3138 -0.8947 0.9900
-5.0600 -1.1515 -1.9887 0.9780
-4.3140 -2.8409 -1.9795 0.9781
-4.0382 -3.2124 -1.9775 0.9781
-3.7309 -3.5576 -1.9756 0.9782
-3.0317 -4.1591 -1.9723 0.9782
-1.8144 -4.8067 -1.9689 0.9782
-0.4717 -5.1120 -1.9673 0.9782
-0.0121 -5.1335 -1.9673 0.9782
0.9038 -5.0547 -1.9678 0.9782
1.7919 -4.8159 -1.9692 0.9782
2.6250 -4.4241 -1.9714 0.9782
3.0127 -4.1743 -1.9728 0.9782
3.3770 -3.8910 -1.9744 0.9782
3.7151 -3.5762 -1.9761 0.9782
4.0242 -3.2324 -1.9780 0.9781
4.3019 -2.8621 -1.9801 0.9781
4.5459 -2.4682 -1.9823 0.9781
4.7541 -2.0537 -1.9846 0.9781
5.1479 -0.7194 -1.9919 0.9780
5.1983 -0.2559 -1.9945 0.9780
5.1738 0.6769 -1.9996 0.9779
4.9827 1.5927 -2.0046 0.9778
4.8259 2.0348 -2.0070 0.9778
4.6297 2.4615 -2.0094 0.9778
4.1253 3.2547 -2.0137 0.9777
3.4853 3.9455 -2.0174 0.9777
2.7263 4.5047 -2.0178 0.9777
2.3036 4.7133 -2.0104 0.9778
0.4679 4.8571 -1.8699 0.9793
-0.4058 4.8626 -1.8699 0.9793
-1.2658 4.7100 -1.8690 0.9793
-2.1999 4.6506 -1.9715 0.9782
-3.7739 3.6622 -2.0152 0.9777
-4.0826 3.3064 -2.0132 0.9777
-4.5968 2.5198 -2.0089 0.9778
-5.0826 1.2035 -2.0016 0.9779
-2.3018 0.1226 -0.8833 0.9902
-2.3017 -0.2917 -0.8891 0.9901
-5.0697 -1.1109 -1.9889 0.9780
-4.7787 -1.9924 -1.9841 0.9781
-4.3371 -2.8063 -1.9797 0.9781
-3.7597 -3.5278 -1.9757 0.9782
-3.0653 -4.1349 -1.9725 0.9782
-2.2758 -4.6093 -1.9699 0.9782
-1.4161 -4.9369 -1.9682 0.9782
-0.9682 -5.0425 -1.9677 0.9782
0.4064 -5.1177 -1.9674 0.9782
0.8631 -5.0617 -1.9677 0.9782
1.3131 -4.9655 -1.9683 0.9782
1.7531 -4.8300 -1.9691 0.9782
2.5892 -4.4448 -1.9713 0.9782
3.6859 -3.6057 -1.9760 0.9782
4.2783 -2.8964 -1.9799 0.9781
4.7369 -2.0917 -1.9844 0.9781
4.9948 1.5524 -2.0044 0.9778
4.8416 1.9957 -2.0068 0.9778
4.4181 2.8336 -2.0114 0.9778
4.1510 3.2211 -2.0135 0.9777
3.5166 3.9170 -2.0173 0.9777
3.1544 4.2195 -2.0189 0.9777
2.7630 4.4834 -2.0182 0.9777
2.3458 4.7034 -2.0142 0.9777
1.8152 4.6384 -1.9088 0.9789
1.3636 4.6828 -1.8691 0.9793
0.9392 4.7874 -1.8696 0.9793
-0.0076 4.5649 -1.8683 0.9805
-0.4180 4.5658 -1.8765 0.9804
-2.1414 4.4344 -2.0154 0.9789
-3.5585 3.3981 -2.0138 0.9790
-3.8449 3.0630 -2.0119 0.9790
-4.0996 2.7038 -2.0099 0.9790
-4.3207 2.3235 -2.0078 0.9790
-2.0928 0.4778 -0.8786 0.9908
-2.0206 0.2741 -0.8346 0.9912
-2.0029 0.0905 -0.8206 0.9914
-4.6180 -1.4967 -1.9868 0.9792
-4.4605 -1.9019 -1.9846 0.9793
-4.0414 -2.6614 -1.9805 0.9793
-3.7833 -3.0096 -1.9786 0.9793
-3.4956 -3.3332 -1.9768 0.9793
-0.8693 -4.7327 -1.9694 0.9794
-0.0114 -4.8110 -1.9690 0.9794
0.4194 -4.7930 -1.9692 0.9794
1.2680 -4.6435 -1.9701 0.9794
1.6793 -4.5131 -1.9708 0.9794
2.4598 -4.1456 -1.9729 0.9794
4.4530 -1.9236 -1.9853 0.9793
4.6125 -1.5190 -1.9875 0.9792
4.7354 -1.1012 -1.9898 0.9792
4.8675 -0.2396 -1.9945 0.9792
4.8438 0.6337 -1.9993 0.9791
4.6641 1.4909 -2.0040 0.9791
4.5170 1.9046 -2.0063 0.9790
4.3330 2.3038 -2.0085 0.9790
3.5755 3.3821 -2.0143 0.9790
1.7559 4.5955 -2.0134 0.9790
0.8532 4.5423 -1.8915 0.9802
0.4377 4.5437 -1.8682 0.9805
0.0291 4.5648 -1.8683 0.9805
-0.3810 4.5649 -1.8748 0.9804
-1.2360 4.5992 -1.9491 0.9796
-1.6956 4.6137 -2.0118 0.9790
-2.1055 4.4510 -2.0152 0.9789
-2.4988 4.2502 -2.0179 0.9789
-2.8683 4.0081 -2.0172 0.9789
-4.4912 1.9616 -2.0058 0.9790
-2.0975 0.4967 -0.8822 0.9907
-2.0207 0.2907 -0.8355 0.9912
-1.9996 -0.0729 -0.8189 0.9914
-2.0202 -0.2560 -0.8334 0.9912
-2.0874 -0.4574 -0.8746 0.9908
-4.6304 -1.4596 -1.9870 0.9792
-4.0631 -2.6290 -1.9807 0.9793
-3.2099 -3.6044 -1.9754 0.9794
-2.8722 -3.8745 -1.9739 0.9794
-2.5122 -4.1134 -1.9726 0.9794
-2.1327 -4.3193 -1.9715 0.9794
-1.7366 -4.4909 -1.9706 0.9794
-1.3271 -4.6266 -1.9699 0.9794
-0.0501 -4.8107 -1.9690 0.9794
1.6428 -4.5263 -1.9707 0.9794
2.0424 -4.3631 -1.9717 0.9794
2.4262 -4.1651 -1.9728 0.9794
3.1345 -3.6708 -1.9756 0.9794
3.4534 -3.3782 -1.9772 0.9793
3.7453 -3.0582 -1.9790 0.9793
4.2391 -2.3460 -1.9829 0.9793
4.7259 -1.1392 -1.9896 0.9792
4.8146 -0.7123 -1.9919 0.9792
4.8649 -0.2788 -1.9943 0.9792
4.6754 1.4532 -2.0038 0.9791
3.8845 3.0143 -2.0123 0.9790
3.6023 3.3530 -2.0142 0.9790
3.2904 3.6651 -2.0159 0.9789
2.9513 3.9479 -2.0174 0.9789
2.5878 4.1991 -2.0187 0.9789
2.1994 4.4098 -2.0168 0.9789
1.7930 4.5818 -2.0137 0.9790
1.3284 4.5619 -1.9446 0.9797
-0.8313 4.5436 -2.0130 0.9800
-1.2355 4.4540 -2.0144 0.9800
-1.6307 4.3293 -2.0162 0.9800
-2.3776 3.9707 -2.0170 0.9800
-2.7218 3.7395 -2.0157 0.9800
-3.6089 2.8750 -2.0109 0.9801
-3.8482 2.5380 -2.0090 0.9801
-4.0560 2.1812 -2.0071 0.9801
-1.4933 0.4851 -0.6843 0.9932
-1.4735 0.1999 -0.6481 0.9935
-1.4500 0.0655 -0.6326 0.9937
-1.4934 -0.4840 -0.6842 0.9932
-2.9887 -3.4109 -1.9765 0.9804
-2.6695 -3.6623 -1.9751 0.9804
-2.3295 -3.8842 -1.9739 0.9804
-1.9714 -4.0751 -1.9729 0.9804
-0.8170 -4.4480 -1.9709 0.9805
-0.0107 -4.5216 -1.9706 0.9805
0.7960 -4.4521 -1.9711 0.9805
1.1917 -4.3641 -1.9716 0.9805
1.5782 -4.2414 -1.9723 0.9804
4.1831 -1.8070 -1.9859 0.9803
4.3326 -1.4268 -1.9880 0.9803
4.4478 -1.0343 -1.9902 0.9803
4.5712 -0.2251 -1.9946 0.9802
4.4817 1.0010 -2.0013 0.9802
4.3789 1.3997 -2.0035 0.9801
3.8613 2.5205 -2.0096 0.9801
3.3558 3.1743 -2.0132 0.9800
2.7400 3.7274 -2.0161 0.9800
2.3968 3.9602 -2.0174 0.9800
1.6512 4.3217 -2.0163 0.9800
1.2563 4.4471 -2.0140 0.9800
-0.7946 4.5499 -2.0129 0.9800
-1.5957 4.3419 -2.0160 0.9800
-1.9801 4.1860 -2.0181 0.9800
-3.0156 3.5029 -2.0144 0.9800
-3.3144 3.2163 -2.0128 0.9800
-3.5860 2.9042 -2.0111 0.9801
-3.8280 2.5691 -2.0092 0.9801
-4.0387 2.2139 -2.0072 0.9801
-1.4924 0.4981 -0.6857 0.9932
-1.4871 0.3521 -0.6660 0.9934
-1.4538 0.0775 -0.6345 0.9937
-1.4730 -0.1867 -0.6471 0.9935
-1.4814 -0.3246 -0.6609 0.9934
-4.2049 -1.7531 -1.9855 0.9803
-3.8173 -2.4700 -1.9815 0.9804
-3.3099 -3.1057 -1.9781 0.9804
-3.0162 -3.3870 -1.9766 0.9804
-2.6991 -3.6409 -1.9752 0.9804
-2.0042 -4.0593 -1.9730 0.9804
-1.6321 -4.2206 -1.9721 0.9804
-0.0471 -4.5214 -1.9706 0.9805
1.5440 -4.2538 -1.9722 0.9804
2.2800 -3.9141 -1.9742 0.9804
3.2449 -3.1743 -1.9783 0.9804
3.7655 -2.5492 -1.9818 0.9804
3.9825 -2.2040 -1.9837 0.9803
4.4389 -1.0700 -1.9900 0.9803
4.5687 -0.2618 -1.9944 0.9802
4.4892 0.9648 -2.0011 0.9802
4.3896 1.3643 -2.0033 0.9801
3.8811 2.4892 -2.0094 0.9801
3.3810 3.1470 -2.0130 0.9800
3.0881 3.4397 -2.0146 0.9800
2.7697 3.7050 -2.0160 0.9800
1.6861 4.3088 -2.0165 0.9800
1.2921 4.4372 -2.0141 0.9800
0.8871 4.5220 -2.0083 0.9801
-0.3969 4.3351 -2.0150 0.9810
-1.5365 4.0792 -2.0177 0.9810
-2.2372 3.7362 -2.0158 0.9810
-2.5611 3.5188 -2.0145 0.9810
-2.8639 3.2731 -2.0132 0.9810
-3.3964 2.7057 -2.0100 0.9810
-3.6218 2.3887 -2.0082 0.9811
-3.8175 2.0529 -2.0064 0.9811
-1.2677 0.4118 -0.6170 0.9941
-1.2687 0.2897 -0.6024 0.9943
-1.2674 0.0573 -0.5872 0.9944
-1.2673 -0.0564 -0.5872 0.9944
-1.2751 -0.1720 -0.5956 0.9943
-1.2687 -0.2887 -0.6023 0.9943
-3.7763 -2.0273 -1.9840 0.9813
-3.0941 -2.9504 -1.9790 0.9813
-2.8155 -3.2132 -1.9776 0.9813
-1.5056 -3.9886 -1.9734 0.9814
-1.1421 -4.1061 -1.9728 0.9814
-0.0101 -4.2603 -1.9720 0.9814
0.3714 -4.2444 -1.9722 0.9814
1.1228 -4.1118 -1.9730 0.9814
1.4869 -3.9961 -1.9736 0.9814
1.8395 -3.8486 -1.9745 0.9814
2.4991 -3.4627 -1.9766 0.9814
2.8009 -3.2272 -1.9780 0.9813
3.0808 -2.9657 -1.9794 0.9813
3.3366 -2.6801 -1.9810 0.9813
3.5662 -2.3727 -1.9827 0.9813
3.9396 -1.7018 -1.9864 0.9813
4.0802 -1.3437 -1.9884 0.9812
4.1884 -0.9740 -1.9905 0.9812
4.2632 -0.5957 -1.9925 0.9812
4.3040 -0.2119 -1.9947 0.9812
3.9913 1.6829 -2.0050 0.9811
3.4100 2.6903 -2.0105 0.9810
3.1580 2.9871 -2.0121 0.9810
2.5782 3.5073 -2.0149 0.9810
2.2552 3.7262 -2.0161 0.9810
1.5560 4.0724 -2.0179 0.9810
1.1845 4.1930 -2.0168 0.9810
0.4173 4.3323 -2.0147 0.9810
-0.7493 4.2901 -2.0159 0.9810
-1.1310 4.2084 -2.0171 0.9810
-2.2072 3.7542 -2.0159 0.9810
-2.5329 3.5395 -2.0147 0.9810
-2.8377 3.2963 -2.0133 0.9810
-3.3747 2.7331 -2.0102 0.9810
-1.2666 0.4228 -0.6181 0.9941
-1.2749 0.1834 -0.5962 0.9943
-1.2752 -0.1616 -0.5950 0.9944
-1.2678 -0.2778 -0.6008 0.9943
-1.2687 -0.3999 -0.6157 0.9942
-1.2486 -0.5206 -0.6262 0.9941
-3.7928 -1.9971 -1.9841 0.9813
-3.3700 -2.6368 -1.9807 0.9813
-3.1179 -2.9256 -1.9791 0.9813
-2.8415 -3.1907 -1.9777 0.9813
-2.2242 -3.6418 -1.9753 0.9814
-1.8883 -3.8244 -1.9743 0.9814
-1.5377 -3.9765 -1.9735 0.9814
-1.1752 -4.0969 -1.9728 0.9814
-0.8035 -4.1846 -1.9724 0.9814
-0.4256 -4.2392 -1.9721 0.9814
-0.0443 -4.2601 -1.9720 0.9814
0.3372 -4.2472 -1.9722 0.9814
0.7162 -4.2006 -1.9724 0.9814
1.0897 -4.1206 -1.9729 0.9814
3.0567 -2.9901 -1.9793 0.9813
3.3147 -2.7066 -1.9809 0.9813
3.5468 -2.4011 -1.9826 0.9813
3.9254 -1.7333 -1.9863 0.9813
4.3017 -0.2465 -1.9945 0.9812
4.3111 0.1398 -1.9966 0.9812
4.2858 0.5257 -1.9987 0.9811
3.8442 2.0044 -2.0068 0.9811
3.4312 2.6626 -2.0104 0.9810
3.1817 2.9614 -2.0120 0.9810
2.9059 3.2368 -2.0135 0.9810
2.6062 3.4862 -2.0148 0.9810
1.5886 4.0596 -2.0179 0.9810
1.2183 4.1836 -2.0170 0.9810
-0.3751 4.0963 -2.0177 0.9818
-0.7402 4.0460 -2.0176 0.9818
-2.1099 3.5236 -2.0146 0.9819
-3.2037 2.5522 -2.0092 0.9819
-3.4165 2.2533 -2.0075 0.9819
-1.1282 0.3665 -0.5819 0.9947
-1.1328 0.2586 -0.5700 0.9948
-1.1441 0.1552 -0.5663 0.9949
-1.1409 0.0516 -0.5602 0.9949
-1.1408 -0.0508 -0.5601 0.9949
-1.1441 -0.1544 -0.5663 0.9949
-1.1283 -0.3656 -0.5818 0.9947
-3.1611 -2.5146 -1.9814 0.9822
-2.9211 -2.7855 -1.9799 0.9822
-2.0722 -3.4552 -1.9763 0.9822
-1.0785 -3.8772 -1.9741 0.9822
1.0602 -3.8826 -1.9742 0.9822
1.7369 -3.6339 -1.9756 0.9822
2.0562 -3.4655 -1.9766 0.9822
2.3595 -3.2693 -1.9777 0.9822
2.9085 -2.7998 -1.9803 0.9822
3.3665 -2.2398 -1.9834 0.9821
3.5566 -1.9311 -1.9851 0.9821
3.7185 -1.6064 -1.9869 0.9821
3.9529 -0.9192 -1.9907 0.9821
4.0233 -0.5622 -1.9927 0.9821
4.0615 -0.2000 -1.9947 0.9820
4.0672 0.1646 -1.9967 0.9820
3.8888 1.2430 -2.0026 0.9820
3.6114 1.9201 -2.0063 0.9819
3.4279 2.2377 -2.0080 0.9819
3.2165 2.5376 -2.0097 0.9819
2.9786 2.8175 -2.0112 0.9819
0.7594 4.0427 -2.0177 0.9818
0.3943 4.0938 -2.0174 0.9818
0.0263 4.1124 -2.0173 0.9818
-0.3421 4.0991 -2.0177 0.9818
-0.7077 4.0519 -2.0176 0.9818
-1.4181 3.8586 -2.0165 0.9819
-1.7571 3.7146 -2.0157 0.9819
-2.0816 3.5407 -2.0147 0.9819
-2.3889 3.3382 -2.0136 0.9819
-2.6764 3.1090 -2.0123 0.9819
-2.9419 2.8549 -2.0109 0.9819
-3.1833 2.5780 -2.0093 0.9819
-1.1033 0.4819 -0.5906 0.9947
-1.1269 0.3761 -0.5827 0.9947
-1.1294 -0.3560 -0.5808 0.9947
-1.0976 -0.5779 -0.6085 0.9945
-3.3942 -2.1962 -1.9831 0.9821
-2.9436 -2.7620 -1.9800 0.9822
-0.0419 -4.0227 -1.9734 0.9822
0.3184 -4.0105 -1.9735 0.9822
1.0289 -3.8909 -1.9742 0.9822
1.7075 -3.6476 -1.9756 0.9822
2.0282 -3.4817 -1.9765 0.9822
2.3330 -3.2880 -1.9776 0.9822
2.8857 -2.8230 -1.9802 0.9822
3.3481 -2.2666 -1.9833 0.9821
3.5406 -1.9595 -1.9850 0.9821
3.9451 -0.9509 -1.9906 0.9821
3.9872 0.8569 -2.0005 0.9820
3.8983 1.2116 -2.0024 0.9820
3.7777 1.5572 -2.0043 0.9820
3.4456 2.2098 -2.0079 0.9819
3.2365 2.5115 -2.0095 0.9819
3.0010 2.7933 -2.0110 0.9819
1.8342 3.6774 -2.0158 0.9819
1.4982 3.8284 -2.0166 0.9819
1.1498 3.9484 -2.0172 0.9818
-0.0065 3.8876 -2.0168 0.9826
-0.6995 3.8233 -2.0164 0.9826
-1.6886 3.4968 -2.0145 0.9827
-1.9940 3.3300 -2.0136 0.9827
-2.8020 2.6756 -2.0099 0.9827
-3.2293 2.1298 -2.0069 0.9827
-0.9929 0.4242 -0.5602 0.9951
-1.0245 0.2339 -0.5451 0.9953
-1.0364 0.1406 -0.5426 0.9953
-1.0353 0.0468 -0.5376 0.9953
-1.0352 -0.0461 -0.5376 0.9953
-1.0365 -0.1398 -0.5426 0.9953
-1.0246 -0.2332 -0.5451 0.9953
-1.0145 -0.3288 -0.5532 0.9952
-0.9565 -0.5135 -0.5632 0.9951
-3.1934 -2.1029 -1.9836 0.9829
-2.9901 -2.3786 -1.9821 0.9829
-2.7632 -2.6349 -1.9807 0.9829
-1.0203 -3.6682 -1.9752 0.9830
-0.6877 -3.7440 -1.9748 0.9830
-0.0090 -3.8061 -1.9745 0.9830
0.3318 -3.7918 -1.9747 0.9830
0.6700 -3.7474 -1.9749 0.9830
1.3283 -3.5698 -1.9760 0.9830
1.6431 -3.4378 -1.9767 0.9830
1.9452 -3.2784 -1.9776 0.9830
2.5015 -2.8822 -1.9798 0.9829
2.9795 -2.3932 -1.9826 0.9829
3.1842 -2.1185 -1.9841 0.9829
3.6419 -1.1993 -1.9892 0.9829
3.7381 -0.8693 -1.9910 0.9829
3.6762 1.1751 -2.0022 0.9828
3.2401 2.1151 -2.0073 0.9827
3.0401 2.3985 -2.0089 0.9827
2.2980 3.1261 -2.0128 0.9827
2.0100 3.3210 -2.0139 0.9827
1.0565 3.7398 -2.0161 0.9826
0.7176 3.8202 -2.0165 0.9826
0.3727 3.8695 -2.0167 0.9826
0.0248 3.8875 -2.0168 0.9826
-0.3233 3.8739 -2.0167 0.9826
-0.6687 3.8289 -2.0164 0.9826
-1.0086 3.7528 -2.0160 0.9826
-1.6605 3.5104 -2.0146 0.9827
-2.2577 3.1548 -2.0126 0.9827
-2.5295 2.9383 -2.0114 0.9827
-0.9522 0.5219 -0.5633 0.9951
-1.0228 0.2422 -0.5453 0.9953
-1.0358 0.1490 -0.5429 0.9953
-1.0262 -0.2248 -0.5450 0.9953
-0.9957 -0.4151 -0.5596 0.9952
-3.2105 -2.0773 -1.9838 0.9829
-2.7845 -2.6127 -1.9809 0.9829
-2.2711 -3.0636 -1.9784 0.9830
-1.9867 -3.2530 -1.9774 0.9830
-1.6868 -3.4163 -1.9765 0.9830
-1.3736 -3.5523 -1.9758 0.9830
-1.0498 -3.6599 -1.9753 0.9830
-0.7178 -3.7385 -1.9749 0.9830
-0.0396 -3.8059 -1.9745 0.9830
0.6399 -3.7526 -1.9749 0.9830
0.9734 -3.6811 -1.9753 0.9830
2.4781 -2.9021 -1.9797 0.9830
2.7297 -2.6703 -1.9810 0.9829
2.9599 -2.4169 -1.9824 0.9829
3.1668 -2.1439 -1.9839 0.9829
3.3487 -1.8533 -1.9856 0.9829
3.6319 -1.2285 -1.9890 0.9829
3.7997 -0.5622 -1.9927 0.9828
3.8384 -0.2199 -1.9946 0.9828
3.8464 0.1247 -1.9965 0.9828
3.8234 0.4690 -1.9983 0.9828
3.7695 0.8101 -2.0002 0.9828
3.6853 1.1454 -2.0021 0.9828
3.5711 1.4720 -2.0038 0.9827
3.2568 2.0888 -2.0072 0.9827
2.8363 2.6400 -2.0102 0.9827
2.5903 2.8852 -2.0115 0.9827
2.3230 3.1074 -2.0127 0.9827
2.0365 3.3046 -2.0138 0.9827
1.4157 3.6178 -2.0154 0.9826
0.7483 3.8142 -2.0164 0.9826
-0.0061 3.6802 -2.0156 0.9834
-0.3355 3.6646 -2.0155 0.9834
-0.6622 3.6194 -2.0153 0.9834
-1.2963 3.4415 -2.0142 0.9834
-1.5987 3.3104 -2.0135 0.9834
-2.8671 2.2841 -2.0077 0.9834
-0.8801 0.4733 -0.5473 0.9955
-0.9460 -0.1276 -0.5228 0.9957
-0.9338 -0.2125 -0.5245 0.9956
-0.9195 -0.2980 -0.5294 0.9956
-0.9034 -0.3852 -0.5379 0.9955
-0.8714 -0.5738 -0.5714 0.9953
-2.6183 -2.4967 -1.9815 0.9836
-2.3828 -2.7194 -1.9803 0.9836
-2.1286 -2.9202 -1.9792 0.9837
-0.9670 -3.4763 -1.9763 0.9837
0.3145 -3.5936 -1.9757 0.9837
0.6350 -3.5515 -1.9760 0.9837
0.9506 -3.4811 -1.9764 0.9837
1.5571 -3.2579 -1.9777 0.9837
1.8433 -3.1067 -1.9785 0.9837
2.3703 -2.7311 -1.9807 0.9836
3.0169 -2.0072 -1.9847 0.9836
3.1870 -1.7304 -1.9862 0.9836
3.3318 -1.4393 -1.9878 0.9836
1.8714 -0.6163 -1.0791 0.9911
1.8823 0.0762 -1.0318 0.9914
1.8888 0.2471 -1.0433 0.9914
1.8743 0.5991 -1.0777 0.9911
3.3707 1.4212 -2.0035 0.9835
3.2325 1.7187 -2.0052 0.9834
3.0680 2.0027 -2.0067 0.9834
2.8785 2.2710 -2.0082 0.9834
2.6655 2.5213 -2.0095 0.9834
2.1757 2.9597 -2.0119 0.9834
1.9029 3.1441 -2.0129 0.9834
1.6145 3.3032 -2.0137 0.9834
1.0001 3.5404 -2.0150 0.9834
0.6793 3.6164 -2.0154 0.9834
-0.3061 3.6673 -2.0156 0.9834
-0.6330 3.6247 -2.0153 0.9834
-0.9548 3.5527 -2.0149 0.9834
-1.2687 3.4520 -2.0143 0.9834
-1.8624 3.1678 -2.0127 0.9834
-2.3949 2.7819 -2.0105 0.9834
-2.8489 2.3072 -2.0079 0.9834
-0.8737 0.5864 -0.5763 0.9952
-0.9181 0.3065 -0.5301 0.9956
-0.9465 -0.1200 -0.5225 0.9957
-0.9354 -0.2050 -0.5245 0.9956
-0.9050 -0.3773 -0.5371 0.9955
-0.8691 -0.5624 -0.5670 0.9953
-2.6384 -2.4757 -1.9816 0.9836
-1.3018 -3.3664 -1.9768 0.9837
-0.9949 -3.4685 -1.9763 0.9837
0.6064 -3.5564 -1.9760 0.9837
1.5308 -3.2702 -1.9776 0.9837
3.1727 -1.7558 -1.9861 0.9836
1.8685 -0.6320 -1.0804 0.9910
1.8863 -0.4547 -1.0627 0.9912
1.8889 0.2317 -1.0423 0.9914
3.3818 1.3940 -2.0034 0.9835
3.0839 1.9779 -2.0066 0.9834
2.4525 2.7317 -2.0107 0.9834
2.1993 2.9419 -2.0118 0.9834
