ply
format ascii 1.0
element vertex 1583
property float32 x
property float32 y
property float32 z
property float32 I
end_header
-13.8604 11.4919 2.7582 0.9297
-14.3773 9.8988 2.6741 0.9318
-13.8592 -7.0116 2.3794 0.9391
-14.8219 -9.2441 2.6760 0.9318
-2.0608 -17.0380 2.6291 0.9329
1.1278 -19.3602 2.9709 0.9245
4.2419 -17.5818 2.7707 0.9294
5.0219 15.3706 2.4772 0.9367
0.6314 13.1550 2.0176 0.9481
-1.7652 13.4393 2.0765 0.9466
-3.0373 13.5902 2.1333 0.9452
-2.3547 5.5938 0.9298 0.9757
-11.2136 14.2631 2.7795 0.9292
-14.2828 10.5610 2.7212 0.9306
-16.9758 -7.8811 2.8672 0.9271
-13.7925 -7.9690 2.4403 0.9376
-12.7497 -8.9718 2.3883 0.9389
-1.4858 -17.1061 2.2360 0.9331
0.1350 9.4885 1.2357 0.9624
-0.3822 5.0834 0.6638 0.9796
-2.2379 13.4954 1.7814 0.9463
-2.0614 5.7745 0.7984 0.9756
-2.6290 5.6998 0.8174 0.9750
-12.0993 14.3649 2.4457 0.9270
-13.9651 13.8573 2.5619 0.9237
-14.3419 11.8911 2.4261 0.9276
-12.5817 7.0988 1.8812 0.9434
-14.7871 -9.2223 2.2694 0.9321
-10.2265 -16.0691 2.4804 0.9260
-6.7340 -16.4663 2.3166 0.9308
0.6313 13.1550 1.7150 0.9483
-0.5497 13.2951 1.7328 0.9477
-1.7652 13.4393 1.7651 0.9468
-3.0373 13.5902 1.8134 0.9454
-4.3933 13.7551 1.8803 0.9434
-9.3283 14.3319 2.2268 0.9333
-11.2677 14.3318 2.3740 0.9291
-14.4822 10.7084 2.3454 0.9299
-14.2277 -10.0119 2.2655 0.9322
-12.8476 -10.8759 2.1920 0.9344
-3.0305 -17.0488 1.8594 0.9327
-1.4858 -17.1062 1.8438 0.9333
-2.0689 5.7955 0.6608 0.9755
-2.6050 5.6477 0.6679 0.9753
-14.0935 13.9847 2.1320 0.9232
-13.4326 11.1372 1.8737 0.9322
-12.4212 7.0082 1.5315 0.9442
-14.7649 -9.2085 1.8686 0.9324
-10.5963 -16.6502 2.1193 0.9237
-8.4250 -16.2829 1.9687 0.9289
-3.5868 -16.8571 1.8507 0.9330
-4.4167 13.8281 1.5588 0.9433
-2.3423 5.5643 0.6483 0.9760
-11.4723 14.5921 1.9932 0.9280
-14.2517 12.6511 2.0463 0.9262
-16.7954 10.2377 2.1122 0.9239
-3.0363 -17.0814 1.4687 0.9327
-1.4858 -17.1062 1.4535 0.9334
0.1350 9.4885 0.8033 0.9626
-0.3821 5.0822 0.4314 0.9797
-3.5731 13.7857 1.2056 0.9444
-2.0758 5.8148 0.5227 0.9755
-2.5832 5.6005 0.5221 0.9755
-10.1562 14.5091 1.4992 0.9314
-14.7002 10.1211 1.5108 0.9309
-14.7598 -9.2053 1.4725 0.9326
-10.5676 -16.6051 1.6663 0.9240
-8.4250 -16.2829 1.5520 0.9290
-6.8166 -16.6682 1.5244 0.9303
-5.1380 -16.6730 1.4769 0.9324
-3.5867 -16.8571 1.4589 0.9332
-2.0608 -17.0381 1.4528 0.9334
0.6376 13.2861 1.1260 0.9480
-0.5635 13.6300 1.1548 0.9467
-3.1022 13.8809 1.2040 0.9445
-2.3372 5.5522 0.5100 0.9761
-9.4736 14.5552 1.4701 0.9327
-14.3710 12.7570 1.6267 0.9258
-16.7954 10.2377 1.6651 0.9241
-3.0455 -17.1328 1.0791 0.9326
-0.3821 5.0816 0.3160 0.9798
-2.2857 13.7840 0.8664 0.9455
-2.0809 5.8292 0.3838 0.9755
-8.3113 14.4676 1.0346 0.9353
-10.2916 14.7026 1.1129 0.9306
-12.5861 14.9428 1.2115 0.9247
-13.4326 11.1372 1.0820 0.9325
-14.7002 10.1211 1.1067 0.9310
-12.3387 6.9617 0.8785 0.9448
-8.4250 -16.2829 1.1369 0.9292
-3.5868 -16.8571 1.0687 0.9333
5.8506 13.6448 0.9206 0.9422
-1.7828 13.5733 0.8489 0.9466
-3.1138 13.9326 0.8853 0.9444
-7.6316 14.3870 1.0099 0.9368
-11.6618 14.8332 1.1700 0.9272
-14.3710 12.7570 1.1916 0.9259
-3.0087 -16.9256 0.6779 0.9335
-1.4858 -17.1063 0.6771 0.9336
0.1350 9.4885 0.3742 0.9627
-2.2857 13.7840 0.5509 0.9456
-3.5731 13.7857 0.5615 0.9446
-14.7002 10.1211 0.7037 0.9310
-12.2589 6.9166 0.5550 0.9452
-10.5676 -16.6050 0.7762 0.9242
-4.9956 -16.2112 0.6689 0.9343
-3.5868 -16.8571 0.6796 0.9333
-2.0608 -17.0381 0.6767 0.9336
-1.7828 13.5733 0.5398 0.9467
-3.1138 13.9326 0.5629 0.9445
-2.3361 5.5495 0.2374 0.9762
-12.3059 15.6524 0.7851 0.9234
-14.3710 12.7570 0.7577 0.9260
-14.7886 10.9350 0.7252 0.9290
-17.0641 10.4015 0.7880 0.9231
-3.0087 -16.9256 0.2904 0.9335
-1.4858 -17.1063 0.2900 0.9336
-2.2857 13.7840 0.2360 0.9456
-3.5731 13.7857 0.2406 0.9446
-2.5404 5.5076 0.1025 0.9760
-8.2927 14.4353 0.2812 0.9356
-14.7002 10.1211 0.3015 0.9311
-14.7791 -9.2173 0.2942 0.9327
-12.1905 -15.8364 0.3376 0.9232
-10.5676 -16.6050 0.3327 0.9243
-3.5868 -16.8571 0.2911 0.9334
-2.0608 -17.0381 0.2899 0.9336
5.8124 13.5556 0.2491 0.9427
0.6376 13.2861 0.2247 0.9482
-0.5635 13.6300 0.2304 0.9469
-3.1138 13.9326 0.2412 0.9445
-2.3356 5.5484 0.1017 0.9762
-7.6316 14.3870 0.2751 0.9369
-12.3495 15.7079 0.3375 0.9232
-14.7886 10.9350 0.3107 0.9291
-17.0641 10.4015 0.3376 0.9232
-3.0087 -16.9256 -0.0968 0.9335
0.1350 9.4885 -0.0534 0.9628
-2.2602 13.6299 -0.0778 0.9462
-3.5731 13.7857 -0.0802 0.9446
-10.2916 14.7026 -0.1010 0.9307
-13.4326 11.1372 -0.0982 0.9326
-8.4250 -16.2829 -0.1032 0.9293
-6.7406 -16.4823 -0.1003 0.9312
-3.0676 13.7257 -0.0792 0.9453
-2.3337 5.5439 -0.0339 0.9762
-7.6316 14.3870 -0.0917 0.9369
-9.5091 14.6097 -0.0981 0.9326
-14.6034 10.7981 -0.1023 0.9299
-17.0641 10.4015 -0.1125 0.9232
-3.0087 -16.9256 -0.4841 0.9335
-1.4858 -17.1063 -0.4835 0.9336
1.9822 19.0821 -0.5402 0.9261
0.1350 9.4885 -0.2672 0.9627
-0.3819 5.0793 -0.1434 0.9798
-2.5359 5.4981 -0.1705 0.9761
-10.2916 14.7026 -0.5053 0.9307
-14.4793 9.9690 -0.4950 0.9321
-12.0703 6.8102 -0.3902 0.9461
0.6270 13.0649 -0.3683 0.9490
-2.3273 5.5288 -0.1689 0.9763
-7.6316 14.3870 -0.4586 0.9369
-9.5091 14.6097 -0.4908 0.9326
-16.6109 10.1253 -0.5478 0.9251
-18.9695 5.4462 -0.5557 0.9241
-3.0087 -16.9256 -0.8718 0.9335
-3.5136 13.5561 -0.7102 0.9455
-5.0143 14.0464 -0.7564 0.9420
-10.2916 14.7026 -0.9102 0.9306
-13.4326 11.1372 -0.8849 0.9325
-14.4793 9.9690 -0.8915 0.9320
-18.0776 6.2959 -0.9708 0.9262
-17.0116 -6.7767 -0.9287 0.9293
-14.3778 -7.2740 -0.8172 0.9375
-12.1633 -7.5859 -0.7270 0.9442
-8.9168 -14.0113 -0.8423 0.9356
-6.8193 -16.6748 -0.9136 0.9304
-5.1951 -16.8586 -0.8946 0.9318
-3.5868 -16.8571 -0.8740 0.9333
5.7209 13.3422 -0.7362 0.9435
-9.5091 14.6097 -0.8840 0.9326
-16.6109 10.1253 -0.9866 0.9250
-14.0734 6.9401 -0.7958 0.9391
-15.5246 -7.2074 -0.8680 0.9337
-2.5641 -14.4245 -1.0742 0.9429
0.1350 9.4885 -0.6958 0.9627
-0.3818 5.0781 -0.3734 0.9798
-3.5136 13.5561 -1.0268 0.9454
-4.9317 13.8149 -1.0755 0.9429
-7.9822 11.4033 -1.0206 0.9457
-11.5370 13.6973 -1.3131 0.9307
-13.4326 11.1372 -1.2794 0.9324
-14.4793 9.9690 -1.2889 0.9319
-11.9799 6.7592 -1.0086 0.9463
-15.4426 6.9781 -1.2425 0.9343
-18.9003 4.7427 -1.4288 0.9248
-14.0286 -7.0973 -1.1528 0.9389
-10.2362 -7.7321 -0.9406 0.9499
-7.5404 -8.1705 -0.8152 0.9564
-8.8581 -13.9189 -1.2097 0.9360
-5.1951 -16.8586 -1.2935 0.9317
-1.7563 -14.5203 -1.0724 0.9430
5.6941 13.2798 -1.0594 0.9437
2.5237 18.2743 -1.3526 0.9287
0.4696 9.7850 -0.7183 0.9615
-3.0165 13.4972 -1.0141 0.9460
-7.4891 14.1184 -1.1718 0.9379
-8.6958 13.3603 -1.1688 0.9381
-11.4712 14.5908 -1.3609 0.9283
-13.8671 12.3097 -1.3596 0.9283
-16.6109 10.1253 -1.4264 0.9249
-14.0747 6.9407 -1.1506 0.9390
-18.2417 -6.5630 -1.4215 0.9252
-15.1276 -7.0230 -1.2229 0.9353
-12.7204 -7.3496 -1.0772 0.9428
-9.1875 -7.7775 -0.8826 0.9529
-6.6672 -8.0820 -0.7682 0.9588
0.0506 -19.1978 -1.8431 0.9258
1.7621 -19.1168 -1.8431 0.9258
3.6781 18.8422 -1.8431 0.9258
0.6775 6.5222 -0.6295 0.9740
0.1350 9.4885 -0.9110 0.9626
-0.3818 5.0775 -0.4888 0.9797
-2.2225 13.4030 -1.3043 0.9469
-2.5207 5.4651 -0.5778 0.9761
-8.1060 11.5801 -1.3571 0.9448
-11.9635 14.2037 -1.7829 0.9281
-13.6286 13.5233 -1.8432 0.9258
-15.4114 6.9640 -1.6236 0.9343
-17.4549 -6.9533 -1.8038 0.9273
-14.0377 -7.1019 -1.5103 0.9387
-8.6492 -7.8375 -1.1206 0.9542
-7.2835 -7.8921 -1.0310 0.9578
-5.4446 -8.5552 -0.9736 0.9601
-8.4250 -16.2829 -1.7601 0.9290
-3.9562 -9.6738 -1.0034 0.9589
-5.1951 -16.8586 -1.6936 0.9316
-3.5867 -16.8571 -1.6546 0.9331
-2.0608 -17.0381 -1.6477 0.9334
-0.5968 -19.1887 -1.8431 0.9258
1.1164 -19.1653 -1.8431 0.9258
2.8207 -18.9893 -1.8431 0.9258
2.5085 18.1640 -1.7604 0.9290
-1.7531 13.3473 -1.2924 0.9473
-3.0165 13.4972 -1.3278 0.9459
-2.3167 5.5035 -0.5733 0.9763
-13.1648 13.9752 -1.8432 0.9258
-7.8713 6.9873 -1.0105 0.9586
-16.3941 9.9931 -1.8433 0.9257
-14.0759 6.9413 -1.5067 0.9389
-17.9084 6.9226 -1.8433 0.9257
-16.8692 4.8432 -1.6850 0.9319
-15.1201 -7.0195 -1.6004 0.9352
-10.9338 -7.6940 -1.2835 0.9477
-9.1175 -7.7182 -1.1468 0.9531
-7.7417 -7.8407 -1.0578 0.9567
-6.5739 -7.9690 -0.9918 0.9593
-2.5660 -14.4355 -1.7416 0.9427
-1.2672 -14.5895 -1.7396 0.9427
0.0409 -15.5161 -1.8431 0.9394
1.4241 -15.4505 -1.8431 0.9394
2.7960 -15.2619 -1.8431 0.9394
5.9132 -15.7217 -1.9952 0.9346
7.2913 -15.1318 -1.9952 0.9346
9.8628 -13.5961 -1.9952 0.9346
11.0357 -12.6625 -1.9952 0.9346
12.1207 -11.6281 -1.9952 0.9346
13.1091 -10.5011 -1.9952 0.9346
14.7657 -8.0057 -1.9952 0.9346
15.9527 -5.2560 -1.9952 0.9346
16.6326 -2.3390 -1.9952 0.9346
16.7749 -0.8467 -1.9952 0.9346
16.4009 3.6228 -1.9952 0.9346
16.0126 5.0707 -1.9952 0.9346
14.8575 7.8341 -1.9952 0.9346
14.1000 9.1276 -1.9952 0.9346
13.2300 10.3485 -1.9952 0.9346
12.2547 11.4869 -1.9952 0.9346
11.1818 12.5338 -1.9952 0.9346
10.0198 13.4809 -1.9952 0.9346
8.1084 13.2283 -1.8430 0.9394
6.3429 12.7824 -1.6950 0.9441
5.0364 12.9337 -1.6487 0.9456
4.3187 14.9028 -1.8431 0.9394
2.9728 15.2286 -1.8431 0.9394
-2.2225 13.4030 -1.6138 0.9467
-3.5136 13.5561 -1.6635 0.9452
-2.5244 5.4731 -0.7160 0.9760
-8.8983 12.7121 -1.8432 0.9394
-9.9963 11.8681 -1.8432 0.9394
-15.8642 5.5250 -1.9955 0.9346
-16.5933 2.6196 -1.9955 0.9346
-16.7608 1.1297 -1.9955 0.9346
-16.7947 -0.3692 -1.9955 0.9346
-16.6949 -1.8651 -1.9955 0.9346
-16.4621 -3.3462 -1.9955 0.9346
-7.3522 -7.9666 -1.2877 0.9573
-6.2579 -8.1295 -1.2186 0.9595
-7.1017 -13.7254 -1.8357 0.9396
-3.5868 -16.8571 -2.0472 0.9329
-0.4823 -15.5087 -1.8431 0.9394
5.3691 -15.8810 -1.9913 0.9347
9.3988 -13.9210 -1.9952 0.9346
10.6025 -13.0275 -1.9952 0.9346
12.7476 -10.9372 -1.9952 0.9346
13.6719 -9.7570 -1.9952 0.9346
15.1874 -7.1736 -1.9952 0.9346
15.7665 -5.7909 -1.9952 0.9346
16.5443 -2.8985 -1.9952 0.9346
16.5137 3.0677 -1.9952 0.9346
15.1132 7.3286 -1.9952 0.9346
14.3997 8.6469 -1.9952 0.9346
11.5981 12.1496 -1.9952 0.9346
10.4687 13.1354 -1.9952 0.9346
8.5499 12.9473 -1.8430 0.9394
7.3615 13.6582 -1.8430 0.9394
5.5258 12.8873 -1.6656 0.9451
3.4846 15.1197 -1.8431 0.9394
0.8704 6.3027 -0.7558 0.9747
0.4658 9.7056 -1.1542 0.9616
-1.7531 13.3473 -1.5991 0.9472
-3.0165 13.4972 -1.6428 0.9458
-3.8752 12.1329 -1.5129 0.9500
-2.3300 5.5350 -0.7134 0.9761
-7.2713 13.7077 -1.8432 0.9394
-8.4645 13.0049 -1.8432 0.9394
-9.5904 12.1984 -1.8432 0.9394
-10.6398 11.2948 -1.8432 0.9394
-7.8145 6.9369 -1.2412 0.9588
-12.3904 6.1101 -1.6410 0.9459
-15.6352 6.0438 -1.9912 0.9347
-16.4955 3.1776 -1.9955 0.9346
-16.7976 0.1974 -1.9955 0.9346
-16.7483 -1.3011 -1.9955 0.9346
-16.2509 -4.2550 -1.9955 0.9346
-15.8068 -5.6870 -1.9954 0.9346
-14.7701 -6.8570 -1.9343 0.9365
-10.7089 -7.5357 -1.5554 0.9486
-9.2080 -7.7948 -1.4331 0.9526
-7.7778 -7.8773 -1.3150 0.9564
-6.5705 -7.9648 -1.2265 0.9593
-2.2766 -12.8074 -1.8431 0.9488
-1.1256 -12.9593 -1.8431 0.9488
1.1940 -12.9530 -1.8431 0.9488
2.3440 -12.7950 -1.8431 0.9488
4.9569 -13.1791 -1.9951 0.9447
6.1128 -12.6859 -1.9952 0.9447
8.2686 -11.3984 -1.9952 0.9447
9.2519 -10.6158 -1.9952 0.9447
10.9902 -8.8037 -1.9952 0.9447
12.9281 -5.5813 -1.9952 0.9447
13.3742 -4.4064 -1.9952 0.9447
13.7138 -3.1964 -1.9952 0.9447
14.0635 -0.7099 -1.9952 0.9447
13.4244 4.2511 -1.9952 0.9447
12.9920 5.4311 -1.9952 0.9447
11.8209 7.6523 -1.9952 0.9447
11.0916 8.6758 -1.9952 0.9447
9.3744 10.5079 -1.9952 0.9447
6.7978 11.0901 -1.8431 0.9488
3.6206 12.4939 -1.8431 0.9488
1.3440 12.9385 -1.8431 0.9488
-2.1280 12.8331 -1.8431 0.9488
-3.2637 12.5923 -1.8431 0.9488
-3.9889 11.1740 -1.6811 0.9532
-7.4599 10.6571 -1.8432 0.9488
-9.2341 9.1628 -1.8432 0.9488
-8.1041 6.7193 -1.4916 0.9584
-11.3299 6.3925 -1.8432 0.9488
-12.7983 5.7832 -1.9899 0.9448
-13.2997 4.6319 -1.9954 0.9447
-13.6597 3.4276 -1.9954 0.9447
-13.9109 2.1961 -1.9954 0.9447
-13.9961 -1.5636 -1.9954 0.9447
-12.5664 -6.3575 -1.9954 0.9447
-10.3019 -7.7817 -1.8293 0.9492
-6.1843 -8.0340 -1.4365 0.9599
-5.0220 -9.7061 -1.5484 0.9568
-4.3159 -10.5534 -1.6155 0.9550
-3.8309 -12.4314 -1.8431 0.9488
-2.7072 -12.7234 -1.8431 0.9488
-1.5620 -12.9140 -1.8431 0.9488
4.4053 -13.0301 -1.9489 0.9459
5.6815 -12.8849 -1.9953 0.9447
6.8077 -12.3269 -1.9952 0.9447
8.8887 -10.9217 -1.9952 0.9447
9.8271 -10.0857 -1.9952 0.9447
10.6871 -9.1693 -1.9952 0.9447
12.1457 -7.1254 -1.9952 0.9447
12.7326 -6.0141 -1.9952 0.9447
13.5982 -3.6570 -1.9952 0.9447
14.0187 1.3272 -1.9952 0.9447
13.8446 2.5719 -1.9952 0.9447
13.5601 3.7960 -1.9952 0.9447
13.1677 4.9899 -1.9952 0.9447
12.6704 6.1441 -1.9952 0.9447
12.0722 7.2493 -1.9952 0.9447
11.3778 8.2968 -1.9952 0.9447
9.7234 10.1858 -1.9952 0.9447
7.1679 10.8545 -1.8430 0.9488
4.0398 12.3647 -1.8431 0.9488
2.9213 12.6757 -1.8431 0.9488
0.8706 6.3039 -0.9017 0.9746
-2.8373 12.6951 -1.8431 0.9488
-6.0959 11.4918 -1.8432 0.9488
-8.0401 10.2265 -1.8432 0.9488
-8.9199 9.4690 -1.8432 0.9488
-7.9633 7.0690 -1.5087 0.9579
-13.1359 5.0777 -1.9954 0.9447
-14.0114 1.4204 -1.9954 0.9447
-14.0409 -1.0908 -1.9954 0.9447
-13.6239 -3.5672 -1.9954 0.9447
-13.2515 -4.7677 -1.9954 0.9447
-12.1605 -7.0261 -1.9899 0.9448
-10.6387 -7.4863 -1.8432 0.9488
-1.9581 -11.0154 -1.8431 0.9557
-0.9681 -11.1461 -1.8431 0.9557
0.0295 -11.1880 -1.8431 0.9557
3.0492 -10.9973 -1.8800 0.9548
5.2575 -10.9110 -1.9953 0.9521
6.2094 -10.3987 -1.9952 0.9521
7.1117 -9.8036 -1.9952 0.9521
7.9575 -9.1305 -1.9952 0.9521
9.4526 -7.5720 -1.9952 0.9521
10.0900 -6.6990 -1.9952 0.9521
10.6471 -5.7727 -1.9952 0.9521
11.1193 -4.8004 -1.9952 0.9521
11.7951 -2.7492 -1.9952 0.9521
11.5462 3.6563 -1.9952 0.9521
11.1743 4.6712 -1.9952 0.9521
10.7133 5.6489 -1.9952 0.9521
8.8365 8.2828 -1.9952 0.9521
8.0576 9.0319 -1.9940 0.9521
5.8467 9.5385 -1.8431 0.9557
4.9730 10.0218 -1.8431 0.9557
3.1140 10.7458 -1.8431 0.9557
2.1435 10.9807 -1.8431 0.9557
0.6516 6.2731 -1.0390 0.9748
0.1341 9.4220 -1.5523 0.9625
-2.8071 10.8304 -1.8431 0.9557
-2.5209 5.4656 -0.9916 0.9759
-6.4161 9.1660 -1.8432 0.9557
-7.2078 8.5575 -1.8432 0.9557
-7.9421 7.8807 -1.8432 0.9557
-8.6131 7.1413 -1.8432 0.9557
-9.9103 5.5915 -1.8746 0.9549
-11.4387 3.9838 -1.9954 0.9521
-11.7483 2.9480 -1.9954 0.9521
-11.9644 1.8888 -1.9954 0.9521
-12.1097 -0.2662 -1.9954 0.9521
-12.0377 -1.3448 -1.9954 0.9521
-11.8698 -2.4127 -1.9954 0.9521
-11.2526 -4.4826 -1.9954 0.9521
-10.2775 -6.4098 -1.9954 0.9521
-9.6416 -7.2829 -1.9906 0.9522
-8.4050 -7.6162 -1.8685 0.9551
-7.5116 -8.1393 -1.8246 0.9561
-6.2457 -8.1137 -1.6868 0.9593
-4.9492 -9.5652 -1.7742 0.9573
-4.2350 -10.3557 -1.8431 0.9557
-3.2948 -10.6920 -1.8431 0.9557
-0.3478 -11.1826 -1.8431 0.9557
1.6438 -11.0665 -1.8431 0.9557
2.6240 -10.8758 -1.8431 0.9557
5.8552 -10.6022 -1.9952 0.9521
6.7771 -10.0379 -1.9952 0.9521
7.6451 -9.3936 -1.9952 0.9521
9.8584 -7.0354 -1.9952 0.9521
10.4464 -6.1284 -1.9952 0.9521
10.9511 -5.1726 -1.9952 0.9521
11.3687 -4.1756 -1.9952 0.9521
11.6957 -3.1454 -1.9952 0.9521
12.0684 -1.0181 -1.9952 0.9521
11.9076 2.2120 -1.9952 0.9521
10.3832 6.2350 -1.9952 0.9521
9.7859 7.1360 -1.9952 0.9521
9.1107 7.9801 -1.9952 0.9521
8.3630 8.7607 -1.9952 0.9521
6.9728 8.7490 -1.8431 0.9557
5.3081 9.8484 -1.8431 0.9557
3.4746 10.6347 -1.8431 0.9557
0.4609 9.6036 -1.5839 0.9618
-3.4041 10.6578 -1.8431 0.9557
-2.3330 5.5421 -0.9906 0.9759
-6.1033 9.3771 -1.8432 0.9557
-7.6718 8.1441 -1.8432 0.9557
-8.3674 7.4277 -1.8432 0.9557
-8.5941 6.3547 -1.7608 0.9576
-11.2979 4.3672 -1.9954 0.9521
-11.6422 3.3425 -1.9954 0.9521
-12.1117 0.1423 -1.9954 0.9521
-12.0762 -0.9381 -1.9954 0.9521
-11.9444 -2.0111 -1.9954 0.9521
-10.9863 -5.1004 -1.9954 0.9521
-9.9053 -6.9702 -1.9953 0.9521
-7.8610 -7.9615 -1.8432 0.9557
-0.8485 -9.7690 -1.8431 0.9609
0.9000 -9.7643 -1.8431 0.9609
1.8074 -9.8659 -1.8853 0.9600
3.7370 -9.9358 -1.9953 0.9577
4.6080 -9.5630 -1.9953 0.9577
6.2332 -8.5925 -1.9952 0.9577
7.6601 -7.3488 -1.9952 0.9577
9.3317 -5.0595 -1.9952 0.9577
9.7457 -4.2074 -1.9952 0.9577
10.3380 -2.4096 -1.9952 0.9577
10.6016 -0.5351 -1.9952 0.9577
10.5280 1.3563 -1.9952 0.9577
10.3652 2.2896 -1.9952 0.9577
10.1198 3.2046 -1.9952 0.9577
8.3612 6.5401 -1.9952 0.9577
7.7448 7.2595 -1.9952 0.9577
7.0475 7.8996 -1.9898 0.9578
5.1244 8.3601 -1.8431 0.9609
4.3586 8.7837 -1.8431 0.9609
1.8787 9.6241 -1.8431 0.9609
0.6517 6.2734 -1.1855 0.9747
-2.4603 9.4923 -1.8431 0.9609
-6.3172 7.5002 -1.8432 0.9609
-7.5489 6.2590 -1.8432 0.9609
-8.0770 5.5610 -1.8432 0.9609
-9.2326 5.2091 -1.9925 0.9578
-10.0254 3.4916 -1.9954 0.9577
-10.4862 1.6555 -1.9954 0.9577
-10.5920 0.7139 -1.9954 0.9577
-10.6135 -0.2333 -1.9954 0.9577
-10.5504 -1.1787 -1.9954 0.9577
-10.4033 -2.1146 -1.9954 0.9577
-10.1733 -3.0338 -1.9954 0.9577
-9.0077 -5.6179 -1.9954 0.9577
-8.4709 -6.3986 -1.9954 0.9577
-7.1460 -7.7431 -1.9805 0.9580
-4.5063 -8.7092 -1.8431 0.9609
-2.8878 -9.3710 -1.8431 0.9609
0.5702 -9.7892 -1.8431 0.9609
1.4408 -9.6993 -1.8431 0.9609
2.4819 -10.2869 -1.9890 0.9578
5.9399 -8.7978 -1.9953 0.9577
7.4079 -7.6029 -1.9952 0.9577
9.1558 -5.3713 -1.9952 0.9577
9.5982 -4.5336 -1.9952 0.9577
9.9642 -3.6598 -1.9952 0.9577
10.2508 -2.7568 -1.9952 0.9577
10.4558 -1.8318 -1.9952 0.9577
10.5775 -0.8923 -1.9952 0.9577
10.5678 1.0005 -1.9952 0.9577
10.2221 2.8615 -1.9952 0.9577
9.9263 3.7615 -1.9952 0.9577
9.5514 4.6316 -1.9952 0.9577
8.5770 6.2544 -1.9952 0.9577
7.9852 6.9942 -1.9952 0.9577
7.3298 7.6784 -1.9952 0.9577
6.1114 7.6681 -1.8431 0.9609
5.4034 8.1825 -1.8431 0.9609
4.6523 8.6317 -1.8431 0.9609
3.8642 9.0121 -1.8431 0.9609
3.0453 9.3208 -1.8431 0.9609
2.2022 9.5553 -1.8431 0.9609
0.4574 9.5299 -1.7933 0.9619
-0.4051 9.7975 -1.8431 0.9609
-2.1388 9.5699 -1.8431 0.9609
-2.9835 9.3411 -1.8431 0.9609
-5.3493 8.2186 -1.8432 0.9609
-6.7239 7.1379 -1.8432 0.9609
-9.9020 3.8277 -1.9954 0.9577
-10.2038 2.9296 -1.9954 0.9577
-10.4244 2.0081 -1.9954 0.9577
-10.6153 0.1247 -1.9954 0.9577
-10.4687 -1.7626 -1.9954 0.9577
-8.6819 -6.1093 -1.9954 0.9577
-7.4410 -7.5362 -1.9906 0.9578
-0.7545 -8.6867 -1.8431 0.9650
0.8525 -9.2484 -1.9632 0.9627
1.7003 -9.2810 -1.9945 0.9622
2.5220 -9.0961 -1.9953 0.9621
3.3230 -8.8350 -1.9953 0.9621
4.0975 -8.5035 -1.9953 0.9621
5.5426 -7.6405 -1.9953 0.9621
7.3669 -5.9013 -1.9952 0.9621
7.8637 -5.2209 -1.9952 0.9621
8.2979 -4.4990 -1.9952 0.9621
8.9650 -2.9537 -1.9952 0.9621
9.3471 -1.3145 -1.9952 0.9621
9.3617 1.2060 -1.9952 0.9621
8.9987 2.8496 -1.9952 0.9621
8.7088 3.6406 -1.9952 0.9621
8.3495 4.4025 -1.9952 0.9621
6.8868 6.4553 -1.9952 0.9621
3.1639 8.1250 -1.8431 0.9650
2.4269 8.3748 -1.8431 0.9650
1.6706 8.5578 -1.8431 0.9650
0.6517 6.2737 -1.3333 0.9745
0.1241 8.7185 -1.8431 0.9650
-0.3816 5.0745 -1.0757 0.9794
-2.1877 8.4406 -1.8431 0.9650
-2.5152 5.4531 -1.2694 0.9757
-4.3435 7.5608 -1.8432 0.9650
-5.6173 6.6692 -1.8432 0.9650
-6.7126 5.5655 -1.8432 0.9650
-8.6023 3.8872 -1.9954 0.9621
-9.1560 2.2975 -1.9954 0.9621
-9.3244 1.4720 -1.9954 0.9621
-9.4185 0.6348 -1.9954 0.9621
-9.3815 -1.0481 -1.9954 0.9621
-8.7696 -3.4934 -1.9954 0.9621
-8.4232 -4.2614 -1.9954 0.9621
-8.0097 -4.9954 -1.9954 0.9621
-6.9951 -6.3386 -1.9954 0.9621
-6.4020 -6.9370 -1.9954 0.9621
-5.7567 -7.4785 -1.9949 0.9622
-4.1909 -8.0997 -1.9277 0.9634
-2.5678 -8.3328 -1.8431 0.9650
2.2139 -9.1760 -1.9953 0.9621
3.0232 -8.9421 -1.9953 0.9621
3.8084 -8.6369 -1.9953 0.9621
5.2818 -7.8231 -1.9953 0.9621
6.5872 -6.7606 -1.9952 0.9621
7.1638 -6.1464 -1.9952 0.9621
8.1415 -4.7763 -1.9952 0.9621
8.8603 -3.2543 -1.9952 0.9621
9.2974 -1.6289 -1.9952 0.9621
9.4389 0.0483 -1.9952 0.9621
9.2803 1.7240 -1.9952 0.9621
7.6267 5.5615 -1.9952 0.9621
6.5168 6.8267 -1.9950 0.9621
5.4343 6.8186 -1.8431 0.9650
4.1369 7.6754 -1.8431 0.9650
1.9582 8.4966 -1.8431 0.9650
0.4180 8.7094 -1.8431 0.9650
-0.3602 8.7120 -1.8431 0.9650
-1.1355 8.6452 -1.8431 0.9650
-1.9018 8.5096 -1.8431 0.9650
-2.1154 6.6231 -1.4697 0.9720
-2.3422 5.5640 -1.2761 0.9756
-4.7566 7.3080 -1.8432 0.9650
-5.9790 6.3470 -1.8432 0.9650
-7.1199 5.2646 -1.8717 0.9644
-8.4663 4.1750 -1.9954 0.9621
-9.0733 2.6050 -1.9954 0.9621
-9.2694 1.7856 -1.9954 0.9621
-9.3917 0.9521 -1.9954 0.9621
-9.4392 0.1109 -1.9954 0.9621
-9.4115 -0.7311 -1.9954 0.9621
-9.3088 -1.5673 -1.9954 0.9621
-9.1320 -2.3910 -1.9954 0.9621
-8.8824 -3.1957 -1.9954 0.9621
-8.5621 -3.9750 -1.9954 0.9621
-8.1736 -4.7225 -1.9954 0.9621
-7.2048 -6.0991 -1.9954 0.9621
-6.6323 -6.7172 -1.9954 0.9621
-1.4813 -8.3333 -1.9892 0.9658
-0.7328 -8.4371 -1.9904 0.9658
0.0224 -8.4825 -1.9936 0.9657
0.7792 -8.4539 -1.9953 0.9657
1.5299 -8.3508 -1.9953 0.9657
2.2683 -8.1811 -1.9953 0.9657
3.6853 -7.6481 -1.9953 0.9657
5.5778 -6.4001 -1.9953 0.9657
6.1263 -5.8773 -1.9952 0.9657
6.6259 -5.3076 -1.9952 0.9657
7.0727 -4.6957 -1.9952 0.9657
7.4632 -4.0464 -1.9952 0.9657
7.7942 -3.3649 -1.9952 0.9657
8.2679 -1.9271 -1.9952 0.9657
8.4787 -0.4280 -1.9952 0.9657
8.4199 1.0847 -1.9952 0.9657
8.2897 1.8311 -1.9952 0.9657
7.5096 3.9597 -1.9952 0.9657
7.1266 4.6135 -1.9952 0.9657
6.1940 5.8059 -1.9953 0.9657
5.6397 6.3216 -1.9910 0.9658
4.6781 6.2940 -1.8431 0.9683
4.0983 6.6860 -1.8431 0.9683
3.4858 7.0248 -1.8431 0.9683
2.8456 7.3077 -1.8431 0.9683
1.5025 7.6969 -1.8431 0.9683
0.1116 7.8415 -1.8431 0.9683
-0.3777 5.0227 -1.1838 0.9795
-1.2829 7.7367 -1.8431 0.9683
-1.9676 7.5915 -1.8431 0.9683
-2.5089 5.4395 -1.4079 0.9757
-2.8814 5.0158 -1.3595 0.9765
-3.5604 5.0864 -1.4592 0.9748
-5.5669 5.5239 -1.8432 0.9683
-6.9907 4.8131 -1.9947 0.9657
-7.3944 4.1720 -1.9954 0.9657
-8.4377 -0.9426 -1.9954 0.9657
-7.8873 -3.1420 -1.9954 0.9657
-6.7746 -5.1173 -1.9954 0.9657
-5.7580 -6.2391 -1.9954 0.9657
-3.2109 -7.8515 -1.9936 0.9657
-1.7616 -8.2794 -1.9894 0.9658
1.2474 -8.3976 -1.9953 0.9657
2.7191 -8.0425 -1.9953 0.9657
3.4253 -7.7680 -1.9953 0.9657
4.7505 -7.0361 -1.9953 0.9657
5.9246 -6.0805 -1.9953 0.9657
6.9103 -4.9316 -1.9952 0.9657
7.9690 -2.9270 -1.9952 0.9657
8.3621 -1.4650 -1.9952 0.9657
8.4517 0.8002 -1.9952 0.9657
8.3467 1.5505 -1.9952 0.9657
8.1753 2.2886 -1.9952 0.9657
7.9387 3.0083 -1.9952 0.9657
7.6388 3.7042 -1.9952 0.9657
7.2782 4.3705 -1.9952 0.9657
6.8595 5.0020 -1.9952 0.9657
2.4355 7.4544 -1.8431 0.9683
0.8711 6.3077 -1.4965 0.9742
-0.2148 5.1941 -1.2218 0.9789
-1.0213 7.7755 -1.8431 0.9683
-2.3409 5.5610 -1.4180 0.9755
-2.6541 5.0031 -1.3310 0.9770
-3.2980 5.0670 -1.4209 0.9755
-4.8471 6.1652 -1.8432 0.9683
-5.3775 5.7085 -1.8432 0.9683
-5.8650 5.2063 -1.8432 0.9683
-6.8104 5.0357 -1.9906 0.9658
-7.2495 4.4190 -1.9954 0.9657
-7.9191 3.0612 -1.9954 0.9657
-8.1605 2.3429 -1.9954 0.9657
-8.3369 1.6060 -1.9954 0.9657
-8.4647 -0.6576 -1.9954 0.9657
-8.3723 -1.4097 -1.9954 0.9657
-8.2133 -2.1505 -1.9954 0.9657
-7.9888 -2.8742 -1.9954 0.9657
-6.9433 -4.8859 -1.9954 0.9657
-6.4800 -5.4855 -1.9954 0.9657
-5.4027 -6.5492 -1.9954 0.9657
-1.3487 -7.5874 -1.9953 0.9687
1.3887 -7.5801 -1.9953 0.9687
2.7129 -7.2129 -1.9953 0.9687
3.3452 -6.9423 -1.9953 0.9687
4.5250 -6.2377 -1.9953 0.9687
5.5609 -5.3349 -1.9953 0.9687
6.0144 -4.8178 -1.9953 0.9687
6.4200 -4.2624 -1.9952 0.9687
7.0749 -3.0544 -1.9952 0.9687
7.6310 -1.0731 -1.9952 0.9687
7.6429 0.9846 -1.9952 0.9687
7.5247 1.6621 -1.9952 0.9687
7.3465 2.3264 -1.9952 0.9687
7.1099 2.9722 -1.9952 0.9687
6.8166 3.5943 -1.9952 0.9687
6.0698 4.7478 -1.9953 0.9687
5.6224 5.2701 -1.9953 0.9687
2.5830 6.6333 -1.8431 0.9710
-1.6881 6.5130 -1.7421 0.9726
-1.9022 5.3287 -1.4650 0.9769
-2.8814 5.0158 -1.4977 0.9764
-5.9197 4.9081 -1.9910 0.9687
-6.3476 4.3703 -1.9954 0.9687
-7.0229 3.1735 -1.9954 0.9687
-7.2779 2.5347 -1.9954 0.9687
-7.6123 1.2018 -1.9954 0.9687
-7.6892 0.5183 -1.9954 0.9687
-7.6590 -0.8556 -1.9954 0.9687
-7.5522 -1.5351 -1.9954 0.9687
-7.3852 -2.2023 -1.9954 0.9687
-7.1594 -2.8520 -1.9954 0.9687
-6.8766 -3.4790 -1.9954 0.9687
-6.1494 -4.6450 -1.9954 0.9687
-5.7107 -5.1748 -1.9954 0.9687
-5.2266 -5.6633 -1.9954 0.9687
-4.7008 -6.1067 -1.9953 0.9687
-4.1376 -6.5015 -1.9953 0.9687
-2.9171 -7.1330 -1.9953 0.9687
-0.2396 -7.7026 -1.9953 0.9687
0.4482 -7.6933 -1.9953 0.9687
1.1323 -7.6226 -1.9953 0.9687
1.8074 -7.4913 -1.9953 0.9687
2.4681 -7.3003 -1.9953 0.9687
6.9679 -3.2912 -1.9952 0.9687
7.5905 -1.3298 -1.9952 0.9687
7.6788 -0.6478 -1.9952 0.9687
7.6718 0.7263 -1.9952 0.9687
7.4208 2.0774 -1.9952 0.9687
6.9339 3.3623 -1.9952 0.9687
6.6065 3.9672 -1.9953 0.9687
6.2265 4.5404 -1.9953 0.9687
5.7969 5.0775 -1.9953 0.9687
3.9226 5.9401 -1.8431 0.9710
3.3774 6.2662 -1.8431 0.9710
2.2108 6.7665 -1.8431 0.9710
0.3413 7.1103 -1.8431 0.9710
-0.2139 5.1738 -1.3407 0.9788
-0.9270 7.0579 -1.8431 0.9710
-1.5526 6.9472 -1.8431 0.9710
-1.8565 5.8125 -1.5799 0.9751
-2.6409 4.9786 -1.4592 0.9770
-4.3997 5.5962 -1.8432 0.9710
-5.7230 5.0802 -1.9814 0.9689
-6.1966 4.5819 -1.9954 0.9687
-6.9119 3.4085 -1.9954 0.9687
-7.1882 2.7786 -1.9954 0.9687
-7.4074 2.1267 -1.9954 0.9687
-7.6673 0.7772 -1.9954 0.9687
-7.7061 0.0906 -1.9954 0.9687
-7.2515 -2.6090 -1.9954 0.9687
-6.9900 -3.2451 -1.9954 0.9687
-6.6728 -3.8554 -1.9954 0.9687
-6.3025 -4.4350 -1.9954 0.9687
-5.8820 -4.9792 -1.9954 0.9687
-5.4146 -5.4839 -1.9954 0.9687
-4.9041 -5.9448 -1.9953 0.9687
-1.2335 -6.9395 -1.9953 0.9711
-0.6099 -7.0218 -1.9953 0.9711
0.6469 -7.0185 -1.9953 0.9711
1.2701 -6.9328 -1.9953 0.9711
3.0595 -6.3494 -1.9953 0.9711
3.6134 -6.0514 -1.9953 0.9711
4.6307 -5.3134 -1.9953 0.9711
5.0860 -4.8793 -1.9953 0.9711
5.8718 -3.8984 -1.9953 0.9711
6.8640 -1.5999 -1.9952 0.9711
7.0391 -0.3553 -1.9952 0.9711
6.8821 1.5202 -1.9952 0.9711
6.7192 2.1278 -1.9952 0.9711
5.1422 4.8201 -1.9953 0.9711
4.6920 5.2594 -1.9953 0.9711
4.1118 5.5321 -1.9513 0.9718
2.8940 5.8320 -1.8431 0.9733
2.3624 6.0668 -1.8431 0.9733
1.8121 6.2533 -1.8431 0.9733
1.2474 6.3900 -1.8431 0.9733
-1.6335 6.3024 -1.8431 0.9733
-1.9124 5.3572 -1.6103 0.9766
-2.2794 4.9418 -1.5406 0.9776
-2.8814 5.0158 -1.6376 0.9762
-6.4231 2.9025 -1.9954 0.9711
-6.8365 1.7155 -1.9954 0.9711
-7.0468 -0.1549 -1.9954 0.9711
-6.7545 -2.0143 -1.9954 0.9711
-6.5480 -2.6085 -1.9954 0.9711
-6.2894 -3.1819 -1.9954 0.9711
-5.6242 -4.2483 -1.9954 0.9711
-5.2230 -4.7328 -1.9954 0.9711
-0.2191 -7.0448 -1.9953 0.9711
0.4099 -7.0363 -1.9953 0.9711
2.2573 -6.6769 -1.9953 0.9711
2.8437 -6.4490 -1.9953 0.9711
6.0791 -3.5664 -1.9953 0.9711
6.9423 -1.2163 -1.9952 0.9711
7.0479 0.0361 -1.9952 0.9711
7.0167 0.6643 -1.9952 0.9711
6.9295 1.2873 -1.9952 0.9711
6.5907 2.4975 -1.9953 0.9711
6.0423 3.6284 -1.9953 0.9711
5.6948 4.1527 -1.9953 0.9711
4.3817 5.4978 -1.9902 0.9712
3.5876 5.4328 -1.8431 0.9733
3.0890 5.7311 -1.8431 0.9733
0.3121 6.5031 -1.8431 0.9733
-0.8479 6.4552 -1.8431 0.9733
-1.4200 6.3539 -1.8431 0.9733
-1.8336 5.7407 -1.7060 0.9753
-2.6452 4.9868 -1.5980 0.9768
-3.2875 5.0508 -1.7061 0.9753
-5.2666 4.6752 -1.9936 0.9711
-5.6674 4.1906 -1.9954 0.9711
-6.5744 2.5413 -1.9954 0.9711
-7.0125 0.7109 -1.9954 0.9711
-7.0480 0.0828 -1.9954 0.9711
-7.0273 -0.5459 -1.9954 0.9711
-6.9506 -1.1703 -1.9954 0.9711
-6.8186 -1.7853 -1.9954 0.9711
-6.6323 -2.3862 -1.9954 0.9711
-6.3931 -2.9680 -1.9954 0.9711
-5.7643 -4.0563 -1.9954 0.9711
-5.3797 -4.5540 -1.9954 0.9711
-4.9522 -5.0155 -1.9954 0.9711
-4.4853 -5.4371 -1.9953 0.9711
0.0171 -6.4871 -1.9953 0.9732
0.5954 -6.4597 -1.9953 0.9732
1.7333 -6.2512 -1.9953 0.9732
2.2837 -6.0718 -1.9953 0.9732
4.6812 -4.4909 -1.9953 0.9732
5.0629 -4.0556 -1.9953 0.9732
5.4043 -3.5881 -1.9953 0.9732
5.9557 -2.5712 -1.9953 0.9732
6.3176 -1.4725 -1.9953 0.9732
6.4238 -0.9034 -1.9952 0.9732
6.4821 0.2519 -1.9952 0.9732
6.4338 0.8289 -1.9953 0.9732
6.3343 1.3992 -1.9953 0.9732
5.7382 3.0256 -1.9953 0.9732
5.4456 3.5252 -1.9953 0.9732
4.7329 4.4363 -1.9953 0.9732
3.1315 5.1089 -1.8431 0.9752
1.6679 5.7555 -1.8431 0.9752
1.1481 5.8813 -1.8431 0.9752
0.0853 5.9917 -1.8431 0.9752
-0.3748 4.9842 -1.5373 0.9793
-1.8648 5.2238 -1.7060 0.9771
-2.2794 4.9418 -1.6739 0.9775
-4.1229 4.8949 -1.9685 0.9736
-4.6022 4.5666 -1.9941 0.9732
-4.9940 4.1406 -1.9954 0.9732
-6.1264 2.1337 -1.9954 0.9732
-6.2923 1.5789 -1.9954 0.9732
-6.3573 -1.2922 -1.9954 0.9732
-6.2168 -1.8539 -1.9954 0.9732
-4.8072 -4.3561 -1.9953 0.9732
-3.4830 -5.4729 -1.9953 0.9732
-2.9812 -5.7617 -1.9953 0.9732
-1.3501 -6.3451 -1.9953 0.9732
-0.2017 -6.4840 -1.9953 0.9732
0.9532 -6.4167 -1.9953 0.9732
1.5215 -6.3061 -1.9953 0.9732
2.6173 -5.9356 -1.9953 0.9732
3.6299 -5.3764 -1.9953 0.9732
4.0948 -5.0313 -1.9953 0.9732
4.5271 -4.6462 -1.9953 0.9732
5.8656 -2.7705 -1.9953 0.9732
6.0892 -2.2365 -1.9953 0.9732
6.2644 -1.6847 -1.9953 0.9732
6.3896 -1.1195 -1.9953 0.9732
6.4640 -0.5453 -1.9952 0.9732
6.4581 0.6114 -1.9953 0.9732
6.3779 1.1848 -1.9953 0.9732
6.0660 2.2987 -1.9953 0.9732
5.8369 2.8304 -1.9953 0.9732
4.4793 4.6923 -1.9953 0.9732
4.0404 5.0696 -1.9939 0.9732
3.4400 5.2092 -1.9201 0.9742
2.8431 5.2749 -1.8431 0.9752
2.3614 5.5073 -1.8431 0.9752
0.2873 5.9854 -1.8431 0.9752
-1.3070 5.8481 -1.8431 0.9752
-2.0694 4.9160 -1.6406 0.9779
-2.6100 4.9204 -1.7132 0.9770
-3.2494 4.9924 -1.8322 0.9754
-5.8183 2.8692 -1.9954 0.9732
-6.4543 0.6543 -1.9954 0.9732
-6.4869 0.0762 -1.9954 0.9732
-6.1043 -2.1962 -1.9954 0.9732
-5.8841 -2.7317 -1.9954 0.9732
-4.9514 -4.1915 -1.9954 0.9732
-4.5579 -4.6163 -1.9953 0.9732
-0.5194 -5.9801 -1.9953 0.9750
0.5510 -5.9773 -1.9953 0.9750
1.0817 -5.9043 -1.9953 0.9750
1.6038 -5.7844 -1.9953 0.9750
3.0774 -5.1537 -1.9953 0.9750
3.9438 -4.5251 -1.9953 0.9750
4.6848 -3.7527 -1.9953 0.9750
5.2768 -2.8610 -1.9953 0.9750
5.5109 -2.3791 -1.9953 0.9750
5.9440 -0.8359 -1.9953 0.9750
5.9979 0.2331 -1.9953 0.9750
5.8612 1.2947 -1.9953 0.9750
5.7224 1.8121 -1.9953 0.9750
5.5381 2.3151 -1.9953 0.9750
5.3096 2.7997 -1.9953 0.9750
5.0389 3.2619 -1.9953 0.9750
4.3794 4.1050 -1.9953 0.9750
3.9960 4.4791 -1.9953 0.9750
3.5793 4.8157 -1.9945 0.9750
3.0976 5.0534 -1.9702 0.9753
2.4646 4.9668 -1.8431 0.9769
2.0120 5.1668 -1.8431 0.9769
1.5433 5.3256 -1.8431 0.9769
0.5729 5.5151 -1.8431 0.9769
0.0789 5.5442 -1.8431 0.9769
-0.9071 5.4701 -1.8431 0.9769
-2.2458 4.8691 -1.7824 0.9777
-4.6210 3.8314 -1.9954 0.9750
-5.4702 2.4719 -1.9954 0.9750
-5.6688 1.9743 -1.9954 0.9750
-5.8223 1.4610 -1.9954 0.9750
-5.9294 0.9361 -1.9954 0.9750
-5.9892 0.4037 -1.9954 0.9750
-6.0013 -0.1319 -1.9954 0.9750
-5.9657 -0.6665 -1.9954 0.9750
-5.8825 -1.1957 -1.9954 0.9750
-5.7525 -1.7154 -1.9954 0.9750
-5.0934 -3.1766 -1.9954 0.9750
-4.4482 -4.0307 -1.9953 0.9750
-4.0711 -4.4112 -1.9953 0.9750
-3.6615 -4.7566 -1.9953 0.9750
-2.2722 -5.5560 -1.9953 0.9750
0.3491 -5.9924 -1.9953 0.9750
2.4218 -5.4923 -1.9953 0.9750
4.8859 -3.4868 -1.9953 0.9750
5.1773 -3.0373 -1.9953 0.9750
5.4275 -2.5636 -1.9953 0.9750
5.6344 -2.0695 -1.9953 0.9750
5.7965 -1.5589 -1.9953 0.9750
6.0024 0.0307 -1.9953 0.9750
5.9757 0.5658 -1.9953 0.9750
5.7803 1.6181 -1.9953 0.9750
5.4010 2.6190 -1.9953 0.9750
5.1460 3.0901 -1.9953 0.9750
4.5153 3.9550 -1.9953 0.9750
3.7411 4.6941 -1.9953 0.9750
3.2987 4.9953 -1.9898 0.9751
2.6525 4.9213 -1.8583 0.9767
2.1851 5.0960 -1.8431 0.9769
1.2452 5.4031 -1.8431 0.9769
0.2658 5.5384 -1.8431 0.9769
-0.2050 4.9593 -1.6499 0.9793
-0.7221 5.4976 -1.8431 0.9769
-1.6870 5.2819 -1.8431 0.9769
-2.0389 4.8436 -1.7469 0.9781
-3.1175 4.7897 -1.8997 0.9762
-3.7001 4.7063 -1.9900 0.9751
-4.4892 3.9850 -1.9954 0.9750
-4.8266 3.5689 -1.9954 0.9750
-5.3838 2.6549 -1.9954 0.9750
-5.5990 2.1643 -1.9954 0.9750
-5.7697 1.6565 -1.9954 0.9750
-5.8944 1.1355 -1.9954 0.9750
-6.0024 0.0705 -1.9954 0.9750
-5.9848 -0.4649 -1.9954 0.9750
-4.9091 -3.4545 -1.9954 0.9750
-4.5816 -3.8784 -1.9953 0.9750
-3.8199 -4.6304 -1.9953 0.9750
0.0147 -5.5796 -1.9953 0.9766
0.5121 -5.5560 -1.9953 0.9766
1.9642 -5.2224 -1.9953 0.9766
2.4220 -5.0264 -1.9953 0.9766
2.8605 -4.7905 -1.9953 0.9766
3.2762 -4.5163 -1.9953 0.9766
3.6659 -4.2062 -1.9953 0.9766
4.6483 -3.0861 -1.9953 0.9766
5.4338 -1.2665 -1.9953 0.9766
5.5251 -0.7770 -1.9953 0.9766
5.5753 0.2167 -1.9953 0.9766
4.9354 2.6024 -1.9953 0.9766
4.3948 3.4376 -1.9953 0.9766
4.0708 3.8157 -1.9953 0.9766
3.7144 4.1635 -1.9953 0.9766
2.9102 4.7478 -1.9914 0.9766
1.8702 4.8027 -1.8431 0.9783
1.4345 4.9503 -1.8431 0.9783
0.5325 5.1264 -1.8431 0.9783
-0.3729 4.9594 -1.7785 0.9791
-1.2931 4.9892 -1.8431 0.9783
-1.7328 4.8540 -1.8431 0.9783
-2.7191 4.7332 -1.9521 0.9771
-4.8596 2.7419 -1.9954 0.9766
-5.2693 1.8352 -1.9954 0.9766
-5.5671 0.3752 -1.9954 0.9766
-5.5784 -0.1226 -1.9954 0.9766
-5.1836 -2.0649 -1.9954 0.9766
-3.4035 -4.4214 -1.9953 0.9766
-2.1120 -5.1645 -1.9953 0.9766
-1.1612 -5.4575 -1.9953 0.9766
-0.6700 -5.5392 -1.9953 0.9766
-0.1734 -5.5769 -1.9953 0.9766
0.3245 -5.5701 -1.9953 0.9766
1.3086 -5.4239 -1.9953 0.9766
2.6974 -4.8842 -1.9953 0.9766
3.5219 -4.3275 -1.9953 0.9766
3.8937 -3.9962 -1.9953 0.9766
4.5416 -3.2411 -1.9953 0.9766
4.8125 -2.8233 -1.9953 0.9766
5.0450 -2.3829 -1.9953 0.9766
5.2374 -1.9236 -1.9953 0.9766
5.3880 -1.4490 -1.9953 0.9766
5.4958 -0.9629 -1.9953 0.9766
5.5597 -0.4690 -1.9953 0.9766
5.5794 0.0286 -1.9953 0.9766
5.5546 0.5259 -1.9953 0.9766
5.3729 1.5041 -1.9953 0.9766
5.0204 2.4345 -1.9953 0.9766
4.7833 2.8724 -1.9953 0.9766
4.1971 3.6763 -1.9953 0.9766
2.0366 4.7497 -1.8481 0.9783
1.1575 5.0223 -1.8431 0.9783
0.7051 5.1055 -1.8431 0.9783
-0.2041 4.9371 -1.7671 0.9792
-1.1241 5.0300 -1.8431 0.9783
-2.5015 4.7157 -1.9089 0.9776
-3.0347 4.6625 -1.9894 0.9766
-3.8259 4.0615 -1.9953 0.9766
-4.4865 3.3174 -1.9954 0.9766
-4.7644 2.9042 -1.9954 0.9766
-5.2044 2.0118 -1.9954 0.9766
-5.4790 1.0555 -1.9954 0.9766
-5.5023 -0.9264 -1.9954 0.9766
-5.3978 -1.4133 -1.9954 0.9766
-4.8313 -2.7914 -1.9954 0.9766
-4.2587 -3.6051 -1.9953 0.9766
-3.9203 -3.9704 -1.9953 0.9766
-0.9112 -5.1264 -1.9953 0.9779
0.0137 -5.2067 -1.9953 0.9779
0.4779 -5.1847 -1.9953 0.9779
2.2602 -4.6905 -1.9953 0.9779
2.6694 -4.4703 -1.9953 0.9779
3.0573 -4.2145 -1.9953 0.9779
3.7572 -3.6045 -1.9953 0.9779
4.0636 -3.2551 -1.9953 0.9779
4.3376 -2.8799 -1.9953 0.9779
4.7802 -2.0637 -1.9953 0.9779
4.9451 -1.6293 -1.9953 0.9779
5.0707 -1.1819 -1.9953 0.9779
5.1559 -0.7251 -1.9953 0.9779
5.2000 -0.2625 -1.9953 0.9779
5.0840 1.1230 -1.9953 0.9779
4.9637 1.5718 -1.9953 0.9779
4.6056 2.4285 -1.9953 0.9779
3.4661 3.8852 -1.9953 0.9779
2.7210 4.4391 -1.9953 0.9779
1.8224 4.6799 -1.9246 0.9787
1.3387 4.6195 -1.8431 0.9796
0.9215 4.7204 -1.8431 0.9796
0.0684 4.8091 -1.8431 0.9796
-1.2067 4.6558 -1.8431 0.9796
-1.6497 4.6211 -1.8803 0.9792
-2.9859 4.2656 -1.9953 0.9779
-3.3543 3.9824 -1.9953 0.9779
-3.6960 3.6675 -1.9953 0.9779
-4.0083 3.3233 -1.9953 0.9779
-4.5348 2.5586 -1.9954 0.9779
-4.7449 2.1441 -1.9954 0.9779
-5.0503 1.2673 -1.9954 0.9779
-2.2945 -0.0504 -0.8795 0.9902
-2.3022 -0.2572 -0.8878 0.9901
-4.8371 -1.9269 -1.9954 0.9779
-4.1547 -3.1383 -1.9953 0.9779
-3.1760 -4.1259 -1.9953 0.9779
-2.7955 -4.3927 -1.9953 0.9779
-1.0836 -5.0927 -1.9953 0.9779
-0.6252 -5.1690 -1.9953 0.9779
-0.1619 -5.2042 -1.9953 0.9779
0.3028 -5.1979 -1.9953 0.9779
0.7650 -5.1502 -1.9953 0.9779
1.2212 -5.0614 -1.9953 0.9779
2.1007 -4.7641 -1.9953 0.9779
2.9134 -4.3152 -1.9953 0.9779
3.2866 -4.0383 -1.9953 0.9779
3.9515 -3.3903 -1.9953 0.9779
4.2381 -3.0245 -1.9953 0.9779
4.4908 -2.6346 -1.9953 0.9779
4.7079 -2.2237 -1.9953 0.9779
4.8874 -1.7951 -1.9953 0.9779
5.1285 -0.8985 -1.9953 0.9779
5.1834 0.4907 -1.9953 0.9779
4.4637 2.6804 -1.9953 0.9779
4.2069 3.0677 -1.9953 0.9779
3.9167 3.4306 -1.9953 0.9779
1.0801 4.6867 -1.8431 0.9796
0.6580 4.7643 -1.8431 0.9796
-0.1987 4.8055 -1.8431 0.9796
-0.6263 4.7686 -1.8431 0.9796
-1.0490 4.6938 -1.8431 0.9796
-1.9563 4.6474 -1.9323 0.9786
-2.4328 4.5863 -1.9895 0.9780
-2.8386 4.3612 -1.9941 0.9780
-3.2181 4.0932 -1.9953 0.9779
-3.8939 3.4566 -1.9953 0.9779
-4.4460 2.7101 -1.9954 0.9779
-4.6699 2.3029 -1.9954 0.9779
-5.1128 0.9849 -1.9954 0.9779
-2.3034 0.2335 -0.8872 0.9901
-2.2910 0.0269 -0.8780 0.9902
-2.3041 -0.1790 -0.8856 0.9901
-5.1346 -0.8645 -1.9954 0.9779
-5.0370 -1.3189 -1.9954 0.9779
-4.8994 -1.7627 -1.9954 0.9779
-4.7227 -2.1925 -1.9954 0.9779
-4.5084 -2.6048 -1.9953 0.9779
-3.6583 -3.7051 -1.9953 0.9779
-3.3134 -4.0165 -1.9953 0.9779
-0.8532 -4.8000 -1.9953 0.9791
0.0129 -4.8752 -1.9953 0.9791
0.4475 -4.8546 -1.9953 0.9791
1.3026 -4.6979 -1.9953 0.9791
2.1163 -4.3919 -1.9953 0.9791
2.4994 -4.1857 -1.9953 0.9791
2.8626 -3.9462 -1.9953 0.9791
3.8049 -3.0479 -1.9953 0.9791
4.2857 -2.3236 -1.9953 0.9791
4.7479 -1.1066 -1.9953 0.9791
4.8352 0.6229 -1.9953 0.9791
4.7604 1.0515 -1.9953 0.9791
4.6477 1.4718 -1.9953 0.9791
4.4979 1.8803 -1.9953 0.9791
4.0925 2.6493 -1.9953 0.9791
3.5569 3.3340 -1.9953 0.9791
3.2455 3.6379 -1.9953 0.9791
2.9082 3.9128 -1.9953 0.9791
2.5478 4.1565 -1.9953 0.9791
2.1657 4.3644 -1.9941 0.9792
1.7641 4.5302 -1.9897 0.9792
0.4684 4.5088 -1.8553 0.9806
-0.3385 4.5025 -1.8480 0.9807
-0.7506 4.5264 -1.8778 0.9804
-1.1812 4.5575 -1.9269 0.9799
-2.0381 4.4187 -1.9915 0.9792
-3.7531 3.1118 -1.9953 0.9791
-4.2461 2.3957 -1.9953 0.9791
-4.4428 2.0076 -1.9953 0.9791
-2.1128 0.5302 -0.8915 0.9906
-2.0336 0.3210 -0.8426 0.9911
-1.9958 -0.0439 -0.8170 0.9914
-2.0773 -0.4222 -0.8676 0.9909
-4.5292 -1.8042 -1.9953 0.9791
-4.1367 -2.5800 -1.9953 0.9791
-3.8902 -2.9385 -1.9953 0.9791
-3.6127 -3.2737 -1.9953 0.9791
-2.9738 -3.8632 -1.9953 0.9791
-2.2404 -4.3300 -1.9953 0.9791
-1.8454 -4.5125 -1.9953 0.9791
-1.0146 -4.7685 -1.9953 0.9791
-0.5854 -4.8399 -1.9953 0.9791
0.7163 -4.8223 -1.9953 0.9791
1.9670 -4.4607 -1.9953 0.9791
2.3568 -4.2676 -1.9953 0.9791
3.4022 -3.4917 -1.9953 0.9791
3.7000 -3.1745 -1.9953 0.9791
3.9683 -2.8319 -1.9953 0.9791
4.5762 -1.6808 -1.9953 0.9791
4.7078 -1.2661 -1.9953 0.9791
4.8020 -0.8413 -1.9953 0.9791
4.7931 0.8904 -1.9953 0.9791
3.9391 2.8724 -1.9953 0.9791
3.6673 3.2122 -1.9953 0.9791
3.3663 3.5264 -1.9953 0.9791
1.9174 4.4717 -1.9913 0.9792
1.5056 4.6083 -1.9842 0.9793
1.0480 4.5471 -1.9098 0.9800
0.6242 4.5195 -1.8673 0.9805
-0.5933 4.5167 -1.8645 0.9805
-1.0151 4.5421 -1.9048 0.9801
-1.4637 4.5828 -1.9690 0.9794
-1.8866 4.4818 -1.9902 0.9792
-2.2830 4.3039 -1.9940 0.9792
-3.0132 3.8326 -1.9953 0.9791
-3.3429 3.5487 -1.9953 0.9791
-3.6460 3.2366 -1.9953 0.9791
-3.9201 2.8986 -1.9953 0.9791
-4.5474 1.7578 -1.9954 0.9791
-4.6860 1.3454 -1.9954 0.9791
-2.0175 0.2045 -0.8299 0.9913
-2.0128 -0.1564 -0.8263 0.9913
-2.0450 -0.3443 -0.8488 0.9911
-4.7163 -1.2349 -1.9954 0.9791
-4.4220 -2.0529 -1.9953 0.9791
-4.2214 -2.4390 -1.9953 0.9791
-3.1024 -3.7608 -1.9953 0.9791
-0.3962 -4.5611 -1.9953 0.9802
0.0121 -4.5783 -1.9953 0.9802
0.4202 -4.5590 -1.9953 0.9802
0.8250 -4.5033 -1.9953 0.9802
1.2232 -4.4118 -1.9953 0.9802
1.9874 -4.1244 -1.9953 0.9802
3.0080 -3.4514 -1.9953 0.9802
3.3038 -3.1695 -1.9953 0.9802
3.8141 -2.5323 -1.9953 0.9802
4.4587 -1.0392 -1.9953 0.9802
4.5724 -0.2308 -1.9953 0.9802
4.5407 0.5850 -1.9953 0.9802
4.4705 0.9875 -1.9953 0.9802
4.2240 1.7658 -1.9953 0.9802
3.6061 2.8207 -1.9953 0.9802
2.7311 3.6745 -1.9953 0.9802
2.3926 3.9033 -1.9953 0.9802
1.6601 4.2632 -1.9939 0.9802
1.2714 4.3873 -1.9907 0.9803
0.8741 4.4779 -1.9884 0.9803
0.4662 4.4879 -1.9664 0.9805
0.0638 4.4808 -1.9530 0.9806
-0.7461 4.4996 -1.9878 0.9803
-2.6255 3.7508 -1.9953 0.9802
-2.9495 3.5018 -1.9953 0.9802
-3.5245 2.9222 -1.9953 0.9802
-3.7710 2.5964 -1.9953 0.9802
-3.9875 2.2498 -1.9953 0.9802
-4.1722 1.8853 -1.9953 0.9802
-1.4732 0.2326 -0.6500 0.9935
-1.4597 0.0984 -0.6376 0.9936
-1.4372 -0.0316 -0.6265 0.9937
-1.4937 -0.4454 -0.6793 0.9932
-4.2533 -1.6944 -1.9953 0.9802
-3.8848 -2.4228 -1.9953 0.9802
-3.3927 -3.0743 -1.9953 0.9802
-2.7927 -3.6280 -1.9953 0.9802
-2.4581 -3.8625 -1.9953 0.9802
-0.5498 -4.5452 -1.9953 0.9802
0.2662 -4.5705 -1.9953 0.9802
2.2133 -4.0077 -1.9953 0.9802
3.4746 -2.9811 -1.9953 0.9802
3.7266 -2.6595 -1.9953 0.9802
4.1397 -1.9553 -1.9953 0.9802
4.2975 -1.5784 -1.9953 0.9802
4.4211 -1.1890 -1.9953 0.9802
4.5782 0.0234 -1.9953 0.9802
4.5012 0.8362 -1.9953 0.9802
3.9250 2.3569 -1.9953 0.9802
3.6992 2.6975 -1.9953 0.9802
3.4440 3.0166 -1.9953 0.9802
2.1722 4.0302 -1.9953 0.9802
1.8041 4.2076 -1.9952 0.9802
1.4194 4.3444 -1.9918 0.9803
1.0250 4.4475 -1.9891 0.9803
0.6212 4.4985 -1.9791 0.9804
0.2151 4.4809 -1.9551 0.9806
-0.5905 4.4958 -1.9762 0.9804
-0.9954 4.4538 -1.9889 0.9803
-1.3902 4.3527 -1.9914 0.9803
-2.1454 4.0446 -1.9953 0.9802
-2.4975 3.8372 -1.9953 0.9802
-3.1393 3.3326 -1.9953 0.9802
-3.6813 2.7221 -1.9953 0.9802
-4.1063 2.0249 -1.9953 0.9802
-1.5436 0.5967 -0.7212 0.9928
-1.4696 0.2831 -0.6522 0.9935
-1.4696 0.1490 -0.6438 0.9936
-1.4921 -0.3907 -0.6722 0.9933
-3.9643 -2.2905 -1.9953 0.9802
-3.7443 -2.6348 -1.9953 0.9802
-3.4944 -2.9581 -1.9953 0.9802
-3.2168 -3.2579 -1.9953 0.9802
-2.9135 -3.5317 -1.9953 0.9802
-0.7544 -4.2441 -1.9953 0.9812
0.0114 -4.3106 -1.9953 0.9812
0.3957 -4.2924 -1.9953 0.9812
0.7768 -4.2400 -1.9953 0.9812
1.1517 -4.1538 -1.9953 0.9812
1.5175 -4.0346 -1.9953 0.9812
2.2099 -3.7009 -1.9953 0.9812
2.5311 -3.4892 -1.9953 0.9812
2.8321 -3.2496 -1.9953 0.9812
3.7894 -2.0545 -1.9953 0.9812
4.3050 -0.2173 -1.9953 0.9812
4.2752 0.5508 -1.9953 0.9812
3.3953 2.6557 -1.9953 0.9812
2.8696 3.2166 -1.9953 0.9812
2.2527 3.6751 -1.9953 0.9812
1.9161 3.8613 -1.9953 0.9812
1.1994 4.1390 -1.9947 0.9812
0.4444 4.2785 -1.9911 0.9812
0.0612 4.3001 -1.9906 0.9812
-0.3225 4.2888 -1.9908 0.9812
-0.7040 4.2456 -1.9920 0.9812
-1.0807 4.1697 -1.9938 0.9812
-1.8054 3.9143 -1.9953 0.9812
-2.4720 3.5314 -1.9953 0.9812
-2.7770 3.2970 -1.9953 0.9812
-3.3184 2.7514 -1.9953 0.9812
-3.5505 2.4445 -1.9953 0.9812
-1.2563 0.5677 -0.6381 0.9939
-1.2644 0.4404 -0.6198 0.9941
-1.2702 0.3188 -0.6062 0.9942
-1.2632 -0.0278 -0.5849 0.9944
-1.2537 -0.4994 -0.6247 0.9941
-3.8464 -1.9460 -1.9953 0.9812
-3.4396 -2.5982 -1.9953 0.9812
-3.1943 -2.8945 -1.9953 0.9812
-2.9235 -3.1678 -1.9953 0.9812
-2.6294 -3.4158 -1.9953 0.9812
-2.3144 -3.6366 -1.9953 0.9812
-1.9809 -3.8285 -1.9953 0.9812
-1.6317 -3.9899 -1.9953 0.9812
-0.5176 -4.2794 -1.9953 0.9812
0.6334 -4.2638 -1.9953 0.9812
1.3806 -4.0835 -1.9953 0.9812
2.0839 -3.7734 -1.9953 0.9812
3.5087 -2.5040 -1.9953 0.9812
3.8976 -1.8410 -1.9953 0.9812
4.0462 -1.4861 -1.9953 0.9812
4.1626 -1.1195 -1.9953 0.9812
4.2458 -0.7439 -1.9953 0.9812
4.3105 0.0221 -1.9953 0.9812
4.1509 1.1620 -1.9953 0.9812
4.0308 1.5275 -1.9953 0.9812
3.8786 1.8808 -1.9953 0.9812
3.6954 2.2191 -1.9953 0.9812
3.4829 2.5398 -1.9953 0.9812
2.6866 3.3709 -1.9953 0.9812
2.0452 3.7945 -1.9953 0.9812
1.6987 3.9617 -1.9953 0.9812
1.3387 4.0974 -1.9953 0.9812
0.9671 4.1962 -1.9933 0.9812
-0.1777 4.2970 -1.9907 0.9812
-0.5603 4.2658 -1.9915 0.9812
-0.9391 4.2021 -1.9931 0.9812
-1.3115 4.1063 -1.9953 0.9812
-1.6724 3.9730 -1.9953 0.9812
-2.0200 3.8081 -1.9953 0.9812
-2.3515 3.6128 -1.9953 0.9812
-2.6642 3.3887 -1.9953 0.9812
-3.4660 2.5629 -1.9953 0.9812
-3.6808 2.2436 -1.9953 0.9812
-1.2567 0.4858 -0.6236 0.9941
-1.2703 0.2447 -0.5988 0.9943
-1.2722 -0.0988 -0.5907 0.9944
-1.2706 -0.3327 -0.6080 0.9942
-1.2624 -0.4542 -0.6210 0.9941
-3.5253 -2.4807 -1.9953 0.9812
-2.7431 -3.3252 -1.9953 0.9812
-0.3520 -4.0525 -1.9953 0.9820
0.0107 -4.0677 -1.9953 0.9820
0.3734 -4.0505 -1.9953 0.9820
1.4320 -3.8073 -1.9953 0.9820
1.7657 -3.6644 -1.9953 0.9820
2.0854 -3.4924 -1.9953 0.9820
2.3885 -3.2926 -1.9953 0.9820
2.9353 -2.8160 -1.9953 0.9820
3.3888 -2.2499 -1.9953 0.9820
3.8634 -1.2728 -1.9953 0.9820
3.9615 -0.9233 -1.9953 0.9820
4.0625 -0.2051 -1.9953 0.9820
4.0343 0.5197 -1.9953 0.9820
3.8779 1.2280 -1.9953 0.9820
3.7529 1.5689 -1.9953 0.9820
3.5981 1.8972 -1.9953 0.9820
3.4146 2.2105 -1.9953 0.9820
2.7079 3.0353 -1.9953 0.9820
2.4265 3.2647 -1.9953 0.9820
0.7793 3.9924 -1.9953 0.9820
0.4202 4.0454 -1.9950 0.9820
0.0578 4.0659 -1.9946 0.9820
-0.6654 4.0129 -1.9953 0.9820
-1.3676 3.8310 -1.9953 0.9820
-2.6205 3.1112 -1.9953 0.9820
-2.8875 2.8652 -1.9953 0.9820
-3.3505 2.3068 -1.9953 0.9820
-1.1330 0.2843 -0.5730 0.9948
-1.1429 0.1804 -0.5676 0.9949
-1.1442 -0.1278 -0.5648 0.9949
-1.1375 -0.2312 -0.5694 0.9948
-1.1311 -0.3373 -0.5790 0.9948
-1.1139 -0.4437 -0.5882 0.9947
-1.0897 -0.5513 -0.5990 0.9946
-3.4515 -2.1526 -1.9953 0.9820
-3.0143 -2.7314 -1.9953 0.9820
-2.1840 -3.4317 -1.9953 0.9820
-1.5397 -3.7651 -1.9953 0.9820
-0.8466 -3.9787 -1.9953 0.9820
-0.4884 -4.0383 -1.9953 0.9820
-0.1264 -4.0657 -1.9953 0.9820
0.2366 -4.0608 -1.9953 0.9820
0.5977 -4.0235 -1.9953 0.9820
0.9540 -3.9542 -1.9953 0.9820
1.9665 -3.5607 -1.9953 0.9820
2.8387 -2.9134 -1.9953 0.9820
3.3110 -2.3629 -1.9953 0.9820
3.5085 -2.0583 -1.9953 0.9820
3.6780 -1.7372 -1.9953 0.9820
4.0676 0.0208 -1.9953 0.9820
3.9992 0.7429 -1.9953 0.9820
3.8037 1.4414 -1.9953 0.9820
3.2866 2.3967 -1.9953 0.9820
2.8087 2.9423 -1.9953 0.9820
2.5352 3.1810 -1.9953 0.9820
0.9135 3.9638 -1.9953 0.9820
0.5565 4.0295 -1.9953 0.9820
-0.1680 4.0629 -1.9947 0.9820
-0.5297 4.0331 -1.9953 0.9820
-0.8872 3.9698 -1.9953 0.9820
-1.5782 3.7491 -1.9953 0.9820
-1.9062 3.5935 -1.9953 0.9820
-2.2190 3.4092 -1.9953 0.9820
-2.5141 3.1978 -1.9953 0.9820
-2.7892 2.9609 -1.9953 0.9820
-3.0421 2.7005 -1.9953 0.9820
-3.2708 2.4185 -1.9953 0.9820
-1.0863 0.5357 -0.5941 0.9946
-1.1168 0.4317 -0.5873 0.9947
-1.1359 0.0133 -0.5572 0.9950
-1.1329 -0.2966 -0.5745 0.9948
-1.0944 -0.5081 -0.5919 0.9946
-3.3267 -2.3409 -1.9953 0.9820
-3.1047 -2.6282 -1.9953 0.9820
0.3530 -3.8299 -1.9953 0.9828
1.3540 -3.5999 -1.9953 0.9828
1.6696 -3.4649 -1.9953 0.9828
1.9718 -3.3022 -1.9953 0.9828
2.2584 -3.1132 -1.9953 0.9828
2.7754 -2.6626 -1.9953 0.9828
3.0018 -2.4046 -1.9953 0.9828
3.5311 -1.5244 -1.9953 0.9828
3.7457 -0.8730 -1.9953 0.9828
3.8086 -0.5356 -1.9953 0.9828
3.7556 0.8296 -1.9953 0.9828
3.5485 1.4834 -1.9953 0.9828
2.8061 2.6303 -1.9953 0.9828
2.5604 2.8700 -1.9953 0.9828
-0.6292 3.7944 -1.9953 0.9828
-1.2931 3.6223 -1.9953 0.9828
-2.2056 3.1509 -1.9953 0.9828
-2.4778 2.9418 -1.9953 0.9828
-2.7302 2.7091 -1.9953 0.9828
-3.1680 2.1812 -1.9953 0.9828
-0.9499 0.5360 -0.5658 0.9951
-1.0203 0.2560 -0.5457 0.9953
-1.0375 -0.1159 -0.5416 0.9953
-1.0004 -0.3985 -0.5586 0.9952
-0.9679 -0.4897 -0.5627 0.9951
-3.0690 -2.3182 -1.9953 0.9828
-2.3461 -3.0478 -1.9953 0.9828
-1.4559 -3.5600 -1.9953 0.9828
-0.1196 -3.8443 -1.9953 0.9828
0.2237 -3.8396 -1.9953 0.9828
0.5651 -3.8044 -1.9953 0.9828
0.9021 -3.7389 -1.9953 0.9828
1.2318 -3.6435 -1.9953 0.9828
1.5518 -3.5192 -1.9953 0.9828
1.8594 -3.3668 -1.9953 0.9828
2.1521 -3.1876 -1.9953 0.9828
3.1306 -2.2342 -1.9953 0.9828
3.6103 -1.3260 -1.9953 0.9828
3.7141 -0.9988 -1.9953 0.9828
3.7884 -0.6637 -1.9953 0.9828
3.8325 -0.3233 -1.9953 0.9828
3.5965 1.3629 -1.9953 0.9828
3.4607 1.6781 -1.9953 0.9828
2.8932 2.5342 -1.9953 0.9828
1.8248 3.3857 -1.9953 0.9828
1.5157 3.5349 -1.9953 0.9828
1.1945 3.6560 -1.9953 0.9828
0.8638 3.7479 -1.9953 0.9828
0.5262 3.8100 -1.9953 0.9828
-0.5009 3.8134 -1.9953 0.9828
-0.8389 3.7536 -1.9953 0.9828
-1.8023 3.3978 -1.9953 0.9828
-2.0981 3.2235 -1.9953 0.9828
-2.3772 3.0236 -1.9953 0.9828
-2.8764 2.5534 -1.9953 0.9828
-3.0926 2.2867 -1.9953 0.9828
-0.9724 0.4795 -0.5625 0.9951
-1.0303 0.1985 -0.5443 0.9953
-1.0377 0.1052 -0.5411 0.9953
-1.0334 -0.1740 -0.5437 0.9953
-1.0087 -0.3629 -0.5561 0.9952
-0.9548 -0.5516 -0.5720 0.9950
-3.1455 -2.2134 -1.9953 0.9828
-2.7023 -2.7369 -1.9953 0.9828
-0.6376 -3.5868 -1.9953 0.9835
0.0096 -3.6430 -1.9953 0.9835
0.6565 -3.5834 -1.9953 0.9835
0.9734 -3.5106 -1.9953 0.9835
1.2825 -3.4098 -1.9953 0.9835
1.5814 -3.2819 -1.9953 0.9835
2.6289 -2.5220 -1.9953 0.9835
3.0350 -2.0150 -1.9953 0.9835
3.2026 -1.7364 -1.9953 0.9835
3.3446 -1.4439 -1.9953 0.9835
1.8842 -0.0951 -1.0333 0.9914
1.8820 0.0731 -1.0315 0.9914
1.8864 0.4167 -1.0581 0.9912
2.8695 2.2445 -1.9953 0.9835
2.1732 2.9239 -1.9953 0.9835
1.0140 3.4991 -1.9953 0.9835
0.3764 3.6236 -1.9953 0.9835
0.0518 3.6427 -1.9953 0.9835
-0.9140 3.5265 -1.9953 0.9835
-1.2248 3.4310 -1.9953 0.9835
-2.0891 2.9845 -1.9953 0.9835
-2.3469 2.7864 -1.9953 0.9835
-2.5860 2.5661 -1.9953 0.9835
-0.8768 0.6037 -0.5830 0.9952
-0.8988 0.4061 -0.5402 0.9955
-0.9158 0.3190 -0.5312 0.9956
-0.9289 0.2331 -0.5245 0.9956
-0.9435 -0.0207 -0.5169 0.9957
-0.9382 -0.1907 -0.5244 0.9956
-0.9080 -0.3617 -0.5353 0.9956
-0.8875 -0.4490 -0.5448 0.9955
-2.9070 -2.1958 -1.9953 0.9835
-2.2222 -2.8868 -1.9953 0.9835
-1.9560 -3.0734 -1.9953 0.9835
-1.6741 -3.2356 -1.9953 0.9835
-1.3790 -3.3720 -1.9953 0.9835
-1.0729 -3.4815 -1.9953 0.9835
0.5353 -3.6035 -1.9953 0.9835
0.8544 -3.5414 -1.9953 0.9835
1.1668 -3.4511 -1.9953 0.9835
1.7612 -3.1890 -1.9953 0.9835
2.0385 -3.0193 -1.9953 0.9835
2.2996 -2.8255 -1.9953 0.9835
2.5423 -2.6092 -1.9953 0.9835
2.7648 -2.3721 -1.9953 0.9835
3.2940 -1.5559 -1.9953 0.9835
3.4196 -1.2560 -1.9953 0.9835
1.8843 -0.5067 -1.0687 0.9911
1.8855 -0.3303 -1.0484 0.9913
1.8883 -0.1593 -1.0379 0.9914
1.8734 0.0096 -1.0261 0.9915
1.8839 0.3500 -1.0495 0.9913
