ply
format ascii 1.0
element vertex 1511
property float32 x
property float32 y
property float32 z
property float32 I
end_header
1.5086 14.4433 2.5606 0.9427
0.1450 9.6185 1.6962 0.9617
-2.2114 13.4533 2.4040 0.9461
-1.4462 5.6188 1.0230 0.9767
-3.4567 9.7436 1.8230 0.9589
-9.8764 14.1941 3.0490 0.9322
-13.7874 13.7734 3.4363 0.9239
-16.6062 9.4617 3.3701 0.9253
-11.8527 -7.2682 2.4516 0.9451
-10.9935 -9.8002 2.5969 0.9419
-10.4826 -11.1686 2.7009 0.9397
-10.2661 -15.8164 3.3248 0.9263
-3.7538 -16.8075 3.0366 0.9324
-2.2235 -16.9103 3.0074 0.9331
2.6646 -19.4346 3.4589 0.9234
5.4350 -16.7220 3.1004 0.9311
8.7529 15.5244 3.1425 0.9302
5.0930 14.6115 2.7284 0.9391
3.6873 14.6608 2.6656 0.9404
2.3906 15.0627 2.6892 0.9399
-0.2745 13.3233 2.3498 0.9473
-2.7142 13.4871 2.4258 0.9457
-6.7647 13.4640 2.6569 0.9406
-10.4974 13.9941 3.0846 0.9314
-13.6568 12.7026 3.2887 0.9270
-11.7355 6.1428 2.3356 0.9476
-12.3912 -8.2206 2.6220 0.9414
-12.6047 -12.0705 3.0773 0.9316
-9.7789 -16.3117 3.3534 0.9257
-7.9815 -16.4786 3.2285 0.9283
-3.7525 -9.9073 1.8680 0.9579
-4.6361 -16.5542 3.0313 0.9326
-3.1368 -16.8490 3.0220 0.9328
-1.6163 -16.9510 3.0025 0.9332
-0.1034 -17.0520 3.0068 0.9331
3.2697 -18.8295 3.3698 0.9253
-0.9901 13.3693 2.0537 0.9472
-1.4449 5.6136 0.8880 0.9768
-6.1870 13.4935 2.2741 0.9417
-7.7233 13.5230 2.3857 0.9389
-9.5667 13.7489 2.5660 0.9345
-11.5374 13.7840 2.7537 0.9298
-12.3123 12.2998 2.6661 0.9320
-13.8666 9.6277 2.5861 0.9340
-10.3336 -11.0099 2.3132 0.9407
-10.6119 -16.3491 2.9859 0.9242
-8.7192 -16.4763 2.8557 0.9273
-6.9715 -16.5941 2.7573 0.9298
-2.2238 -16.9129 2.6133 0.9333
0.8095 -17.1155 2.6249 0.9330
5.9307 -18.2471 2.9393 0.9253
5.4105 15.5224 2.5183 0.9356
4.2565 16.9242 2.6734 0.9318
-1.4747 13.4018 2.0655 0.9469
-2.7138 13.4850 2.1072 0.9459
-3.9000 9.8619 1.6246 0.9580
-8.5170 13.7496 2.4777 0.9366
-10.3338 13.7760 2.6382 0.9327
-11.7456 6.1481 2.0310 0.9478
-14.8977 6.1800 2.4708 0.9368
-12.0745 -9.6598 2.3688 0.9393
-11.3697 -10.8878 2.4116 0.9383
-8.0038 -16.5245 2.8128 0.9284
-3.7442 -9.8856 1.6194 0.9581
-0.1035 -17.0547 2.6127 0.9333
-2.2107 13.4492 1.7749 0.9465
-1.4445 5.6123 0.7547 0.9769
-4.8344 13.6270 1.8829 0.9433
-6.2922 13.7230 1.9659 0.9409
-14.0542 9.7579 2.2280 0.9333
-16.5948 9.4552 2.4871 0.9259
-13.3094 -9.8904 2.1593 0.9353
-10.6137 -16.3520 2.5386 0.9244
-8.7634 -16.5599 2.4398 0.9272
-6.9726 -16.5967 2.3442 0.9300
-2.2440 -17.0667 2.2416 0.9329
0.8096 -17.1181 2.2316 0.9332
0.3504 5.1146 0.6676 0.9795
-0.2744 13.3193 1.7348 0.9477
-2.7134 13.4829 1.7910 0.9460
-1.6322 5.5182 0.7494 0.9771
-3.8995 9.8605 1.3808 0.9581
-9.1469 10.1680 1.7810 0.9463
-13.7406 12.7806 2.4437 0.9271
-13.9809 10.8555 2.3050 0.9311
-14.4903 9.3128 2.2430 0.9329
-11.7552 6.1531 1.7278 0.9479
-14.8951 6.1790 2.0999 0.9370
-1.6168 -16.9561 2.2181 0.9336
-0.1035 -17.0573 2.2213 0.9335
0.2023 13.4168 1.4409 0.9474
-2.2323 13.5799 1.4778 0.9461
-1.4438 5.6095 0.6220 0.9770
-6.2941 13.7270 1.6216 0.9411
-7.9016 13.8352 1.7109 0.9379
-11.7943 14.0908 1.9732 0.9287
-12.4869 10.4302 1.7471 0.9366
-14.0537 9.7575 1.8372 0.9335
-13.2926 -9.8779 1.7783 0.9355
-10.6933 -16.4746 2.1091 0.9240
-6.9737 -16.5993 1.9334 0.9301
-5.3896 -16.8990 1.9047 0.9311
-0.7195 -17.2290 1.8517 0.9330
0.8097 -17.1207 1.8405 0.9334
0.3503 5.1133 0.5504 0.9796
-0.2771 13.4489 1.4445 0.9473
-8.5534 13.8085 1.7442 0.9367
-12.7310 14.1522 2.0441 0.9263
-13.4448 10.4393 1.8278 0.9338
-11.7588 6.1550 1.4252 0.9480
-14.8926 6.1779 1.7313 0.9372
-8.2721 -17.0785 2.0377 0.9265
-4.6886 -16.7416 1.8669 0.9324
-3.1382 -16.8568 1.8412 0.9333
-0.1035 -17.0599 1.8319 0.9337
-1.4450 5.6142 0.4908 0.9770
-6.4090 13.9775 1.3017 0.9401
-8.0159 14.0354 1.3683 0.9372
-14.0520 11.7375 1.5499 0.9291
-14.1785 9.8442 1.4612 0.9331
-16.5835 9.4488 1.6157 0.9262
-13.2974 -9.8814 1.4024 0.9357
-6.9748 -16.6019 1.5244 0.9303
-2.2522 -17.1290 1.4625 0.9330
-3.8983 9.8576 0.8974 0.9583
-7.0442 14.0202 1.3282 0.9390
-10.5619 14.0801 1.4900 0.9318
-14.1045 10.9515 1.5116 0.9308
-14.7097 9.4538 1.4802 0.9322
-14.8899 6.1768 1.3646 0.9373
-9.8378 -16.4099 1.6197 0.9261
-1.6172 -16.9611 1.4423 0.9339
-0.1035 -17.0624 1.4444 0.9338
0.2052 13.6131 0.8442 0.9469
-2.2649 13.7786 0.8659 0.9456
-1.4477 5.6245 0.3601 0.9770
-9.8867 14.2088 1.0734 0.9330
-11.9844 14.3179 1.1578 0.9279
-13.9073 13.8931 1.2190 0.9242
-14.1780 9.8438 1.0703 0.9332
-13.3081 -9.8894 1.0282 0.9357
-10.7500 -16.5619 1.2244 0.9239
-8.7611 -16.5557 1.1615 0.9277
-6.9759 -16.6044 1.1168 0.9304
-5.4006 -16.9336 1.1022 0.9312
-2.2526 -17.1315 1.0715 0.9331
0.8100 -17.1259 1.0632 0.9336
0.3501 5.1108 0.3177 0.9797
-0.2811 13.6457 0.8464 0.9468
-1.6227 5.4859 0.3548 0.9773
-7.0264 13.9849 0.9705 0.9392
-13.9675 12.9917 1.1829 0.9264
-14.2201 11.0413 1.1164 0.9304
-14.8874 6.1758 0.9995 0.9374
-4.6929 -16.7571 1.0791 0.9326
-3.0485 -16.3751 1.0329 0.9354
-1.6175 -16.9636 1.0567 0.9340
0.2052 13.6111 0.5368 0.9470
-0.9991 13.4912 0.5334 0.9473
-2.2646 13.7765 0.5505 0.9456
-1.9526 5.5038 0.2303 0.9769
-9.8848 14.2061 0.6824 0.9331
-12.6377 15.0984 0.7763 0.9242
-16.8335 9.5912 0.7639 0.9254
-13.3219 -9.8996 0.6545 0.9357
-10.6209 -16.3630 0.7692 0.9249
-8.7604 -16.5543 0.7385 0.9278
-5.4015 -16.9361 0.7010 0.9313
-3.6488 -16.3373 0.6601 0.9352
-2.2255 -16.9254 0.6731 0.9339
-0.7111 -17.0268 0.6720 0.9341
0.8101 -17.1285 0.6761 0.9337
-2.7794 13.8110 0.5555 0.9452
-1.6226 5.4855 0.2256 0.9774
-3.8972 9.8547 0.4179 0.9585
-7.0417 14.0154 0.6185 0.9391
-10.6973 14.2606 0.7029 0.9311
-12.9655 14.4128 0.7644 0.9253
-14.1556 13.1666 0.7623 0.9255
-14.2164 11.0384 0.7097 0.9305
-14.7007 9.4480 0.6891 0.9324
-14.8849 6.1747 0.6354 0.9375
-8.2910 -17.1175 0.7500 0.9267
-3.7458 -9.8898 0.4170 0.9585
-3.0490 -16.3775 0.6569 0.9355
-1.6177 -16.9661 0.6720 0.9341
-0.1035 -17.0674 0.6730 0.9340
0.2052 13.6091 0.2299 0.9470
-0.9990 13.4892 0.2285 0.9473
-2.2642 13.7744 0.2358 0.9457
-8.0414 14.0801 0.2739 0.9372
-12.6351 15.0954 0.3325 0.9243
-13.9060 13.8919 0.3320 0.9244
-14.1768 9.8430 0.2915 0.9333
-16.8278 9.5880 0.3271 0.9254
-13.3132 -9.8932 0.2802 0.9358
-8.7597 -16.5529 0.3163 0.9278
-6.9781 -16.6096 0.3043 0.9305
-0.2810 13.6417 0.2305 0.9469
-1.4879 13.5220 0.2298 0.9470
-3.8966 9.8533 0.1790 0.9585
-7.0405 14.0131 0.2649 0.9392
-14.6962 9.4451 0.2951 0.9325
-11.6523 6.0993 0.2222 0.9487
-9.8426 -16.4180 0.3233 0.9263
-8.2923 -17.1202 0.3213 0.9267
-3.7540 -9.9114 0.1790 0.9585
-1.6180 -16.9686 0.2879 0.9341
1.6249 -19.5483 0.3313 0.9245
-1.4481 5.6263 -0.0327 0.9770
-1.9398 5.4677 -0.0327 0.9771
-9.8811 14.2008 -0.0974 0.9331
-13.9053 13.8912 -0.1107 0.9244
-14.1763 9.8427 -0.0972 0.9333
-13.3153 -9.8947 -0.0934 0.9358
-10.6245 -16.3685 -0.1099 0.9249
-8.7589 -16.5515 -0.1054 0.9278
-4.1611 -9.9045 -0.0605 0.9579
-5.3331 -16.7219 -0.0988 0.9322
-3.7584 -16.8279 -0.0971 0.9334
0.8103 -17.1336 -0.0966 0.9337
-0.2810 13.6397 -0.0768 0.9469
-3.8961 9.8519 -0.0596 0.9585
-8.5457 13.7960 -0.0914 0.9371
-10.6932 14.2551 -0.1003 0.9312
-14.1072 13.1216 -0.1085 0.9258
-11.6047 6.0744 -0.0737 0.9490
-14.8799 6.1726 -0.0907 0.9376
-3.7619 -9.9321 -0.0598 0.9584
-3.1405 -16.8693 -0.0966 0.9337
1.6252 -19.5512 -0.1105 0.9245
-0.9987 13.4853 -0.3808 0.9473
-1.4567 5.6596 -0.1646 0.9769
-1.9333 5.4494 -0.1628 0.9771
-9.8792 14.1981 -0.4870 0.9331
-12.6300 15.0893 -0.5541 0.9243
-13.9641 9.6954 -0.4787 0.9342
-11.5196 6.5635 -0.3733 0.9483
-5.3341 -16.7248 -0.4943 0.9322
-0.7114 -17.0343 -0.4801 0.9341
0.8104 -17.1361 -0.4831 0.9337
6.2371 13.8035 -0.4265 0.9412
0.3498 5.1057 -0.1441 0.9797
-2.7373 13.6015 -0.3907 0.9460
-1.6186 5.4719 -0.1607 0.9774
-3.8955 9.8504 -0.2983 0.9585
-13.7566 12.7955 -0.5290 0.9276
-13.8911 10.7858 -0.4952 0.9320
-14.3029 9.1923 -0.4787 0.9342
-11.5706 6.0565 -0.3677 0.9491
-14.8773 6.1716 -0.4535 0.9376
-8.7749 -14.6370 -0.4805 0.9340
-3.7693 -9.9517 -0.2996 0.9583
-4.6958 -16.7675 -0.4903 0.9327
-3.1703 -17.0293 -0.4877 0.9330
1.6254 -19.5541 -0.5525 0.9245
-1.4695 5.7091 -0.2990 0.9767
-8.0372 14.0727 -0.8219 0.9372
-9.8774 14.1954 -0.8770 0.9331
-12.6274 15.0862 -0.9977 0.9242
-13.5579 6.1998 -0.7561 0.9420
-17.4414 4.4703 -0.9131 0.9304
-15.5299 -7.7152 -0.8794 0.9329
-9.4216 -8.3990 -0.6401 0.9507
-6.7513 -8.6147 -0.5551 0.9571
-4.1292 -9.8285 -0.5406 0.9582
-0.7115 -17.0368 -0.8648 0.9340
3.0375 19.1386 -0.9827 0.9253
-0.2722 13.2133 -0.6702 0.9484
-1.4627 13.2929 -0.6782 0.9478
-2.6917 13.3751 -0.6919 0.9468
-1.6173 5.4676 -0.2892 0.9774
-13.7560 12.7949 -0.9527 0.9275
-14.2985 9.1895 -0.8620 0.9342
-14.3007 -7.7524 -0.8250 0.9369
-14.1951 -13.5934 -0.9967 0.9243
-8.6115 -14.3644 -0.8494 0.9351
-3.7853 -9.9940 -0.5420 0.9581
-4.6965 -16.7701 -0.8832 0.9326
-3.1708 -17.0318 -0.8786 0.9330
-1.6187 -16.9761 -0.8648 0.9340
1.6256 -19.5570 -0.9952 0.9244
0.1987 13.1799 -0.9665 0.9485
-0.9819 13.2588 -0.9748 0.9481
-2.1928 13.3397 -0.9912 0.9472
-1.4825 5.7599 -0.4361 0.9764
-1.9142 5.3956 -0.4198 0.9773
-6.3778 13.9095 -1.1220 0.9405
-13.6959 13.6820 -1.4195 0.9253
-13.8381 11.5589 -1.3220 0.9302
-13.5558 6.1989 -1.0929 0.9420
-16.2305 4.1599 -1.2285 0.9350
-9.0286 -8.0486 -0.8869 0.9526
-7.7679 -8.2763 -0.8323 0.9555
-5.5759 -8.5905 -0.7509 0.9598
-4.5952 -8.6835 -0.7203 0.9614
-1.2453 -9.4713 -0.7004 0.9624
-0.7116 -17.0393 -1.2504 0.9339
15.2861 4.0080 -1.1587 0.9386
15.3523 5.5245 -1.1963 0.9367
15.5034 7.1933 -1.2531 0.9337
6.1758 13.6678 -1.0997 0.9416
3.0370 19.1358 -1.4206 0.9252
-1.4625 13.2909 -0.9804 0.9478
-3.8944 9.8476 -0.7765 0.9584
-6.9549 13.8426 -1.1359 0.9398
-12.7122 14.1312 -1.3937 0.9266
-8.4366 6.5506 -0.7832 0.9581
-14.2942 9.1868 -1.2459 0.9341
-11.4757 6.0068 -0.9497 0.9494
-16.1611 5.0742 -1.2420 0.9343
-17.2924 3.7804 -1.2979 0.9315
-14.0898 -7.6381 -1.1751 0.9377
-7.1390 -14.7392 -1.2008 0.9364
-3.8005 -10.0341 -0.7867 0.9579
-3.1712 -17.0343 -1.2704 0.9329
-0.1036 -17.0800 -1.2524 0.9338
1.0365 9.9231 -0.9578 0.9607
0.1987 13.1779 -1.2653 0.9484
-0.9818 13.2568 -1.2762 0.9480
-2.1924 13.3377 -1.2977 0.9471
-1.9105 5.3851 -0.5486 0.9773
-6.2819 13.7006 -1.4470 0.9412
-7.3839 12.9289 -1.4294 0.9419
-10.9788 13.1166 -1.6422 0.9336
-8.0429 5.5842 -0.9400 0.9614
-11.2922 6.4340 -1.2477 0.9491
-13.5534 6.1978 -1.4308 0.9419
-16.0541 4.1147 -1.5911 0.9356
-18.5161 -7.2261 -1.9082 0.9232
-15.2585 -7.5804 -1.6357 0.9338
-12.7607 -7.8251 -1.4371 0.9416
-6.4437 -8.2222 -1.0029 0.9589
-5.3917 -8.3067 -0.9508 0.9610
-4.1204 -9.8076 -1.0213 0.9582
-1.2364 -9.4032 -0.9105 0.9626
-0.7117 -17.0418 -1.6375 0.9338
0.7655 -16.1865 -1.5557 0.9370
4.0102 -17.5006 -1.7237 0.9304
13.5295 -14.2564 -1.8869 0.9241
14.7948 -13.0431 -1.8935 0.9238
15.9580 -11.7224 -1.9010 0.9235
15.4764 7.1808 -1.6380 0.9337
3.0366 19.1330 -1.8598 0.9251
-1.4623 13.2889 -1.2835 0.9477
-2.6909 13.3710 -1.3094 0.9467
-1.6048 5.4255 -0.5432 0.9775
-6.9044 13.7420 -1.4765 0.9401
-8.0022 12.9186 -1.4589 0.9408
-12.2854 13.6569 -1.7636 0.9288
-13.1649 12.2451 -1.7261 0.9303
-14.7886 6.1348 -1.5371 0.9377
-15.9861 5.0192 -1.6086 0.9349
-14.1377 -7.6640 -1.5439 0.9374
-11.7414 -7.7895 -1.3527 0.9450
-9.8995 -7.9198 -1.2171 0.9503
-8.3814 -8.0261 -1.1141 0.9544
-7.1674 -8.2043 -1.0459 0.9572
-0.1036 -17.0825 -1.6400 0.9337
1.4874 -17.8941 -1.7238 0.9304
1.0301 9.8622 -1.1779 0.9608
0.1986 13.1760 -1.5653 0.9483
-2.1921 13.3357 -1.6054 0.9470
-1.4901 5.7894 -0.7101 0.9762
-1.9098 5.3833 -0.6785 0.9773
-5.0525 11.0193 -1.4400 0.9523
-7.8843 13.8049 -1.8884 0.9380
-9.3386 13.4211 -1.9422 0.9363
-10.4686 12.5070 -1.9374 0.9364
-12.1103 5.5379 -1.5818 0.9478
-16.7635 -1.7682 -2.0023 0.9344
-15.4711 -6.0378 -1.9727 0.9353
-10.6979 -7.9497 -1.5832 0.9477
-9.0731 -8.0883 -1.4438 0.9522
-5.4417 -8.3837 -1.1873 0.9605
-4.4365 -8.3836 -1.1267 0.9625
-4.1286 -9.8271 -1.2662 0.9580
-2.0899 -9.3572 -1.1389 0.9621
-1.2366 -9.4048 -1.1268 0.9625
-0.6074 -14.5437 -1.7291 0.9431
4.5443 -13.9814 -1.7463 0.9425
7.5386 -14.0572 -1.8948 0.9378
8.7734 -13.3547 -1.8980 0.9377
9.9467 -12.5486 -1.9021 0.9375
11.0503 -11.6440 -1.9068 0.9374
12.0760 -10.6462 -1.9123 0.9372
13.0160 -9.5613 -1.9184 0.9370
13.8630 -8.3960 -1.9252 0.9368
15.2504 -5.8548 -1.9404 0.9363
15.7784 -4.4956 -1.9488 0.9360
16.1885 -3.0893 -1.9577 0.9358
16.6691 1.3100 -1.9862 0.9349
16.5692 2.8003 -1.9961 0.9346
16.3364 4.2834 -2.0061 0.9342
15.9707 5.7470 -2.0162 0.9339
15.4730 7.1792 -2.0262 0.9336
14.8454 8.5674 -2.0360 0.9333
12.2236 12.3468 -2.0638 0.9324
11.1229 13.4389 -2.0722 0.9321
9.9218 14.4287 -2.0800 0.9319
7.9717 14.1389 -1.9281 0.9367
5.9599 13.1899 -1.7193 0.9434
5.3736 15.4164 -1.9393 0.9364
3.9913 15.8698 -1.9438 0.9362
1.0417 6.5636 -0.7894 0.9736
0.3494 5.1006 -0.6073 0.9796
-0.2721 13.2074 -1.5692 0.9482
-2.6904 13.3690 -1.6199 0.9466
-8.5379 13.7835 -1.9259 0.9368
-8.4445 11.2574 -1.6716 0.9449
-10.8960 12.1123 -1.9353 0.9365
-7.6525 5.9418 -1.1509 0.9617
-14.7515 6.1194 -1.8971 0.9377
-16.4414 5.1622 -2.0470 0.9329
-16.6562 -2.3602 -1.9983 0.9345
-16.2988 -3.8122 -1.9883 0.9348
-15.8171 -5.2198 -1.9785 0.9351
-13.8969 -7.5335 -1.8777 0.9383
-10.0753 -8.0604 -1.5327 0.9494
-7.2211 -8.2658 -1.3038 0.9568
-6.0219 -8.2757 -1.2157 0.9596
-4.9485 -8.2543 -1.1432 0.9620
-4.1133 -8.4922 -1.1209 0.9627
-3.8657 -10.2064 -1.2964 0.9570
-3.9410 -14.0721 -1.7359 0.9428
-0.0884 -14.5785 -1.7318 0.9430
1.2173 -14.6446 -1.7456 0.9425
1.0238 9.8018 -1.3964 0.9610
-0.9815 13.2529 -1.8829 0.9477
-2.1918 13.3337 -1.9146 0.9469
-1.4963 5.8135 -0.8506 0.9760
-1.9102 5.3844 -0.8095 0.9772
-6.7512 11.8210 -1.9288 0.9465
-8.5402 10.2031 -1.8853 0.9477
-7.0691 7.0619 -1.4158 0.9604
-7.4664 6.2366 -1.3784 0.9615
-8.0514 5.5902 -1.3888 0.9612
-11.8996 5.4415 -1.8540 0.9485
-13.9084 3.5648 -2.0344 0.9436
-14.1139 2.3053 -2.0263 0.9439
-14.1817 -0.2282 -2.0097 0.9443
-13.8008 -2.7127 -1.9928 0.9448
-12.9944 -5.0712 -1.9764 0.9452
-12.4422 -6.1812 -1.9685 0.9454
-11.7950 -7.2329 -1.9604 0.9456
-9.1362 -8.1446 -1.7342 0.9518
-7.6690 -8.1709 -1.5878 0.9557
-5.3834 -8.2939 -1.4010 0.9608
-4.4807 -8.4671 -1.3573 0.9620
-3.9943 -9.5075 -1.4612 0.9592
-3.7940 -11.8959 -1.7692 0.9508
-1.2368 -9.4062 -1.3442 0.9624
0.5871 -12.4145 -1.7610 0.9510
2.7753 -12.1117 -1.7606 0.9510
3.8425 -11.8221 -1.7613 0.9510
9.3312 -9.8325 -1.9207 0.9467
10.9808 -8.0662 -1.9305 0.9464
11.6889 -7.0793 -1.9363 0.9463
12.3113 -6.0317 -1.9425 0.9461
12.8427 -4.9305 -1.9492 0.9459
13.2783 -3.7832 -1.9563 0.9457
13.6136 -2.5979 -1.9637 0.9455
13.8451 -1.3831 -1.9715 0.9453
13.9698 -0.1477 -1.9795 0.9451
13.6842 3.5879 -2.0044 0.9445
11.7660 8.2659 -2.0374 0.9436
10.1915 10.2942 -2.0525 0.9432
6.6339 11.7662 -1.9139 0.9469
5.5763 12.3410 -1.9188 0.9468
4.4674 12.8168 -1.9232 0.9466
1.0422 6.5669 -0.9421 0.9735
0.3493 5.0993 -0.7242 0.9796
-0.2721 13.2055 -1.8715 0.9480
-2.6900 13.3669 -1.9319 0.9464
-1.6200 5.4769 -0.8093 0.9772
-6.1167 12.1744 -1.9305 0.9464
-7.1639 11.5653 -1.9276 0.9465
-8.9925 9.9964 -1.9051 0.9471
-7.6439 5.9351 -1.3712 0.9617
-10.8354 5.6717 -1.7329 0.9518
-14.2091 0.5293 -2.0147 0.9442
-14.1408 -0.7327 -2.0063 0.9444
-13.9609 -1.9783 -1.9979 0.9446
-13.2788 -4.3822 -1.9813 0.9451
-11.4769 -7.6140 -1.9515 0.9459
-9.9305 -7.9446 -1.8019 0.9499
-8.6469 -8.2804 -1.6963 0.9528
-6.0084 -8.2571 -1.4469 0.9596
-3.3649 -12.0151 -1.7679 0.9508
-1.6570 -8.9006 -1.2828 0.9641
-0.8990 -9.4288 -1.3420 0.9625
2.1257 -12.2414 -1.7604 0.9510
0.1757 11.6545 -1.9202 0.9538
-0.8613 11.6298 -1.9211 0.9538
-1.8919 11.5092 -1.9215 0.9538
-7.4426 8.8919 -1.9103 0.9541
-7.1005 7.0933 -1.6534 0.9601
-9.9780 5.6852 -1.8919 0.9545
-11.2384 5.1392 -2.0358 0.9511
-11.6494 4.1195 -2.0356 0.9511
-11.9300 3.0577 -2.0289 0.9513
-12.1131 1.9785 -2.0220 0.9515
-12.1855 -0.1961 -2.0077 0.9518
-11.8722 -2.3336 -1.9932 0.9521
-10.1717 -6.2374 -1.9656 0.9528
-9.5462 -7.0939 -1.9593 0.9529
-8.8103 -7.8540 -1.9444 0.9533
-5.4384 -8.3786 -1.6456 0.9603
-3.9701 -9.4499 -1.6886 0.9593
-3.2816 -10.2895 -1.7792 0.9572
-2.3507 -10.5252 -1.7766 0.9572
-0.4491 -10.7534 -1.7731 0.9573
0.5082 -10.7448 -1.7721 0.9573
4.5572 -10.6818 -1.9132 0.9540
6.4136 -9.7627 -1.9243 0.9538
7.2672 -9.1682 -1.9273 0.9537
9.4877 -6.9694 -1.9394 0.9534
10.0955 -6.1142 -1.9444 0.9533
10.6284 -5.2072 -1.9498 0.9532
11.0819 -4.2545 -1.9555 0.9530
11.9282 -1.1916 -1.9748 0.9526
12.0289 -0.1271 -1.9817 0.9524
12.0354 0.9458 -1.9888 0.9522
11.4829 4.1321 -2.0104 0.9517
10.0902 7.0886 -2.0314 0.9512
9.4508 7.9832 -2.0380 0.9511
8.7308 8.8188 -2.0443 0.9509
7.3302 8.8564 -1.8939 0.9545
6.5316 9.4984 -1.8990 0.9543
5.6754 10.0661 -1.9037 0.9542
3.8193 10.9572 -1.9116 0.9540
-1.2757 11.5930 -1.9213 0.9538
-1.6202 5.4775 -0.9410 0.9771
-5.2264 10.4023 -1.9178 0.9539
-6.1225 9.8840 -1.9154 0.9540
-6.9657 9.2860 -1.9123 0.9540
-7.7490 8.6140 -1.9088 0.9541
-8.4657 7.8742 -1.9047 0.9542
-9.0035 5.7865 -1.7631 0.9575
-10.1626 5.3195 -1.8897 0.9546
-11.4350 4.7436 -2.0394 0.9511
-11.7735 3.6966 -2.0329 0.9512
-12.1532 -0.6297 -2.0048 0.9519
-12.0057 -1.7012 -1.9976 0.9520
-11.4324 -3.7728 -1.9833 0.9524
-11.0131 -4.7573 -1.9763 0.9525
-8.2514 -7.9017 -1.8821 0.9547
-6.1436 -8.4429 -1.7201 0.9586
-4.9584 -8.2709 -1.5886 0.9617
-4.0857 -8.4355 -1.5441 0.9627
-3.6048 -9.5175 -1.6766 0.9596
-2.9108 -10.3936 -1.7781 0.9572
-1.6575 -8.9031 -1.4919 0.9640
-0.8992 -9.4302 -1.5606 0.9623
-0.0653 -10.7598 -1.7726 0.9573
1.8398 -10.5954 -1.7716 0.9573
1.0551 10.1012 -1.9090 0.9595
0.1532 10.1624 -1.9104 0.9595
-2.5345 9.8471 -1.9112 0.9595
-8.9519 5.1005 -1.9365 0.9589
-9.8517 4.5050 -2.0361 0.9569
-10.1850 3.6017 -2.0306 0.9570
-10.4347 2.6744 -2.0247 0.9571
-10.6785 0.7799 -2.0125 0.9574
-10.6721 -0.1717 -2.0062 0.9575
-10.5811 -1.1161 -1.9999 0.9576
-10.4071 -2.0456 -1.9935 0.9578
-9.8189 -3.8319 -1.9811 0.9580
-9.4108 -4.6752 -1.9751 0.9581
-8.9317 -5.4770 -1.9693 0.9583
-8.3857 -6.2315 -1.9637 0.9584
-7.7776 -6.9334 -1.9584 0.9585
-4.4612 -8.4302 -1.7928 0.9619
-1.2365 -9.4041 -1.7828 0.9621
-0.3955 -9.4696 -1.7815 0.9622
0.4475 -9.4626 -1.7806 0.9622
3.1164 -9.5882 -1.8950 0.9598
7.7509 -6.8331 -1.9422 0.9588
10.0584 -2.8658 -1.9658 0.9583
10.5529 0.8294 -1.9897 0.9578
10.4705 1.7696 -1.9959 0.9577
9.7238 4.5117 -2.0148 0.9573
4.9543 8.7870 -1.8960 0.9598
4.1617 9.2103 -1.8997 0.9597
3.3322 9.5599 -1.9029 0.9596
1.0432 6.5729 -1.2509 0.9733
-5.3403 8.6213 -1.9062 0.9596
-7.3895 6.8732 -1.8969 0.9598
-8.4524 5.4323 -1.8885 0.9599
-9.5847 5.0170 -2.0334 0.9569
-10.2952 3.2324 -2.0282 0.9570
-10.5110 2.2979 -2.0223 0.9572
-10.6414 1.3504 -2.0162 0.9573
-10.5212 -1.4909 -1.9973 0.9577
-10.3144 -2.4125 -1.9910 0.9578
-10.0277 -3.3093 -1.9848 0.9579
-9.6641 -4.1746 -1.9787 0.9581
-8.7206 -5.7854 -1.9670 0.9583
-8.1492 -6.5195 -1.9616 0.9584
-6.8156 -7.8015 -1.9471 0.9587
-0.6651 8.9803 -1.9034 0.9639
-1.4608 8.8868 -1.9037 0.9638
-2.2446 8.7207 -1.9035 0.9639
-1.9035 5.3655 -1.2034 0.9770
-5.1276 7.3692 -1.8977 0.9640
-6.3327 6.3263 -1.8921 0.9641
-6.8577 5.7282 -1.8887 0.9641
-8.7405 3.9969 -2.0316 0.9615
-9.4842 -0.1526 -2.0050 0.9620
-9.4066 -0.9922 -1.9994 0.9621
-9.2552 -1.8192 -1.9938 0.9622
-8.3777 -4.1620 -1.9774 0.9625
-7.9538 -4.8774 -1.9722 0.9626
-5.0194 -7.7332 -1.9488 0.9630
-4.2926 -8.1116 -1.9399 0.9632
-3.4513 -8.2151 -1.8835 0.9642
-1.1035 -8.3928 -1.7893 0.9660
1.1971 -8.7308 -1.8628 0.9646
2.8299 -8.7066 -1.9352 0.9633
3.5944 -8.4251 -1.9362 0.9632
5.0382 -7.6691 -1.9396 0.9632
5.7069 -7.1997 -1.9420 0.9631
6.3333 -6.6735 -1.9448 0.9631
6.9127 -6.0942 -1.9480 0.9630
7.4406 -5.4657 -1.9515 0.9630
7.9128 -4.7923 -1.9555 0.9629
8.6752 -3.3305 -1.9643 0.9627
9.1738 -1.7507 -1.9741 0.9625
9.3178 -0.9308 -1.9794 0.9624
9.3892 -0.0992 -1.9848 0.9623
9.3103 1.5735 -1.9959 0.9621
9.1593 2.4016 -2.0015 0.9620
8.9346 3.2151 -2.0072 0.9619
8.2692 4.7723 -2.0182 0.9617
7.8329 5.5028 -2.0234 0.9616
7.3312 6.1927 -2.0285 0.9615
6.7652 6.8334 -2.0326 0.9614
5.0568 7.3537 -1.8865 0.9642
4.3915 7.7889 -1.8901 0.9641
2.9525 8.4705 -1.8961 0.9640
-0.1854 9.0011 -1.9031 0.9639
-0.9850 8.9516 -1.9036 0.9639
-1.7768 8.8289 -1.9037 0.9639
-2.1314 5.3895 -1.2251 0.9766
-4.0373 8.0356 -1.9009 0.9639
-5.9924 6.6613 -1.8940 0.9640
-6.5498 6.0922 -1.8908 0.9641
-8.5270 4.4634 -2.0344 0.9614
-8.8690 3.6791 -2.0296 0.9615
-9.1381 2.8691 -2.0246 0.9616
-9.4516 1.1995 -2.0139 0.9618
-9.4947 0.3537 -2.0084 0.9619
-9.4621 -0.4902 -2.0028 0.9620
-9.1740 -2.1457 -1.9915 0.9622
-8.9221 -2.9444 -1.9860 0.9623
-8.6015 -3.7156 -1.9806 0.9624
-8.2152 -4.4534 -1.9753 0.9625
-7.2601 -5.8082 -1.9653 0.9627
-5.4344 -7.4683 -1.9524 0.9629
-3.1211 -8.2404 -1.8626 0.9646
-2.3244 -8.2998 -1.8219 0.9654
-0.8033 -8.4243 -1.7888 0.9660
-0.0514 -8.4767 -1.7918 0.9659
1.5342 -8.8354 -1.8956 0.9640
0.8378 8.0215 -1.8955 0.9674
0.1216 8.0688 -1.8966 0.9674
-1.3095 7.9666 -1.8975 0.9674
-1.8972 5.3477 -1.3336 0.9770
-5.1610 6.1660 -1.8898 0.9675
-6.1526 5.1392 -1.8841 0.9676
-7.5126 4.2805 -2.0321 0.9651
-8.3210 2.1327 -2.0188 0.9653
-8.5261 -0.1372 -2.0041 0.9656
-8.4588 -0.8922 -1.9990 0.9657
-8.1260 -2.3638 -1.9890 0.9658
-7.8642 -3.0691 -1.9840 0.9659
-7.5419 -3.7468 -1.9792 0.9660
-7.1621 -4.3919 -1.9745 0.9661
-6.7281 -4.9997 -1.9701 0.9661
-5.1391 -6.5575 -1.9580 0.9663
-2.5149 -7.8855 -1.9453 0.9666
-1.0752 -8.1774 -1.9384 0.9667
-0.3439 -8.2354 -1.9372 0.9667
0.3896 -8.2369 -1.9380 0.9667
1.8443 -8.0485 -1.9406 0.9666
3.2425 -7.6003 -1.9420 0.9666
4.5442 -6.9171 -1.9451 0.9666
5.1467 -6.4930 -1.9473 0.9665
8.2599 -1.5762 -1.9763 0.9660
8.3873 -0.8379 -1.9810 0.9660
8.3736 1.4152 -1.9959 0.9657
8.2355 2.1593 -2.0010 0.9656
7.7618 3.6013 -2.0110 0.9655
7.4290 4.2873 -2.0159 0.9654
7.0350 4.9423 -2.0206 0.9653
6.5828 5.5605 -2.0252 0.9652
6.0754 6.1367 -2.0295 0.9651
5.0964 6.1576 -1.8785 0.9677
3.3081 7.3213 -1.8882 0.9675
2.6479 7.5965 -1.8907 0.9675
1.9644 7.8107 -1.8929 0.9674
1.0442 6.5791 -1.5656 0.9730
0.3469 5.0642 -1.1930 0.9794
-0.1662 8.0694 -1.8969 0.9674
-1.6282 5.5046 -1.3491 0.9767
-2.1166 5.3522 -1.3527 0.9766
-2.8688 5.7098 -1.5018 0.9741
-4.2421 6.8483 -1.8933 0.9674
-5.3747 5.9747 -1.8888 0.9675
-7.2729 4.6742 -2.0319 0.9651
-7.6542 4.0065 -2.0305 0.9651
-7.9632 3.3034 -2.0262 0.9652
-8.3838 1.8328 -2.0169 0.9654
-8.5341 0.3179 -2.0071 0.9655
-7.7421 -3.3443 -1.9821 0.9659
-7.3964 -4.0096 -1.9773 0.9660
-6.9944 -4.6402 -1.9727 0.9661
-6.5397 -5.2319 -1.9683 0.9662
-4.2735 -7.1284 -1.9533 0.9664
-3.6175 -7.4687 -1.9504 0.9665
-2.2300 -7.9628 -1.9434 0.9666
0.1101 7.3048 -1.8915 0.9703
-1.6861 6.5510 -1.7515 0.9724
-1.8900 5.3274 -1.4636 0.9769
-2.2542 4.9162 -1.4003 0.9779
-2.8309 4.9567 -1.4780 0.9767
-4.1637 5.9839 -1.8875 0.9703
-4.6739 5.5840 -1.8854 0.9704
-5.1451 5.1399 -1.8830 0.9704
-6.4469 4.4761 -2.0321 0.9681
-6.8078 3.8789 -2.0287 0.9681
-7.1123 3.2523 -2.0249 0.9682
-7.3586 2.6022 -2.0209 0.9683
-7.5450 1.9338 -2.0167 0.9683
-7.7362 -0.1245 -2.0033 0.9685
-7.6769 -0.8098 -1.9987 0.9686
-6.1144 -4.5437 -1.9724 0.9690
-5.1934 -5.5333 -1.9649 0.9691
-3.5327 -6.6755 -1.9555 0.9693
-2.2894 -7.1784 -1.9508 0.9693
-1.6408 -7.3466 -1.9490 0.9694
-0.9806 -7.4578 -1.9476 0.9694
1.0207 -7.4442 -1.9455 0.9694
1.6783 -7.3243 -1.9456 0.9694
2.3232 -7.1479 -1.9460 0.9694
2.9506 -6.9161 -1.9469 0.9694
4.1345 -6.2935 -1.9497 0.9694
5.1948 -5.4739 -1.9539 0.9693
5.6684 -4.9972 -1.9566 0.9693
6.0993 -4.4804 -1.9595 0.9692
6.4840 -3.9270 -1.9627 0.9692
6.8195 -3.3411 -1.9662 0.9691
7.1030 -2.7269 -1.9700 0.9691
7.3319 -2.0890 -1.9739 0.9690
7.5043 -1.4321 -1.9781 0.9689
7.6184 -0.7611 -1.9824 0.9689
7.6672 0.6026 -1.9913 0.9687
7.6007 1.2846 -1.9959 0.9687
7.4736 1.9596 -2.0005 0.9686
5.9671 5.0405 -2.0224 0.9682
5.5062 5.5617 -2.0264 0.9682
4.1107 5.9780 -1.8784 0.9705
2.3978 6.8792 -1.8862 0.9703
1.0447 6.5822 -1.7256 0.9728
-0.1505 7.3052 -1.8918 0.9703
-0.7994 7.2646 -1.8923 0.9703
-1.9365 4.8971 -1.3635 0.9785
-4.3726 5.8291 -1.8867 0.9703
-5.3222 4.9503 -1.8819 0.9704
-6.1871 4.8040 -2.0281 0.9682
-7.4406 2.3361 -2.0192 0.9683
-7.7034 0.9776 -2.0105 0.9684
-7.7198 -0.4000 -2.0015 0.9686
-7.6361 -1.0820 -1.9969 0.9686
-7.4925 -1.7524 -1.9923 0.9687
-6.7195 -3.6426 -1.9790 0.9689
-5.9437 -4.7551 -1.9708 0.9690
-5.4870 -5.2544 -1.9670 0.9691
-4.9892 -5.7109 -1.9635 0.9692
-4.4544 -6.1215 -1.9602 0.9692
-3.2906 -6.7937 -1.9545 0.9693
-1.3773 -7.3980 -1.9484 0.9694
-0.7138 -7.4862 -1.9471 0.9694
-0.0456 -7.5164 -1.9462 0.9694
1.2855 -7.4030 -1.9455 0.9694
0.6923 6.6277 -1.8864 0.9727
-1.0466 6.3668 -1.8266 0.9735
-1.2416 4.8237 -1.4101 0.9795
-1.7308 4.8786 -1.4654 0.9787
-2.2538 4.9154 -1.5308 0.9778
-2.8304 4.9558 -1.6156 0.9766
-3.8004 5.4618 -1.8837 0.9727
-4.8344 4.8295 -1.9345 0.9720
-5.5002 4.5942 -2.0288 0.9706
-5.8876 4.0878 -2.0291 0.9706
-6.2177 3.5427 -2.0258 0.9707
-6.8945 1.7671 -2.0149 0.9708
-7.0700 0.5164 -2.0068 0.9710
-7.0733 -0.1138 -2.0027 0.9710
-7.0205 -0.7405 -1.9985 0.9711
-6.9123 -1.3587 -1.9943 0.9711
-5.9567 -3.6527 -1.9781 0.9714
-5.1966 -4.6325 -1.9708 0.9715
-4.2802 -5.4615 -1.9643 0.9716
-3.7723 -5.8118 -1.9615 0.9716
-3.2365 -6.1160 -1.9589 0.9716
-2.0979 -6.5780 -1.9546 0.9717
-0.8987 -6.8350 -1.9516 0.9717
-0.2875 -6.8843 -1.9506 0.9718
1.5383 -6.7133 -1.9497 0.9718
2.7043 -6.3387 -1.9509 0.9718
3.2589 -6.0768 -1.9521 0.9717
5.1930 -4.5781 -1.9598 0.9716
6.5036 -2.4968 -1.9721 0.9715
6.7121 -1.9124 -1.9758 0.9714
6.8687 -1.3108 -1.9796 0.9713
7.0138 0.5512 -1.9917 0.9712
6.9516 1.1749 -1.9959 0.9711
6.8340 1.7919 -2.0001 0.9711
6.1569 3.5532 -2.0124 0.9709
5.0294 5.0801 -2.0237 0.9707
3.7536 5.4586 -1.8754 0.9728
3.2582 5.7788 -1.8781 0.9728
1.0441 6.5789 -1.8857 0.9727
-0.1373 6.6664 -1.8876 0.9727
-0.7295 6.6292 -1.8880 0.9727
-1.4369 4.8579 -1.4341 0.9792
-3.9912 5.3207 -1.8829 0.9727
-4.4436 4.9396 -1.8809 0.9728
-5.2024 4.8390 -2.0114 0.9709
-6.3358 3.3164 -2.0245 0.9707
-6.7983 2.1345 -2.0172 0.9708
-6.9477 1.5189 -2.0133 0.9709
-7.0411 0.8936 -2.0093 0.9709
-6.9837 -0.9896 -1.9968 0.9711
-6.8537 -1.6030 -1.9926 0.9712
-6.6702 -2.2012 -1.9884 0.9712
-4.5694 -5.2305 -1.9662 0.9715
-4.0802 -5.6073 -1.9632 0.9716
-3.5607 -5.9394 -1.9604 0.9716
-3.0149 -6.2245 -1.9579 0.9717
-1.8613 -6.6462 -1.9539 0.9717
-0.0418 -6.8891 -1.9503 0.9718
0.5705 -6.8638 -1.9498 0.9718
0.6360 6.0888 -1.8830 0.9747
0.0923 6.1239 -1.8838 0.9747
-0.4525 6.1094 -1.8843 0.9747
-0.9938 6.0456 -1.8844 0.9747
-1.2413 4.8229 -1.5318 0.9794
-3.4918 5.0183 -1.8804 0.9747
-5.4117 3.7574 -2.0264 0.9728
-6.3408 1.6252 -2.0133 0.9730
-6.4609 -0.6815 -1.9982 0.9732
-6.3624 -1.2506 -1.9944 0.9732
-6.0174 -2.3484 -1.9868 0.9733
-5.1566 -3.8319 -1.9760 0.9735
-4.7877 -4.2680 -1.9728 0.9735
-3.9444 -5.0330 -1.9668 0.9736
-3.4768 -5.3564 -1.9642 0.9736
-1.3863 -6.2073 -1.9563 0.9737
-0.8286 -6.3020 -1.9550 0.9738
-0.2651 -6.3477 -1.9541 0.9738
0.3000 -6.3442 -1.9535 0.9738
0.8626 -6.2916 -1.9533 0.9738
2.4935 -5.8446 -1.9544 0.9738
3.0047 -5.6028 -1.9555 0.9737
3.9553 -4.9899 -1.9585 0.9737
4.3875 -4.6232 -1.9604 0.9737
4.7865 -4.2197 -1.9626 0.9736
5.1491 -3.7824 -1.9651 0.9736
5.7541 -2.8191 -1.9708 0.9735
5.9915 -2.3002 -1.9740 0.9735
6.3259 -1.2072 -1.9808 0.9734
6.4199 -0.6413 -1.9845 0.9734
6.4637 -0.0683 -1.9882 0.9733
6.2889 1.6489 -1.9997 0.9732
6.1292 2.2056 -2.0036 0.9731
4.6239 4.6705 -2.0215 0.9729
3.5438 5.1535 -1.9237 0.9742
2.9943 5.3109 -1.8753 0.9748
1.4916 5.9308 -1.8810 0.9747
0.3431 5.0082 -1.5440 0.9792
-0.6701 6.0898 -1.8844 0.9747
-1.4367 4.8571 -1.5579 0.9790
-3.2209 5.1997 -1.8813 0.9747
-4.3053 4.7858 -1.9800 0.9734
-4.8288 4.4914 -2.0284 0.9728
-5.8247 3.0489 -2.0222 0.9729
-6.0629 2.5151 -2.0189 0.9729
-6.2518 1.9629 -2.0155 0.9730
-6.3901 1.3970 -2.0119 0.9730
-6.4771 0.8220 -2.0082 0.9730
-6.5122 0.2426 -2.0044 0.9731
-6.4274 -0.9108 -1.9967 0.9732
-6.3089 -1.4756 -1.9928 0.9732
-5.3591 -3.5553 -1.9781 0.9734
-5.0133 -4.0107 -1.9747 0.9735
-4.2107 -4.8198 -1.9685 0.9736
-2.2558 -5.9558 -1.9589 0.9737
-1.7160 -6.1273 -1.9572 0.9737
-1.1638 -6.2511 -1.9557 0.9737
-0.6032 -6.3262 -1.9546 0.9738
-0.0385 -6.3522 -1.9538 0.9738
0.5261 -6.3290 -1.9534 0.9738
1.0865 -6.2567 -1.9532 0.9738
-0.9180 5.5848 -1.8813 0.9764
-1.7302 4.8769 -1.7201 0.9784
-2.2207 4.8432 -1.7711 0.9778
-3.2922 4.7314 -1.9160 0.9760
-3.9092 4.6704 -2.0245 0.9747
-5.0017 3.4727 -2.0241 0.9747
-5.2834 3.0103 -2.0213 0.9747
-5.7158 2.0212 -2.0153 0.9748
-5.8633 1.5028 -2.0120 0.9748
-5.9637 0.9741 -2.0086 0.9749
-6.0162 0.4394 -2.0052 0.9749
-5.9777 -0.6305 -1.9981 0.9750
-5.8875 -1.1573 -1.9945 0.9750
-5.0797 -3.1149 -1.9807 0.9752
-4.4339 -3.9526 -1.9745 0.9753
-4.0591 -4.3248 -1.9716 0.9753
-2.7640 -5.2230 -1.9643 0.9754
-2.2865 -5.4425 -1.9623 0.9754
-1.7922 -5.6193 -1.9606 0.9754
-1.2847 -5.7522 -1.9592 0.9755
-0.7679 -5.8402 -1.9580 0.9755
0.2781 -5.8796 -1.9566 0.9755
2.3108 -5.4164 -1.9574 0.9755
2.7844 -5.1921 -1.9584 0.9755
3.6650 -4.6237 -1.9612 0.9754
4.4345 -3.9094 -1.9651 0.9754
4.7700 -3.5039 -1.9674 0.9754
5.3293 -2.6110 -1.9727 0.9753
5.9751 0.4696 -1.9923 0.9751
5.9203 1.0006 -1.9958 0.9750
5.2370 3.0224 -2.0099 0.9748
4.9559 3.4816 -2.0133 0.9748
4.2744 4.3175 -2.0195 0.9747
3.8792 4.6869 -2.0224 0.9747
2.3225 5.1399 -1.8749 0.9765
1.8582 5.3310 -1.8766 0.9765
1.3781 5.4795 -1.8781 0.9765
-0.1166 5.6573 -1.8809 0.9764
-0.6190 5.6256 -1.8813 0.9764
-1.1078 5.5047 -1.8665 0.9766
-1.4364 4.8562 -1.6834 0.9789
-1.9257 4.8695 -1.7406 0.9782
-2.4411 4.8586 -1.8074 0.9773
-2.9758 4.8040 -1.8784 0.9765
-3.5545 4.7385 -1.9690 0.9753
-4.0769 4.5320 -2.0263 0.9746
-4.4672 4.1551 -2.0280 0.9746
-4.8132 3.7372 -2.0256 0.9746
-5.1197 3.2904 -2.0230 0.9747
-5.3844 2.8184 -2.0202 0.9747
-5.6052 2.3252 -2.0171 0.9747
-5.9093 1.2919 -2.0107 0.9748
-5.9905 0.7602 -2.0072 0.9749
-5.9472 -0.8427 -1.9966 0.9750
-5.8383 -1.3655 -1.9931 0.9750
-4.9621 -3.2919 -1.9794 0.9752
-4.6425 -3.7140 -1.9763 0.9753
-4.2875 -4.1058 -1.9733 0.9753
-2.5749 -5.3160 -1.9634 0.9754
-2.0902 -5.5186 -1.9616 0.9754
-0.5590 -5.8627 -1.9576 0.9755
-0.0357 -5.8870 -1.9569 0.9755
0.4876 -5.8656 -1.9565 0.9755
1.0069 -5.7987 -1.9563 0.9755
0.5186 4.9651 -1.7852 0.9790
0.0792 5.2511 -1.8780 0.9779
-0.8521 5.1837 -1.8786 0.9779
-1.2284 4.7726 -1.7624 0.9793
-2.1881 4.7720 -1.8774 0.9779
-3.6386 4.3471 -2.0272 0.9762
-4.0091 4.0050 -2.0265 0.9762
-4.6446 3.2248 -2.0220 0.9763
-4.9067 2.7957 -2.0195 0.9763
-5.5904 0.4083 -2.0045 0.9765
-5.5560 -0.5860 -1.9979 0.9765
-4.7242 -2.8969 -1.9817 0.9767
-4.1245 -3.6768 -1.9759 0.9768
-1.1957 -5.3537 -1.9617 0.9770
-0.7147 -5.4358 -1.9606 0.9770
1.2236 -5.3401 -1.9591 0.9770
1.6937 -5.2111 -1.9595 0.9770
2.1509 -5.0415 -1.9601 0.9770
2.5916 -4.8326 -1.9610 0.9770
3.0127 -4.5858 -1.9622 0.9770
3.4108 -4.3031 -1.9636 0.9769
4.7161 -2.8563 -1.9717 0.9768
4.9577 -2.4289 -1.9743 0.9768
5.1611 -1.9814 -1.9770 0.9768
5.5261 -0.5521 -1.9860 0.9767
5.5547 0.4366 -1.9925 0.9766
5.5030 0.9301 -1.9958 0.9766
5.4076 1.4179 -1.9991 0.9765
4.8655 2.8079 -2.0089 0.9764
4.6038 3.2343 -2.0120 0.9764
4.3045 3.6360 -2.0150 0.9763
3.9698 4.0098 -2.0178 0.9763
3.6025 4.3525 -2.0205 0.9763
3.2018 4.6562 -2.0208 0.9763
2.1562 4.7720 -1.8726 0.9780
1.7251 4.9491 -1.8743 0.9780
1.2793 5.0866 -1.8756 0.9780
0.8226 5.1833 -1.8768 0.9780
0.3413 4.9823 -1.7859 0.9790
-0.1082 5.2511 -1.8782 0.9779
-2.9081 4.6947 -1.9749 0.9768
-3.3977 4.5295 -2.0248 0.9762
-4.7543 3.0556 -2.0210 0.9763
-5.0006 2.6175 -2.0184 0.9763
-5.2062 2.1597 -2.0156 0.9763
-5.4899 1.2002 -2.0096 0.9764
-5.5977 0.2085 -2.0032 0.9765
-5.5849 -0.2894 -1.9999 0.9765
-5.5279 -0.7833 -1.9966 0.9766
-5.2843 -1.7439 -1.9900 0.9766
-5.1001 -2.2031 -1.9867 0.9767
-4.6150 -3.0617 -1.9805 0.9767
-4.3183 -3.4547 -1.9776 0.9768
-3.9885 -3.8195 -1.9749 0.9768
-3.6285 -4.1534 -1.9723 0.9768
-3.2410 -4.4540 -1.9698 0.9769
-2.3961 -4.9470 -1.9657 0.9769
-1.9452 -5.1358 -1.9639 0.9769
-1.0038 -5.3917 -1.9612 0.9770
0.9373 -5.3975 -1.9591 0.9770
0.0738 4.8940 -1.8757 0.9793
-0.3616 4.8822 -1.8761 0.9792
-0.7941 4.8311 -1.8762 0.9792
-2.6175 4.5831 -2.0226 0.9776
-3.0195 4.3396 -2.0260 0.9776
-3.3936 4.0544 -2.0261 0.9776
-3.7373 3.7335 -2.0244 0.9776
-4.5751 2.6068 -2.0179 0.9777
-4.7826 2.1870 -2.0153 0.9777
-4.9515 1.7510 -2.0126 0.9778
-5.0804 1.3021 -2.0098 0.9778
-5.1685 0.8442 -2.0069 0.9778
-2.3030 -0.2429 -0.8875 0.9901
-4.9901 -1.4516 -1.9916 0.9780
-4.8339 -1.8865 -1.9885 0.9780
-4.6402 -2.3052 -1.9855 0.9780
-4.4105 -2.7046 -1.9827 0.9781
-3.5266 -3.7574 -1.9748 0.9782
-3.1749 -4.0512 -1.9724 0.9782
-2.7992 -4.3126 -1.9703 0.9782
-2.4025 -4.5399 -1.9684 0.9782
-1.9877 -4.7314 -1.9667 0.9783
-1.5582 -4.8856 -1.9652 0.9783
0.6953 -5.0710 -1.9615 0.9783
1.1433 -4.9893 -1.9615 0.9783
1.5824 -4.8687 -1.9619 0.9783
2.0095 -4.7102 -1.9624 0.9783
2.8145 -4.2842 -1.9644 0.9783
3.5338 -3.7237 -1.9673 0.9782
3.8543 -3.3979 -1.9691 0.9782
4.1453 -3.0450 -1.9711 0.9782
4.4045 -2.6675 -1.9733 0.9782
4.6297 -2.2682 -1.9757 0.9782
5.0848 -0.9703 -1.9837 0.9781
5.1840 0.4074 -1.9927 0.9780
5.1352 0.8679 -1.9958 0.9779
5.0456 1.3229 -1.9989 0.9779
4.7461 2.2021 -2.0050 0.9778
4.0142 3.3908 -2.0137 0.9777
3.7018 3.7391 -2.0163 0.9777
3.3589 4.0583 -2.0188 0.9777
1.1924 4.7411 -1.8735 0.9793
0.3345 4.8822 -1.8753 0.9793
-0.1008 4.8940 -1.8759 0.9792
-0.5355 4.8665 -1.8762 0.9792
-1.8335 4.6363 -1.9106 0.9789
-2.3379 4.6532 -1.9956 0.9779
-2.7811 4.4897 -2.0239 0.9776
-3.1741 4.2314 -2.0271 0.9776
-4.1667 3.2353 -2.0216 0.9777
-4.4328 2.8489 -2.0193 0.9777
-4.6628 2.4407 -2.0169 0.9777
-5.1206 1.1194 -2.0087 0.9778
-2.3017 0.2921 -0.8891 0.9901
-2.2987 0.0856 -0.8815 0.9902
-5.1583 -0.7309 -1.9965 0.9779
-5.0650 -1.1847 -1.9934 0.9780
-4.7607 -2.0565 -1.9873 0.9780
-4.5523 -2.4678 -1.9844 0.9781
-4.3088 -2.8585 -1.9815 0.9781
-3.7246 -3.5667 -1.9762 0.9782
-3.0271 -4.1600 -1.9716 0.9782
-2.2382 -4.6210 -1.9677 0.9782
-0.4861 -5.0982 -1.9626 0.9783
0.4240 -5.1011 -1.9616 0.9783
0.4754 4.5516 -1.8730 0.9804
0.0690 4.5773 -1.8736 0.9804
-1.1808 4.5878 -1.9389 0.9797
-1.6340 4.6059 -2.0002 0.9791
-2.0594 4.4915 -2.0223 0.9789
-2.4540 4.2968 -2.0252 0.9788
-3.1744 3.7926 -2.0242 0.9789
-3.7893 3.1652 -2.0207 0.9789
-4.4753 2.0465 -2.0141 0.9790
-4.6337 1.6386 -2.0116 0.9790
-4.7548 1.2187 -2.0089 0.9790
-2.0116 0.1469 -0.8255 0.9913
-1.9944 -0.0321 -0.8164 0.9914
-2.0181 -0.2129 -0.8305 0.9913
-4.5272 -1.7668 -1.9890 0.9792
-4.1314 -2.5334 -1.9835 0.9793
-3.3042 -3.5205 -1.9761 0.9793
-2.6232 -4.0413 -1.9719 0.9794
-2.2515 -4.2546 -1.9701 0.9794
-0.6259 -4.7602 -1.9650 0.9795
1.0716 -4.6767 -1.9637 0.9795
2.6379 -4.0154 -1.9663 0.9794
3.6120 -3.1843 -1.9708 0.9794
4.1270 -2.4995 -1.9747 0.9794
4.3377 -2.1252 -1.9769 0.9793
4.6570 -1.3269 -1.9819 0.9793
4.8315 -0.4827 -1.9872 0.9792
4.8544 0.3815 -1.9929 0.9792
3.7565 3.1731 -2.0125 0.9790
2.7958 4.0658 -2.0195 0.9789
1.1455 4.5544 -1.9221 0.9799
0.7200 4.5368 -1.8800 0.9803
0.3128 4.5663 -1.8733 0.9804
-0.0943 4.5773 -1.8738 0.9804
-1.8157 4.5913 -2.0207 0.9789
-2.9690 3.9581 -2.0250 0.9788
-3.6172 3.3645 -2.0218 0.9789
-3.8982 3.0268 -2.0199 0.9789
-4.3630 2.2838 -2.0155 0.9789
-2.0203 0.2564 -0.8335 0.9912
-1.9999 0.0745 -0.8191 0.9914
-2.0052 -0.1039 -0.8218 0.9914
-2.0959 -0.4902 -0.8810 0.9907
-4.6189 -1.5243 -1.9907 0.9792
-4.0363 -2.6778 -1.9824 0.9793
-3.1751 -3.6345 -1.9752 0.9794
-2.8365 -3.8981 -1.9731 0.9794
-2.4764 -4.1308 -1.9711 0.9794
-2.0976 -4.3307 -1.9694 0.9794
-1.7031 -4.4965 -1.9679 0.9794
-0.8790 -4.7213 -1.9655 0.9795
-0.4557 -4.7787 -1.9647 0.9795
-0.0291 -4.7988 -1.9641 0.9795
0.0680 4.5131 -1.9671 0.9805
-1.9364 4.2232 -2.0248 0.9799
-2.9785 3.5585 -2.0224 0.9800
-3.5558 2.9701 -2.0192 0.9800
-4.2004 1.9208 -2.0129 0.9800
-1.4913 0.3822 -0.6710 0.9933
-1.4728 0.2406 -0.6504 0.9935
-1.4704 -0.1551 -0.6444 0.9936
-1.4935 -0.4345 -0.6779 0.9932
-4.2524 -1.6595 -1.9894 0.9803
-3.8813 -2.3800 -1.9842 0.9803
-3.3904 -3.0224 -1.9795 0.9804
-2.7957 -3.5672 -1.9752 0.9804
-2.4652 -3.7980 -1.9733 0.9804
-2.1160 -3.9986 -1.9716 0.9805
-1.3727 -4.3039 -1.9688 0.9805
-0.9841 -4.4064 -1.9677 0.9805
-0.5883 -4.4744 -1.9668 0.9805
2.1332 -3.9778 -1.9671 0.9805
2.4795 -3.7743 -1.9681 0.9805
2.8068 -3.5411 -1.9693 0.9805
3.1127 -3.2799 -1.9707 0.9805
3.3946 -2.9927 -1.9723 0.9804
3.6504 -2.6815 -1.9740 0.9804
3.8781 -2.3488 -1.9760 0.9804
4.0759 -1.9969 -1.9781 0.9804
4.2421 -1.6286 -1.9803 0.9804
4.4743 -0.8538 -1.9852 0.9803
4.5384 -0.4534 -1.9878 0.9803
4.5592 0.3583 -1.9931 0.9802
4.5154 0.7631 -1.9958 0.9802
4.4358 1.1631 -1.9985 0.9802
4.3207 1.5548 -2.0012 0.9802
3.9876 2.3013 -2.0065 0.9801
3.7721 2.6500 -2.0091 0.9801
3.2509 3.2837 -2.0138 0.9800
2.6236 3.8154 -2.0180 0.9800
2.2762 4.0371 -2.0198 0.9800
1.5247 4.3742 -2.0188 0.9800
1.1289 4.4888 -2.0172 0.9800
-0.4989 4.5335 -1.9877 0.9803
-2.0864 4.1526 -2.0254 0.9799
-2.4461 3.9489 -2.0244 0.9799
-3.1026 3.4490 -2.0218 0.9800
-3.6581 2.8404 -2.0184 0.9800
-3.8923 2.5015 -2.0164 0.9800
-1.4459 0.0539 -0.6306 0.9937
-1.4532 -0.0753 -0.6342 0.9937
-1.4737 -0.2088 -0.6487 0.9935
-1.4863 -0.3476 -0.6652 0.9934
-1.4928 -0.4926 -0.6851 0.9932
-3.2789 -3.1399 -1.9786 0.9804
-2.3273 -3.8821 -1.9726 0.9804
-1.9714 -4.0702 -1.9710 0.9805
0.3736 -4.4947 -1.9656 0.9805
0.7716 -4.4435 -1.9655 0.9805
0.0658 4.3617 -2.0192 0.9810
-0.7083 4.3087 -2.0212 0.9809
-1.0893 4.2321 -2.0228 0.9809
-1.4623 4.1219 -2.0245 0.9809
-1.8224 3.9745 -2.0239 0.9809
-2.4950 3.5858 -2.0221 0.9809
-1.2593 0.5759 -0.6410 0.9939
-1.2635 0.4468 -0.6203 0.9941
-1.2705 0.3256 -0.6071 0.9942
-1.2716 0.0929 -0.5902 0.9944
-1.2620 -0.0203 -0.5842 0.9945
-1.2746 -0.1344 -0.5933 0.9944
-3.8449 -1.9101 -1.9873 0.9813
-2.6338 -3.3607 -1.9764 0.9814
-2.3226 -3.5782 -1.9746 0.9814
-1.9937 -3.7674 -1.9730 0.9814
-1.6498 -3.9269 -1.9716 0.9814
-1.2934 -4.0554 -1.9704 0.9814
-0.9273 -4.1521 -1.9693 0.9814
0.9493 -4.1428 -1.9673 0.9814
1.6684 -3.9107 -1.9681 0.9814
2.6448 -3.3366 -1.9708 0.9814
3.8395 -1.8811 -1.9791 0.9813
4.1210 -1.1741 -1.9835 0.9813
4.2140 -0.8042 -1.9858 0.9813
4.3004 -0.0454 -1.9907 0.9812
4.2929 0.3374 -1.9932 0.9812
4.2513 0.7185 -1.9958 0.9812
4.1760 1.0949 -1.9984 0.9812
4.0674 1.4636 -2.0009 0.9811
3.9261 1.8217 -2.0034 0.9811
3.7533 2.1661 -2.0059 0.9811
3.3182 2.8029 -2.0106 0.9810
3.0592 3.0901 -2.0127 0.9810
2.4686 3.5899 -2.0167 0.9810
1.7969 3.9767 -2.0200 0.9809
1.0643 4.2318 -2.0199 0.9810
0.6837 4.3081 -2.0191 0.9810
0.2981 4.3514 -2.0189 0.9810
-0.0899 4.3617 -2.0194 0.9810
-0.8617 4.2820 -2.0218 0.9809
-2.3011 3.7148 -2.0227 0.9809
-2.6207 3.4937 -2.0216 0.9809
-2.9190 3.2448 -2.0203 0.9809
-3.1934 2.9703 -2.0188 0.9810
-3.8533 2.0170 -2.0132 0.9810
-1.2688 0.3984 -0.6156 0.9942
-1.2677 0.2772 -0.6007 0.9943
-1.2683 -0.0657 -0.5879 0.9944
-1.2750 -0.1807 -0.5961 0.9943
-1.2671 -0.4181 -0.6176 0.9941
-1.2448 -0.5377 -0.6276 0.9940
-3.7725 -2.0451 -1.9863 0.9813
-3.3430 -2.6745 -1.9817 0.9813
-3.0887 -2.9578 -1.9796 0.9813
-2.8108 -3.2173 -1.9775 0.9813
-2.5113 -3.4512 -1.9757 0.9814
-1.5083 -3.9822 -1.9711 0.9814
-1.1477 -4.0981 -1.9699 0.9814
-0.7785 -4.1818 -1.9690 0.9814
-0.6690 4.0701 -2.0233 0.9818
-1.0281 3.9943 -2.0232 0.9818
-1.3788 3.8865 -2.0228 0.9818
-1.7183 3.7476 -2.0223 0.9818
-2.0438 3.5786 -2.0215 0.9818
-2.3527 3.3812 -2.0206 0.9818
-1.0968 0.5015 -0.5916 0.9946
-1.1385 -0.2238 -0.5692 0.9948
-1.1316 -0.3292 -0.5781 0.9948
-3.4506 -2.1160 -1.9855 0.9821
-3.0150 -2.6877 -1.9813 0.9822
-2.7614 -2.9422 -1.9793 0.9822
-1.8826 -3.5574 -1.9743 0.9822
-1.2214 -3.8297 -1.9718 0.9823
-0.5236 -3.9818 -1.9700 0.9823
0.1896 -4.0097 -1.9690 0.9823
0.5452 -3.9766 -1.9689 0.9823
0.8965 -3.9125 -1.9689 0.9823
1.5757 -3.6933 -1.9696 0.9823
3.4494 -2.0891 -1.9782 0.9822
3.6249 -1.7759 -1.9800 0.9822
3.7722 -1.4482 -1.9820 0.9822
3.9777 -0.7591 -1.9863 0.9821
4.0340 -0.4030 -1.9886 0.9821
4.0118 0.6780 -1.9958 0.9820
3.9404 1.0332 -1.9982 0.9820
3.8376 1.3810 -2.0006 0.9820
3.7041 1.7186 -2.0030 0.9820
3.3489 2.3527 -2.0076 0.9819
3.1299 2.6439 -2.0097 0.9819
2.8855 2.9146 -2.0118 0.9819
2.6175 3.1625 -2.0137 0.9819
2.0196 3.5821 -2.0171 0.9818
1.6945 3.7501 -2.0186 0.9818
1.3553 3.8883 -2.0199 0.9818
1.0049 3.9956 -2.0210 0.9818
-0.4511 4.0990 -2.0228 0.9818
-0.8138 4.0436 -2.0233 0.9818
-1.1698 3.9549 -2.0231 0.9818
-1.5164 3.8345 -2.0226 0.9818
-1.8506 3.6834 -2.0220 0.9818
-2.4713 3.2944 -2.0201 0.9818
-2.7526 3.0599 -2.0189 0.9818
-3.0115 2.8011 -2.0175 0.9818
-1.0956 0.5735 -0.6066 0.9945
-1.1097 0.4603 -0.5893 0.9947
-1.1295 0.3546 -0.5807 0.9947
-1.1348 0.2481 -0.5698 0.9948
-1.1442 0.1452 -0.5658 0.9949
-1.1399 0.0425 -0.5595 0.9949
-1.1416 -0.0591 -0.5607 0.9949
-1.1438 -0.1621 -0.5667 0.9949
-1.1274 -0.3721 -0.5824 0.9947
-1.1047 -0.4772 -0.5903 0.9947
-1.1075 -0.6003 -0.6179 0.9944
-2.6537 -3.0376 -1.9786 0.9822
-2.3711 -3.2586 -1.9768 0.9822
-2.0704 -3.4536 -1.9752 0.9822
-1.0838 -3.8700 -1.9714 0.9823
-0.7352 -3.9492 -1.9704 0.9823
-0.0244 -4.0145 -1.9692 0.9823
0.6867 -3.9546 -1.9689 0.9823
-0.9714 3.7739 -2.0216 0.9826
-1.3027 3.6721 -2.0213 0.9826
-1.6235 3.5409 -2.0208 0.9826
-2.4969 2.9830 -2.0181 0.9826
-2.7504 2.7476 -2.0168 0.9826
-2.9816 2.4905 -2.0154 0.9826
-0.9519 0.5424 -0.5684 0.9951
-1.0201 0.2615 -0.5463 0.9953
-1.0372 0.0758 -0.5395 0.9953
-1.0319 -0.0166 -0.5354 0.9954
-1.0376 -0.1094 -0.5413 0.9953
-1.0181 -0.2962 -0.5501 0.9952
-1.0023 -0.3911 -0.5582 0.9952
-0.9711 -0.4824 -0.5625 0.9951
-3.0696 -2.2810 -1.9840 0.9829
-2.6122 -2.7832 -1.9802 0.9829
-2.3524 -3.0017 -1.9785 0.9830
-2.0747 -3.1963 -1.9769 0.9830
-1.7811 -3.3656 -1.9754 0.9830
-0.8286 -3.7101 -1.9721 0.9830
-0.1585 -3.7957 -1.9708 0.9830
0.1794 -3.7940 -1.9705 0.9830
1.1741 -3.6125 -1.9706 0.9830
1.7962 -3.3493 -1.9716 0.9830
2.3630 -2.9811 -1.9735 0.9830
2.6201 -2.7609 -1.9746 0.9830
2.8571 -2.5188 -1.9760 0.9830
3.0720 -2.2566 -1.9775 0.9830
3.2631 -1.9763 -1.9791 0.9830
3.8150 -0.3811 -1.9890 0.9829
3.8381 -0.0406 -1.9912 0.9829
3.5016 1.6247 -2.0026 0.9828
2.9583 2.4989 -2.0089 0.9827
2.7271 2.7546 -2.0109 0.9827
2.4737 2.9888 -2.0127 0.9827
2.2001 3.1995 -2.0144 0.9827
1.9085 3.3850 -2.0159 0.9826
0.6105 3.8464 -2.0204 0.9826
-0.4263 3.8737 -2.0217 0.9826
-1.1053 3.7367 -2.0215 0.9826
-1.4328 3.6230 -2.0212 0.9826
-2.8458 2.6470 -2.0163 0.9826
-3.0675 2.3818 -2.0147 0.9827
-0.9615 0.5033 -0.5630 0.9951
-0.9963 0.4133 -0.5595 0.9952
-1.0263 0.2244 -0.5450 0.9953
-1.0345 0.0385 -0.5370 0.9953
-1.0358 -0.0537 -0.5381 0.9953
-0.9916 -0.4283 -0.5604 0.9951
-2.9851 -2.3881 -1.9832 0.9829
-2.7584 -2.6414 -1.9813 0.9829
-1.6595 -3.4261 -1.9749 0.9830
-1.3476 -3.5578 -1.9737 0.9830
-1.0255 -3.6616 -1.9727 0.9830
-0.6957 -3.7366 -1.9718 0.9830
0.3146 -3.7851 -1.9704 0.9830
0.6498 -3.7420 -1.9703 0.9830
0.3830 3.6672 -2.0195 0.9833
0.0556 3.6876 -2.0200 0.9833
-0.5983 3.6399 -2.0204 0.9833
-0.9194 3.5722 -2.0203 0.9833
-1.5368 3.3517 -2.0195 0.9833
-1.8280 3.2007 -2.0188 0.9833
-2.1043 3.0243 -2.0179 0.9833
-2.3636 2.8238 -2.0169 0.9833
-2.6037 2.6010 -2.0157 0.9834
-2.8226 2.3577 -2.0143 0.9834
-0.8778 0.6095 -0.5853 0.9951
-0.9149 0.3235 -0.5315 0.9956
-0.9436 0.1541 -0.5237 0.9956
-0.9471 0.0692 -0.5201 0.9957
-0.9234 -0.2686 -0.5267 0.9956
-0.9093 -0.3548 -0.5346 0.9956
-0.8895 -0.4419 -0.5440 0.9955
-2.7023 -2.4089 -1.9828 0.9836
-2.4753 -2.6373 -1.9810 0.9836
-2.2292 -2.8445 -1.9794 0.9837
-1.9661 -3.0290 -1.9779 0.9837
-1.6879 -3.1896 -1.9765 0.9837
-1.3969 -3.3250 -1.9753 0.9837
-1.0953 -3.4341 -1.9742 0.9837
-0.4695 -3.5709 -1.9727 0.9837
-0.1503 -3.5976 -1.9721 0.9837
1.1129 -3.4240 -1.9719 0.9837
1.4131 -3.3122 -1.9723 0.9837
1.9786 -3.0117 -1.9737 0.9837
2.4832 -2.6166 -1.9757 0.9837
2.7076 -2.3870 -1.9770 0.9837
2.9112 -2.1385 -1.9784 0.9837
3.0921 -1.8727 -1.9800 0.9836
3.2491 -1.5918 -1.9817 0.9836
3.3808 -1.2979 -1.9834 0.9836
1.8878 0.1484 -1.0372 0.9914
1.8849 0.4942 -1.0673 0.9912
3.4361 1.2365 -2.0001 0.9835
3.3161 1.5386 -2.0022 0.9835
2.9974 2.1058 -2.0063 0.9834
2.3420 2.8297 -2.0118 0.9834
2.0829 3.0290 -2.0134 0.9834
1.2123 3.4780 -2.0173 0.9833
0.8988 3.5737 -2.0183 0.9833
-0.0760 3.6875 -2.0201 0.9833
-0.4035 3.6666 -2.0203 0.9833
-1.3562 3.4293 -2.0198 0.9833
-1.6552 3.2943 -2.0192 0.9833
-2.2104 2.9467 -2.0175 0.9833
-2.4622 2.7371 -2.0164 0.9833
-2.6941 2.5058 -2.0152 0.9834
-2.9041 2.2549 -2.0137 0.9834
-0.8683 0.5580 -0.5653 0.9953
-0.8835 0.4625 -0.5462 0.9955
-0.9054 0.3756 -0.5369 0.9955
-0.9465 0.1201 -0.5225 0.9957
-0.9450 0.0352 -0.5180 0.9957
-0.9461 -0.0490 -0.5189 0.9957
-0.9456 -0.1340 -0.5230 0.9957
-0.9326 -0.2181 -0.5246 0.9956
-0.9187 -0.3032 -0.5299 0.9956
-1.8563 -3.0964 -1.9773 0.9837
-0.9719 -3.4704 -1.9739 0.9837
-0.6593 -3.5416 -1.9731 0.9837
0.6159 -3.5467 -1.9716 0.9837
0.0527 3.4961 -2.0187 0.9840
-1.1691 3.2953 -2.0187 0.9840
-1.7331 3.0346 -2.0176 0.9840
-2.2410 2.6774 -2.0158 0.9840
-2.6764 2.2356 -2.0134 0.9840
-0.7987 0.5545 -0.5614 0.9955
-0.8437 0.3858 -0.5356 0.9957
-0.8601 0.3042 -0.5267 0.9958
-0.8704 0.2231 -0.5188 0.9959
-0.8801 0.1437 -0.5149 0.9959
-0.8792 -0.0141 -0.5077 0.9959
-0.8822 -0.0930 -0.5122 0.9959
-0.8551 -0.3337 -0.5300 0.9958
-0.8357 -0.4152 -0.5387 0.9957
-0.8077 -0.4953 -0.5470 0.9956
-0.8031 -0.5968 -0.5777 0.9954
-2.5644 -2.2860 -1.9834 0.9843
-2.3491 -2.5028 -1.9817 0.9843
-1.8660 -2.8748 -1.9788 0.9843
-1.6020 -3.0273 -1.9775 0.9843
-1.0396 -3.2596 -1.9753 0.9843
-0.7455 -3.3377 -1.9745 0.9843
1.0564 -3.2502 -1.9731 0.9843
1.6159 -3.0132 -1.9741 0.9843
2.3569 -2.4835 -1.9767 0.9843
2.5698 -2.2656 -1.9779 0.9843
2.7629 -2.0296 -1.9793 0.9843
1.7355 -0.3312 -1.0201 0.9919
1.7413 -0.1739 -1.0104 0.9919
1.7396 0.1367 -1.0075 0.9920
1.7388 0.2939 -1.0182 0.9919
1.7048 0.6135 -1.0460 0.9917
3.1453 1.4594 -2.0019 0.9841
3.0061 1.7349 -2.0039 0.9841
2.8427 1.9971 -2.0058 0.9841
2.6564 2.2439 -2.0076 0.9841
2.4485 2.4732 -2.0093 0.9841
1.9750 2.8722 -2.0125 0.9840
0.8522 3.3882 -2.0171 0.9840
0.5478 3.4519 -2.0179 0.9840
-0.0720 3.4960 -2.0188 0.9840
-1.5692 3.1232 -2.0180 0.9840
-2.0957 2.7938 -2.0164 0.9840
-2.3346 2.5952 -2.0154 0.9840
-2.7537 2.1381 -2.0128 0.9840
-0.7998 0.5140 -0.5489 0.9956
-0.8513 0.3531 -0.5321 0.9958
-0.8806 0.0328 -0.5088 0.9959
-0.8813 -0.0457 -0.5095 0.9959
-0.8813 -0.1249 -0.5139 0.9959
-0.8734 -0.2043 -0.5179 0.9959
-0.8627 -0.2847 -0.5245 0.9958
-0.8484 -0.3664 -0.5335 0.9957
-0.8255 -0.4475 -0.5421 0.9957
-0.7951 -0.5275 -0.5509 0.9956
-2.6840 -2.1472 -1.9845 0.9842
-1.7618 -2.9387 -1.9782 0.9843
-1.4927 -3.0818 -1.9770 0.9843
-1.2122 -3.2005 -1.9759 0.9843
-0.9225 -3.2940 -1.9750 0.9843
-0.6258 -3.3617 -1.9742 0.9843
-0.3245 -3.4029 -1.9736 0.9843
-0.0207 -3.4176 -1.9732 0.9843
0.5846 -3.3667 -1.9729 0.9843
