ply
format ascii 1.0
element vertex 1582
property float32 x
property float32 y
property float32 z
property float32 I
end_header
-2.8010 13.5305 1.4837 0.9459
-5.4408 13.5127 1.5642 0.9431
-10.3589 13.6048 1.8362 0.9335
-11.9957 13.1349 1.9101 0.9309
-12.0355 11.0198 1.7523 0.9365
-12.0695 9.2142 1.6306 0.9407
-13.8185 8.7158 1.7544 0.9364
-17.0089 8.7125 2.0521 0.9260
-9.6726 -16.6761 2.0701 0.9254
-7.8447 -16.8254 1.9935 0.9280
-6.0692 -16.7854 1.9166 0.9307
-2.8621 -16.8461 1.8349 0.9336
-0.7909 -9.9955 1.0767 0.9605
0.1768 -17.0624 1.8323 0.9337
1.6937 -16.9332 1.8274 0.9338
3.2450 -16.9625 1.8545 0.9329
2.5016 13.4870 1.4730 0.9463
0.0642 13.5332 1.4532 0.9470
-1.1494 13.5563 1.4609 0.9467
-3.6508 13.5467 1.5066 0.9451
-4.9938 13.5724 1.5529 0.9435
-6.4015 13.5311 1.6074 0.9416
-7.9680 13.5611 1.6890 0.9387
-9.7159 13.5935 1.7942 0.9350
-12.9092 8.6983 1.6715 0.9393
-9.9443 5.4792 1.2192 0.9554
7.5082 14.4120 1.3756 0.9368
0.6902 5.5845 0.4763 0.9777
0.1870 5.5561 0.4706 0.9779
-0.7636 13.6981 1.1614 0.9464
-1.9533 13.3748 1.1442 0.9472
-3.2742 13.7149 1.1936 0.9450
-7.5792 13.7970 1.3326 0.9388
-11.0913 13.6880 1.4914 0.9317
-9.5913 5.6520 0.9424 0.9563
-9.1521 -16.9379 1.6298 0.9256
-7.2978 -16.9733 1.5640 0.9285
-5.5265 -16.8610 1.5020 0.9312
-3.8941 -16.8280 1.4622 0.9330
0.6953 -17.1254 1.4509 0.9335
2.2344 -17.1025 1.4601 0.9331
3.7821 -16.9738 1.4721 0.9326
2.1065 13.6436 1.1687 0.9461
-4.1398 13.6996 1.2115 0.9442
-5.5194 13.7077 1.2509 0.9424
-6.8775 13.4687 1.2802 0.9411
-8.6593 13.7677 1.3768 0.9368
-12.1231 13.2744 1.5218 0.9304
-12.1634 11.1369 1.3961 0.9359
-14.0310 8.8499 1.4043 0.9356
-10.4813 -10.3110 1.2446 0.9427
-0.7912 -9.9989 0.8491 0.9605
0.1768 -17.0635 1.4445 0.9338
1.6938 -16.9343 1.4407 0.9340
3.2452 -16.9637 1.4621 0.9330
2.5280 5.2149 0.4906 0.9770
2.5015 13.4861 1.1611 0.9464
-2.4066 13.6983 1.1774 0.9457
-3.6897 13.6910 1.2003 0.9447
-5.0470 13.7169 1.2373 0.9430
-8.1126 13.8072 1.3556 0.9377
-9.7653 13.6626 1.4216 0.9348
-12.1505 11.8195 1.4349 0.9342
-12.1867 9.9005 1.3292 0.9389
-13.1078 8.8321 1.3380 0.9385
-9.9032 5.4566 0.9572 0.9556
7.5149 14.4249 1.0086 0.9369
0.6931 5.6082 0.3504 0.9776
0.1861 5.5302 0.3431 0.9781
-1.9532 13.3739 0.8381 0.9473
-3.2620 13.6637 0.8711 0.9453
-6.0104 13.7160 0.9286 0.9417
-7.5786 13.7960 0.9761 0.9389
-9.2923 13.8287 1.0331 0.9354
-9.1527 -16.9392 1.1939 0.9257
-7.2983 -16.9745 1.1458 0.9286
-2.3736 -17.0812 1.0694 0.9332
-0.8239 -16.8877 1.0485 0.9345
0.6954 -17.1265 1.0629 0.9336
2.1140 13.6926 0.8591 0.9460
0.3481 5.4442 0.3383 0.9784
-0.3501 13.7394 0.8523 0.9464
-2.8269 13.6554 0.8647 0.9456
-5.5189 13.7067 0.9163 0.9425
-8.6905 13.8172 1.0122 0.9367
-12.1222 13.2734 1.1147 0.9305
-12.1625 11.1361 1.0226 0.9360
-10.4917 -10.3212 0.9126 0.9427
-6.0701 -16.7879 1.1070 0.9310
-2.8625 -16.8484 1.0597 0.9338
-0.7921 -10.0102 0.6227 0.9606
0.1701 -16.4147 1.0179 0.9363
1.6939 -16.9355 1.0554 0.9341
3.2454 -16.9649 1.0711 0.9331
2.5275 5.2140 0.3593 0.9770
0.5168 5.4777 0.3412 0.9782
0.0642 13.5314 0.8391 0.9472
-2.3976 13.6472 0.8592 0.9460
-3.6845 13.6717 0.8780 0.9448
-8.1120 13.8062 0.9930 0.9378
-11.6850 13.5979 1.1118 0.9307
-12.3829 10.0600 0.9893 0.9381
-13.4117 9.0369 1.0028 0.9372
-12.7513 5.6070 0.8638 0.9457
7.5271 14.4484 0.6424 0.9369
2.9048 13.4766 0.5436 0.9463
0.6953 5.6261 0.2235 0.9776
0.1854 5.5100 0.2174 0.9782
-0.7663 13.7463 0.5429 0.9464
-3.2737 13.7130 0.5559 0.9451
-4.6088 13.7384 0.5714 0.9436
-7.5780 13.7949 0.6206 0.9389
-9.2916 13.8276 0.6569 0.9355
-12.3319 12.7097 0.6983 0.9316
-12.1739 10.4883 0.6336 0.9377
-12.2994 8.8146 0.5967 0.9412
-14.9281 -8.9370 0.6863 0.9327
-9.0411 -16.7326 0.7499 0.9267
-7.2092 -16.7675 0.7197 0.9295
-5.5245 -16.8549 0.6994 0.9315
-3.8946 -16.8303 0.6812 0.9332
-2.3738 -17.0823 0.6800 0.9333
-0.8200 -16.8073 0.6635 0.9349
3.7826 -16.9762 0.6858 0.9327
0.3470 5.4268 0.2144 0.9785
-1.5638 13.5614 0.5383 0.9468
-4.1489 13.7296 0.5656 0.9442
-8.6898 13.8161 0.6436 0.9368
-10.9686 14.4054 0.7139 0.9301
-12.1213 13.2724 0.7088 0.9306
-9.4953 5.9890 0.4427 0.9561
-10.4965 -10.3259 0.5806 0.9428
-9.6981 -16.7201 0.7622 0.9255
-7.8123 -16.7560 0.7290 0.9287
-4.5883 -17.4145 0.7101 0.9304
-0.7927 -10.0179 0.3963 0.9606
3.2457 -16.9660 0.6811 0.9332
2.5271 5.2131 0.2284 0.9771
2.5011 13.4843 0.5408 0.9466
0.0275 5.7964 0.2286 0.9771
-5.0581 13.7469 0.5776 0.9430
-6.5168 13.7747 0.6009 0.9408
-11.6840 13.5969 0.7069 0.9307
-12.1488 11.8178 0.6683 0.9344
7.5181 14.4310 0.2749 0.9370
2.9046 13.4757 0.2329 0.9463
0.1850 5.4958 0.0929 0.9782
-0.7663 13.7454 0.2325 0.9464
-3.2735 13.7120 0.2381 0.9452
-4.5978 13.7055 0.2442 0.9438
-7.5774 13.7939 0.2658 0.9390
-9.2908 13.8265 0.2814 0.9355
-12.1731 10.4876 0.2714 0.9377
-9.5048 5.6010 0.1864 0.9568
-14.9208 -8.9326 0.2938 0.9328
-9.0418 -16.7338 0.3213 0.9267
-7.2098 -16.7687 0.3083 0.9296
-5.5235 -16.8519 0.2996 0.9315
-2.3429 -16.8605 0.2875 0.9342
-0.8240 -16.8893 0.2856 0.9346
0.6870 -16.9186 0.2860 0.9345
3.7829 -16.9774 0.2938 0.9328
-0.3500 13.7375 0.2321 0.9465
-4.1486 13.7287 0.2423 0.9442
-5.5181 13.7047 0.2496 0.9426
-6.8760 13.4657 0.2554 0.9413
-8.6891 13.8150 0.2757 0.9368
-10.9676 14.4042 0.3058 0.9301
-12.1608 11.1345 0.2785 0.9362
-12.1954 9.3104 0.2592 0.9405
-10.4922 -10.3217 0.2486 0.9428
-9.6989 -16.7213 0.3265 0.9256
-7.8129 -16.7572 0.3123 0.9287
-6.0709 -16.7903 0.3016 0.9311
-4.2132 -15.9906 0.2793 0.9360
-2.8629 -16.8506 0.2887 0.9339
1.6942 -16.9377 0.2875 0.9342
3.2459 -16.9672 0.2918 0.9332
2.5267 5.2123 0.0978 0.9771
2.5010 13.4834 0.2316 0.9466
-1.1618 13.7029 0.2323 0.9465
-11.6831 13.5958 0.3028 0.9308
-12.1479 11.8169 0.2863 0.9344
-13.4084 9.0347 0.2731 0.9374
-16.3214 8.9929 0.3148 0.9282
7.5235 14.4415 -0.0917 0.9369
2.9044 13.4748 -0.0776 0.9464
0.6935 5.6109 -0.0318 0.9776
-3.2661 13.6811 -0.0792 0.9453
-7.5768 13.7928 -0.0886 0.9390
-12.2811 12.6573 -0.0993 0.9319
-9.4657 5.5779 -0.0619 0.9570
-2.3431 -16.8616 -0.0958 0.9342
-0.8240 -16.8905 -0.0952 0.9346
2.2143 -16.9487 -0.0962 0.9339
3.7831 -16.9785 -0.0979 0.9328
0.3468 5.4233 -0.0306 0.9785
-0.3487 13.6866 -0.0771 0.9467
-4.1386 13.6958 -0.0806 0.9444
-8.6884 13.8139 -0.0919 0.9368
-16.9960 8.7059 -0.1075 0.9265
-10.4693 -10.2992 -0.0827 0.9429
-5.6048 -15.5011 -0.0928 0.9362
-4.0919 -15.5305 -0.0904 0.9378
0.1753 -16.9101 -0.0952 0.9346
1.6943 -16.9389 -0.0958 0.9342
0.5165 5.4742 -0.0310 0.9782
0.0268 5.6434 -0.0318 0.9777
-1.1618 13.7020 -0.0774 0.9465
-2.4007 13.6646 -0.0781 0.9460
-3.6887 13.6873 -0.0798 0.9449
-6.5016 13.7425 -0.0856 0.9410
-8.1101 13.8029 -0.0901 0.9380
-10.4375 14.6031 -0.1011 0.9307
-12.1470 11.8161 -0.0954 0.9345
-12.3312 10.0179 -0.0894 0.9384
-16.3204 8.9923 -0.1049 0.9282
-12.7371 5.6008 -0.0783 0.9459
7.5076 14.4109 -0.4575 0.9370
0.6948 5.6215 -0.1595 0.9776
0.1840 5.4662 -0.1540 0.9784
-7.5762 13.7917 -0.4431 0.9390
-11.2315 13.8610 -0.5023 0.9311
-11.9163 12.2813 -0.4818 0.9338
-11.9540 10.2988 -0.4443 0.9388
-11.9865 8.5904 -0.4152 0.9427
-9.1453 -16.9254 -0.5417 0.9259
-5.3047 -16.1844 -0.4796 0.9341
-3.8954 -16.8337 -0.4865 0.9332
-2.3433 -16.8631 -0.4794 0.9341
3.7834 -16.9797 -0.4898 0.9328
17.8433 4.6770 -0.5194 0.9288
2.0671 13.3885 -0.3815 0.9472
-1.5634 13.5587 -0.3843 0.9468
-2.8303 13.6719 -0.3931 0.9457
-5.5174 13.7027 -0.4159 0.9426
-6.8749 13.4637 -0.4257 0.9413
-11.9020 13.0323 -0.4970 0.9318
-11.9760 9.1428 -0.4243 0.9415
-5.4690 -15.1254 -0.4529 0.9377
-0.7983 -10.0884 -0.2850 0.9603
3.2463 -16.9695 -0.4865 0.9332
18.1376 4.1728 -0.5241 0.9282
2.5259 5.2105 -0.1630 0.9771
0.5153 5.4617 -0.1545 0.9783
-5.0452 13.7120 -0.4114 0.9432
-8.1095 13.8019 -0.4507 0.9380
-10.4004 14.5512 -0.5036 0.9309
-11.6813 13.5936 -0.5047 0.9308
-11.9292 11.6042 -0.4686 0.9356
7.5643 14.5198 -0.8303 0.9365
2.8566 13.2529 -0.6875 0.9471
1.6408 13.2760 -0.6784 0.9478
-1.9525 13.3694 -0.6852 0.9473
-3.2657 13.6792 -0.7132 0.9452
-4.6075 13.7345 -0.7347 0.9436
-6.0303 13.7614 -0.7620 0.9416
-7.5757 13.7907 -0.7980 0.9389
-11.9154 12.2804 -0.8678 0.9338
-11.9532 10.2981 -0.8001 0.9388
-15.3868 4.1677 -0.8084 0.9381
-16.8070 -8.1210 -0.9466 0.9280
-13.9745 -8.3661 -0.8260 0.9368
-5.1422 -15.6884 -0.8373 0.9360
-0.8242 -16.8931 -0.8577 0.9345
0.6948 -17.1132 -0.8686 0.9337
3.7836 -16.9808 -0.8823 0.9327
17.5285 4.5945 -0.9190 0.9300
7.8722 14.0573 -0.8171 0.9375
0.3458 5.4084 -0.2748 0.9785
-0.3392 13.3136 -0.6754 0.9481
-1.5378 13.3364 -0.6808 0.9477
-5.5170 13.7017 -0.7491 0.9426
-6.8744 13.4626 -0.7666 0.9413
-8.6870 13.8117 -0.8275 0.9367
-10.9648 14.4005 -0.9179 0.9301
-11.9011 13.0313 -0.8950 0.9318
-11.9411 10.9333 -0.8211 0.9372
-11.9752 9.1422 -0.7641 0.9414
-9.2541 5.8369 -0.5549 0.9571
-16.9398 8.6771 -0.9652 0.9266
-15.6436 3.2592 -0.8104 0.9380
-14.8363 -8.2837 -0.8617 0.9342
-12.3402 -8.4162 -0.7575 0.9419
-10.4318 -8.5726 -0.6848 0.9474
-9.8107 -16.9142 -0.9916 0.9247
-7.8146 -16.7609 -0.9379 0.9286
-5.4892 -15.1813 -0.8187 0.9374
-4.0420 -15.3409 -0.8046 0.9384
-2.8636 -16.8544 -0.8670 0.9338
0.1773 -17.1034 -0.8674 0.9338
1.6945 -16.9411 -0.8634 0.9341
17.5578 4.0395 -0.9137 0.9304
2.4596 13.2605 -0.6840 0.9474
0.5136 5.4433 -0.2773 0.9783
-1.1301 13.3286 -0.6784 0.9478
-2.4004 13.6628 -0.7035 0.9460
-5.0566 13.7430 -0.7426 0.9430
-10.4358 14.6007 -0.9102 0.9306
-11.6803 13.5925 -0.9089 0.9307
-11.9283 11.6033 -0.8439 0.9355
-12.7608 8.5983 -0.7804 0.9402
-12.7317 5.5984 -0.7053 0.9458
3.2117 10.3233 -0.7927 0.9576
2.8564 13.2520 -0.9940 0.9471
-0.7426 13.3204 -0.9782 0.9479
-4.5903 13.6832 -1.0582 0.9438
-5.9762 13.6380 -1.0918 0.9420
-7.4363 13.5370 -1.1325 0.9399
-9.0883 11.2160 -1.0585 0.9437
-17.3141 3.0646 -1.2892 0.9319
-16.7857 -8.1107 -1.3669 0.9280
-13.6665 -8.1817 -1.1679 0.9381
-7.9848 -8.3446 -0.8468 0.9547
-6.8770 -8.6086 -0.8079 0.9568
-3.7023 -8.6109 -0.6873 0.9631
-2.8633 -8.7358 -0.6741 0.9638
-1.2195 -8.7758 -0.6496 0.9651
2.2147 -16.9522 -1.2535 0.9337
17.4659 2.9446 -1.2987 0.9314
2.0484 13.2674 -0.9843 0.9476
0.3453 5.4006 -0.3968 0.9785
-1.5377 13.3355 -0.9843 0.9476
-4.1322 13.6746 -1.0474 0.9443
-5.5166 13.7008 -1.0829 0.9425
-6.5593 12.8456 -1.0576 0.9438
-9.8232 10.7561 -1.0681 0.9433
-9.1925 5.7981 -0.7969 0.9573
-14.9871 3.1224 -1.1225 0.9404
-18.0610 -8.0633 -1.4503 0.9237
-14.7504 -8.2358 -1.2387 0.9345
-12.0853 -8.2424 -1.0726 0.9430
-10.0754 -8.2798 -0.9562 0.9490
-8.5653 -8.4262 -0.8810 0.9530
-6.1973 -8.7745 -0.7876 0.9578
-3.2108 -8.8800 -0.6924 0.9628
-2.3026 -8.7392 -0.6626 0.9644
1.6946 -16.9423 -1.2484 0.9340
17.4437 4.0132 -1.3124 0.9307
2.7474 9.8229 -0.7479 0.9599
-2.4055 13.6919 -1.0193 0.9458
-3.6829 13.6661 -1.0378 0.9448
-6.3950 13.5173 -1.0964 0.9418
-7.9597 13.5469 -1.1521 0.9389
-8.6352 12.0815 -1.0888 0.9422
-11.9274 11.6025 -1.2201 0.9354
-11.9634 9.7191 -1.1302 0.9401
-12.7290 5.5972 -1.0196 0.9458
3.3870 6.5015 -0.7038 0.9710
7.4655 18.1129 -1.8808 0.9243
2.8562 13.2511 -1.3014 0.9470
-0.7425 13.3195 -1.2807 0.9478
-3.2124 13.4562 -1.3282 0.9459
-3.5685 10.6373 -1.0772 0.9559
-8.5468 12.7192 -1.4712 0.9403
-11.0228 13.6035 -1.6809 0.9321
-11.3004 11.6465 -1.5579 0.9369
-11.3364 9.7667 -1.4366 0.9416
-11.9842 8.5887 -1.4155 0.9425
-9.3514 5.5106 -1.0421 0.9573
-18.6334 6.8829 -1.9070 0.9233
-13.7935 3.7361 -1.3720 0.9442
-9.5473 -8.3415 -1.2171 0.9503
-6.6725 -8.3526 -1.0263 0.9580
-5.5694 -8.4138 -0.9687 0.9603
-3.6361 -8.4570 -0.8838 0.9637
-2.0160 -8.7121 -0.8585 0.9647
-1.1983 -8.6235 -0.8359 0.9656
-0.8191 -16.7889 -1.6137 0.9347
0.4008 -9.8721 -0.9486 0.9611
2.2149 -16.9533 -1.6414 0.9336
5.6245 -17.6457 -1.7781 0.9283
7.1691 -17.0566 -1.7763 0.9283
8.6560 -16.3375 -1.7750 0.9284
17.5221 2.9540 -1.7060 0.9311
7.5947 13.5618 -1.4923 0.9395
6.3953 18.5596 -1.8846 0.9241
3.9812 16.0933 -1.5916 0.9356
2.0482 13.2665 -1.2887 0.9475
0.3442 5.3835 -0.5179 0.9786
-0.3392 13.3119 -1.2784 0.9479
-1.5376 13.3346 -1.2887 0.9475
-3.2124 10.6306 -1.0662 0.9564
-5.4350 13.4982 -1.3970 0.9432
-6.4453 12.6224 -1.3607 0.9446
-9.7012 12.7409 -1.5374 0.9377
-11.9394 10.9318 -1.5541 0.9370
-11.2593 5.7674 -1.2145 0.9504
-18.4287 7.4475 -1.9083 0.9232
-8.4959 -8.3579 -1.1442 0.9532
-7.1776 -8.4483 -1.0643 0.9564
-4.8620 -8.3824 -0.9303 0.9618
-3.9241 -8.4165 -0.8915 0.9634
-1.3361 -16.8857 -1.6262 0.9342
0.1773 -17.1057 -1.6423 0.9336
5.0909 -17.8148 -1.7788 0.9283
6.6525 -17.2707 -1.7768 0.9283
8.1601 -16.5949 -1.7754 0.9284
9.6031 -15.7928 -1.7745 0.9284
17.5265 5.7199 -1.7700 0.9286
8.1332 13.5464 -1.5169 0.9385
2.7888 9.9708 -0.9940 0.9592
0.5075 5.3791 -0.5187 0.9785
-1.1299 13.3269 -1.2840 0.9477
-6.3030 6.1313 -0.8442 0.9653
-15.7016 8.6514 -1.7211 0.9305
-18.8124 6.3377 -1.9058 0.9233
8.4623 13.2138 -1.8639 0.9388
7.0938 13.6166 -1.8238 0.9400
6.0106 14.5829 -1.8736 0.9384
-0.7425 13.3186 -1.5845 0.9477
-1.7320 11.8595 -1.4237 0.9529
-2.6903 11.2691 -1.3762 0.9544
-3.6511 10.8834 -1.3636 0.9548
-8.9401 13.3045 -1.9040 0.9375
-11.3589 9.7861 -1.7810 0.9414
-9.3942 6.7325 -1.3729 0.9545
-14.4295 6.8491 -1.8973 0.9377
-14.9613 5.5265 -1.8946 0.9378
-13.7846 3.7337 -1.6964 0.9441
-16.9419 2.9987 -2.0437 0.9330
-17.1067 1.4724 -2.0395 0.9332
-17.1317 -0.0595 -2.0350 0.9333
-16.7665 -3.0879 -2.0251 0.9336
-15.8664 -5.9863 -2.0144 0.9340
-15.2269 -7.3575 -2.0088 0.9341
-11.4180 -8.3036 -1.6770 0.9447
-7.9314 -8.2888 -1.3627 0.9548
-4.5719 -8.4613 -1.1424 0.9620
-3.6177 -8.4142 -1.0880 0.9638
-1.9508 -8.4304 -1.0279 0.9657
-1.2078 -8.6916 -1.0424 0.9653
0.4080 -10.0480 -1.1945 0.9603
1.1649 -8.9165 -1.0681 0.9644
2.0837 -9.3517 -1.1381 0.9621
5.8351 -13.8828 -1.7888 0.9411
10.0608 -12.8070 -1.9346 0.9365
13.9336 -8.4969 -1.9386 0.9364
15.7487 -4.5222 -1.9463 0.9361
16.1175 -3.1046 -1.9497 0.9360
16.3617 -1.6576 -1.9535 0.9359
16.4677 1.2820 -1.9620 0.9356
16.3269 2.7525 -1.9668 0.9355
16.0567 4.2087 -1.9717 0.9353
15.1339 7.0326 -1.9823 0.9350
12.8393 10.8801 -1.9991 0.9345
11.8510 12.0161 -2.0047 0.9343
9.9412 12.0659 -1.8571 0.9390
3.6870 6.5839 -0.8964 0.9701
5.1469 14.9366 -1.8766 0.9383
3.8027 15.3721 -1.8810 0.9382
0.3444 5.3862 -0.6411 0.9785
-2.7838 13.4472 -1.6312 0.9462
-5.5694 10.9069 -1.4547 0.9519
-13.7809 4.1835 -1.7107 0.9436
-17.0666 1.9899 -2.0410 0.9331
-17.0718 -1.0698 -2.0319 0.9334
-16.8667 -2.5821 -2.0269 0.9336
-16.5264 -4.0660 -2.0216 0.9337
-14.3771 -8.0273 -1.9560 0.9358
-12.4382 -8.4830 -1.7884 0.9412
-10.1018 -8.3014 -1.5531 0.9487
-7.1047 -8.3624 -1.3034 0.9568
-5.9349 -8.4029 -1.2220 0.9594
-4.8544 -8.3692 -1.1493 0.9618
-3.9498 -8.4716 -1.1103 0.9630
-2.2320 -8.4713 -1.0406 0.9653
-1.4476 -8.5203 -1.0266 0.9658
-1.3362 -16.8868 -2.0122 0.9340
0.9131 -9.1293 -1.0898 0.9637
1.7908 -9.3609 -1.1321 0.9623
7.8177 -12.8566 -1.7874 0.9412
10.8006 -12.1912 -1.9347 0.9365
11.8489 -11.1827 -1.9353 0.9365
13.6661 -8.9111 -1.9380 0.9364
15.0666 -6.3553 -1.9424 0.9363
15.5964 -4.9932 -1.9453 0.9362
16.0065 -3.5879 -1.9485 0.9361
16.2932 -2.1497 -1.9522 0.9359
16.4537 -0.6891 -1.9562 0.9358
16.4860 0.7833 -1.9605 0.9357
15.8074 5.1588 -1.9752 0.9352
15.3253 6.5661 -1.9805 0.9350
14.7189 7.9289 -1.9859 0.9349
13.1495 10.4772 -1.9972 0.9345
12.1969 11.6414 -2.0028 0.9343
10.2915 11.7489 -1.8553 0.9390
9.2279 12.6552 -1.8605 0.9389
8.0840 13.4644 -1.8655 0.9387
2.5242 5.2070 -0.6874 0.9770
5.5912 14.7622 -1.8751 0.9384
2.8137 10.0599 -1.2408 0.9588
-2.0432 11.6300 -1.4026 0.9535
-3.3859 12.5637 -1.5456 0.9489
-4.9629 13.4883 -1.7072 0.9438
-6.4179 10.9229 -1.5049 0.9502
-9.3211 13.0412 -1.9041 0.9375
-5.2468 6.1057 -0.9563 0.9681
-6.7790 5.5073 -1.0375 0.9654
-12.7560 8.5951 -1.8271 0.9399
3.3869 6.5013 -1.0387 0.9708
3.1301 10.0608 -1.4929 0.9583
1.6270 13.1641 -1.8794 0.9478
0.1814 5.3891 -0.7640 0.9785
-1.6545 11.3288 -1.6222 0.9548
-2.9974 12.5555 -1.8290 0.9492
-5.3612 12.2346 -1.8926 0.9475
-6.0025 10.9269 -1.7664 0.9509
-5.0555 6.2390 -1.1378 0.9681
-6.5326 5.6281 -1.2217 0.9658
-8.6332 6.1871 -1.5049 0.9580
-13.8904 3.7623 -2.0390 0.9435
-14.0232 -2.5826 -2.0203 0.9440
-13.7069 -3.8150 -2.0159 0.9441
-11.1177 -8.0851 -1.9478 0.9460
-9.7825 -8.5470 -1.8406 0.9489
-8.2244 -8.5949 -1.6855 0.9531
-6.6863 -8.3699 -1.5179 0.9576
-4.5880 -8.4911 -1.3675 0.9618
-3.6913 -8.5854 -1.3241 0.9629
-1.9800 -8.5564 -1.2444 0.9651
-1.1894 -8.5595 -1.2244 0.9657
-0.6215 -12.7385 -1.8070 0.9498
0.4088 -10.0685 -1.4278 0.9601
1.1571 -8.8569 -1.2656 0.9646
2.0839 -9.3524 -1.3576 0.9620
4.9156 -11.6951 -1.7975 0.9500
5.9364 -11.2045 -1.7966 0.9501
9.4067 -9.9926 -1.9445 0.9461
10.2641 -9.1167 -1.9451 0.9460
12.3390 -6.0869 -1.9495 0.9459
12.8472 -4.9674 -1.9516 0.9459
13.2563 -3.8065 -1.9542 0.9458
13.5629 -2.6126 -1.9570 0.9457
13.8583 -0.1613 -1.9637 0.9455
13.4877 3.5353 -1.9756 0.9452
13.1475 4.7349 -1.9800 0.9451
12.7016 5.9023 -1.9845 0.9450
9.1712 9.2989 -1.8506 0.9486
8.3246 10.1037 -1.8549 0.9485
2.0227 13.1013 -1.8783 0.9479
0.3445 5.3878 -0.7650 0.9784
-0.1466 5.7557 -0.8158 0.9770
-1.5254 13.2290 -1.8868 0.9476
-2.7026 13.0552 -1.8890 0.9476
-6.0767 11.9005 -1.8933 0.9474
-4.9476 6.4978 -1.1572 0.9675
-5.3561 5.8648 -1.1254 0.9684
-6.4628 5.9173 -1.2416 0.9652
-8.6559 5.4596 -1.4500 0.9595
-14.3214 0.3831 -2.0299 0.9438
-14.2707 -0.8942 -2.0260 0.9439
-14.1050 -2.1593 -2.0218 0.9440
-11.6243 -7.9279 -1.9936 0.9447
-10.0443 -8.2542 -1.8421 0.9488
-8.4987 -8.3607 -1.6892 0.9530
-5.9578 -8.4354 -1.4633 0.9591
-4.9633 -8.5570 -1.4016 0.9608
0.1115 -10.7544 -1.5239 0.9575
0.9291 -9.2889 -1.3227 0.9630
4.5610 -11.8407 -1.7979 0.9500
5.5960 -11.3803 -1.7969 0.9501
6.5866 -10.8320 -1.7962 0.9501
8.1163 -11.0004 -1.9370 0.9463
9.9826 -9.4213 -1.9449 0.9461
10.7884 -8.4972 -1.9458 0.9460
13.1292 -4.2033 -1.9533 0.9458
13.4709 -3.0196 -1.9560 0.9458
13.7081 -1.8086 -1.9591 0.9457
13.8386 -0.5795 -1.9625 0.9456
13.7741 1.8962 -1.9701 0.9454
12.8641 5.5116 -1.9830 0.9450
11.0229 8.7828 -1.9970 0.9447
9.4404 9.0104 -1.8491 0.9486
7.7250 10.5941 -1.8577 0.9484
4.6746 12.3420 -1.8700 0.9481
2.3669 12.7605 -1.8389 0.9489
0.0259 5.4685 -0.7748 0.9781
-4.6105 12.5305 -1.8918 0.9475
-5.5742 5.4223 -1.1018 0.9691
-9.1463 5.0395 -1.4796 0.9587
-12.1961 5.3629 -1.8877 0.9476
3.3868 6.5010 -1.2076 0.9707
4.3145 10.4677 -1.8652 0.9551
3.0903 9.9330 -1.7137 0.9587
2.3298 10.8090 -1.8216 0.9562
1.3955 11.2917 -1.8743 0.9549
0.1807 5.3690 -0.8850 0.9785
-0.6350 11.3899 -1.8793 0.9548
-2.6543 11.1183 -1.8831 0.9547
-3.6384 10.8455 -1.8845 0.9547
-4.5941 10.4838 -1.8856 0.9547
-5.4782 5.6460 -1.2960 0.9686
-10.3208 4.8989 -1.8821 0.9547
-11.5894 4.2810 -2.0353 0.9511
-11.9109 3.2262 -2.0329 0.9512
-12.1350 2.1479 -2.0302 0.9513
-12.2602 1.0552 -2.0272 0.9513
-12.2858 -0.0427 -2.0240 0.9514
-12.2122 -1.1365 -2.0205 0.9515
-12.0405 -2.2175 -2.0169 0.9516
-11.7726 -3.2766 -2.0131 0.9517
-11.4111 -4.3054 -2.0092 0.9518
-10.9597 -5.2956 -2.0052 0.9519
-10.4225 -6.2396 -2.0012 0.9519
-9.8042 -7.1299 -1.9971 0.9520
-9.0890 -7.9411 -1.9883 0.9522
-1.9395 -8.3814 -1.4172 0.9657
2.0840 -9.3530 -1.5786 0.9619
2.8916 -9.0719 -1.5686 0.9621
4.2427 -10.0941 -1.8038 0.9566
5.1241 -9.6714 -1.8031 0.9566
6.1181 -9.4089 -1.8489 0.9555
7.3171 -9.3145 -1.9513 0.9531
8.8595 -7.8691 -1.9521 0.9531
9.5306 -7.0506 -1.9530 0.9531
10.1281 -6.1763 -1.9543 0.9530
11.4350 -3.2835 -1.9599 0.9529
11.9306 0.9288 -1.9714 0.9526
11.8207 1.9929 -1.9748 0.9526
10.9332 5.0806 -1.9861 0.9523
9.8962 6.9707 -1.9941 0.9521
7.8839 7.9937 -1.8496 0.9555
6.3632 9.3046 -1.8570 0.9553
3.6872 6.5842 -1.2432 0.9699
4.6259 10.3263 -1.8640 0.9552
1.7352 11.2387 -1.8734 0.9549
-3.3082 10.9478 -1.8841 0.9547
-5.2069 10.1971 -1.8862 0.9546
-5.0138 6.5847 -1.3634 0.9670
-5.3493 5.8573 -1.3068 0.9684
-5.8418 5.3488 -1.3048 0.9684
-6.8776 5.2506 -1.4254 0.9655
-11.8129 3.5861 -2.0337 0.9512
-12.0702 2.5147 -2.0311 0.9512
-12.2883 0.3287 -2.0251 0.9514
-11.8738 -2.9213 -2.0144 0.9516
-11.5436 -3.9613 -2.0105 0.9517
-10.0221 -6.8352 -1.9985 0.9520
-7.2115 -8.4882 -1.8349 0.9559
-5.9402 -8.4104 -1.6963 0.9591
-4.8607 -8.3802 -1.5960 0.9615
-3.9526 -8.4776 -1.5409 0.9628
-3.0479 -8.4295 -1.4766 0.9643
0.1139 -10.9901 -1.8106 0.9564
0.9264 -9.2620 -1.5334 0.9630
7.8551 -8.8664 -1.9514 0.9531
8.6167 -8.1322 -1.9519 0.9531
9.3116 -7.3341 -1.9527 0.9531
10.4807 -5.5700 -1.9553 0.9530
11.9303 -0.4996 -1.9671 0.9527
11.9464 0.5676 -1.9703 0.9527
11.8684 1.6338 -1.9736 0.9526
11.6964 2.6909 -1.9772 0.9525
6.6370 9.1021 -1.8558 0.9554
5.8099 9.6767 -1.8594 0.9553
4.0125 10.5941 -1.8663 0.9551
2.0729 11.1754 -1.8724 0.9550
0.5128 5.4350 -0.8993 0.9781
0.0258 5.4476 -0.8975 0.9782
-0.9641 11.3710 -1.8800 0.9548
-1.9111 10.8777 -1.8194 0.9562
-6.6602 9.3183 -1.8869 0.9546
-5.7143 5.5586 -1.3133 0.9682
-9.1450 5.0388 -1.7201 0.9586
-10.9864 4.8310 -1.9771 0.9525
5.3265 8.3173 -1.8564 0.9606
3.7760 9.1613 -1.8625 0.9605
1.2206 9.8764 -1.8705 0.9603
-0.5552 9.9590 -1.8748 0.9602
-1.4428 9.8792 -1.8766 0.9602
-4.0152 9.1629 -1.8804 0.9601
-4.8183 8.7713 -1.8810 0.9601
-5.2148 6.4357 -1.5569 0.9668
-5.5247 5.6939 -1.4912 0.9682
-8.5917 5.0629 -1.8744 0.9602
-9.7445 4.6253 -2.0274 0.9570
-10.1329 3.7430 -2.0304 0.9570
-10.6133 1.8786 -2.0259 0.9571
-10.7247 0.9231 -2.0233 0.9571
-10.7493 -0.0373 -2.0205 0.9572
-10.5393 -1.9410 -2.0143 0.9573
-10.3072 -2.8687 -2.0110 0.9574
-9.1319 -5.4669 -2.0005 0.9576
-8.5924 -6.2486 -1.9969 0.9577
-7.9864 -6.9777 -1.9934 0.9578
-7.3191 -7.6488 -1.9898 0.9578
-6.5200 -8.1617 -1.9635 0.9584
-5.4288 -8.2015 -1.8487 0.9608
-4.6251 -8.5597 -1.8287 0.9612
1.1711 -8.9644 -1.6993 0.9639
2.8833 -9.0459 -1.7846 0.9621
4.6296 -8.7380 -1.8587 0.9606
6.4309 -8.1863 -1.9567 0.9585
7.7861 -6.9157 -1.9574 0.9585
8.8998 -5.4272 -1.9593 0.9585
9.7377 -3.7651 -1.9624 0.9584
10.2733 -1.9789 -1.9665 0.9583
10.4726 0.8153 -1.9744 0.9581
9.5883 4.4556 -1.9873 0.9579
9.1687 5.3025 -1.9908 0.9578
8.0864 6.8525 -1.9923 0.9578
5.5721 8.1478 -1.8554 0.9606
2.3747 9.5996 -1.8587 0.9606
0.3439 5.3782 -1.0130 0.9783
-1.1433 9.9153 -1.8760 0.9602
-3.7360 9.2786 -1.8801 0.9601
-5.3289 8.4725 -1.8813 0.9601
-5.0371 6.6154 -1.5628 0.9667
-5.8790 5.3828 -1.4982 0.9681
-6.8941 5.2632 -1.6303 0.9653
-8.4557 5.3333 -1.8791 0.9601
-9.3732 4.8013 -1.9795 0.9580
-10.5560 2.1993 -2.0267 0.9571
-10.7507 0.2876 -2.0214 0.9572
-10.5989 -1.6226 -2.0154 0.9573
-10.3950 -2.5575 -2.0121 0.9574
-9.7417 -4.3492 -2.0053 0.9575
-9.2985 -5.1917 -2.0017 0.9576
-8.7825 -5.9898 -1.9981 0.9577
-8.1985 -6.7373 -1.9946 0.9577
-6.8271 -8.0357 -1.9819 0.9580
-2.2313 -8.4687 -1.6461 0.9650
-1.4495 -8.5315 -1.6266 0.9654
2.6459 -9.2589 -1.8100 0.9616
3.4593 -8.9808 -1.8089 0.9616
4.2478 -8.6387 -1.8094 0.9616
6.1806 -8.3769 -1.9567 0.9585
7.5728 -7.1470 -1.9572 0.9585
8.1831 -6.4453 -1.9579 0.9585
8.7299 -5.6924 -1.9589 0.9585
9.9495 -3.1853 -1.9636 0.9584
10.2049 -2.2875 -1.9657 0.9583
10.4751 -0.4387 -1.9706 0.9582
10.4165 1.4340 -1.9764 0.9581
9.7128 4.1614 -1.9861 0.9579
9.3191 5.0201 -1.9896 0.9578
8.3075 6.6192 -1.9965 0.9577
5.8124 7.9711 -1.8543 0.9606
5.0867 8.4723 -1.8574 0.9606
3.5115 9.2713 -1.8634 0.9605
2.6484 9.4688 -1.8481 0.9608
0.5134 5.4416 -1.0274 0.9780
-0.8430 9.9421 -1.8754 0.9602
-1.7281 9.8362 -1.8771 0.9602
-3.4533 9.3856 -1.8797 0.9601
-4.2788 9.0443 -1.8806 0.9601
-6.6975 5.4411 -1.6219 0.9655
-8.2924 5.5875 -1.8795 0.9601
-10.2335 3.4475 -2.0297 0.9570
4.7328 7.3901 -1.8550 0.9648
1.8593 8.6263 -1.8653 0.9646
1.0836 8.7681 -1.8675 0.9645
-0.4928 8.8392 -1.8713 0.9645
-1.2804 8.7674 -1.8729 0.9644
-2.8218 8.4114 -1.8754 0.9644
-4.2749 7.7821 -1.8768 0.9644
-5.5909 6.8999 -1.8772 0.9643
-7.2128 5.1692 -1.8757 0.9644
-8.9930 3.3219 -2.0265 0.9616
-9.2450 2.5041 -2.0246 0.9616
-9.5454 -0.0331 -2.0177 0.9617
-9.4918 -0.8834 -2.0151 0.9618
-9.1576 -2.5488 -2.0093 0.9619
-8.1181 -4.8600 -2.0000 0.9621
-7.6400 -5.5560 -1.9968 0.9621
-7.1026 -6.2055 -1.9937 0.9622
-6.5104 -6.8037 -1.9905 0.9622
-5.1778 -7.8223 -1.9829 0.9624
-4.4289 -8.1967 -1.9694 0.9626
-3.5368 -8.2261 -1.8927 0.9641
-2.7044 -8.2509 -1.8354 0.9651
-1.9444 -8.4025 -1.8231 0.9654
-0.4193 -8.5951 -1.8190 0.9654
1.1127 -8.5174 -1.8157 0.9655
1.8668 -8.3781 -1.8144 0.9655
2.6624 -8.3528 -1.8531 0.9648
3.5516 -8.4499 -1.9375 0.9632
7.4631 -5.5212 -1.9623 0.9628
7.9299 -4.8358 -1.9633 0.9627
8.3349 -4.1117 -1.9645 0.9627
8.6750 -3.3543 -1.9660 0.9627
9.1501 -1.7625 -1.9697 0.9626
9.3390 -0.1087 -1.9742 0.9625
9.0713 2.3777 -1.9823 0.9624
8.8362 3.1822 -1.9852 0.9623
8.5301 3.9638 -1.9883 0.9623
7.7142 5.4337 -1.9945 0.9622
6.1400 6.2256 -1.8483 0.9649
3.5965 8.0283 -1.8595 0.9647
2.8699 8.3286 -1.8621 0.9646
1.0123 6.5563 -1.4023 0.9732
-1.7970 8.6807 -1.8738 0.9644
-5.1071 6.7073 -1.7820 0.9661
-6.5481 5.9955 -1.8767 0.9644
-7.0544 5.3855 -1.8760 0.9644
-7.5857 4.7846 -1.8958 0.9640
-8.8911 3.5931 -2.0271 0.9616
-9.1681 2.7832 -2.0253 0.9616
-9.3705 1.9523 -2.0233 0.9616
-9.4968 1.1073 -2.0210 0.9617
-9.5185 -0.5965 -2.0160 0.9618
-9.4144 -1.4413 -2.0132 0.9618
-8.6579 -3.8653 -2.0042 0.9620
-7.8086 -5.3255 -1.9979 0.9621
-7.2907 -5.9913 -1.9947 0.9622
-6.7165 -6.6074 -1.9916 0.9622
-6.0908 -7.1690 -1.9884 0.9623
-4.6917 -8.0888 -1.9766 0.9625
-2.9805 -8.2430 -1.8528 0.9648
-1.4435 -8.4960 -1.8216 0.9654
0.8551 -8.5494 -1.8162 0.9655
1.6132 -8.4326 -1.8148 0.9655
2.3842 -8.3431 -1.8342 0.9651
3.2369 -8.4034 -1.9035 0.9639
4.0878 -8.3132 -1.9582 0.9628
4.8204 -7.9274 -1.9612 0.9628
5.5079 -7.4651 -1.9610 0.9628
6.1521 -6.9442 -1.9611 0.9628
7.2919 -5.7433 -1.9621 0.9628
7.7787 -5.0722 -1.9629 0.9627
8.2050 -4.3606 -1.9641 0.9627
9.3276 -0.3906 -1.9734 0.9626
9.2726 1.2765 -1.9785 0.9625
9.1345 2.1016 -1.9813 0.9624
8.6414 3.7024 -1.9872 0.9623
8.2896 4.4655 -1.9903 0.9622
7.8706 5.1954 -1.9935 0.9622
6.3219 6.0340 -1.8473 0.9649
5.1651 7.0835 -1.8531 0.9648
2.4942 5.1452 -1.2086 0.9769
2.3749 8.4910 -1.8637 0.9646
0.5153 5.4617 -1.1596 0.9778
0.0256 5.4008 -1.1416 0.9782
-0.7481 8.8238 -1.8719 0.9644
-2.3077 8.5631 -1.8747 0.9644
-3.7964 8.0245 -1.8765 0.9644
-4.4983 7.6558 -1.8770 0.9643
-5.7878 6.7353 -1.8772 0.9643
-5.7637 5.6066 -1.6997 0.9677
4.2540 6.6426 -1.8539 0.9681
2.6683 5.1218 -1.3573 0.9765
2.3523 7.5608 -1.8610 0.9680
0.9734 7.8758 -1.8651 0.9679
-0.4425 7.9380 -1.8685 0.9679
-1.1498 7.8729 -1.8699 0.9678
-1.8487 7.7440 -1.8712 0.9678
-3.8379 6.9866 -1.8734 0.9678
-4.4466 6.6174 -1.8737 0.9678
-5.5513 5.7214 -1.8736 0.9678
-6.0382 5.2021 -1.8731 0.9678
-6.6456 4.7627 -1.9215 0.9670
-7.7832 3.6944 -2.0248 0.9652
-8.4626 1.4979 -2.0198 0.9653
-8.5537 0.7362 -2.0177 0.9653
-8.5757 -0.0298 -2.0155 0.9654
-8.2308 -2.2908 -2.0079 0.9655
-7.9828 -3.0119 -2.0052 0.9655
-7.6715 -3.7068 -2.0024 0.9656
-6.3888 -5.5819 -1.9939 0.9657
-5.8570 -6.1209 -1.9910 0.9658
-5.2802 -6.6097 -1.9883 0.9658
-4.0108 -7.4229 -1.9829 0.9659
-3.3284 -7.7412 -1.9804 0.9660
-2.6168 -7.9837 -1.9746 0.9661
-1.1472 -8.2553 -1.9588 0.9663
0.3363 -8.2829 -1.9483 0.9665
1.0811 -8.2752 -1.9614 0.9663
2.5389 -7.9652 -1.9648 0.9662
3.2404 -7.7095 -1.9655 0.9662
5.1635 -6.5729 -1.9644 0.9662
6.2511 -5.5523 -1.9650 0.9662
6.7237 -4.9742 -1.9657 0.9662
7.1439 -4.3565 -1.9665 0.9662
7.5083 -3.7039 -1.9677 0.9662
7.8141 -3.0214 -1.9690 0.9662
8.3575 -0.8467 -1.9743 0.9661
8.4087 -0.0979 -1.9764 0.9660
8.3936 0.6534 -1.9787 0.9660
8.3120 1.4013 -1.9811 0.9660
8.1644 2.1400 -1.9836 0.9659
7.3365 4.2429 -1.9918 0.9658
4.4507 6.5081 -1.8530 0.9681
0.3431 5.3657 -1.2636 0.9781
-0.9112 7.9021 -1.8695 0.9678
-1.6136 7.7946 -1.8708 0.9678
-2.9761 7.3914 -1.8727 0.9678
-4.8299 6.3433 -1.8738 0.9678
-5.8788 5.3827 -1.8733 0.9678
-6.3335 4.8352 -1.8727 0.9678
-7.2753 4.5888 -2.0216 0.9653
-7.6697 3.9287 -2.0253 0.9652
-8.2336 2.4995 -2.0223 0.9653
-8.5760 0.2294 -2.0163 0.9654
-8.5523 -0.5359 -2.0139 0.9654
-8.4600 -1.2951 -2.0115 0.9654
-8.3000 -2.0420 -2.0089 0.9655
-8.0738 -2.7706 -2.0062 0.9655
-7.7837 -3.4750 -2.0034 0.9656
-7.4322 -4.1497 -2.0006 0.9656
-6.5577 -5.3890 -1.9948 0.9657
-5.4801 -6.4502 -1.9892 0.9658
-4.8761 -6.9038 -1.9865 0.9659
-1.4016 -8.2495 -1.9666 0.9662
-0.6541 -8.2657 -1.9487 0.9665
0.0858 -8.2790 -1.9459 0.9666
1.5685 -8.1992 -1.9619 0.9663
3.0064 -7.8049 -1.9657 0.9662
3.6894 -7.5030 -1.9650 0.9662
4.3431 -7.1425 -1.9646 0.9662
5.5430 -6.2566 -1.9645 0.9662
7.0078 -4.5695 -1.9662 0.9662
7.3915 -3.9282 -1.9673 0.9662
7.9830 -2.5558 -1.9700 0.9661
8.4062 0.3994 -1.9779 0.9660
8.3471 1.1491 -1.9803 0.9660
8.2217 1.8915 -1.9828 0.9659
8.0308 2.6209 -1.9854 0.9659
6.6440 5.2938 -1.9966 0.9657
5.6848 5.4259 -1.8470 0.9682
2.8024 7.3989 -1.8595 0.9680
2.1337 7.6285 -1.8617 0.9680
0.5166 5.4757 -1.2926 0.9777
-0.6719 7.9240 -1.8690 0.9679
-1.3771 7.8381 -1.8704 0.9678
-2.0721 7.6887 -1.8715 0.9678
-5.7140 5.5583 -1.8735 0.9678
-7.8850 3.4672 -2.0244 0.9652
3.8595 6.0265 -1.8529 0.9709
2.6563 5.0987 -1.4886 0.9765
2.1334 6.8571 -1.8594 0.9708
1.5147 7.0274 -1.8613 0.9707
0.1788 5.3140 -1.3767 0.9783
-0.3713 6.6614 -1.7274 0.9728
-2.8991 6.6158 -1.8702 0.9706
-3.4786 6.3324 -1.8707 0.9706
-5.0315 5.1856 -1.8708 0.9706
-6.7323 3.9672 -2.0232 0.9682
-7.0555 3.3489 -2.0221 0.9682
-7.6731 1.3581 -2.0176 0.9683
-7.6318 -1.4055 -2.0092 0.9684
-7.4670 -2.0783 -2.0068 0.9685
-7.2429 -2.7327 -2.0044 0.9685
-6.6251 -3.9662 -1.9993 0.9686
-4.7947 -6.0019 -1.9890 0.9688
-4.2349 -6.3977 -1.9865 0.9688
-1.7220 -7.4414 -1.9776 0.9689
-0.3715 -7.6150 -1.9740 0.9690
0.3091 -7.6118 -1.9725 0.9690
1.6547 -7.4262 -1.9699 0.9691
2.3095 -7.2455 -1.9690 0.9691
2.9455 -7.0079 -1.9682 0.9691
3.5580 -6.7154 -1.9677 0.9691
4.6938 -5.9750 -1.9673 0.9691
5.2085 -5.5329 -1.9675 0.9691
5.6824 -5.0471 -1.9678 0.9691
6.1118 -4.5214 -1.9684 0.9691
7.1018 -2.7460 -1.9715 0.9690
7.3237 -2.1030 -1.9729 0.9690
7.6251 0.5936 -1.9802 0.9689
7.5501 1.2729 -1.9825 0.9689
7.2209 2.6005 -1.9872 0.9688
6.9689 3.2384 -1.9897 0.9687
6.6607 3.8521 -1.9922 0.9687
5.8847 4.9868 -1.9972 0.9686
5.0782 5.1489 -1.8724 0.9706
3.4995 6.2490 -1.8544 0.9708
2.3885 5.3317 -1.5127 0.9761
1.7257 6.9760 -1.8607 0.9707
1.0121 6.5554 -1.7174 0.9730
0.3418 5.3457 -1.3869 0.9781
-1.4627 7.0658 -1.8682 0.9706
-2.0883 6.9107 -1.8692 0.9706
-4.3776 5.7492 -1.8710 0.9706
-4.8728 5.3355 -1.8709 0.9706
-6.6104 4.1694 -2.0236 0.9682
-7.4647 2.2661 -2.0198 0.9683
-7.7353 0.9019 -2.0164 0.9683
-7.7773 0.2081 -2.0144 0.9684
-7.6737 -1.1748 -2.0100 0.9684
-7.3253 -2.5137 -2.0052 0.9685
-7.0630 -3.1532 -2.0027 0.9685
-6.7449 -3.7659 -2.0001 0.9686
-6.3737 -4.3470 -1.9975 0.9686
-5.4856 -5.3964 -1.9924 0.9687
-4.9759 -5.8568 -1.9898 0.9687
-3.8464 -6.6314 -1.9849 0.9688
-3.2357 -6.9400 -1.9826 0.9689
-0.6016 -7.6025 -1.9746 0.9690
0.0790 -7.6196 -1.9730 0.9690
1.4299 -7.4742 -1.9703 0.9690
5.0387 -5.6875 -1.9674 0.9691
5.9717 -4.7035 -1.9682 0.9691
6.3699 -4.1535 -1.9689 0.9691
6.7182 -3.5704 -1.9699 0.9691
7.0141 -2.9586 -1.9710 0.9690
7.5647 -0.9981 -1.9756 0.9690
7.6368 0.3628 -1.9795 0.9689
7.5822 1.0438 -1.9817 0.9689
7.4675 1.7180 -1.9840 0.9688
7.2932 2.3802 -1.9864 0.9688
6.7711 3.6475 -1.9913 0.9687
6.0307 4.8051 -1.9965 0.9686
5.5644 5.3110 -1.9916 0.9687
4.7055 5.3719 -1.8490 0.9709
3.6852 6.1379 -1.8537 0.9709
2.4810 5.1179 -1.4726 0.9768
1.9350 6.9183 -1.8600 0.9708
0.9572 5.1604 -1.3589 0.9785
0.5161 5.4695 -1.4224 0.9776
-0.5638 6.6495 -1.7279 0.9728
-1.8782 6.9695 -1.8689 0.9706
-2.4936 6.7771 -1.8697 0.9706
-3.6603 6.2296 -1.8708 0.9706
-5.8384 4.7431 -1.9476 0.9694
-6.4784 4.3652 -2.0226 0.9682
-6.8430 3.7704 -2.0229 0.9682
-7.3947 2.4912 -2.0203 0.9683
0.6035 4.8833 -1.3930 0.9798
-0.2734 4.9037 -1.3904 0.9798
-2.6482 6.0434 -1.8679 0.9729
-3.1776 5.7844 -1.8683 0.9729
-3.6814 5.4786 -1.8686 0.9729
-4.5995 4.7404 -1.8698 0.9729
-5.3948 4.6478 -2.0159 0.9708
-6.1502 3.6242 -2.0209 0.9708
-6.4457 3.0595 -2.0199 0.9708
-6.6890 2.4708 -2.0187 0.9708
-7.0114 1.2410 -2.0157 0.9708
-7.0881 0.6101 -2.0140 0.9709
-6.8262 -1.8999 -2.0059 0.9710
-6.3654 -3.0757 -2.0013 0.9710
-6.0585 -3.6270 -1.9990 0.9711
-4.8645 -5.0837 -1.9919 0.9712
-4.3865 -5.4910 -1.9896 0.9712
-3.8748 -5.8537 -1.9873 0.9712
-2.1796 -6.6498 -1.9810 0.9713
-1.5762 -6.8113 -1.9792 0.9714
-0.9614 -6.9187 -1.9774 0.9714
-0.3401 -6.9713 -1.9759 0.9714
1.5151 -6.7996 -1.9721 0.9715
2.1147 -6.6344 -1.9712 0.9715
2.6972 -6.4171 -1.9706 0.9715
3.2581 -6.1493 -1.9701 0.9715
3.7931 -5.8333 -1.9698 0.9715
4.7695 -5.0666 -1.9699 0.9715
5.5964 -4.1402 -1.9707 0.9715
6.5022 -2.5141 -1.9735 0.9714
6.7049 -1.9253 -1.9748 0.9714
6.0929 3.5237 -1.9925 0.9712
5.7610 4.0580 -1.9949 0.9711
5.3825 4.5611 -1.9973 0.9711
4.9436 5.0125 -1.9930 0.9712
3.1991 5.7126 -1.8535 0.9731
2.3812 5.3155 -1.6489 0.9761
2.1375 6.2032 -1.8574 0.9731
1.5771 6.3753 -1.8592 0.9731
0.7534 4.8799 -1.3978 0.9797
0.3127 4.8901 -1.3872 0.9798
-0.1248 4.9003 -1.3877 0.9798
-0.5662 4.9104 -1.3993 0.9797
-1.3363 6.4550 -1.8661 0.9730
-1.9077 6.3131 -1.8670 0.9730
-2.4642 6.1200 -1.8677 0.9729
-3.0012 5.8774 -1.8682 0.9729
-3.5141 5.5871 -1.8685 0.9729
-4.4511 4.8738 -1.8685 0.9729
-5.6744 4.3320 -2.0210 0.9708
-6.0388 3.8089 -2.0212 0.9708
-6.6127 2.6724 -2.0191 0.9708
-6.8203 2.0704 -2.0178 0.9708
-7.1075 0.1901 -2.0128 0.9709
-7.0893 -0.4442 -2.0109 0.9709
-7.0142 -1.0738 -2.0088 0.9709
-6.8831 -1.6934 -2.0066 0.9710
-6.6971 -2.2982 -2.0044 0.9710
-5.4447 -4.4743 -1.9950 0.9711
-5.0179 -4.9363 -1.9927 0.9712
-4.5522 -5.3580 -1.9903 0.9712
-4.0514 -5.7362 -1.9881 0.9712
-3.5196 -6.0680 -1.9859 0.9713
-2.9611 -6.3510 -1.9837 0.9713
-2.3803 -6.5831 -1.9817 0.9713
-0.5507 -6.9596 -1.9764 0.9714
0.0723 -6.9758 -1.9749 0.9714
2.5023 -6.4963 -1.9708 0.9715
3.0710 -6.2454 -1.9702 0.9715
3.6153 -5.9455 -1.9699 0.9715
5.0610 -4.7764 -1.9701 0.9715
5.8326 -3.8033 -1.9712 0.9715
6.6422 -2.1265 -1.9744 0.9714
6.8102 -1.5266 -1.9758 0.9714
6.9895 0.3321 -1.9809 0.9713
6.9390 0.9552 -1.9829 0.9713
6.6731 2.1778 -1.9872 0.9712
6.4595 2.7676 -1.9894 0.9712
5.8786 3.8805 -1.9941 0.9711
4.3056 4.9154 -1.8499 0.9732
3.8518 5.2823 -1.8507 0.9732
3.3690 5.6112 -1.8528 0.9732
2.3231 6.1337 -1.8568 0.9731
0.4611 4.8867 -1.3895 0.9798
0.0232 4.8968 -1.3863 0.9798
-1.1404 6.4913 -1.8658 0.9730
-1.7158 6.3669 -1.8667 0.9730
-2.2779 6.1910 -1.8675 0.9729
-4.3019 5.0062 -1.8686 0.9729
-4.8630 4.7305 -1.9206 0.9722
-5.5337 4.4956 -2.0183 0.9708
-5.9218 3.9901 -2.0215 0.9708
-6.2514 3.4444 -2.0206 0.9708
-6.5303 2.8715 -2.0195 0.9708
2.6429 5.0731 -1.7594 0.9763
2.2984 5.5764 -1.8552 0.9751
1.2731 5.9067 -1.8585 0.9750
-2.4349 5.5565 -1.8659 0.9749
-2.9215 5.3183 -1.8664 0.9749
-3.3847 5.0370 -1.8666 0.9749
-4.9751 4.2862 -2.0198 0.9729
-5.6550 3.3323 -2.0189 0.9729
-5.9270 2.8133 -2.0179 0.9729
-6.3251 1.7132 -2.0156 0.9729
-6.4481 1.1413 -2.0141 0.9730
-6.5377 -0.0227 -2.0109 0.9730
-6.5037 -0.6053 -2.0090 0.9730
-5.8574 -2.8302 -2.0009 0.9731
-4.8829 -4.2662 -1.9944 0.9732
-3.0694 -5.6806 -1.9860 0.9733
-2.5479 -5.9260 -1.9841 0.9734
-1.4517 -6.2732 -1.9805 0.9734
-0.8855 -6.3726 -1.9789 0.9734
-0.3133 -6.4215 -1.9774 0.9735
1.3958 -6.2643 -1.9740 0.9735
3.0018 -5.6656 -1.9721 0.9735
3.9602 -5.0412 -1.9718 0.9735
4.3944 -4.6681 -1.9719 0.9735
4.7941 -4.2581 -1.9722 0.9735
5.1561 -3.8144 -1.9727 0.9735
5.4777 -3.3404 -1.9734 0.9735
5.7564 -2.8397 -1.9743 0.9735
5.9899 -2.3160 -1.9753 0.9735
6.1764 -1.7735 -1.9765 0.9735
6.4024 -0.6486 -1.9793 0.9734
6.4401 -0.0749 -1.9810 0.9734
6.4268 0.5003 -1.9827 0.9734
6.3625 1.0726 -1.9846 0.9734
6.2476 1.6376 -1.9865 0.9733
5.3026 3.7351 -1.9950 0.9732
3.9617 4.8084 -1.9163 0.9743
3.3968 4.9670 -1.8508 0.9751
2.9432 5.2556 -1.8527 0.9751
2.3671 5.2841 -1.7809 0.9761
1.9662 5.7060 -1.8563 0.9751
0.3127 4.8898 -1.5071 0.9797
-0.5662 4.9101 -1.5203 0.9795
-2.7593 5.4038 -1.8662 0.9749
-3.6764 4.8284 -1.8666 0.9749
-4.3037 4.7124 -1.9629 0.9736
-4.8377 4.4294 -2.0175 0.9729
-6.0807 2.4573 -2.0172 0.9729
-6.5010 0.7580 -2.0131 0.9730
-6.5210 -0.4086 -2.0097 0.9730
-6.4525 -0.9878 -2.0078 0.9731
-6.3324 -1.5579 -2.0058 0.9731
-5.9424 -2.6530 -2.0016 0.9731
-4.1907 -4.9326 -1.9908 0.9733
-1.0779 -6.3446 -1.9794 0.9734
-0.5073 -6.4106 -1.9779 0.9734
0.0666 -6.4259 -1.9766 0.9735
0.6392 -6.3904 -1.9754 0.9735
1.2061 -6.3046 -1.9743 0.9735
3.3309 -5.4779 -1.9719 0.9735
4.6629 -4.4007 -1.9721 0.9735
5.0380 -3.9681 -1.9725 0.9735
5.3736 -3.5039 -1.9731 0.9735
5.9161 -2.4955 -1.9749 0.9735
6.1187 -1.9589 -1.9761 0.9735
6.3782 -0.8415 -1.9788 0.9734
5.9469 2.5479 -1.9899 0.9733
4.7005 4.4864 -1.9986 0.9732
3.5441 4.8604 -1.8502 0.9751
2.4676 5.0903 -1.7399 0.9766
1.6266 5.8156 -1.8574 0.9750
0.4610 4.8863 -1.5096 0.9797
-0.4160 4.9066 -1.5146 0.9796
-3.5289 4.9372 -1.8666 0.9749
-4.0536 4.7172 -1.9130 0.9743
-4.6963 4.5683 -2.0152 0.9730
-5.0974 4.1411 -2.0200 0.9729
0.1647 4.8928 -1.6273 0.9796
-0.2733 4.9030 -1.6323 0.9795
-0.7146 4.8927 -1.6436 0.9794
-1.7833 5.3157 -1.8637 0.9766
-2.7008 4.9166 -1.8646 0.9766
-4.2253 4.3547 -2.0169 0.9747
-4.6002 3.9632 -2.0183 0.9747
-4.9341 3.5361 -2.0178 0.9747
-5.4798 2.6010 -2.0163 0.9748
-5.6871 2.1007 -2.0153 0.9748
-6.0150 -0.5598 -2.0081 0.9749
-5.6364 -2.1266 -2.0025 0.9749
-4.8576 -3.5325 -1.9965 0.9750
-2.8412 -5.2583 -1.9867 0.9751
-1.8583 -5.6696 -1.9832 0.9752
-1.3440 -5.8080 -1.9816 0.9752
-0.8199 -5.9004 -1.9802 0.9752
0.2414 -5.9445 -1.9776 0.9752
1.2926 -5.8012 -1.9756 0.9753
1.8043 -5.6606 -1.9749 0.9753
3.6677 -4.6689 -1.9736 0.9753
4.4399 -3.9436 -1.9740 0.9753
4.7752 -3.5326 -1.9744 0.9753
5.0729 -3.0935 -1.9751 0.9753
5.3308 -2.6297 -1.9759 0.9753
5.5468 -2.1447 -1.9768 0.9752
5.7192 -1.6423 -1.9779 0.9752
5.8466 -1.1262 -1.9792 0.9752
5.9497 0.4632 -1.9837 0.9752
5.8898 0.9930 -1.9854 0.9751
5.4320 2.5242 -1.9911 0.9751
4.5835 3.8841 -1.9971 0.9750
4.2230 4.2818 -1.9991 0.9750
3.8176 4.6336 -1.9957 0.9750
3.2040 4.6850 -1.8867 0.9764
2.7224 4.8613 -1.8521 0.9768
0.7533 4.8792 -1.6411 0.9794
0.3127 4.8894 -1.6286 0.9796
-2.9868 4.7488 -1.8648 0.9766
-4.4786 4.1006 -2.0185 0.9747
-5.1333 3.2378 -2.0174 0.9747
-5.9292 1.2353 -2.0132 0.9748
-6.0455 0.1617 -2.0103 0.9748
-5.9679 -0.9136 -2.0069 0.9749
-5.7000 -1.9560 -2.0032 0.9749
-5.4974 -2.4543 -2.0012 0.9749
-5.2513 -2.9320 -1.9992 0.9750
-4.9638 -3.3853 -1.9972 0.9750
-4.2745 -4.2050 -1.9932 0.9750
-3.8785 -4.5651 -1.9912 0.9751
-3.4524 -4.8881 -1.9892 0.9751
-2.5241 -5.4137 -1.9855 0.9751
-2.0293 -5.6124 -1.9838 0.9752
-0.4697 -5.9358 -1.9793 0.9752
0.0617 -5.9502 -1.9780 0.9752
1.1169 -5.8384 -1.9759 0.9753
1.6326 -5.7132 -1.9751 0.9753
2.6204 -5.3291 -1.9740 0.9753
3.5250 -4.7776 -1.9736 0.9753
4.6658 -3.6749 -1.9743 0.9753
4.9765 -3.2450 -1.9748 0.9753
5.4785 -2.3109 -1.9765 0.9752
5.6659 -1.8139 -1.9775 0.9752
5.9560 -0.2494 -1.9816 0.9752
5.8243 1.3400 -1.9866 0.9751
5.2768 2.8426 -1.9924 0.9751
4.3490 4.1509 -1.9984 0.9750
3.4325 4.7073 -1.9366 0.9757
2.8671 4.7753 -1.8515 0.9768
2.4319 5.0167 -1.8532 0.9768
0.9044 4.8756 -1.6483 0.9793
0.0232 4.8961 -1.6275 0.9796
-0.9695 5.5185 -1.8625 0.9767
-2.3986 5.0701 -1.8644 0.9766
-3.3615 4.7031 -1.9216 0.9759
-3.9466 4.5927 -2.0129 0.9748
-4.3529 4.2343 -2.0186 0.9747
-5.0337 3.3918 -2.0176 0.9747
-5.5518 2.4412 -2.0160 0.9748
-5.7444 1.9352 -2.0149 0.9748
2.4104 4.6268 -1.8656 0.9781
1.5410 4.9532 -1.8550 0.9782
0.5950 4.8144 -1.7348 0.9796
-0.2696 4.8373 -1.7325 0.9796
-0.7075 4.8446 -1.7508 0.9794
-1.2088 5.0636 -1.8617 0.9781
-1.6563 4.9373 -1.8623 0.9781
-2.5765 4.6903 -1.9137 0.9775
-3.1345 4.6647 -2.0098 0.9764
-3.5471 4.3775 -2.0148 0.9763
-4.2726 3.6810 -2.0167 0.9763
-4.5829 3.2844 -2.0163 0.9763
-5.2827 1.9514 -2.0139 0.9764
-5.4328 1.4715 -2.0128 0.9764
-5.5390 0.9804 -2.0116 0.9764
-5.6172 -0.0195 -2.0088 0.9764
-5.3982 -1.5025 -2.0038 0.9765
-5.2380 -1.9763 -2.0020 0.9765
-4.7946 -2.8704 -1.9983 0.9765
-4.2003 -3.6698 -1.9946 0.9766
-3.8525 -4.0261 -1.9927 0.9766
-2.6418 -4.8893 -1.9874 0.9767
-2.1933 -5.1012 -1.9857 0.9767
-1.2499 -5.4015 -1.9826 0.9767
0.7165 -5.4843 -1.9779 0.9768
1.2024 -5.3962 -1.9770 0.9768
2.1408 -5.0934 -1.9758 0.9768
4.4420 -3.2862 -1.9759 0.9768
4.7189 -2.8776 -1.9765 0.9768
5.1594 -1.9949 -1.9782 0.9768
5.3196 -1.5275 -1.9792 0.9768
5.5132 -0.5585 -1.9816 0.9767
5.5449 -0.0645 -1.9830 0.9767
5.5328 0.4307 -1.9846 0.9767
5.4767 0.9233 -1.9862 0.9767
5.2345 1.8851 -1.9896 0.9766
5.0500 2.3467 -1.9914 0.9766
4.5611 3.2128 -1.9951 0.9766
4.2603 3.6102 -1.9970 0.9766
3.9250 3.9797 -1.9989 0.9765
3.5560 4.3160 -1.9998 0.9765
2.5901 4.6251 -1.8957 0.9777
-0.1232 4.8361 -1.7300 0.9797
-0.5582 4.8411 -1.7427 0.9795
-1.5062 4.9845 -1.8621 0.9781
-2.9465 4.6847 -1.9791 0.9768
-3.4102 4.4788 -2.0131 0.9764
-4.1597 3.8086 -2.0169 0.9763
-4.4819 3.4217 -2.0165 0.9763
-4.7679 3.0073 -2.0159 0.9763
-5.2222 2.1104 -2.0142 0.9764
-5.3868 1.6353 -2.0132 0.9764
-5.5848 0.6512 -2.0107 0.9764
-5.6166 0.1502 -2.0093 0.9764
-5.6034 -0.3511 -2.0077 0.9764
-5.2969 -1.8177 -2.0026 0.9765
-5.1090 -2.2809 -2.0008 0.9765
-4.6138 -3.1466 -1.9971 0.9766
-4.3106 -3.5423 -1.9952 0.9766
-3.2098 -4.5447 -1.9897 0.9766
0.5506 -5.5043 -1.9782 0.9768
1.5187 -5.3145 -1.9766 0.9768
1.9861 -5.1562 -1.9760 0.9768
3.6627 -4.1342 -1.9752 0.9768
4.6293 -3.0186 -1.9763 0.9768
5.0959 -2.1495 -1.9778 0.9768
5.2700 -1.6872 -1.9788 0.9768
5.4925 -0.7247 -1.9812 0.9767
5.5391 -0.2320 -1.9826 0.9767
5.2875 1.7256 -1.9890 0.9766
4.9056 2.6426 -1.9926 0.9766
4.6546 3.0725 -1.9945 0.9766
3.2902 4.5122 -1.9970 0.9766
2.7817 4.6332 -1.9326 0.9773
2.2597 4.6615 -1.8525 0.9782
1.8364 4.8485 -1.8540 0.9782
1.3976 4.9969 -1.8555 0.9782
0.8917 4.8075 -1.7485 0.9794
0.0229 4.8338 -1.7286 0.9797
-1.7984 4.8878 -1.8625 0.9781
-2.2279 4.7090 -1.8629 0.9781
-3.2706 4.5758 -2.0114 0.9764
-3.6752 4.2769 -2.0166 0.9763
-4.0429 3.9328 -2.0170 0.9763
-4.3769 3.5558 -2.0166 0.9763
1.8999 4.6097 -1.9107 0.9789
1.4407 4.6307 -1.8584 0.9794
0.1623 4.8241 -1.8497 0.9795
-0.2695 4.8341 -1.8554 0.9795
-0.7013 4.8020 -1.8597 0.9794
-1.1273 4.7221 -1.8605 0.9794
-1.5688 4.6764 -1.8902 0.9791
-3.3115 4.0868 -2.0158 0.9777
-3.6627 3.7749 -2.0156 0.9777
-3.9843 3.4326 -2.0153 0.9777
-4.5285 2.6686 -2.0143 0.9777
-4.7468 2.2531 -2.0136 0.9777
-5.0668 1.3724 -2.0117 0.9778
-2.3042 0.1983 -0.8863 0.9901
-2.2879 -0.0079 -0.8768 0.9902
-4.8869 -1.8438 -2.0016 0.9779
-4.6990 -2.2705 -1.9999 0.9779
-4.2133 -3.0640 -1.9964 0.9779
-3.9197 -3.4247 -1.9947 0.9779
-3.5955 -3.7574 -1.9929 0.9780
-3.2431 -4.0597 -1.9912 0.9780
-2.8656 -4.3292 -1.9896 0.9780
-2.4660 -4.5639 -1.9879 0.9780
-2.0474 -4.7619 -1.9864 0.9780
-1.1669 -5.0427 -1.9835 0.9781
1.1227 -5.0388 -1.9783 0.9781
1.5672 -4.9169 -1.9776 0.9781
1.9991 -4.7562 -1.9771 0.9781
3.5354 -3.7556 -1.9766 0.9781
4.1479 -3.0686 -1.9773 0.9781
4.6301 -2.2841 -1.9785 0.9781
4.9668 -1.4262 -1.9803 0.9781
5.1472 -0.5215 -1.9826 0.9781
5.1766 -0.0602 -1.9839 0.9781
5.1124 0.8619 -1.9868 0.9780
5.0191 1.3156 -1.9884 0.9780
4.8857 1.7595 -1.9900 0.9780
4.7133 2.1902 -1.9917 0.9780
4.2564 2.9981 -1.9952 0.9779
3.9755 3.3689 -1.9969 0.9779
3.6623 3.7133 -1.9987 0.9779
2.9461 4.3080 -2.0000 0.9779
2.5463 4.5469 -1.9971 0.9779
2.0635 4.6063 -1.9342 0.9786
1.5927 4.6222 -1.8735 0.9793
-0.1231 4.8307 -1.8518 0.9795
-0.5558 4.8202 -1.8594 0.9794
-1.4133 4.6770 -1.8724 0.9793
-1.8822 4.6744 -1.9311 0.9786
-2.3827 4.6662 -2.0078 0.9778
-2.7952 4.4442 -2.0120 0.9778
-3.1866 4.1850 -2.0158 0.9777
-3.8790 3.5516 -2.0155 0.9777
-4.8702 1.9682 -2.0130 0.9777
-5.1371 1.0703 -2.0109 0.9778
-2.3015 0.2684 -0.8880 0.9901
-2.3030 -0.1443 -0.8843 0.9902
-5.0776 -1.2492 -2.0038 0.9778
-4.9418 -1.6958 -2.0022 0.9779
-4.5540 -2.5427 -1.9988 0.9779
-4.3052 -2.9362 -1.9970 0.9779
-3.7084 -3.6482 -1.9935 0.9780
-3.3653 -3.9610 -1.9918 0.9780
-2.1909 -4.6991 -1.9869 0.9780
-1.7617 -4.8722 -1.9854 0.9781
-0.4079 -5.1545 -1.9815 0.9781
0.0536 -5.1674 -1.9804 0.9781
0.5141 -5.1395 -1.9794 0.9781
0.9701 -5.0710 -1.9785 0.9781
1.4181 -4.9625 -1.9778 0.9781
1.8546 -4.8148 -1.9773 0.9781
2.2763 -4.6292 -1.9769 0.9781
3.4203 -3.8606 -1.9766 0.9781
3.7514 -3.5405 -1.9768 0.9781
4.0530 -3.1923 -1.9771 0.9781
4.3227 -2.8187 -1.9776 0.9781
4.5584 -2.4226 -1.9783 0.9781
4.9206 -1.5753 -1.9800 0.9781
5.1735 0.2458 -1.9848 0.9781
5.0552 1.1630 -1.9878 0.9780
4.5782 2.4662 -1.9928 0.9780
3.4385 3.9255 -1.9998 0.9779
3.0767 4.2194 -2.0012 0.9779
2.6837 4.4698 -1.9979 0.9779
2.2323 4.6049 -1.9611 0.9783
1.7483 4.6160 -1.8916 0.9791
-0.4099 4.8341 -1.8591 0.9794
-1.2634 4.6881 -1.8607 0.9794
-2.2099 4.6711 -1.9803 0.9781
-2.6578 4.5234 -2.0105 0.9778
-3.0575 4.2777 -2.0150 0.9777
-3.7701 3.6674 -2.0156 0.9777
-4.0815 3.3159 -2.0152 0.9777
-4.6032 2.5363 -2.0141 0.9777
-4.8092 2.1147 -2.0133 0.9777
-4.9764 1.6765 -2.0124 0.9778
2.6383 4.1197 -2.0022 0.9791
0.9961 4.6215 -1.9349 0.9798
-0.2592 4.6497 -1.9060 0.9801
-0.6797 4.6538 -1.9249 0.9799
-2.7452 4.0854 -2.0145 0.9790
-3.9992 2.8661 -2.0137 0.9790
-4.2377 2.4972 -2.0131 0.9790
-4.4421 2.1085 -2.0124 0.9790
-4.6106 1.7031 -2.0116 0.9790
-2.0542 0.3636 -0.8538 0.9910
-2.0147 0.1734 -0.8276 0.9913
-1.9909 -0.0069 -0.8148 0.9914
-2.0161 -0.1876 -0.8287 0.9913
-2.0616 -0.3797 -0.8580 0.9910
-4.7144 -1.3121 -2.0028 0.9791
-4.5750 -1.7261 -2.0013 0.9791
-4.1887 -2.5076 -1.9980 0.9791
-3.9450 -2.8689 -1.9964 0.9791
-3.3669 -3.5185 -1.9931 0.9792
-2.3096 -4.2744 -1.9884 0.9792
-0.6669 -4.7993 -1.9831 0.9793
-0.2360 -4.8370 -1.9820 0.9793
1.4683 -4.6065 -1.9788 0.9793
3.3124 -3.5187 -1.9778 0.9793
3.8862 -2.8749 -1.9784 0.9793
4.1282 -2.5175 -1.9790 0.9793
4.7560 -0.9161 -1.9823 0.9793
4.8215 -0.4885 -1.9834 0.9793
4.8489 -0.0564 -1.9847 0.9793
4.7007 1.2321 -1.9889 0.9792
4.4138 2.0510 -1.9920 0.9792
4.2166 2.4386 -1.9936 0.9792
3.9855 2.8073 -1.9952 0.9792
3.7223 3.1543 -1.9969 0.9791
2.7609 4.0371 -2.0017 0.9791
2.3892 4.2664 -2.0013 0.9791
-0.9637 4.6550 -1.9456 0.9797
-1.8325 4.5511 -2.0080 0.9790
-2.2350 4.3770 -2.0114 0.9790
-2.6205 4.1663 -2.0144 0.9790
-3.3192 3.6344 -2.0144 0.9790
-3.9111 2.9858 -2.0138 0.9790
-4.1608 2.6243 -2.0133 0.9790
-2.0195 0.2355 -0.8321 0.9913
-1.9969 0.0534 -0.8176 0.9914
-2.0283 -0.3105 -0.8398 0.9912
-2.1023 -0.5172 -0.8861 0.9907
-4.6263 -1.5875 -2.0018 0.9791
-4.4627 -1.9923 -2.0002 0.9791
-3.4726 -3.4162 -1.9937 0.9792
-3.1514 -3.7093 -1.9921 0.9792
-2.8057 -3.9725 -1.9905 0.9792
-2.0520 -4.4012 -1.9875 0.9792
-0.8118 -4.7779 -1.9835 0.9793
0.0502 -4.8408 -1.9813 0.9793
0.9088 -4.7508 -1.9796 0.9793
1.3286 -4.6492 -1.9790 0.9793
2.1327 -4.3371 -1.9781 0.9793
2.8690 -3.8884 -1.9777 0.9793
3.2045 -3.6171 -1.9778 0.9793
3.5147 -3.3171 -1.9780 0.9793
3.7973 -2.9908 -1.9783 0.9793
4.0499 -2.6408 -1.9788 0.9793
4.2706 -2.2696 -1.9794 0.9793
4.4577 -1.8803 -1.9801 0.9793
4.6097 -1.4758 -1.9810 0.9793
4.8439 -0.2029 -1.9842 0.9793
4.8459 0.2302 -1.9855 0.9793
4.8093 0.6621 -1.9869 0.9792
4.6220 1.5084 -1.9899 0.9792
4.4725 1.9162 -1.9914 0.9792
4.2872 2.3095 -1.9930 0.9792
4.0674 2.6849 -1.9947 0.9792
3.5313 3.3705 -1.9979 0.9791
3.2192 3.6751 -1.9996 0.9791
2.8808 3.9508 -2.0012 0.9791
1.7296 4.5665 -1.9985 0.9791
1.2898 4.6115 -1.9598 0.9795
0.0220 4.6455 -1.9013 0.9801
-1.6932 4.6019 -2.0069 0.9790
-2.1005 4.4399 -2.0102 0.9790
-2.8621 4.0044 -2.0145 0.9790
-3.2079 3.7331 -2.0145 0.9790
-3.5278 3.4317 -2.0143 0.9790
-3.8193 3.1028 -2.0140 0.9790
-4.0800 2.7491 -2.0135 0.9790
-4.5006 1.9790 -2.0122 0.9790
-4.6572 1.5689 -2.0113 0.9790
2.4772 3.8681 -2.0018 0.9802
2.1237 4.0766 -2.0033 0.9801
0.5633 4.5582 -2.0017 0.9802
0.1545 4.5917 -2.0023 0.9802
-0.2559 4.5896 -2.0034 0.9801
-1.0693 4.4793 -2.0070 0.9801
-1.4665 4.3715 -2.0095 0.9801
-2.2240 4.0486 -2.0132 0.9800
-2.9084 3.5893 -2.0133 0.9800
-3.4993 3.0148 -2.0130 0.9800
-3.9776 2.3439 -2.0121 0.9801
-4.1695 1.9791 -2.0114 0.9801
-1.4971 0.5530 -0.6956 0.9931
-1.4931 0.4044 -0.6742 0.9933
-1.4709 0.2604 -0.6510 0.9935
-1.4252 -0.0049 -0.6211 0.9938
-1.4677 -0.1366 -0.6424 0.9936
-1.4935 -0.4157 -0.6756 0.9933
-4.1309 -1.9960 -1.9994 0.9802
-3.9333 -2.3548 -1.9979 0.9802
-3.7047 -2.6942 -1.9964 0.9802
-3.4469 -3.0116 -1.9948 0.9802
-3.1621 -3.3046 -1.9933 0.9802
-2.8525 -3.5708 -1.9918 0.9803
-0.6265 -4.5088 -1.9839 0.9803
-0.2217 -4.5443 -1.9829 0.9803
2.8049 -3.5706 -1.9788 0.9804
3.6514 -2.7013 -1.9795 0.9804
3.8788 -2.3654 -1.9800 0.9804
4.0756 -2.0105 -1.9806 0.9804
4.3715 -1.2553 -1.9822 0.9804
4.5296 -0.4589 -1.9842 0.9803
4.5551 -0.0530 -1.9853 0.9803
4.5446 0.3538 -1.9866 0.9803
4.2976 1.5477 -1.9907 0.9803
4.1455 1.9264 -1.9922 0.9803
3.7429 2.6364 -1.9953 0.9802
2.5923 3.7905 -2.0013 0.9802
1.8792 4.1950 -2.0033 0.9801
1.4967 4.3436 -2.0022 0.9802
1.1029 4.4585 -2.0017 0.9802
0.2931 4.5843 -2.0020 0.9802
-0.1171 4.5943 -2.0029 0.9801
-0.5268 4.5688 -2.0043 0.9801
