ply
format ascii 1.0
element vertex 1582
property float32 x
property float32 y
property float32 z
property float32 I
end_header
-10.6344 -16.5830 0.3328 0.9242
-5.1951 -9.9654 0.1898 0.9560
-6.7897 -16.4765 0.3010 0.9312
-2.0862 -17.0351 0.2899 0.9336
2.1593 19.0812 -0.1081 0.9261
-0.3391 5.0787 -0.0287 0.9798
-2.1462 13.6164 -0.0776 0.9464
-2.4970 5.5120 -0.0341 0.9761
-8.1612 14.4197 -0.0933 0.9359
-10.1485 14.6856 -0.1005 0.9311
-14.4492 12.0986 -0.1061 0.9274
-14.6745 10.1998 -0.1006 0.9310
-12.1383 -15.8426 -0.1124 0.9233
-10.5248 -16.6353 -0.1108 0.9243
-6.6774 -16.4898 -0.1002 0.9313
-3.5140 -16.8657 -0.0970 0.9334
-1.9820 -17.0474 -0.0966 0.9337
-2.0593 13.6061 -0.0775 0.9464
-3.3659 13.7611 -0.0798 0.9449
-8.0368 14.4049 -0.0929 0.9361
-10.0047 14.6685 -0.1000 0.9314
-14.6599 10.3232 -0.1009 0.9308
-10.6344 -16.5830 -0.1109 0.9242
-6.7897 -16.4765 -0.1003 0.9312
-5.1781 -16.6683 -0.0983 0.9326
-2.0862 -17.0351 -0.0966 0.9337
5.4890 13.6751 -0.4149 0.9427
0.3016 13.1035 -0.3691 0.9489
-0.3390 5.0781 -0.1433 0.9798
-2.1105 13.3897 -0.3817 0.9472
-3.4005 13.5427 -0.3932 0.9457
-2.4944 5.5062 -0.1702 0.9761
-10.1485 14.6856 -0.5026 0.9311
-14.2468 11.9291 -0.5232 0.9283
-14.4689 10.0569 -0.4962 0.9319
-12.0619 6.8700 -0.3909 0.9460
-12.1383 -15.8426 -0.5620 0.9232
-9.8020 -15.4927 -0.5162 0.9293
-8.3657 -16.2899 -0.5156 0.9293
-6.6776 -16.4902 -0.5010 0.9313
-5.1268 -16.8667 -0.4964 0.9319
-1.9820 -17.0474 -0.4833 0.9336
-0.3093 5.1028 -0.1439 0.9798
-3.3099 13.5320 -0.3923 0.9458
-4.7955 14.0204 -0.4172 0.9424
-2.4570 5.5133 -0.1700 0.9761
-10.0047 14.6685 -0.5000 0.9314
-14.4545 10.1786 -0.4978 0.9317
-12.0922 6.9856 -0.3932 0.9457
-14.7910 -9.1135 -0.4892 0.9328
-8.4848 -16.2758 -0.5168 0.9292
-5.2358 -16.8538 -0.4969 0.9318
-3.6192 -16.8532 -0.4854 0.9333
-2.0862 -17.0351 -0.4833 0.9336
5.4657 13.6171 -0.7441 0.9429
0.3016 13.1035 -0.6647 0.9489
-0.3390 5.0775 -0.2581 0.9798
-2.1105 13.3897 -0.6874 0.9472
-3.4005 13.5427 -0.7081 0.9456
-2.4881 5.4923 -0.3058 0.9761
-8.1794 14.4520 -0.8422 0.9357
-13.9969 14.0350 -1.0052 0.9237
-14.4689 10.0569 -0.8936 0.9319
-12.0016 6.8357 -0.7005 0.9462
-10.2721 -9.3357 -0.7039 0.9459
-12.1383 -15.8426 -1.0122 0.9232
-8.8787 -14.0335 -0.8422 0.9357
-8.3657 -16.2899 -0.9287 0.9293
-6.7554 -16.6824 -0.9128 0.9305
-1.9819 -17.0474 -0.8704 0.9336
1.9647 16.4597 -0.8407 0.9358
0.3815 13.0940 -0.6643 0.9489
-0.3093 5.1020 -0.2592 0.9797
-3.3099 13.5320 -0.7065 0.9457
-4.7954 14.0204 -0.7515 0.9424
-8.0548 14.4372 -0.8384 0.9359
-13.9786 14.1892 -1.0101 0.9233
-14.2307 12.0645 -0.9461 0.9280
-12.0335 6.9517 -0.7048 0.9459
-18.6427 4.8565 -0.9770 0.9257
-14.5377 -7.2487 -0.8238 0.9370
-12.2143 -7.5259 -0.7276 0.9442
-10.4610 -7.8194 -0.6624 0.9490
-8.4848 -16.2758 -0.9308 0.9291
-6.8690 -16.6689 -0.9143 0.9303
5.4517 13.5823 -1.0731 0.9430
0.3016 13.1035 -0.9610 0.9488
-4.8150 13.8011 -1.0717 0.9431
-7.9673 11.5291 -1.0276 0.9453
-13.5116 13.5483 -1.4030 0.9261
-14.2467 11.9290 -1.3624 0.9282
-14.4689 10.0569 -1.2920 0.9318
-15.4385 7.0443 -1.2443 0.9342
-18.5280 4.7057 -1.4016 0.9262
-17.0959 -6.8082 -1.3492 0.9289
-14.0294 -7.1028 -1.1530 0.9389
-10.2348 -7.7483 -0.9412 0.9498
-8.6946 -7.9020 -0.8615 0.9540
-7.4891 -8.1454 -0.8113 0.9566
-6.4151 -8.3729 -0.7734 0.9586
-8.8701 -14.0198 -1.2164 0.9356
-8.3657 -16.2899 -1.3427 0.9292
-3.5140 -16.8657 -1.2632 0.9332
-1.6891 -14.5283 -1.0724 0.9430
1.9163 16.0541 -1.1855 0.9372
0.2818 9.6715 -0.7094 0.9619
-4.7164 13.7894 -1.0686 0.9432
-7.9044 14.1676 -1.1895 0.9370
-11.8595 12.0382 -1.2390 0.9345
-14.2307 12.0644 -1.3679 0.9279
-16.8355 6.0410 -1.3115 0.9308
-14.1414 -7.0511 -1.1586 0.9386
-7.5181 -8.0771 -0.8091 0.9567
-6.4544 -8.3182 -0.7720 0.9587
-8.7306 -13.6142 -1.1858 0.9372
-4.0830 -9.9082 -0.7858 0.9579
-5.2358 -16.8538 -1.2940 0.9317
-3.6192 -16.8532 -1.2639 0.9332
-1.7779 -14.5177 -1.0724 0.9430
8.7147 17.0980 -1.8424 0.9258
5.4413 13.5564 -1.4024 0.9430
5.5258 18.3813 -1.8427 0.9258
3.8579 18.8039 -1.8429 0.9258
0.7455 6.5878 -0.6365 0.9737
-0.3389 5.0763 -0.4884 0.9798
-4.8150 13.8011 -1.4033 0.9430
-2.4736 5.4603 -0.5755 0.9762
-13.5516 13.5884 -1.8424 0.9258
-8.0031 6.7011 -1.0021 0.9589
-11.9141 6.7858 -1.3163 0.9464
-15.3853 7.0200 -1.6236 0.9343
-11.8201 -7.3832 -1.3380 0.9455
-7.2767 -7.9144 -1.0322 0.9577
-5.4244 -8.5738 -0.9740 0.9601
-8.3657 -16.2899 -1.7581 0.9291
-3.9117 -9.6599 -1.0006 0.9590
-1.9820 -17.0474 -1.6477 0.9334
-0.5004 -19.1918 -1.8431 0.9258
2.9306 -18.9700 -1.8428 0.9258
8.8191 17.0443 -1.8424 0.9258
5.4756 13.4039 -1.3901 0.9435
5.6382 18.3471 -1.8427 0.9258
3.9728 18.7798 -1.8429 0.9258
1.8859 15.7995 -1.5276 0.9381
-2.0251 13.3795 -1.2991 0.9471
-3.3099 13.5320 -1.3374 0.9456
-4.7164 13.7894 -1.3991 0.9431
-6.7823 12.1564 -1.3364 0.9456
-7.8443 11.5010 -1.3365 0.9456
-11.6506 14.1666 -1.7609 0.9289
-11.8595 12.0382 -1.6224 0.9343
-7.9790 6.7644 -1.0043 0.9588
-8.5173 5.9978 -1.0001 0.9590
-11.8994 6.8742 -1.3193 0.9463
-11.9841 -7.3840 -1.3514 0.9450
-10.1842 -7.6125 -1.2207 0.9502
-6.2840 -8.0986 -0.9841 0.9596
-5.4611 -8.5159 -0.9712 0.9602
-8.4848 -16.2758 -1.7621 0.9289
-4.0032 -9.7145 -1.0087 0.9587
-5.2358 -16.8538 -1.6943 0.9315
1.1029 -19.1650 -1.8430 0.9258
2.8145 -18.9877 -1.8428 0.9258
4.5032 -18.6577 -1.8427 0.9258
16.6778 1.8932 -1.9938 0.9346
13.3537 10.1740 -1.9942 0.9346
11.3257 12.3941 -1.9944 0.9346
10.1709 13.3593 -1.9945 0.9346
8.2527 13.1328 -1.8424 0.9394
7.0439 13.8200 -1.8426 0.9394
5.1901 12.9304 -1.6551 0.9454
4.4663 14.8568 -1.8428 0.9394
0.7095 6.2700 -0.7495 0.9749
0.2238 9.7227 -1.1552 0.9616
-3.9660 11.3676 -1.4301 0.9527
-2.4794 5.4731 -0.7137 0.9761
-7.6459 13.5094 -1.8439 0.9394
-9.9343 11.9301 -1.8441 0.9394
-10.9633 10.9931 -1.8442 0.9394
-11.4764 6.5365 -1.5688 0.9482
-16.5988 2.6625 -1.9969 0.9345
-16.7706 1.1654 -1.9969 0.9345
-16.8076 -0.3412 -1.9969 0.9345
-16.4768 -3.3338 -1.9969 0.9345
-16.1117 -4.7959 -1.9968 0.9345
-15.6171 -6.2193 -1.9968 0.9345
-13.8530 -7.0135 -1.8444 0.9394
-10.1395 -7.6762 -1.5107 0.9501
-8.6422 -7.8544 -1.3872 0.9540
-7.3021 -7.9420 -1.2815 0.9575
-6.2558 -8.1649 -1.2218 0.9594
-5.3921 -8.5227 -1.1980 0.9602
-7.0621 -13.7514 -1.8363 0.9396
-3.5140 -16.8657 -2.0464 0.9330
-1.6904 -14.5393 -1.7387 0.9427
0.9861 -15.4840 -1.8430 0.9394
8.2258 -14.6382 -1.9945 0.9346
9.5031 -13.8419 -1.9944 0.9346
10.7039 -12.9346 -1.9943 0.9346
12.8383 -10.8167 -1.9941 0.9346
13.7548 -9.6231 -1.9940 0.9346
15.8164 -5.6207 -1.9939 0.9346
16.2559 -4.1816 -1.9938 0.9346
16.7408 -1.2148 -1.9938 0.9346
16.7823 0.2894 -1.9938 0.9346
16.6891 1.7911 -1.9938 0.9346
16.1025 4.7396 -1.9939 0.9346
15.6137 6.1627 -1.9939 0.9346
14.9996 7.5364 -1.9940 0.9346
14.2649 8.8497 -1.9941 0.9346
12.4586 11.2534 -1.9942 0.9346
11.4013 12.3245 -1.9943 0.9346
7.1283 13.7765 -1.8425 0.9394
5.2776 12.9191 -1.6577 0.9453
4.5571 14.8291 -1.8428 0.9394
0.2849 9.7769 -1.1618 0.9614
-3.3099 13.5320 -1.6548 0.9454
-3.9459 11.5367 -1.4483 0.9521
-2.4391 5.4731 -0.7118 0.9762
-7.5631 13.5559 -1.8439 0.9394
-9.8611 11.9906 -1.8441 0.9394
-16.2678 4.2378 -1.9969 0.9345
-16.5822 2.7641 -1.9969 0.9345
-16.8093 -0.2383 -1.9969 0.9345
-12.2714 -7.5611 -1.7122 0.9436
-7.3790 -7.9277 -1.2865 0.9573
-6.3136 -8.1368 -1.2234 0.9594
-5.3664 -8.3683 -1.1809 0.9607
-4.1855 -10.1570 -1.3049 0.9567
-3.6192 -16.8532 -2.0476 0.9329
-1.7793 -14.5288 -1.7387 0.9427
0.8914 -15.4898 -1.8430 0.9394
5.3759 -15.8758 -1.9910 0.9347
6.7884 -15.3588 -1.9947 0.9346
8.1361 -14.6883 -1.9945 0.9346
9.4182 -13.8998 -1.9944 0.9346
11.7455 -11.9956 -1.9942 0.9346
13.6957 -9.7071 -1.9941 0.9346
14.5095 -8.4413 -1.9940 0.9346
15.2066 -7.1079 -1.9939 0.9346
15.7817 -5.7174 -1.9939 0.9346
16.6998 1.6889 -1.9938 0.9346
13.9837 1.5873 -1.9941 0.9447
12.5375 6.3957 -1.9942 0.9447
11.9147 7.4930 -1.9943 0.9447
11.1962 8.5302 -1.9944 0.9447
10.3878 9.4990 -1.9944 0.9447
9.4958 10.3915 -1.9945 0.9447
7.8770 10.3463 -1.8425 0.9488
6.9191 11.0107 -1.8426 0.9488
5.9056 11.5867 -1.8427 0.9488
3.7444 12.4557 -1.8429 0.9488
2.6141 12.7417 -1.8430 0.9488
-0.3388 5.0750 -0.7207 0.9797
-2.0257 12.8515 -1.8434 0.9488
-6.4096 11.3249 -1.8438 0.9488
-8.3278 10.0008 -1.8440 0.9488
-9.1903 9.2153 -1.8440 0.9488
-11.3101 6.4418 -1.8442 0.9488
-13.2923 4.6780 -1.9966 0.9447
-13.6580 3.4688 -1.9966 0.9447
-13.9139 2.2319 -1.9967 0.9447
-14.0889 -0.2860 -1.9967 0.9447
-14.0066 -1.5465 -1.9966 0.9447
-11.5779 -7.2318 -1.9342 0.9463
-10.2245 -7.7406 -1.8170 0.9495
-5.3917 -8.5221 -1.4289 0.9601
-5.0161 -9.7675 -1.5558 0.9566
-4.0926 -10.1066 -1.5450 0.9569
-3.7838 -12.4482 -1.8435 0.9488
-2.6536 -12.7363 -1.8434 0.9488
-1.5023 -12.9220 -1.8432 0.9488
-0.3391 -13.0039 -1.8431 0.9488
1.9858 -12.8543 -1.8429 0.9488
3.1288 -12.6241 -1.8428 0.9488
4.5820 -13.2636 -1.9883 0.9449
5.7701 -12.8417 -1.9948 0.9447
7.9675 -11.6053 -1.9946 0.9447
8.9744 -10.8447 -1.9945 0.9447
9.9091 -9.9970 -1.9944 0.9447
10.7641 -9.0691 -1.9943 0.9447
11.5327 -8.0684 -1.9943 0.9447
13.2613 -4.7127 -1.9941 0.9447
13.6299 -3.5061 -1.9941 0.9447
13.8890 -2.2714 -1.9941 0.9447
14.0365 -1.0185 -1.9941 0.9447
13.9932 1.5017 -1.9941 0.9447
13.8026 2.7489 -1.9941 0.9447
13.0914 5.1671 -1.9942 0.9447
11.9603 7.4200 -1.9943 0.9447
11.2482 8.4615 -1.9943 0.9447
9.5592 10.3332 -1.9945 0.9447
7.9401 10.2979 -1.8425 0.9488
6.9864 10.9681 -1.8426 0.9488
5.9764 11.5503 -1.8426 0.9488
4.9183 12.0397 -1.8427 0.9488
3.8206 12.4325 -1.8428 0.9488
0.7791 6.5274 -0.9314 0.9738
-0.3091 5.0988 -0.7238 0.9796
-1.9470 12.8635 -1.8434 0.9488
-3.9636 11.5884 -1.7353 0.9517
-2.4383 5.4712 -0.8487 0.9761
-7.3327 10.7510 -1.8439 0.9488
-8.2664 10.0516 -1.8440 0.9488
-9.1337 9.2713 -1.8440 0.9488
-8.0359 6.8126 -1.4927 0.9583
-8.6724 6.1070 -1.5029 0.9581
-11.2705 6.5109 -1.8442 0.9488
-13.2634 4.7592 -1.9966 0.9447
-13.6365 3.5524 -1.9966 0.9447
-13.9000 2.3169 -1.9967 0.9447
-14.0517 1.0629 -1.9967 0.9447
-14.0904 -0.1998 -1.9967 0.9447
-13.5301 -3.9375 -1.9966 0.9447
-12.6101 -6.2876 -1.9965 0.9447
-11.7080 -7.2139 -1.9485 0.9460
-10.4203 -7.7889 -1.8433 0.9488
-8.6530 -7.7680 -1.6476 0.9541
-6.2488 -8.0533 -1.4443 0.9597
-5.0159 -9.6216 -1.5374 0.9571
-2.7316 -12.7199 -1.8434 0.9488
-1.5814 -12.9127 -1.8433 0.9488
0.7473 -12.9861 -1.8430 0.9488
3.0515 -12.6431 -1.8428 0.9488
8.9079 -10.8994 -1.9945 0.9447
9.8478 -10.0575 -1.9944 0.9447
11.4831 -8.1389 -1.9943 0.9447
12.1654 -7.0776 -1.9942 0.9447
13.2323 -4.7938 -1.9941 0.9447
13.8748 -2.3564 -1.9941 0.9447
14.0300 -1.1044 -1.9941 0.9447
14.0021 1.4161 -1.9941 0.9447
12.0282 1.3654 -1.9942 0.9521
11.2332 4.5134 -1.9943 0.9521
10.2484 6.4451 -1.9944 0.9521
8.1676 8.9381 -1.9946 0.9521
5.9513 9.4705 -1.8426 0.9557
5.0795 9.9659 -1.8427 0.9557
4.1669 10.3812 -1.8428 0.9557
0.7096 6.2705 -1.0396 0.9747
0.2176 9.4562 -1.5582 0.9624
-1.7422 11.0531 -1.8434 0.9557
-2.7252 10.8532 -1.8434 0.9556
-3.6863 10.5661 -1.8435 0.9556
-2.4763 5.4664 -0.9886 0.9760
-7.1621 8.6010 -1.8439 0.9556
-7.9039 7.9254 -1.8439 0.9556
-8.7536 6.0844 -1.7562 0.9577
-9.8003 5.5819 -1.8580 0.9553
-11.0251 5.0305 -1.9964 0.9521
-11.4315 4.0231 -1.9964 0.9521
-12.0458 -1.3300 -1.9965 0.9521
-11.6150 -3.4574 -1.9964 0.9521
-11.2585 -4.4836 -1.9964 0.9521
-7.5754 -8.2392 -1.8438 0.9556
-6.2540 -8.1626 -1.6940 0.9592
-5.3566 -8.4666 -1.6505 0.9602
-4.9553 -9.6491 -1.7869 0.9570
-3.2543 -10.7063 -1.8434 0.9557
-2.2823 -10.9541 -1.8433 0.9557
-1.2921 -11.1140 -1.8432 0.9557
-0.2916 -11.1844 -1.8431 0.9557
0.7111 -11.1651 -1.8430 0.9557
3.9527 -11.4421 -1.9943 0.9521
4.9630 -11.0454 -1.9949 0.9521
9.9198 -6.9401 -1.9944 0.9521
10.5012 -6.0237 -1.9944 0.9521
11.7239 -3.0158 -1.9943 0.9521
11.9467 -1.9538 -1.9942 0.9521
12.0737 -0.8761 -1.9942 0.9521
12.1036 0.2087 -1.9942 0.9521
12.0364 1.2917 -1.9942 0.9521
9.6751 7.2781 -1.9945 0.9521
6.8295 8.8575 -1.8426 0.9557
5.1404 9.9346 -1.8427 0.9557
4.2303 10.3555 -1.8428 0.9557
0.7487 6.2722 -1.0406 0.9747
0.2880 9.8857 -1.6293 0.9607
-0.3090 5.0980 -0.8414 0.9795
-7.8552 7.9736 -1.8439 0.9556
-9.6928 5.5995 -1.8441 0.9556
-10.9941 5.0979 -1.9964 0.9521
-11.4066 4.0929 -1.9964 0.9521
-11.7275 3.0551 -1.9965 0.9521
-11.9541 1.9926 -1.9965 0.9521
-12.0845 0.9141 -1.9965 0.9521
-12.1178 -0.1718 -1.9965 0.9521
-12.0537 -1.2563 -1.9965 0.9521
-10.8448 -5.4074 -1.9963 0.9521
-10.3168 -6.3567 -1.9963 0.9521
-8.4736 -7.6069 -1.8759 0.9549
-6.2788 -8.0919 -1.6873 0.9593
-5.3656 -8.3670 -1.6374 0.9605
-4.9430 -9.4820 -1.7616 0.9576
-4.2636 -10.3464 -1.8435 0.9556
-2.3493 -10.9400 -1.8433 0.9557
-0.3601 -11.1825 -1.8431 0.9557
0.6428 -11.1692 -1.8431 0.9557
1.6403 -11.0663 -1.8430 0.9557
2.6246 -10.8744 -1.8429 0.9557
5.8672 -10.5922 -1.9948 0.9521
6.7919 -10.0238 -1.9947 0.9521
7.6620 -9.3750 -1.9946 0.9521
9.2108 -7.8573 -1.9945 0.9521
11.3818 -4.1234 -1.9943 0.9521
11.7052 -3.0875 -1.9943 0.9521
11.9346 -2.0269 -1.9942 0.9521
12.0681 -0.9499 -1.9942 0.9521
12.1047 0.1346 -1.9942 0.9521
12.0440 1.2181 -1.9942 0.9521
10.5429 1.1968 -1.9944 0.9577
10.1606 3.0583 -1.9944 0.9577
8.9828 5.6492 -1.9945 0.9577
8.4410 6.4311 -1.9946 0.9577
7.1471 7.8213 -1.9914 0.9578
5.9384 7.8000 -1.8426 0.9609
1.9706 9.6052 -1.8430 0.9609
0.7096 6.2707 -1.1862 0.9746
-0.3387 5.0738 -0.9558 0.9795
-3.5068 6.1960 -1.3382 0.9714
-5.5765 8.0696 -1.8437 0.9609
-7.5214 6.2978 -1.8439 0.9609
-8.0554 5.5991 -1.8439 0.9609
-9.6624 4.4088 -1.9963 0.9577
-10.2941 2.6145 -1.9963 0.9577
-10.4870 1.6821 -1.9963 0.9577
-10.5955 0.7363 -1.9963 0.9577
-10.6188 -0.2156 -1.9963 0.9577
-10.4100 -2.1063 -1.9963 0.9577
-10.1794 -3.0300 -1.9963 0.9577
-9.8670 -3.9294 -1.9963 0.9577
-9.4752 -4.7971 -1.9962 0.9577
-9.0074 -5.6262 -1.9962 0.9577
-4.4807 -8.7248 -1.8435 0.9609
-2.8522 -9.3834 -1.8434 0.9609
-2.0003 -9.6007 -1.8433 0.9609
-0.2556 -9.8027 -1.8431 0.9609
1.4970 -9.6902 -1.8430 0.9609
5.1993 -9.2523 -1.9948 0.9577
6.7658 -8.1758 -1.9947 0.9577
10.5828 -0.7679 -1.9944 0.9577
10.4064 2.0725 -1.9944 0.9577
10.1791 2.9961 -1.9944 0.9577
9.8700 3.8957 -1.9945 0.9577
9.0172 5.5941 -1.9945 0.9577
8.4802 6.3793 -1.9946 0.9577
5.2669 8.2687 -1.8427 0.9609
4.5055 8.7075 -1.8428 0.9609
3.7077 9.0763 -1.8428 0.9609
2.8802 9.3723 -1.8429 0.9609
2.0294 9.5930 -1.8430 0.9609
0.2710 9.2999 -1.7488 0.9628
-1.4676 9.6965 -1.8433 0.9609
-2.3302 9.5266 -1.8434 0.9609
-3.1741 9.2800 -1.8435 0.9609
-4.7789 8.5656 -1.8436 0.9609
-6.2307 7.5763 -1.8438 0.9609
-6.8844 6.9881 -1.8438 0.9609
-7.4827 6.3437 -1.8439 0.9609
-9.6352 4.4678 -1.9963 0.9577
-10.2779 2.6775 -1.9963 0.9577
-10.4765 1.7463 -1.9963 0.9577
-10.4226 -2.0426 -1.9963 0.9577
-10.1977 -2.9677 -1.9963 0.9577
-9.8908 -3.8690 -1.9963 0.9577
-9.0416 -5.5710 -1.9962 0.9577
-8.5062 -6.3582 -1.9961 0.9577
-7.9024 -7.0942 -1.9961 0.9577
-7.2003 -7.7357 -1.9864 0.9579
-5.2948 -8.2566 -1.8436 0.9609
-3.7368 -9.0680 -1.8435 0.9609
-2.9096 -9.3658 -1.8434 0.9609
1.4377 -9.6992 -1.8430 0.9609
4.2907 -9.7076 -1.9949 0.9577
6.7157 -8.2171 -1.9947 0.9577
8.0733 -6.8869 -1.9946 0.9577
8.6574 -6.1361 -1.9945 0.9577
9.1719 -5.3360 -1.9945 0.9577
10.2598 -2.7063 -1.9944 0.9577
10.5779 -0.8326 -1.9944 0.9577
10.5568 1.0676 -1.9944 0.9577
7.9879 5.0235 -1.9946 0.9622
7.5062 5.7188 -1.9947 0.9622
6.3539 6.9533 -1.9910 0.9622
5.2807 6.9360 -1.8427 0.9650
4.6384 7.3813 -1.8428 0.9650
3.9589 7.7673 -1.8428 0.9650
3.2476 8.0909 -1.8429 0.9650
2.5101 8.3496 -1.8430 0.9650
0.7096 6.2710 -1.3340 0.9745
0.2006 8.7174 -1.8432 0.9650
-0.3387 5.0731 -1.0747 0.9794
-1.3578 8.6141 -1.8433 0.9650
-4.2959 7.5903 -1.8436 0.9650
-4.9585 7.1753 -1.8436 0.9650
-6.1593 6.1761 -1.8438 0.9650
-7.6363 5.3078 -1.9658 0.9627
-8.2057 4.6737 -1.9961 0.9621
-8.5914 3.9201 -1.9962 0.9621
-9.1531 2.3247 -1.9962 0.9621
-8.0091 -5.0027 -1.9961 0.9621
-6.9879 -6.3508 -1.9960 0.9621
-5.7407 -7.4926 -1.9952 0.9621
-3.3252 -8.2116 -1.8727 0.9644
-2.5362 -8.3437 -1.8434 0.9650
-1.7787 -8.5369 -1.8433 0.9650
-0.2292 -8.7883 -1.8583 0.9647
1.4385 -9.3112 -1.9916 0.9622
2.2706 -9.1613 -1.9951 0.9621
3.0818 -8.9208 -1.9950 0.9621
4.6234 -8.2274 -1.9949 0.9622
6.0165 -7.2703 -1.9948 0.9622
6.6432 -6.7021 -1.9947 0.9622
7.2165 -6.0801 -1.9947 0.9622
7.7318 -5.4093 -1.9946 0.9622
8.8910 -3.1596 -1.9945 0.9622
9.1381 -2.3507 -1.9945 0.9622
9.3119 -1.5229 -1.9945 0.9622
9.4108 -0.6829 -1.9945 0.9622
9.4341 0.1626 -1.9945 0.9622
9.3817 1.0068 -1.9945 0.9622
9.2539 1.8430 -1.9945 0.9622
9.0518 2.6643 -1.9945 0.9622
8.7770 3.4642 -1.9946 0.9622
8.0185 4.9745 -1.9946 0.9622
7.5410 5.6728 -1.9947 0.9622
5.3230 6.9036 -1.8427 0.9650
4.6835 7.3528 -1.8428 0.9650
4.0064 7.7429 -1.8428 0.9650
2.5611 8.3340 -1.8430 0.9650
1.8046 8.5302 -1.8430 0.9650
0.7487 6.2727 -1.3353 0.9745
0.2540 8.7160 -1.8432 0.9650
-0.3089 5.0963 -1.0792 0.9793
-1.3050 8.6222 -1.8433 0.9650
-4.9145 7.2055 -1.8436 0.9650
-6.1214 6.2136 -1.8437 0.9650
-6.6534 5.6406 -1.8438 0.9650
-8.1770 4.7238 -1.9961 0.9621
-8.5673 3.9726 -1.9962 0.9621
-9.1387 2.3807 -1.9962 0.9621
-9.4169 0.7123 -1.9962 0.9621
-9.3929 -0.9790 -1.9962 0.9621
-9.0674 -2.6388 -1.9962 0.9621
-8.4510 -4.2138 -1.9961 0.9621
-7.5635 -5.6535 -1.9960 0.9621
-5.7878 -7.4591 -1.9957 0.9621
-4.2205 -8.0958 -1.9299 0.9634
-1.8309 -8.5259 -1.8433 0.9650
-0.2824 -8.7710 -1.8550 0.9648
3.0271 -8.9396 -1.9950 0.9621
7.1792 -6.1242 -1.9947 0.9622
7.6986 -5.4565 -1.9946 0.9622
8.5482 -3.9956 -1.9945 0.9622
9.3024 -1.5798 -1.9945 0.9622
9.4064 -0.7404 -1.9945 0.9622
9.4349 0.1049 -1.9945 0.9622
9.3877 0.9494 -1.9945 0.9622
8.1267 2.4462 -1.9946 0.9657
7.5602 3.8567 -1.9947 0.9657
7.1846 4.5183 -1.9947 0.9657
5.7185 6.2579 -1.9923 0.9658
4.1719 6.6389 -1.8428 0.9683
1.5760 7.6820 -1.8430 0.9683
0.7097 6.2712 -1.4833 0.9744
-0.3351 5.0196 -1.1823 0.9795
-2.8356 5.0102 -1.3530 0.9766
-5.0197 6.0282 -1.8436 0.9683
-5.5395 5.5546 -1.8437 0.9683
-6.1486 5.1483 -1.8847 0.9676
-6.9695 4.8443 -1.9948 0.9657
-7.7268 3.5256 -1.9961 0.9657
-8.0116 2.8195 -1.9961 0.9657
-8.2320 2.0908 -1.9961 0.9657
-8.4730 0.5888 -1.9961 0.9657
-8.4916 -0.1724 -1.9961 0.9657
-8.3246 -1.6844 -1.9961 0.9657
-6.7711 -5.1261 -1.9960 0.9657
-6.2847 -5.7117 -1.9959 0.9657
-5.7478 -6.2514 -1.9959 0.9657
-5.1647 -6.7409 -1.9958 0.9657
-4.5402 -7.1761 -1.9958 0.9657
-3.8792 -7.5536 -1.9957 0.9657
-0.2210 -8.4746 -1.9924 0.9658
0.5396 -8.4725 -1.9953 0.9657
1.2961 -8.3899 -1.9952 0.9657
2.0422 -8.2398 -1.9951 0.9657
2.7718 -8.0235 -1.9951 0.9657
3.4791 -7.7428 -1.9950 0.9657
4.1583 -7.3999 -1.9949 0.9657
4.8042 -6.9976 -1.9949 0.9657
5.4114 -6.5391 -1.9948 0.9657
5.9751 -6.0281 -1.9948 0.9657
6.4907 -5.4686 -1.9947 0.9657
7.7104 -3.5466 -1.9946 0.9657
8.2192 -2.1143 -1.9946 0.9657
8.4383 0.9056 -1.9946 0.9657
7.8943 3.1159 -1.9946 0.9657
7.2121 4.4743 -1.9947 0.9657
6.2986 5.6893 -1.9948 0.9657
5.7591 6.2255 -1.9932 0.9658
4.7876 6.2092 -1.8427 0.9683
4.2125 6.6132 -1.8428 0.9683
3.6034 6.9641 -1.8428 0.9683
2.3035 7.4957 -1.8430 0.9683
1.6230 7.6721 -1.8430 0.9683
0.7488 6.2729 -1.4848 0.9744
-0.3037 5.0095 -1.1795 0.9796
-1.1737 7.7547 -1.8433 0.9683
-1.8913 5.5295 -1.3735 0.9763
-2.7816 4.9857 -1.3418 0.9768
-3.4704 5.0882 -1.4475 0.9750
-4.9827 6.0588 -1.8436 0.9683
-6.0646 5.1415 -1.8686 0.9679
-6.9371 4.8850 -1.9941 0.9657
-7.7051 3.5728 -1.9961 0.9657
-7.9942 2.8685 -1.9961 0.9657
-8.3778 1.3965 -1.9961 0.9657
-8.4692 0.6406 -1.9961 0.9657
-8.4925 -0.1204 -1.9961 0.9657
-7.9095 -3.0939 -1.9961 0.9657
-7.6006 -3.7898 -1.9960 0.9657
-7.2305 -4.4551 -1.9960 0.9657
-6.8024 -5.0846 -1.9960 0.9657
-5.7859 -6.2162 -1.9959 0.9657
-3.9253 -7.5297 -1.9957 0.9657
-1.7774 -8.2768 -1.9896 0.9658
1.9917 -8.2522 -1.9951 0.9657
4.1130 -7.4253 -1.9949 0.9657
4.7613 -7.0269 -1.9949 0.9657
6.9244 -4.9078 -1.9947 0.9657
8.2061 -2.1646 -1.9946 0.9657
8.3669 -1.4210 -1.9946 0.9657
8.4605 -0.6660 -1.9946 0.9657
8.4862 0.0944 -1.9946 0.9657
7.6546 0.8689 -1.9947 0.9687
7.5461 1.5509 -1.9947 0.9687
7.3770 2.2205 -1.9947 0.9687
6.8627 3.5009 -1.9947 0.9687
6.5218 4.1015 -1.9948 0.9687
6.1284 4.6691 -1.9948 0.9687
5.1967 5.6869 -1.9946 0.9687
3.7870 6.0263 -1.8428 0.9710
2.0492 6.8167 -1.8430 0.9710
1.4306 6.9730 -1.8431 0.9710
-0.3340 5.0036 -1.2984 0.9795
-1.1084 7.0324 -1.8433 0.9710
-1.6707 6.6539 -1.7763 0.9721
-1.9011 5.4492 -1.4943 0.9764
-2.2363 4.9365 -1.4032 0.9779
-6.3300 4.3998 -1.9960 0.9686
-7.0135 3.2001 -1.9960 0.9686
-7.4720 1.8977 -1.9961 0.9686
-7.6120 1.2210 -1.9961 0.9686
-7.6907 0.5344 -1.9961 0.9686
-7.7077 -0.1565 -1.9961 0.9686
-7.6627 -0.8461 -1.9961 0.9686
-7.5561 -1.5289 -1.9961 0.9686
-7.3887 -2.1994 -1.9960 0.9686
-7.1620 -2.8522 -1.9960 0.9686
-6.8777 -3.4820 -1.9960 0.9686
-6.1460 -4.6529 -1.9959 0.9687
-5.7045 -5.1845 -1.9959 0.9687
-5.2172 -5.6744 -1.9958 0.9687
-4.6880 -6.1186 -1.9958 0.9687
-4.1211 -6.5137 -1.9957 0.9687
-1.5720 -7.5450 -1.9955 0.9687
-0.2009 -7.7039 -1.9953 0.9687
0.4898 -7.6906 -1.9953 0.9687
3.1580 -7.0284 -1.9950 0.9687
3.7747 -6.7172 -1.9950 0.9687
4.9121 -5.9358 -1.9949 0.9687
6.3127 -4.4164 -1.9948 0.9687
6.6827 -3.8333 -1.9947 0.9687
7.2591 -2.5797 -1.9947 0.9687
7.4609 -1.9192 -1.9947 0.9687
7.6028 -1.2434 -1.9946 0.9687
7.7026 0.1328 -1.9946 0.9687
7.3904 2.1753 -1.9947 0.9687
5.2321 5.6558 -1.9949 0.9687
3.8238 6.0030 -1.8428 0.9710
3.2709 6.3215 -1.8429 0.9710
2.6918 6.5892 -1.8429 0.9710
2.0909 6.8040 -1.8430 0.9710
-1.6915 6.9155 -1.8433 0.9710
-2.1979 4.9318 -1.3980 0.9779
-3.4704 5.0882 -1.5947 0.9749
-5.8637 4.9711 -1.9904 0.9687
-6.6752 3.8562 -1.9960 0.9686
-6.9938 3.2430 -1.9960 0.9686
-7.2562 2.6037 -1.9960 0.9686
-7.4602 1.9434 -1.9961 0.9686
-7.7085 -0.1093 -1.9961 0.9686
-7.6677 -0.7992 -1.9961 0.9686
-7.5653 -1.4826 -1.9961 0.9686
-7.4021 -2.1541 -1.9960 0.9686
-4.7253 -6.0899 -1.9958 0.9687
-4.1609 -6.4884 -1.9957 0.9687
-3.5630 -6.8347 -1.9957 0.9687
-2.9366 -7.1261 -1.9956 0.9687
-2.2865 -7.3603 -1.9955 0.9687
1.1299 -7.6227 -1.9952 0.9687
3.1150 -7.0476 -1.9950 0.9687
3.7335 -6.7401 -1.9950 0.9687
4.3220 -6.3785 -1.9949 0.9687
4.8757 -5.9657 -1.9949 0.9687
5.3902 -5.5050 -1.9948 0.9687
5.8614 -5.0001 -1.9948 0.9687
6.2855 -4.4550 -1.9948 0.9687
7.2432 -2.6241 -1.9947 0.9687
7.4490 -1.9649 -1.9947 0.9687
7.5950 -1.2899 -1.9946 0.9687
7.6800 -0.6045 -1.9946 0.9687
7.7033 0.0857 -1.9946 0.9687
7.0012 0.7947 -1.9947 0.9711
6.7472 2.0309 -1.9947 0.9711
6.5383 2.6270 -1.9948 0.9711
5.9650 3.7513 -1.9948 0.9711
4.7537 5.2021 -1.9949 0.9711
4.2529 5.5861 -1.9875 0.9712
1.8743 6.2346 -1.8430 0.9733
0.7097 6.2716 -1.7868 0.9741
-0.3332 4.9915 -1.4162 0.9794
-1.9011 5.4492 -1.6338 0.9763
-2.8356 5.0102 -1.6298 0.9764
-3.4686 5.0193 -1.7272 0.9750
-4.9601 4.9735 -1.9885 0.9712
-5.7893 4.0240 -1.9959 0.9711
-6.1264 3.4894 -1.9959 0.9711
-6.8337 1.7356 -1.9960 0.9711
-7.0338 0.4888 -1.9960 0.9711
-7.0493 -0.1431 -1.9960 0.9711
-7.0081 -0.7738 -1.9960 0.9711
-6.7576 -2.0115 -1.9960 0.9711
-6.5502 -2.6085 -1.9960 0.9711
-5.9797 -3.7350 -1.9959 0.9711
-5.6211 -4.2555 -1.9959 0.9711
-5.2173 -4.7416 -1.9958 0.9711
-4.7716 -5.1897 -1.9958 0.9711
-4.2876 -5.5960 -1.9957 0.9711
-3.7691 -5.9574 -1.9957 0.9711
-0.8140 -7.0014 -1.9954 0.9711
0.4480 -7.0339 -1.9953 0.9711
3.4524 -6.1436 -1.9950 0.9711
4.4927 -5.4290 -1.9949 0.9711
5.3889 -4.5403 -1.9948 0.9711
5.7737 -4.0394 -1.9948 0.9711
6.4015 -2.9446 -1.9948 0.9711
6.6394 -2.3595 -1.9947 0.9711
7.0276 -0.5099 -1.9947 0.9711
6.9105 1.3762 -1.9947 0.9711
6.2963 3.1635 -1.9948 0.9711
5.9878 3.7147 -1.9948 0.9711
4.7854 5.1729 -1.9949 0.9711
4.2884 5.5618 -1.9882 0.9712
2.4619 6.0266 -1.8430 0.9733
1.3474 6.3695 -1.8431 0.9733
0.7488 6.2735 -1.7886 0.9741
0.1896 6.5080 -1.8432 0.9733
-0.3016 4.9761 -1.4113 0.9795
-1.5471 6.3249 -1.8433 0.9733
-2.7923 5.0048 -1.6224 0.9765
-4.9111 4.9851 -1.9811 0.9713
-6.3963 2.9660 -1.9960 0.9711
-6.6363 2.3812 -1.9960 0.9711
-6.8230 1.7774 -1.9960 0.9711
-6.9548 1.1593 -1.9960 0.9711
-7.0306 0.5318 -1.9960 0.9711
-7.0127 -0.7309 -1.9960 0.9711
-6.7698 -1.9701 -1.9960 0.9711
-5.2462 -4.7096 -1.9958 0.9711
-4.8033 -5.1604 -1.9958 0.9711
-4.3217 -5.5697 -1.9957 0.9711
-3.2587 -6.2510 -1.9956 0.9711
-2.0912 -6.7317 -1.9955 0.9711
-0.8568 -6.9963 -1.9954 0.9711
1.0334 -6.9718 -1.9952 0.9711
1.6536 -6.8510 -1.9952 0.9711
2.8490 -6.4458 -1.9951 0.9711
4.4594 -5.4564 -1.9949 0.9711
4.9300 -5.0350 -1.9949 0.9711
5.3610 -4.5732 -1.9948 0.9711
5.7489 -4.0747 -1.9948 0.9711
6.0906 -3.5434 -1.9948 0.9711
6.3834 -2.9837 -1.9948 0.9711
6.8131 -1.7971 -1.9947 0.9711
7.0457 0.0783 -1.9947 0.9711
7.0104 0.7090 -1.9947 0.9711
6.2102 1.8693 -1.9948 0.9732
5.7773 2.9472 -1.9948 0.9732
5.4902 3.4528 -1.9949 0.9732
5.1591 3.9306 -1.9949 0.9732
4.7864 4.3769 -1.9949 0.9732
4.3753 4.7881 -1.9950 0.9732
3.9221 5.1517 -1.9915 0.9733
1.7251 5.7383 -1.8430 0.9752
1.2043 5.8699 -1.8431 0.9752
0.6738 5.9544 -1.8431 0.9752
-0.3324 4.9794 -1.5350 0.9793
-0.9331 5.9197 -1.8433 0.9752
-1.4595 5.8126 -1.8433 0.9752
-1.8409 5.2767 -1.7189 0.9769
-2.2363 4.9365 -1.6669 0.9776
-2.7939 4.9364 -1.7447 0.9765
-3.4074 4.9308 -1.8435 0.9752
-4.0728 4.8911 -1.9577 0.9737
-4.9751 4.1657 -1.9958 0.9732
-5.3283 3.7035 -1.9959 0.9732
-5.6386 3.2115 -1.9959 0.9732
-5.9036 2.6937 -1.9959 0.9732
-6.4737 0.4498 -1.9960 0.9732
-6.4879 -0.1317 -1.9960 0.9732
-6.4500 -0.7122 -1.9960 0.9732
-6.3603 -1.2869 -1.9959 0.9732
-6.2195 -1.8513 -1.9959 0.9732
-6.0286 -2.4008 -1.9959 0.9732
-4.8019 -4.3641 -1.9958 0.9732
-3.4690 -5.4831 -1.9957 0.9732
-2.4352 -6.0136 -1.9956 0.9732
-1.8868 -6.2074 -1.9955 0.9732
-1.3233 -6.3512 -1.9955 0.9732
-0.7492 -6.4440 -1.9954 0.9732
1.5605 -6.2963 -1.9952 0.9732
3.1776 -5.6546 -1.9950 0.9732
3.6711 -5.3472 -1.9950 0.9732
4.5659 -4.6064 -1.9949 0.9732
4.9600 -4.1789 -1.9949 0.9732
5.3142 -3.7179 -1.9949 0.9732
5.6257 -3.2270 -1.9948 0.9732
5.8921 -2.7102 -1.9948 0.9732
6.4684 -0.4693 -1.9948 0.9732
6.4844 0.1118 -1.9948 0.9732
6.3605 1.2667 -1.9948 0.9732
6.2216 1.8312 -1.9948 0.9732
6.0326 2.3811 -1.9948 0.9732
5.5113 3.4191 -1.9949 0.9732
4.8131 4.3475 -1.9949 0.9732
4.4045 4.7612 -1.9950 0.9732
3.9548 5.1291 -1.9921 0.9733
2.7535 5.3216 -1.8429 0.9752
1.2402 5.8624 -1.8431 0.9752
0.7102 5.9501 -1.8431 0.9752
-0.3010 4.9660 -1.5302 0.9794
-0.8968 5.9253 -1.8433 0.9752
-4.0190 4.8869 -1.9461 0.9739
-4.5489 4.6174 -1.9936 0.9732
-4.9495 4.1961 -1.9958 0.9732
-5.3055 3.7361 -1.9959 0.9732
-5.6189 3.2460 -1.9959 0.9732
-6.1079 2.1916 -1.9959 0.9732
-6.2796 1.6359 -1.9959 0.9732
-6.4708 0.4894 -1.9960 0.9732
-6.4886 -0.0920 -1.9960 0.9732
-5.8072 -2.8955 -1.9959 0.9732
-5.1974 -3.8849 -1.9958 0.9732
-4.8285 -4.3346 -1.9958 0.9732
-4.4208 -4.7495 -1.9957 0.9732
-3.5025 -5.4617 -1.9957 0.9732
-2.4719 -5.9986 -1.9956 0.9732
-1.9247 -6.1957 -1.9955 0.9732
1.5219 -6.3057 -1.9952 0.9732
2.6222 -5.9328 -1.9951 0.9732
3.1429 -5.6740 -1.9950 0.9732
3.6383 -5.3696 -1.9950 0.9732
4.1045 -5.0221 -1.9950 0.9732
4.5377 -4.6343 -1.9949 0.9732
5.2914 -3.7504 -1.9949 0.9732
5.6059 -3.2614 -1.9948 0.9732
6.0976 -2.2090 -1.9948 0.9732
6.4654 -0.5089 -1.9948 0.9732
6.4525 0.6526 -1.9948 0.9732
5.8783 1.2081 -1.9948 0.9750
5.7465 1.7297 -1.9948 0.9750
5.3459 2.7271 -1.9949 0.9750
3.6356 4.7753 -1.9950 0.9750
2.5177 4.9396 -1.8429 0.9769
1.1143 5.4315 -1.8431 0.9769
0.6235 5.5096 -1.8431 0.9769
0.1276 5.5435 -1.8432 0.9769
-0.8634 5.4776 -1.8433 0.9769
-1.3505 5.3784 -1.8433 0.9769
-1.8267 5.2360 -1.8433 0.9769
-2.2034 4.8638 -1.7749 0.9777
-2.7316 4.8263 -1.8434 0.9769
-3.3211 4.8058 -1.9418 0.9757
-3.8354 4.6059 -1.9923 0.9751
-4.2397 4.2512 -1.9958 0.9750
-4.6035 3.8545 -1.9958 0.9750
-4.9302 3.4269 -1.9958 0.9750
-5.4626 2.4925 -1.9959 0.9750
-5.6639 1.9933 -1.9959 0.9750
-5.9900 0.4162 -1.9959 0.9750
-5.9682 -0.6590 -1.9959 0.9750
-5.8851 -1.1908 -1.9959 0.9750
-5.7548 -1.7130 -1.9959 0.9750
-5.5782 -2.2215 -1.9959 0.9750
-5.3568 -2.7121 -1.9958 0.9750
-5.0924 -3.1808 -1.9958 0.9750
-4.7870 -3.6240 -1.9958 0.9750
-4.4431 -4.0381 -1.9958 0.9750
-4.0636 -4.4197 -1.9957 0.9750
-2.2533 -5.5644 -1.9955 0.9750
-1.7459 -5.7437 -1.9955 0.9750
0.9164 -5.9321 -1.9952 0.9750
1.4439 -5.8260 -1.9952 0.9750
1.9598 -5.6732 -1.9952 0.9750
2.4600 -5.4748 -1.9951 0.9750
2.9403 -5.2324 -1.9951 0.9750
3.8263 -4.6237 -1.9950 0.9750
5.4521 -2.5079 -1.9948 0.9750
5.9854 -0.4343 -1.9948 0.9750
6.0002 0.1034 -1.9948 0.9750
5.9669 0.6404 -1.9948 0.9750
5.3625 2.6944 -1.9949 0.9750
5.0997 3.1638 -1.9949 0.9750
4.4537 4.0229 -1.9950 0.9750
4.0756 4.4056 -1.9950 0.9750
3.6648 4.7530 -1.9950 0.9750
1.6287 5.2999 -1.8430 0.9769
0.6572 5.5057 -1.8431 0.9769
0.1615 5.5426 -1.8432 0.9769
-0.3004 4.9558 -1.6504 0.9793
-2.7020 4.8430 -1.8434 0.9769
-3.8063 4.6283 -1.9919 0.9751
-5.4472 2.5258 -1.9959 0.9750
-5.8105 1.5137 -1.9959 0.9750
-5.9227 0.9872 -1.9959 0.9750
-5.9721 -0.6224 -1.9959 0.9750
-5.8923 -1.1547 -1.9959 0.9750
-5.7652 -1.6778 -1.9959 0.9750
-5.5917 -2.1873 -1.9959 0.9750
-5.1117 -3.1496 -1.9958 0.9750
-4.8091 -3.5947 -1.9958 0.9750
-3.6805 -4.7433 -1.9957 0.9750
-3.2409 -5.0537 -1.9956 0.9750
-1.2604 -5.8693 -1.9955 0.9750
1.9251 -5.6851 -1.9952 0.9750
2.4264 -5.4897 -1.9951 0.9750
2.9082 -5.2502 -1.9951 0.9750
3.7980 -4.6471 -1.9950 0.9750
4.1988 -4.2882 -1.9950 0.9750
4.5659 -3.8949 -1.9949 0.9750
5.6423 -2.0441 -1.9948 0.9750
5.9164 -1.0048 -1.9948 0.9750
5.9707 0.6038 -1.9948 0.9750
5.5427 0.6292 -1.9948 0.9766
5.3417 1.6078 -1.9949 0.9766
4.9693 2.5350 -1.9949 0.9766
4.7223 2.9698 -1.9949 0.9766
4.4375 3.3808 -1.9950 0.9766
3.7633 4.1183 -1.9950 0.9766
2.4685 4.8431 -1.9439 0.9772
1.9197 4.7828 -1.8430 0.9783
1.0358 5.0488 -1.8431 0.9783
0.5795 5.1214 -1.8431 0.9783
0.1186 5.1528 -1.8432 0.9783
-0.8025 5.0915 -1.8433 0.9783
-1.6980 4.8669 -1.8433 0.9783
-2.1271 4.6954 -1.8434 0.9783
-3.1658 4.5812 -1.9914 0.9766
-3.5711 4.2885 -1.9957 0.9766
-4.8496 2.7621 -1.9958 0.9766
-5.2646 1.8528 -1.9959 0.9766
-5.4094 1.3739 -1.9959 0.9766
-5.5107 0.8840 -1.9959 0.9766
-5.5678 0.3869 -1.9959 0.9766
-5.5800 -0.1133 -1.9959 0.9766
-5.4703 -1.1068 -1.9959 0.9766
-5.1850 -2.0649 -1.9958 0.9766
-4.9792 -2.5209 -1.9958 0.9766
-4.7334 -2.9566 -1.9958 0.9766
-4.1300 -3.7535 -1.9957 0.9766
-3.7772 -4.1082 -1.9957 0.9766
-1.6228 -5.3389 -1.9955 0.9766
-0.6444 -5.5425 -1.9954 0.9766
-0.1454 -5.5778 -1.9953 0.9766
0.3546 -5.5683 -1.9953 0.9766
1.3422 -5.4155 -1.9952 0.9766
1.8217 -5.2734 -1.9952 0.9766
2.2866 -5.0890 -1.9951 0.9766
2.7331 -4.8637 -1.9951 0.9766
3.1576 -4.5993 -1.9950 0.9766
3.5567 -4.2979 -1.9950 0.9766
3.9273 -3.9621 -1.9950 0.9766
4.2662 -3.5944 -1.9949 0.9766
4.5709 -3.1979 -1.9949 0.9766
4.8389 -2.7757 -1.9949 0.9766
5.0680 -2.3312 -1.9949 0.9766
5.2563 -1.8679 -1.9949 0.9766
5.5052 -0.9003 -1.9948 0.9766
5.5637 -0.4037 -1.9948 0.9766
5.5775 0.0962 -1.9948 0.9766
5.4709 1.0896 -1.9949 0.9766
5.1889 2.0480 -1.9949 0.9766
4.9847 2.5045 -1.9949 0.9766
4.7404 2.9409 -1.9949 0.9766
4.1399 3.7394 -1.9950 0.9766
3.7885 4.0952 -1.9950 0.9766
3.4066 4.4181 -1.9951 0.9766
2.9933 4.6993 -1.9925 0.9766
2.5124 4.8556 -1.9551 0.9770
1.5139 4.9264 -1.8430 0.9783
0.6109 5.1177 -1.8431 0.9783
0.1501 5.1520 -1.8432 0.9783
-1.2247 5.0069 -1.8433 0.9783
-2.6371 4.7267 -1.9356 0.9773
-3.1372 4.5996 -1.9910 0.9766
-3.9166 3.9756 -1.9957 0.9766
-4.2570 3.6090 -1.9958 0.9766
-4.5631 3.2133 -1.9958 0.9766
-4.8326 2.7918 -1.9958 0.9766
-5.2532 1.8850 -1.9959 0.9766
-5.5653 0.4210 -1.9959 0.9766
-5.5511 -0.5786 -1.9959 0.9766
-5.1976 -2.0331 -1.9958 0.9766
-4.4701 -3.3413 -1.9958 0.9766
-4.1529 -3.7281 -1.9957 0.9766
-3.8022 -4.0850 -1.9957 0.9766
-3.0124 -4.6975 -1.9956 0.9766
-2.5796 -4.9483 -1.9956 0.9766
-1.1716 -5.4556 -1.9954 0.9766
-0.6783 -5.5385 -1.9954 0.9766
-0.1796 -5.5768 -1.9954 0.9766
0.8181 -5.5192 -1.9953 0.9766
1.3090 -5.4236 -1.9952 0.9766
1.7894 -5.2845 -1.9952 0.9766
3.1294 -4.6185 -1.9950 0.9766
3.5304 -4.3196 -1.9950 0.9766
3.9030 -3.9861 -1.9950 0.9766
4.2442 -3.6205 -1.9950 0.9766
4.5513 -3.2258 -1.9949 0.9766
4.8218 -2.8052 -1.9949 0.9766
5.0536 -2.3621 -1.9949 0.9766
5.5611 -0.4377 -1.9948 0.9766
5.0990 1.0480 -1.9949 0.9779
4.9847 1.5004 -1.9949 0.9779
4.8304 1.9408 -1.9949 0.9779
4.6372 2.3656 -1.9949 0.9779
4.4068 2.7714 -1.9950 0.9779
4.1410 3.1549 -1.9950 0.9779
3.8419 3.5131 -1.9950 0.9779
1.3880 4.6171 -1.8476 0.9796
0.5408 4.7791 -1.8431 0.9796
-0.3204 4.7991 -1.8432 0.9796
-2.1112 4.6603 -1.9606 0.9783
-2.5592 4.5218 -1.9911 0.9780
-2.9606 4.2842 -1.9956 0.9779
-3.3324 4.0019 -1.9957 0.9779
-3.6775 3.6874 -1.9957 0.9779
-3.9929 3.3434 -1.9957 0.9779
-4.2764 2.9724 -1.9958 0.9779
-4.5254 2.5775 -1.9958 0.9779
-4.7381 2.1619 -1.9958 0.9779
-5.1424 0.8249 -1.9958 0.9779
-2.3036 0.1601 -0.8849 0.9902
-2.2940 -0.0466 -0.8793 0.9902
-5.1046 -1.0328 -1.9958 0.9779
-4.9916 -1.4858 -1.9958 0.9779
-4.6464 -2.3524 -1.9958 0.9779
-3.8539 -3.5026 -1.9957 0.9779
-3.5247 -3.8336 -1.9957 0.9779
-3.1672 -4.1337 -1.9956 0.9779
-2.3789 -4.6322 -1.9956 0.9779
-1.5144 -4.9821 -1.9955 0.9779
-1.0621 -5.0976 -1.9954 0.9779
-0.6013 -5.1721 -1.9954 0.9779
-0.1357 -5.2050 -1.9954 0.9779
0.3309 -5.1962 -1.9953 0.9779
1.2525 -5.0536 -1.9952 0.9779
2.1338 -4.7489 -1.9951 0.9779
2.5505 -4.5387 -1.9951 0.9779
3.3191 -4.0108 -1.9950 0.9779
3.6649 -3.6973 -1.9950 0.9779
4.2655 -2.9842 -1.9950 0.9779
4.5156 -2.5902 -1.9949 0.9779
5.1374 -0.8402 -1.9949 0.9779
5.1759 0.5555 -1.9949 0.9779
5.1054 1.0168 -1.9949 0.9779
4.8422 1.9112 -1.9949 0.9779
4.1602 3.1295 -1.9950 0.9779
3.8633 3.4896 -1.9950 0.9779
3.5353 3.8216 -1.9950 0.9779
1.4194 4.6189 -1.8518 0.9795
0.9954 4.7054 -1.8431 0.9796
0.1401 4.8077 -1.8432 0.9796
-0.7198 4.7557 -1.8432 0.9796
-1.5784 4.6149 -1.8691 0.9793
-2.5311 4.5367 -1.9908 0.9780
-2.9342 4.3021 -1.9956 0.9779
-3.3079 4.0222 -1.9957 0.9779
-3.6548 3.7099 -1.9957 0.9779
-4.9020 1.7590 -1.9958 0.9779
-2.3031 -0.2400 -0.8874 0.9901
-5.0006 -1.4553 -1.9958 0.9779
-4.6607 -2.3239 -1.9958 0.9779
-4.1713 -3.1179 -1.9957 0.9779
-2.8111 -4.3836 -1.9956 0.9779
-1.9840 -4.8145 -1.9955 0.9779
-0.1676 -5.2041 -1.9954 0.9779
0.2991 -5.1981 -1.9953 0.9779
0.7634 -5.1503 -1.9953 0.9779
2.1047 -4.7619 -1.9951 0.9779
2.9203 -4.3099 -1.9951 0.9779
3.6422 -3.7197 -1.9950 0.9779
3.9606 -3.3786 -1.9950 0.9779
5.0334 -1.3277 -1.9949 0.9779
4.8432 0.5498 -1.9949 0.9792
4.7745 0.9813 -1.9949 0.9792
4.3420 2.2150 -1.9950 0.9792
4.1263 2.5950 -1.9950 0.9792
3.5973 3.2895 -1.9950 0.9792
2.5937 4.1275 -1.9951 0.9792
2.2130 4.3418 -1.9945 0.9792
1.8113 4.5126 -1.9901 0.9792
0.1037 4.5060 -1.8447 0.9807
-0.7131 4.5241 -1.8745 0.9804
-1.1435 4.5540 -1.9217 0.9799
-1.6001 4.5864 -1.9881 0.9792
-2.0079 4.4323 -1.9915 0.9792
-3.1202 3.7471 -1.9957 0.9791
-4.5999 1.6188 -1.9958 0.9791
-2.1246 0.5396 -0.8971 0.9906
-2.0188 -0.2229 -0.8313 0.9913
-2.0766 -0.4202 -0.8671 0.9909
-4.6737 -1.3912 -1.9958 0.9791
-4.5303 -1.8041 -1.9958 0.9791
-4.3505 -2.2026 -1.9958 0.9791
-3.8877 -2.9432 -1.9957 0.9791
-2.9655 -3.8705 -1.9956 0.9791
-2.6069 -4.1205 -1.9956 0.9791
-2.2274 -4.3373 -1.9955 0.9791
-1.4179 -4.6649 -1.9955 0.9791
-0.5630 -4.8428 -1.9954 0.9791
0.3099 -4.8654 -1.9953 0.9791
0.7443 -4.8180 -1.9953 0.9791
1.1728 -4.7319 -1.9952 0.9792
2.3881 -4.2497 -1.9951 0.9792
2.7590 -4.0187 -1.9951 0.9792
3.7278 -3.1407 -1.9950 0.9792
4.2281 -2.4253 -1.9950 0.9792
4.5929 -1.6322 -1.9949 0.9792
4.7206 -1.2143 -1.9949 0.9792
4.8103 -0.7867 -1.9949 0.9792
4.8735 0.0840 -1.9949 0.9792
4.8464 0.5201 -1.9949 0.9792
4.3555 2.1884 -1.9950 0.9792
3.8954 2.9303 -1.9950 0.9792
3.3103 3.5783 -1.9951 0.9792
2.9766 3.8604 -1.9951 0.9792
0.5388 4.5136 -1.8604 0.9805
-0.2730 4.5031 -1.8464 0.9807
-1.1132 4.5512 -1.9176 0.9800
-2.3752 4.2572 -1.9952 0.9792
-2.7475 4.0283 -1.9956 0.9791
-3.0972 3.7661 -1.9957 0.9791
-3.4221 3.4736 -1.9957 0.9791
-4.2224 2.4393 -1.9958 0.9791
-4.4239 2.0513 -1.9958 0.9791
-2.0432 0.3406 -0.8478 0.9911
-2.0123 0.1522 -0.8259 0.9913
-2.0179 -0.2103 -0.8304 0.9913
-4.6821 -1.3626 -1.9958 0.9791
-4.5413 -1.7764 -1.9958 0.9791
-4.3639 -2.1759 -1.9958 0.9791
-3.6285 -3.2574 -1.9957 0.9791
-3.3222 -3.5692 -1.9957 0.9791
-2.2539 -4.3236 -1.9955 0.9791
-1.4465 -4.6561 -1.9955 0.9791
-1.0237 -4.7668 -1.9954 0.9791
-0.5927 -4.8393 -1.9954 0.9791
-0.1569 -4.8728 -1.9954 0.9791
0.2801 -4.8672 -1.9953 0.9791
1.9707 -4.4587 -1.9952 0.9792
3.0848 -3.7744 -1.9951 0.9792
3.7085 -3.1635 -1.9950 0.9792
3.9768 -2.8187 -1.9950 0.9792
4.2132 -2.4512 -1.9950 0.9792
4.5828 -1.6603 -1.9949 0.9792
4.7131 -1.2432 -1.9949 0.9792
4.8054 -0.8161 -1.9949 0.9792
4.8495 0.4905 -1.9949 0.9792
4.5483 0.5163 -1.9949 0.9802
4.4838 0.9215 -1.9949 0.9802
4.3833 1.3194 -1.9950 0.9802
3.6413 2.7742 -1.9950 0.9802
3.0881 3.3794 -1.9951 0.9802
2.7731 3.6424 -1.9951 0.9802
2.4358 3.8762 -1.9951 0.9802
0.9170 4.4697 -1.9885 0.9803
0.5082 4.4908 -1.9697 0.9805
0.1031 4.4809 -1.9534 0.9806
-0.2990 4.4791 -1.9564 0.9806
-0.7098 4.5030 -1.9867 0.9803
-1.1118 4.4280 -1.9897 0.9803
-1.5059 4.3165 -1.9924 0.9802
-2.6032 3.7670 -1.9956 0.9802
-3.5110 2.9398 -1.9957 0.9802
-3.7602 2.6136 -1.9957 0.9802
-3.9791 2.2664 -1.9957 0.9802
-1.4909 0.3787 -0.6704 0.9933
-1.4605 0.1015 -0.6380 0.9936
-1.4712 -0.1624 -0.6451 0.9936
-4.2544 -1.6942 -1.9957 0.9802
-3.8838 -2.4259 -1.9957 0.9802
-3.6509 -2.7640 -1.9957 0.9802
-3.3887 -3.0798 -1.9957 0.9802
-3.0992 -3.3708 -1.9956 0.9802
-2.4481 -3.8695 -1.9956 0.9802
-1.3316 -4.3808 -1.9955 0.9802
-0.9339 -4.4823 -1.9954 0.9802
-0.1193 -4.5769 -1.9954 0.9802
0.2910 -4.5691 -1.9953 0.9802
0.6990 -4.5246 -1.9953 0.9802
1.4948 -4.3271 -1.9952 0.9802
2.2427 -3.9910 -1.9951 0.9802
2.9186 -3.5268 -1.9951 0.9802
3.2226 -3.2512 -1.9950 0.9802
4.1587 -1.9129 -1.9950 0.9802
4.3132 -1.5328 -1.9950 0.9802
4.4332 -1.1404 -1.9949 0.9802
4.3913 1.2925 -1.9950 0.9802
4.2579 1.6806 -1.9950 0.9802
2.7953 3.6253 -1.9951 0.9802
2.4595 3.8612 -1.9951 0.9802
2.1038 4.0660 -1.9952 0.9802
1.7306 4.2364 -1.9944 0.9802
1.3421 4.3673 -1.9912 0.9803
0.9444 4.4643 -1.9887 0.9803
0.5363 4.4927 -1.9719 0.9805
-0.2715 4.4793 -1.9558 0.9806
-1.0846 4.4344 -1.9895 0.9803
-3.2136 3.2621 -1.9957 0.9802
-3.4929 2.9612 -1.9957 0.9802
-1.4877 0.5338 -0.6889 0.9931
-1.4920 0.3887 -0.6719 0.9933
-1.4627 0.1106 -0.6393 0.9936
-1.4701 -0.1532 -0.6442 0.9936
-1.4713 -0.2883 -0.6534 0.9935
-1.4935 -0.4346 -0.6779 0.9932
-4.0981 -2.0434 -1.9957 0.9802
-3.4075 -3.0590 -1.9957 0.9802
-3.1198 -3.3518 -1.9956 0.9802
-2.1166 -4.0602 -1.9955 0.9802
-1.7445 -4.2334 -1.9955 0.9802
-0.9613 -4.4765 -1.9954 0.9802
0.6713 -4.5288 -1.9953 0.9802
1.0741 -4.4504 -1.9952 0.9802
1.4683 -4.3362 -1.9952 0.9802
1.8507 -4.1872 -1.9952 0.9802
2.5679 -3.7898 -1.9951 0.9802
2.8969 -3.5446 -1.9951 0.9802
3.4827 -2.9709 -1.9950 0.9802
3.7347 -2.6470 -1.9950 0.9802
3.9567 -2.3019 -1.9950 0.9802
4.1469 -1.9383 -1.9950 0.9802
4.3038 -1.5592 -1.9950 0.9802
4.4261 -1.1675 -1.9949 0.9802
4.5128 -0.7664 -1.9949 0.9802
4.2823 0.4861 -1.9950 0.9812
4.1270 1.2422 -1.9950 0.9812
3.8393 1.9585 -1.9950 0.9812
3.6485 2.2945 -1.9950 0.9812
3.4284 2.6120 -1.9950 0.9812
2.6109 3.4294 -1.9951 0.9812
2.2934 3.6495 -1.9952 0.9812
1.6056 4.0002 -1.9952 0.9812
0.8652 4.2172 -1.9927 0.9812
0.4837 4.2746 -1.9913 0.9812
-1.4201 4.0704 -1.9955 0.9812
-2.7588 3.3130 -1.9956 0.9812
-3.0444 3.0527 -1.9957 0.9812
-3.3056 2.7678 -1.9957 0.9812
-3.7464 2.1338 -1.9957 0.9812
-1.2588 0.5744 -0.6404 0.9939
-1.2638 0.4448 -0.6202 0.9941
-1.2704 0.3227 -0.6067 0.9942
-1.2700 -0.3780 -0.6133 0.9942
-2.6220 -3.4222 -1.9956 0.9812
-0.1124 -4.3092 -1.9954 0.9812
0.2740 -4.3019 -1.9953 0.9812
0.6581 -4.2600 -1.9953 0.9812
1.4074 -4.0741 -1.9952 0.9812
1.7666 -3.9317 -1.9952 0.9812
3.0342 -3.0611 -1.9951 0.9812
3.2961 -2.7771 -1.9950 0.9812
3.7385 -2.1445 -1.9950 0.9812
3.9155 -1.8011 -1.9950 0.9812
4.1740 -1.0737 -1.9950 0.9812
4.2985 -0.3119 -1.9950 0.9812
4.3092 0.0743 -1.9950 0.9812
4.2852 0.4599 -1.9950 0.9812
3.6624 2.2721 -1.9950 0.9812
3.4443 2.5910 -1.9950 0.9812
3.1985 2.8891 -1.9951 0.9812
2.9269 3.1639 -1.9951 0.9812
2.6319 3.4134 -1.9951 0.9812
2.3157 3.6354 -1.9952 0.9812
0.8911 4.2121 -1.9929 0.9812
0.5099 4.2717 -1.9914 0.9812
0.1253 4.2989 -1.9907 0.9812
-1.0233 4.1837 -1.9937 0.9812
-2.1005 3.7648 -1.9956 0.9812
-2.7385 3.3299 -1.9956 0.9812
-3.0257 3.0713 -1.9956 0.9812
-3.2886 2.7880 -1.9957 0.9812
-3.5251 2.4823 -1.9957 0.9812
-3.7333 2.1567 -1.9957 0.9812
-1.2628 0.5856 -0.6443 0.9939
-1.2734 0.2123 -0.5976 0.9943
-1.2745 -0.1328 -0.5932 0.9944
-1.2703 -0.3697 -0.6124 0.9942
-1.2556 -0.4911 -0.6241 0.9941
-3.6706 -2.2616 -1.9957 0.9812
-3.4533 -2.5812 -1.9957 0.9812
-2.9374 -3.1558 -1.9956 0.9812
-1.9929 -3.8228 -1.9955 0.9812
-1.6425 -3.9858 -1.9955 0.9812
-0.5240 -4.2788 -1.9954 0.9812
0.2477 -4.3035 -1.9953 0.9812
1.7425 -3.9424 -1.9952 0.9812
2.0885 -3.7704 -1.9951 0.9812
2.4178 -3.5682 -1.9951 0.9812
2.7275 -3.3373 -1.9951 0.9812
3.0154 -3.0796 -1.9951 0.9812
3.5163 -2.4923 -1.9950 0.9812
3.7253 -2.1673 -1.9950 0.9812
4.2490 -0.7216 -1.9950 0.9812
4.2880 0.4337 -1.9950 0.9812
4.0411 0.4587 -1.9950 0.9820
3.9838 0.8188 -1.9950 0.9820
3.8945 1.1722 -1.9950 0.9820
3.7739 1.5163 -1.9950 0.9820
3.0015 2.7447 -1.9951 0.9820
2.7437 3.0025 -1.9951 0.9820
2.4638 3.2362 -1.9951 0.9820
2.1642 3.4439 -1.9952 0.9820
1.1711 3.8954 -1.9953 0.9820
0.8175 3.9847 -1.9953 0.9820
-1.3401 3.8410 -1.9955 0.9820
-1.6787 3.7057 -1.9955 0.9820
-2.0038 3.5405 -1.9956 0.9820
-2.6033 3.1263 -1.9956 0.9820
-2.8729 2.8807 -1.9956 0.9820
-3.3407 2.3220 -1.9957 0.9820
-1.1239 0.3955 -0.5845 0.9947
-1.1431 0.0794 -0.5621 0.9949
-1.1374 -0.0231 -0.5580 0.9949
-1.1442 -0.1263 -0.5647 0.9949
-1.1376 -0.2302 -0.5693 0.9948
-1.1140 -0.4436 -0.5882 0.9947
-3.4506 -2.1553 -1.9957 0.9820
-3.2437 -2.4557 -1.9956 0.9820
-3.0107 -2.7362 -1.9956 0.9820
-2.1751 -3.4379 -1.9955 0.9820
-1.5269 -3.7706 -1.9955 0.9820
-0.8297 -3.9824 -1.9954 0.9820
-0.4698 -4.0406 -1.9954 0.9820
-0.1060 -4.0664 -1.9954 0.9820
0.2585 -4.0595 -1.9953 0.9820
1.3281 -3.8446 -1.9952 0.9820
1.6671 -3.7101 -1.9952 0.9820
2.3021 -3.3532 -1.9951 0.9820
2.5931 -3.1335 -1.9951 0.9820
2.8633 -2.8886 -1.9951 0.9820
3.1104 -2.6206 -1.9951 0.9820
3.5279 -2.0237 -1.9950 0.9820
3.6950 -1.6996 -1.9950 0.9820
3.8323 -1.3619 -1.9950 0.9820
3.9388 -1.0132 -1.9950 0.9820
4.0564 -0.2943 -1.9950 0.9820
4.0664 0.0701 -1.9950 0.9820
3.7831 1.4932 -1.9950 0.9820
3.2503 2.4450 -1.9951 0.9820
2.7620 2.9857 -1.9951 0.9820
2.4836 3.2211 -1.9951 0.9820
1.8692 3.6125 -1.9952 0.9820
1.1949 3.8882 -1.9953 0.9820
0.8419 3.9796 -1.9953 0.9820
0.4821 4.0389 -1.9953 0.9820
0.1184 4.0647 -1.9947 0.9820
-0.2461 4.0592 -1.9948 0.9820
-0.6088 4.0221 -1.9954 0.9820
-0.9665 3.9515 -1.9955 0.9820
-1.3165 3.8492 -1.9955 0.9820
-1.6560 3.7159 -1.9955 0.9820
-1.9821 3.5527 -1.9956 0.9820
-1.1226 0.4028 -0.5851 0.9947
-1.1421 0.1904 -0.5680 0.9949
-1.1435 0.0865 -0.5625 0.9949
-1.1443 -0.1193 -0.5643 0.9949
-1.1386 -0.2231 -0.5691 0.9948
-3.2587 -2.4358 -1.9956 0.9820
-2.4940 -3.2142 -1.9956 0.9820
-1.8806 -3.6074 -1.9955 0.9820
-1.5499 -3.7612 -1.9955 0.9820
-0.4945 -4.0377 -1.9954 0.9820
-0.1309 -4.0657 -1.9954 0.9820
1.9709 -3.5580 -1.9952 0.9820
2.2815 -3.3672 -1.9951 0.9820
2.5739 -3.1493 -1.9951 0.9820
2.8455 -2.9061 -1.9951 0.9820
3.5155 -2.0452 -1.9950 0.9820
3.9326 -1.0373 -1.9950 0.9820
4.0096 -0.6810 -1.9950 0.9820
3.7669 0.7742 -1.9950 0.9828
3.6824 1.1084 -1.9950 0.9828
3.0590 2.3306 -1.9951 0.9828
2.5943 2.8390 -1.9951 0.9828
1.4326 3.5692 -1.9952 0.9828
0.7730 3.7677 -1.9953 0.9828
-0.2562 3.8378 -1.9954 0.9828
-0.9367 3.7307 -1.9955 0.9828
-1.2671 3.6318 -1.9955 0.9828
-1.5873 3.5038 -1.9955 0.9828
-2.1869 3.1646 -1.9956 0.9828
-2.9494 2.4696 -1.9956 0.9828
-0.9519 0.5421 -0.5683 0.9951
-1.0324 -0.0210 -0.5357 0.9954
-1.0375 -0.1146 -0.5415 0.9953
-1.0004 -0.3984 -0.5586 0.9952
-0.9678 -0.4900 -0.5627 0.9951
-0.9695 -0.6056 -0.5930 0.9949
-3.0670 -2.3219 -1.9956 0.9828
-2.8467 -2.5872 -1.9956 0.9828
-1.7572 -3.4217 -1.9955 0.9828
-1.4437 -3.5653 -1.9955 0.9828
-0.7845 -3.7655 -1.9954 0.9828
-0.4442 -3.8206 -1.9954 0.9828
0.9252 -3.7331 -1.9953 0.9828
1.2558 -3.6352 -1.9952 0.9828
2.1767 -3.1705 -1.9951 0.9828
2.4519 -2.9628 -1.9951 0.9828
2.9410 -2.4779 -1.9951 0.9828
3.4937 -1.6071 -1.9950 0.9828
3.6236 -1.2877 -1.9950 0.9828
3.7243 -0.9580 -1.9950 0.9828
3.8450 0.0663 -1.9950 0.9828
3.8236 0.4104 -1.9950 0.9828
3.5771 1.4119 -1.9950 0.9828
3.4363 1.7265 -1.9950 0.9828
3.0733 2.3119 -1.9951 0.9828
2.8539 2.5778 -1.9951 0.9828
2.3483 3.0456 -1.9952 0.9828
2.0662 3.2438 -1.9952 0.9828
0.7960 3.7629 -1.9953 0.9828
0.4559 3.8191 -1.9953 0.9828
-2.4434 2.9710 -1.9956 0.9828
-2.9342 2.4876 -1.9956 0.9828
-3.1452 2.2148 -1.9957 0.9828
-0.9547 0.5515 -0.5720 0.9950
-1.0336 0.1723 -0.5436 0.9953
-1.0373 0.0785 -0.5396 0.9953
-1.0298 -0.2018 -0.5444 0.9953
-1.0181 -0.2963 -0.5501 0.9952
-0.9705 -0.4839 -0.5626 0.9951
-0.9671 -0.5959 -0.5893 0.9949
-2.8625 -2.5697 -1.9956 0.9828
-2.6208 -2.8157 -1.9956 0.9828
-2.0765 -3.2380 -1.9955 0.9828
-1.4655 -3.5564 -1.9955 0.9828
0.2210 -3.8398 -1.9953 0.9828
0.5639 -3.8045 -1.9953 0.9828
0.9024 -3.7387 -1.9953 0.9828
1.8635 -3.3643 -1.9952 0.9828
2.1573 -3.1838 -1.9951 0.9828
2.6906 -2.7478 -1.9951 0.9828
2.9258 -2.4958 -1.9951 0.9828
3.1375 -2.2238 -1.9951 0.9828
3.3240 -1.9339 -1.9950 0.9828
3.7184 -0.9808 -1.9950 0.9828
3.8337 -0.3018 -1.9950 0.9828
3.8261 0.3870 -1.9950 0.9828
1.8793 0.5657 -1.0749 0.9911
3.3800 1.3580 -1.9950 0.9835
2.6882 2.4582 -1.9951 0.9835
2.2066 2.8984 -1.9952 0.9835
1.6543 3.2456 -1.9952 0.9835
1.0488 3.4887 -1.9953 0.9835
0.7322 3.5687 -1.9953 0.9835
0.4096 3.6200 -1.9953 0.9835
-0.2427 3.6351 -1.9954 0.9835
-0.8873 3.5336 -1.9955 0.9835
-1.2002 3.4400 -1.9955 0.9835
-2.0714 2.9974 -1.9956 0.9835
-0.8779 0.6102 -0.5856 0.9951
-0.8722 0.4968 -0.5498 0.9954
-0.9282 0.2358 -0.5245 0.9956
-0.9470 0.0658 -0.5199 0.9957
-0.9434 -0.0191 -0.5168 0.9957
-0.9471 -0.1046 -0.5219 0.9957
-0.9383 -0.1899 -0.5243 0.9956
-0.9080 -0.3616 -0.5353 0.9956
-0.8874 -0.4493 -0.5448 0.9955
-2.4660 -2.6821 -1.9956 0.9835
-1.9480 -3.0790 -1.9955 0.9835
-1.6644 -3.2410 -1.9955 0.9835
-1.3675 -3.3770 -1.9955 0.9835
-0.7431 -3.5666 -1.9954 0.9835
-0.4207 -3.6188 -1.9954 0.9835
-0.0950 -3.6419 -1.9954 0.9835
0.5562 -3.6003 -1.9953 0.9835
0.8764 -3.5360 -1.9953 0.9835
1.1895 -3.4432 -1.9952 0.9835
1.4930 -3.3228 -1.9952 0.9835
2.3224 -2.8064 -1.9951 0.9835
2.7857 -2.3470 -1.9951 0.9835
2.9847 -2.0881 -1.9951 0.9835
1.9339 -0.6872 -1.1241 0.9907
1.8854 -0.4850 -1.0662 0.9912
1.8892 0.2027 -1.0406 0.9914
3.3882 1.3373 -1.9950 0.9835
3.2549 1.6354 -1.9951 0.9835
3.0953 1.9203 -1.9951 0.9835
2.9110 2.1898 -1.9951 0.9835
2.4737 2.6740 -1.9951 0.9835
1.9571 3.0725 -1.9952 0.9835
1.0701 3.4823 -1.9953 0.9835
-0.2204 3.6365 -1.9954 0.9835
-1.1791 3.4473 -1.9955 0.9835
-1.4831 3.3279 -1.9955 0.9835
-2.3143 2.8141 -1.9956 0.9835
-2.5571 2.5956 -1.9956 0.9835
-0.9267 0.2414 -0.5245 0.9956
-0.9432 0.1572 -0.5237 0.9956
-0.9472 0.0717 -0.5202 0.9957
-0.9427 -0.0134 -0.5163 0.9957
-0.9233 -0.2687 -0.5267 0.9956
-0.9091 -0.3556 -0.5347 0.9956
-0.8626 -0.5315 -0.5550 0.9954
-2.9184 -2.1814 -1.9956 0.9835
-2.4824 -2.6670 -1.9956 0.9835
-2.2336 -2.8786 -1.9956 0.9835
-1.6842 -3.2307 -1.9955 0.9835
-1.0809 -3.4793 -1.9954 0.9835
-0.7649 -3.5620 -1.9954 0.9835
-0.4429 -3.6162 -1.9954 0.9835
0.2093 -3.6371 -1.9953 0.9835
0.5342 -3.6036 -1.9953 0.9835
0.8547 -3.5413 -1.9953 0.9835
1.1684 -3.4505 -1.9952 0.9835
2.0434 -3.0157 -1.9952 0.9835
2.5485 -2.6027 -1.9951 0.9835
2.7713 -2.3640 -1.9951 0.9835
3.1485 -1.8317 -1.9951 0.9835
3.2999 -1.5424 -1.9950 0.9835
1.8848 -0.4972 -1.0676 0.9911
1.8862 -0.3203 -1.0479 0.9913
1.8752 0.0208 -1.0271 0.9915
1.8891 0.1910 -1.0399 0.9914
1.7327 0.3561 -1.0213 0.9919
3.0782 1.5703 -1.9951 0.9842
2.7488 2.0942 -1.9951 0.9842
2.3311 2.5510 -1.9952 0.9842
1.8387 2.9260 -1.9952 0.9842
1.5693 3.0790 -1.9952 0.9842
0.9949 3.3096 -1.9953 0.9842
0.0795 3.4552 -1.9954 0.9842
-0.2302 3.4485 -1.9954 0.9842
-0.5381 3.4140 -1.9954 0.9842
-0.8417 3.3522 -1.9954 0.9842
-1.1385 3.2634 -1.9955 0.9842
-1.7024 3.0080 -1.9955 0.9842
-2.2118 2.6561 -1.9956 0.9842
-2.6502 2.2190 -1.9956 0.9842
-0.7987 0.5552 -0.5616 0.9955
-0.8707 0.2212 -0.5187 0.9959
-0.8819 0.0613 -0.5104 0.9959
-0.8795 -0.0178 -0.5079 0.9959
-0.8654 -0.2576 -0.5213 0.9958
-0.8539 -0.3401 -0.5307 0.9958
-0.8336 -0.4221 -0.5395 0.9957
-2.3394 -2.5444 -1.9956 0.9842
-2.1021 -2.7437 -1.9955 0.9842
-1.2972 -3.2036 -1.9955 0.9842
-0.7050 -3.3835 -1.9954 0.9842
1.4164 -3.1522 -1.9952 0.9842
1.6930 -3.0127 -1.9952 0.9842
1.9559 -2.8489 -1.9952 0.9842
2.2032 -2.6623 -1.9951 0.9842
2.4327 -2.4543 -1.9951 0.9842
2.8314 -1.9809 -1.9951 0.9842
1.7064 -0.6064 -1.0455 0.9917
