ply
format ascii 1.0
element vertex 1583
property float32 x
property float32 y
property float32 z
property float32 I
end_header
-2.8963 15.9231 0.6382 0.9373
-5.1855 18.8096 0.7694 0.9249
8.1788 -17.8331 0.3314 0.9245
9.6060 -16.8130 0.3271 0.9255
13.6742 -13.6494 0.3264 0.9256
15.0127 -12.5279 0.3303 0.9248
3.0799 9.7297 0.1724 0.9600
3.6371 16.4581 0.2847 0.9348
1.9944 15.4447 0.2631 0.9396
0.5543 14.0819 0.2381 0.9452
-0.6545 13.1502 0.2224 0.9487
-7.9922 10.0207 0.2165 0.9500
7.4405 -18.5182 0.3371 0.9233
8.8665 -17.4062 0.3300 0.9248
11.6956 -15.4080 0.3268 0.9255
12.9428 -14.2218 0.3248 0.9260
14.3840 -13.2230 0.3300 0.9248
15.7342 -12.0682 0.3350 0.9237
2.8212 15.8292 0.2716 0.9377
1.2815 14.6424 0.2483 0.9429
-2.9712 16.3352 0.2805 0.9357
8.0957 -17.6521 -0.1093 0.9253
9.6055 -16.8121 -0.1090 0.9255
10.9977 -15.7973 -0.1084 0.9259
12.3074 -14.6942 -0.1079 0.9262
13.6291 -13.6044 -0.1084 0.9259
14.9831 -12.5031 -0.1099 0.9249
3.6324 16.4368 -0.0948 0.9349
-0.6538 13.1369 -0.0741 0.9487
-2.0706 14.8215 -0.0843 0.9419
7.3193 -18.2166 -0.1105 0.9245
8.6954 -17.0706 -0.1079 0.9262
12.9305 -14.2083 -0.1082 0.9260
14.3559 -13.1972 -0.1098 0.9250
15.7267 -12.0625 -0.1116 0.9238
10.9025 15.2153 -0.1054 0.9279
2.8177 15.8096 -0.0904 0.9378
-0.0246 13.8739 -0.0781 0.9460
-1.2873 14.1310 -0.0799 0.9448
9.6211 -16.8395 -0.5461 0.9253
13.7915 -13.7666 -0.5487 0.9250
15.1490 -12.6415 -0.5556 0.9241
3.6277 16.4155 -0.4734 0.9349
-0.6532 13.1236 -0.3700 0.9488
-3.9158 16.8851 -0.4881 0.9330
-7.9933 10.0221 -0.3610 0.9500
7.2484 -18.0402 -0.5474 0.9252
8.6450 -16.9716 -0.5363 0.9266
10.3209 -16.4547 -0.5469 0.9252
13.0074 -14.2927 -0.5442 0.9256
10.8808 15.1850 -0.5260 0.9280
4.4829 16.4893 -0.4812 0.9339
-1.2861 14.1172 -0.3992 0.9449
-2.9645 16.2979 -0.4664 0.9359
1.4386 -19.4831 -0.9908 0.9247
3.1692 -19.2967 -0.9917 0.9247
4.8959 -19.0266 -0.9964 0.9243
8.0142 -17.4744 -0.9750 0.9259
9.3847 -16.4257 -0.9594 0.9270
12.0500 -14.3870 -0.9517 0.9276
13.3882 -13.3640 -0.9593 0.9270
16.1870 -11.2255 -0.9990 0.9241
11.4543 2.2663 -0.5922 0.9543
1.9512 15.1105 -0.7727 0.9408
0.5525 14.0362 -0.7124 0.9453
-0.6525 13.1103 -0.6657 0.9488
-3.9108 16.8638 -0.8779 0.9330
2.2383 -19.4073 -0.9908 0.9247
3.9665 -19.1825 -0.9934 0.9245
5.6932 -18.8731 -0.9997 0.9241
8.6524 -16.9860 -0.9668 0.9265
12.6652 -13.9167 -0.9543 0.9274
14.0156 -12.8844 -0.9655 0.9266
15.4096 -11.8193 -0.9849 0.9252
11.2637 2.7141 -0.5876 0.9547
10.8960 15.2061 -0.9487 0.9278
1.2772 14.5928 -0.7429 0.9430
-11.2544 -15.1510 -1.3839 0.9271
-9.6368 -15.7245 -1.3522 0.9287
-8.0367 -16.1909 -1.3254 0.9301
-6.4535 -16.5566 -1.3029 0.9312
-3.3324 -17.0049 -1.2706 0.9329
-1.7919 -17.0948 -1.2603 0.9334
-0.2628 -17.0983 -1.2538 0.9337
2.7675 -16.8509 -1.2521 0.9338
5.6498 -15.9246 -1.2389 0.9345
6.8783 -14.9976 -1.2098 0.9360
8.0861 -14.1529 -1.1952 0.9367
10.8318 -12.9325 -1.2369 0.9346
12.2011 -12.1790 -1.2640 0.9332
13.5675 -11.3218 -1.2957 0.9316
14.9297 -10.3536 -1.3322 0.9297
16.2861 -9.2658 -1.3739 0.9276
17.6335 -8.0486 -1.4212 0.9252
10.4984 2.0771 -0.7847 0.9580
3.0127 9.5172 -0.7320 0.9608
0.5406 13.7341 -1.0078 0.9464
-0.6385 12.8292 -0.9418 0.9498
-2.0023 14.3329 -1.0611 0.9436
-3.9059 16.8425 -1.2677 0.9330
-8.0608 10.1067 -0.9479 0.9495
-12.1329 -14.7954 -1.4029 0.9261
-10.5054 -15.4295 -1.3687 0.9279
-8.8960 -15.9527 -1.3393 0.9294
-7.3038 -16.3719 -1.3145 0.9306
-5.7279 -16.6929 -1.2940 0.9317
-2.6198 -17.0573 -1.2653 0.9331
-1.0847 -17.1070 -1.2568 0.9336
1.9550 -16.9507 -1.2511 0.9339
3.4626 -16.7457 -1.2538 0.9337
8.7207 -13.9035 -1.2034 0.9363
10.0936 -13.2975 -1.2241 0.9352
11.4642 -12.5971 -1.2489 0.9340
12.8323 -11.7966 -1.2781 0.9325
15.5568 -9.8669 -1.3507 0.9288
18.2516 -7.4400 -1.4452 0.9240
10.8089 1.6046 -0.8012 0.9571
10.3918 2.5040 -0.7838 0.9580
10.9389 15.2661 -1.3770 0.9274
6.1562 16.6311 -1.3003 0.9313
2.7498 15.4289 -1.1491 0.9391
1.2496 14.2782 -1.0509 0.9441
-0.0236 13.3011 -0.9753 0.9481
-1.2124 13.3084 -0.9798 0.9478
-2.7937 15.3591 -1.1446 0.9393
-18.7405 -2.4545 -1.8146 0.9269
-17.7428 -3.9547 -1.7452 0.9296
-16.7465 -7.0302 -1.7437 0.9296
-13.1402 -10.2971 -1.6027 0.9351
-11.8571 -11.1295 -1.5612 0.9367
-10.5647 -11.8537 -1.5244 0.9382
-9.2672 -12.4756 -1.4920 0.9395
-7.9673 -13.0003 -1.4638 0.9406
-6.6674 -13.4322 -1.4397 0.9415
-5.3694 -13.7753 -1.4194 0.9423
-4.0746 -14.0329 -1.4029 0.9430
-2.7843 -14.2076 -1.3899 0.9435
1.0525 -14.2535 -1.3721 0.9442
3.5752 -13.8941 -1.3774 0.9440
4.8241 -13.5972 -1.3851 0.9437
7.2921 -12.7631 -1.4112 0.9426
8.5087 -12.2221 -1.4297 0.9419
10.8981 -10.8783 -1.4783 0.9400
15.4150 -7.0359 -1.6268 0.9342
18.4083 -2.9890 -1.7904 0.9278
9.6497 1.9092 -0.9444 0.9612
10.7530 3.1434 -1.0755 0.9560
7.1162 17.0380 -1.7727 0.9285
3.0017 9.4825 -0.9549 0.9608
1.9068 14.7666 -1.4294 0.9419
0.5401 13.7192 -1.3181 0.9463
-2.0002 14.3177 -1.3879 0.9436
-19.5508 0.1329 -1.8770 0.9244
-18.4069 -1.5179 -1.7731 0.9285
-18.2876 -3.1647 -1.7818 0.9281
-16.5791 -6.0425 -1.6941 0.9315
-13.8257 -9.8021 -1.6271 0.9342
-12.5493 -10.6952 -1.5830 0.9359
-11.2614 -11.4769 -1.5437 0.9374
-9.9662 -12.1532 -1.5089 0.9388
-8.6672 -12.7296 -1.4785 0.9400
-0.9079 -14.3184 -1.3774 0.9440
0.3683 -14.2972 -1.3731 0.9441
1.6375 -14.1981 -1.3721 0.9442
6.6320 -13.0197 -1.4028 0.9430
7.8553 -12.5239 -1.4193 0.9423
11.4396 -10.5164 -1.4918 0.9395
12.5973 -9.6622 -1.5242 0.9382
13.7306 -8.7086 -1.5610 0.9368
15.9037 -6.4829 -1.6488 0.9333
16.9306 -5.2001 -1.7004 0.9313
17.9071 -3.7966 -1.7574 0.9291
18.8228 -2.2667 -1.8201 0.9266
9.8848 1.4674 -0.9594 0.9606
9.8406 2.3712 -0.9718 0.9601
-1.2112 13.2953 -1.2817 0.9478
-2.7905 15.3415 -1.4970 0.9393
-8.7537 10.0947 -1.2828 0.9477
-13.9643 -5.8622 -1.7990 0.9408
-13.0260 -6.8900 -1.7504 0.9424
-11.0375 -8.6494 -1.6657 0.9451
-8.9441 -10.0354 -1.5968 0.9473
-7.8712 -10.5964 -1.5680 0.9482
-5.6932 -11.4695 -1.5210 0.9497
-4.5943 -11.7868 -1.5027 0.9503
-3.4923 -12.0273 -1.4877 0.9508
-1.2878 -12.2857 -1.4674 0.9515
-0.1891 -12.3060 -1.4619 0.9516
0.9049 -12.2548 -1.4597 0.9517
1.9926 -12.1326 -1.4605 0.9517
6.2446 -10.9297 -1.4953 0.9506
7.2728 -10.4467 -1.5120 0.9500
9.2693 -9.2525 -1.5557 0.9486
11.1629 -7.7413 -1.6136 0.9468
12.0602 -6.8615 -1.6482 0.9456
12.9173 -5.8959 -1.6867 0.9444
13.7277 -4.8424 -1.7291 0.9430
15.1782 -2.4645 -1.8266 0.9399
15.8002 -1.1379 -1.8817 0.9382
9.6363 1.9066 -1.1669 0.9612
10.6422 3.1110 -1.3171 0.9563
17.3334 8.6430 -2.3007 0.9249
9.9512 15.3964 -2.1776 0.9288
7.1119 17.0276 -2.1920 0.9284
2.9910 9.4488 -1.1773 0.9609
3.4085 15.4237 -1.8763 0.9384
0.5395 13.7043 -1.6291 0.9463
-0.6372 12.8030 -1.5227 0.9497
-3.8960 16.7999 -2.0485 0.9329
-5.4791 8.2872 -1.1801 0.9608
-8.1008 10.1569 -1.5432 0.9490
-17.9807 1.7291 -2.1457 0.9298
-17.4554 0.1186 -2.0735 0.9321
-16.8254 -1.3875 -2.0054 0.9343
-16.1057 -2.7871 -1.9416 0.9363
-15.3099 -4.0798 -1.8821 0.9382
-11.5851 -8.2136 -1.6869 0.9444
-9.5154 -9.6975 -1.6139 0.9467
-7.3717 -10.8269 -1.5559 0.9486
-5.1864 -11.6256 -1.5121 0.9500
0.3166 -12.2912 -1.4605 0.9517
1.4079 -12.2072 -1.4597 0.9517
4.6322 -11.5288 -1.4759 0.9512
5.6842 -11.1591 -1.4876 0.9508
6.7214 -10.7160 -1.5026 0.9503
8.7407 -9.6045 -1.5426 0.9490
13.2976 -5.4206 -1.7058 0.9438
14.0841 -4.3258 -1.7501 0.9424
14.8129 -3.1406 -1.7987 0.9408
15.4749 -1.8636 -1.8515 0.9391
17.3950 7.6558 -2.2576 0.9263
17.2416 9.5015 -2.3385 0.9238
10.5040 14.6591 -2.1422 0.9299
-0.0236 13.2731 -1.5767 0.9479
-2.7873 15.3239 -1.8501 0.9392
-2.9821 10.8171 -1.3328 0.9558
-13.2441 -2.9520 -1.9226 0.9467
-12.6006 -4.0138 -1.8738 0.9480
-11.8972 -4.9944 -1.8282 0.9492
-11.1423 -5.8936 -1.7860 0.9504
-6.8360 -9.2028 -1.6243 0.9547
-5.9064 -9.6375 -1.6016 0.9554
-4.9639 -10.0004 -1.5819 0.9559
-3.0535 -10.5163 -1.5516 0.9567
1.7463 -10.6328 -1.5267 0.9574
6.3460 -9.1155 -1.5737 0.9561
8.8743 -7.4055 -1.6377 0.9544
9.6577 -6.6975 -1.6652 0.9536
10.4040 -5.9192 -1.6960 0.9528
11.1078 -5.0700 -1.7300 0.9519
11.7632 -4.1494 -1.7674 0.9509
12.9021 -2.0950 -1.8520 0.9486
13.3703 -0.9629 -1.8993 0.9473
10.1003 1.0773 -1.4392 0.9598
9.5374 1.8870 -1.3775 0.9615
14.3352 5.6175 -2.1815 0.9397
14.1820 7.0716 -2.2454 0.9380
13.8897 8.5470 -2.3108 0.9362
11.6493 12.4560 -2.4165 0.9334
10.3210 13.2200 -2.3764 0.9345
9.3197 14.4193 -2.4327 0.9330
6.8899 16.4961 -2.5330 0.9303
2.9805 9.4156 -1.3993 0.9609
3.3601 15.2050 -2.2064 0.9390
0.5389 13.6893 -1.9411 0.9462
-3.7945 16.3622 -2.3799 0.9344
-7.2754 16.9228 -2.6100 0.9283
-5.4785 8.2862 -1.4075 0.9607
-12.8343 13.4405 -2.6332 0.9277
-14.3068 10.4383 -2.5093 0.9310
-14.7821 8.8859 -2.4438 0.9327
-14.8941 1.4323 -2.1201 0.9413
-14.5429 0.0988 -2.0606 0.9429
-9.9621 -7.0629 -1.7303 0.9519
-9.1114 -7.7652 -1.6962 0.9528
-6.4087 -9.4125 -1.6134 0.9550
-0.6835 -10.7793 -1.5304 0.9573
0.2775 -10.7717 -1.5267 0.9574
1.2340 -10.6989 -1.5260 0.9574
2.1838 -10.5611 -1.5280 0.9574
3.1246 -10.3583 -1.5330 0.9572
4.0543 -10.0905 -1.5408 0.9570
6.7497 -8.8922 -1.5818 0.9559
7.6073 -8.3591 -1.6014 0.9554
8.4389 -7.7578 -1.6242 0.9547
10.7345 -5.5360 -1.7113 0.9524
12.6204 -2.6757 -1.8279 0.9492
13.1274 -1.5809 -1.8735 0.9480
13.5604 -0.4174 -1.9223 0.9467
13.9102 0.8119 -1.9743 0.9453
9.6113 2.3159 -1.4008 0.9608
13.7052 9.2310 -2.3413 0.9354
12.5231 12.1651 -2.4738 0.9319
9.8772 13.7844 -2.4027 0.9338
8.8079 14.9410 -2.4575 0.9323
6.0180 16.2577 -2.4563 0.9324
2.6596 9.7829 -1.4364 0.9599
2.5432 14.2696 -2.0537 0.9431
1.2454 14.2295 -2.0239 0.9439
-0.0235 13.2590 -1.8787 0.9478
-2.7841 15.3062 -2.2043 0.9391
-2.9680 10.7660 -1.5823 0.9559
-9.2184 15.5112 -2.5566 0.9297
-8.2144 11.3782 -1.9884 0.9449
-8.2253 9.4853 -1.7789 0.9505
-11.4502 -2.5522 -1.9326 0.9536
-10.3546 -4.3468 -1.8500 0.9555
-9.7267 -5.1448 -1.8127 0.9564
-8.3442 -6.5388 -1.7464 0.9579
-6.8305 -7.6639 -1.6912 0.9592
-6.0369 -8.1271 -1.6678 0.9598
-3.5581 -9.1285 -1.6140 0.9611
-1.8581 -9.4814 -1.5917 0.9616
-1.0027 -9.5657 -1.5845 0.9618
1.5531 -9.4563 -1.5787 0.9619
3.2231 -9.0845 -1.5880 0.9617
4.8417 -8.4743 -1.6078 0.9612
7.8295 -6.5335 -1.6799 0.9595
8.5038 -5.8973 -1.7048 0.9589
10.7761 -2.7521 -1.8322 0.9559
11.2102 -1.8203 -1.8710 0.9550
11.5783 -0.8339 -1.9123 0.9540
11.8731 0.2040 -1.9563 0.9530
11.6887 7.1926 -2.2609 0.9459
11.2667 8.4009 -2.3152 0.9446
10.7185 9.5879 -2.3691 0.9434
10.0357 10.7307 -2.4204 0.9422
8.5322 10.9288 -2.2841 0.9453
6.7033 12.7287 -2.3699 0.9433
5.6315 13.4831 -2.4072 0.9425
2.9643 9.3643 -1.6181 0.9610
3.2307 14.6192 -2.4665 0.9411
-0.6359 12.7768 -2.1074 0.9495
-1.7333 12.4069 -2.0638 0.9505
-3.5249 10.7462 -1.8631 0.9552
-5.9137 13.7555 -2.4666 0.9411
-7.8194 9.8040 -2.0659 0.9504
-9.7631 10.2243 -2.3289 0.9443
-12.6434 6.1413 -2.3156 0.9446
-12.8316 4.8752 -2.2613 0.9459
-12.8984 3.6256 -2.2072 0.9471
-12.8517 2.4043 -2.1539 0.9484
-12.4520 0.0846 -2.0514 0.9508
-10.6719 -3.8895 -1.8712 0.9550
-10.0706 -4.7236 -1.8325 0.9559
-9.4215 -5.4906 -1.7964 0.9568
-5.6640 -8.3188 -1.6579 0.9600
-4.0111 -8.9910 -1.6219 0.9609
-0.6077 -9.5841 -1.5820 0.9618
2.7777 -9.2080 -1.5844 0.9618
3.6020 -8.9648 -1.5916 0.9616
4.4123 -8.6621 -1.6014 0.9614
6.7292 -7.3942 -1.6470 0.9603
7.4525 -6.8510 -1.6677 0.9598
9.4207 -4.8585 -1.7462 0.9579
9.9941 -4.0740 -1.7780 0.9572
10.9843 -2.3289 -1.8498 0.9555
11.3888 -1.3715 -1.8897 0.9546
11.7239 -0.3609 -1.9323 0.9536
11.9825 0.6994 -1.9773 0.9525
12.2239 4.1259 -2.1254 0.9490
12.1011 5.3258 -2.1781 0.9478
11.8650 6.5386 -2.2318 0.9466
11.5093 7.7521 -2.2860 0.9453
11.0295 8.9524 -2.3402 0.9440
10.4221 10.1242 -2.3937 0.9428
8.9929 10.4451 -2.2706 0.9457
8.1497 11.3735 -2.3050 0.9449
2.5446 14.2773 -2.3891 0.9429
1.2440 14.2131 -2.3504 0.9438
-0.0235 13.2449 -2.1820 0.9477
-1.1696 12.8383 -2.1237 0.9491
-2.1927 12.0552 -2.0186 0.9515
-6.4436 13.4369 -2.4549 0.9414
-7.5219 12.6565 -2.4255 0.9421
-11.5798 9.3311 -2.4499 0.9415
-12.1022 8.0891 -2.3981 0.9427
-9.6444 -3.0722 -1.9025 0.9596
-8.6230 -4.5611 -1.8336 0.9611
-8.0445 -5.2201 -1.8025 0.9617
-7.4282 -5.8210 -1.7738 0.9623
-3.9435 -7.9446 -1.6671 0.9645
-3.1941 -8.1946 -1.6531 0.9648
-0.9018 -8.6032 -1.6259 0.9654
-0.1326 -8.6269 -1.6217 0.9655
1.3973 -8.5079 -1.6206 0.9655
2.1527 -8.3657 -1.6236 0.9655
3.6308 -7.9168 -1.6371 0.9652
5.0468 -7.2493 -1.6603 0.9647
5.7238 -6.8339 -1.6755 0.9644
6.9992 -5.8407 -1.7135 0.9636
8.1444 -4.6337 -1.7612 0.9626
8.6576 -3.9516 -1.7888 0.9620
9.1250 -3.2188 -1.8187 0.9614
9.5416 -2.4368 -1.8510 0.9607
10.4321 0.1793 -1.9611 0.9584
10.5900 1.1295 -2.0018 0.9576
10.6686 2.1108 -2.0441 0.9567
10.6621 3.1168 -2.0879 0.9558
10.5650 4.1401 -2.1328 0.9549
10.3722 5.1719 -2.1785 0.9539
9.1824 8.2139 -2.3157 0.9511
8.5755 9.1693 -2.3598 0.9502
6.5135 10.0777 -2.2554 0.9523
2.9459 9.3064 -1.8348 0.9610
2.1176 9.5823 -1.8445 0.9608
0.5014 12.7367 -2.3958 0.9494
-2.7081 11.6773 -2.2531 0.9524
-3.5073 10.6925 -2.1151 0.9552
-4.9756 11.5733 -2.3678 0.9500
-5.4792 8.2873 -1.8674 0.9604
-8.2877 8.6792 -2.2556 0.9523
-10.1432 7.4005 -2.3600 0.9502
-10.5605 6.3481 -2.3160 0.9511
-10.8667 5.2783 -2.2707 0.9520
-11.1552 2.0870 -2.1331 0.9549
-11.0588 1.0635 -2.0882 0.9558
-10.8766 0.0739 -2.0444 0.9567
-10.2822 -1.7793 -1.9614 0.9584
-9.8837 -2.6338 -1.9226 0.9592
-8.9169 -4.1824 -1.8512 0.9607
-8.3610 -4.8725 -1.8189 0.9614
-7.1323 -6.0786 -1.7614 0.9626
-6.4697 -6.5935 -1.7363 0.9631
-5.7810 -7.0496 -1.7136 0.9636
-5.0704 -7.4470 -1.6934 0.9640
-4.3419 -7.7861 -1.6756 0.9644
-3.5989 -8.0672 -1.6604 0.9647
-2.8448 -8.2907 -1.6475 0.9650
-1.3158 -8.5673 -1.6292 0.9653
-0.5466 -8.6211 -1.6237 0.9655
0.2220 -8.6191 -1.6206 0.9655
2.4982 -8.2815 -1.6259 0.9654
3.9641 -7.7821 -1.6416 0.9651
4.6731 -7.4504 -1.6531 0.9648
6.0282 -6.6238 -1.6834 0.9642
6.6674 -6.1293 -1.7023 0.9638
7.2763 -5.5810 -1.7236 0.9634
10.0480 -1.2100 -1.9023 0.9596
10.5145 0.6137 -1.9797 0.9580
10.6365 1.5790 -2.0212 0.9572
10.6288 3.5876 -2.1085 0.9554
10.4881 4.6159 -2.1538 0.9544
10.2498 5.6485 -2.1997 0.9535
9.9098 6.6747 -2.2458 0.9525
9.4654 7.6829 -2.2914 0.9516
8.9153 8.6605 -2.3362 0.9507
6.9288 9.6697 -2.2360 0.9527
5.2604 11.0703 -2.3038 0.9513
2.6124 9.6092 -1.8717 0.9603
2.2181 12.4453 -2.3761 0.9498
1.1088 12.6691 -2.3904 0.9496
-0.0227 12.7644 -2.3992 0.9494
-1.1596 12.7283 -2.4023 0.9493
-3.0348 11.0082 -2.1463 0.9546
-5.4254 11.3137 -2.3584 0.9502
-7.1821 9.9484 -2.3063 0.9513
-9.2736 8.9447 -2.4218 0.9489
-9.8721 7.9550 -2.3830 0.9497
-10.7155 5.8556 -2.2952 0.9515
-9.2959 -1.2175 -1.9817 0.9624
-8.9870 -2.0032 -1.9463 0.9631
-8.6208 -2.7461 -1.9125 0.9637
-7.7376 -4.0927 -1.8503 0.9648
-7.2310 -4.6923 -1.8221 0.9654
-6.1124 -5.7373 -1.7720 0.9663
-4.2352 -6.9106 -1.7133 0.9674
-2.2091 -7.6080 -1.6746 0.9681
-0.8187 -7.8106 -1.6600 0.9684
1.9546 -7.5960 -1.6579 0.9684
2.6306 -7.4147 -1.6630 0.9683
3.2943 -7.1829 -1.6704 0.9682
3.9427 -6.9008 -1.6800 0.9680
5.1819 -6.1869 -1.7059 0.9675
5.7664 -5.7560 -1.7222 0.9672
6.8481 -4.7491 -1.7616 0.9665
7.3378 -4.1748 -1.7845 0.9661
8.8595 -1.4386 -1.8972 0.9640
9.1081 -0.6560 -1.9303 0.9634
9.4328 2.7575 -2.0774 0.9606
8.8507 5.4463 -2.1967 0.9584
8.4818 6.3243 -2.2364 0.9577
6.8134 8.7271 -2.3404 0.9557
2.1201 9.5936 -2.0768 0.9606
1.3992 10.8357 -2.3095 0.9563
0.4315 10.9621 -2.3190 0.9561
-0.5465 10.9797 -2.3238 0.9561
-1.5210 10.8876 -2.3238 0.9560
-2.4784 10.6872 -2.3190 0.9561
-3.4054 10.3818 -2.3096 0.9563
-4.2893 9.9771 -2.2956 0.9566
-6.5775 8.2470 -2.2298 0.9578
-8.3602 7.3235 -2.3493 0.9556
-9.2268 5.5464 -2.2756 0.9569
-9.5179 4.6231 -2.2367 0.9577
-9.8446 1.8418 -2.1170 0.9599
-9.4364 -0.7782 -2.0014 0.9620
-9.1608 -1.5853 -1.9652 0.9627
-8.8248 -2.3516 -1.9305 0.9634
-7.5086 -4.3758 -1.8370 0.9651
-5.8371 -5.9489 -1.7617 0.9665
-5.2225 -6.3685 -1.7409 0.9669
-3.2610 -7.3097 -1.6919 0.9678
-1.8898 -7.6733 -1.6704 0.9682
-1.1944 -7.7765 -1.6631 0.9683
-0.4963 -7.8278 -1.6580 0.9684
0.2016 -7.8274 -1.6551 0.9685
2.2680 -7.5186 -1.6600 0.9684
2.9387 -7.3140 -1.6661 0.9683
3.5957 -7.0589 -1.6745 0.9681
4.2361 -6.7536 -1.6852 0.9679
4.8569 -6.3986 -1.6980 0.9677
6.0271 -5.5406 -1.7305 0.9671
6.5696 -5.0389 -1.7501 0.9667
7.0788 -4.4897 -1.7719 0.9663
7.9816 -3.2536 -1.8219 0.9654
8.3667 -2.5698 -1.8501 0.9648
8.9817 -1.0816 -1.9123 0.9637
9.2022 -0.2833 -1.9461 0.9631
9.3582 0.5462 -1.9815 0.9624
9.4580 2.2790 -2.0565 0.9610
9.3927 3.1704 -2.0955 0.9603
8.6915 5.8541 -2.2151 0.9581
7.7808 7.5584 -2.2930 0.9566
5.3205 9.0252 -2.2146 0.9581
4.5519 9.5792 -2.2418 0.9576
2.4794 9.1199 -1.9977 0.9621
1.9112 10.7237 -2.3025 0.9564
0.9546 10.9074 -2.3144 0.9562
-0.0195 10.9838 -2.3218 0.9561
-0.9976 10.9508 -2.3244 0.9560
-1.9660 10.8084 -2.3222 0.9561
-4.6797 9.7587 -2.2877 0.9567
-5.4809 9.2223 -2.2677 0.9571
-8.0392 7.7541 -2.3610 0.9554
-8.3669 -1.0958 -1.9832 0.9659
-8.1034 -1.8062 -1.9512 0.9665
-6.5612 -4.2576 -1.8382 0.9684
-6.0763 -4.7616 -1.8143 0.9688
-3.8643 -6.3054 -1.7381 0.9701
-2.6456 -6.7874 -1.7121 0.9705
-1.3865 -7.0749 -1.6944 0.9708
-0.7491 -7.1459 -1.6887 0.9709
-0.1102 -7.1688 -1.6850 0.9710
0.5275 -7.1437 -1.6835 0.9710
1.1613 -7.0708 -1.6841 0.9710
2.4064 -6.7827 -1.6914 0.9709
4.1770 -5.9999 -1.7182 0.9704
5.2590 -5.2495 -1.7464 0.9699
5.7611 -4.8076 -1.7635 0.9696
7.4302 -2.6210 -1.8517 0.9681
7.7439 -1.9777 -1.8784 0.9677
8.3727 0.1439 -1.9681 0.9662
8.4648 0.9028 -2.0007 0.9656
8.4915 1.6801 -2.0344 0.9651
8.4494 2.4700 -2.0689 0.9645
7.8808 4.8494 -2.1747 0.9627
7.5373 5.6201 -2.2097 0.9621
7.1158 6.3652 -2.2438 0.9615
6.6171 7.0753 -2.2768 0.9610
2.7451 8.6718 -2.1377 0.9633
1.2273 9.5043 -2.2523 0.9614
0.3783 9.6103 -2.2604 0.9613
-0.4790 9.6233 -2.2645 0.9612
-5.1763 7.8292 -2.2058 0.9622
-5.7938 7.2644 -2.1838 0.9625
-6.3445 6.6442 -2.1591 0.9630
-7.3878 6.4716 -2.3083 0.9604
-7.8266 5.7103 -2.2770 0.9610
-8.1834 4.9192 -2.2440 0.9615
-8.6509 3.2868 -2.1750 0.9627
-8.7643 2.4636 -2.1396 0.9633
-8.8007 1.6465 -2.1043 0.9639
-8.7636 0.8428 -2.0691 0.9645
-8.6569 0.0588 -2.0346 0.9651
-8.4849 -0.6997 -2.0009 0.9656
-8.2522 -1.4280 -1.9683 0.9662
-7.9634 -2.1221 -1.9369 0.9667
-7.2367 -3.3943 -1.8786 0.9677
-5.3128 -5.4144 -1.7828 0.9693
-4.7583 -5.8025 -1.7636 0.9696
-4.1822 -6.1425 -1.7465 0.9699
-3.5879 -6.4339 -1.7313 0.9702
-2.3577 -6.8710 -1.7073 0.9706
-0.4542 -7.1625 -1.6867 0.9709
0.8207 -7.1159 -1.6835 0.9710
1.4518 -7.0211 -1.6850 0.9710
2.6878 -6.6895 -1.6943 0.9708
3.2873 -6.4534 -1.7021 0.9707
4.4350 -5.8427 -1.7240 0.9703
5.9829 -4.5889 -1.7721 0.9695
7.2423 -2.9522 -1.8381 0.9684
7.5809 -2.3284 -1.8638 0.9679
7.8723 -1.6691 -1.8913 0.9675
8.1125 -0.9770 -1.9204 0.9670
8.4231 0.4916 -1.9830 0.9659
7.7319 5.2078 -2.1909 0.9624
7.3524 5.9678 -2.2256 0.9618
5.6163 7.8380 -2.2662 0.9612
4.0070 8.4325 -2.1942 0.9624
2.4598 9.0478 -2.2036 0.9622
-0.0171 9.6279 -2.2628 0.9612
-3.3512 8.9556 -2.2473 0.9615
-4.1095 8.5695 -2.2336 0.9617
-4.8181 8.1071 -2.2165 0.9620
-6.0567 6.9845 -2.1727 0.9627
-7.6004 6.1245 -2.2940 0.9607
-8.0015 5.3482 -2.2619 0.9612
-7.3709 -1.6429 -1.9553 0.9693
-7.0927 -2.2594 -1.9273 0.9697
-6.4029 -3.3868 -1.8755 0.9705
-5.9995 -3.8932 -1.8518 0.9709
-5.5624 -4.3589 -1.8297 0.9712
-5.0953 -4.7826 -1.8094 0.9715
-4.6018 -5.1633 -1.7908 0.9718
-3.5500 -5.7926 -1.7591 0.9723
-2.9983 -6.0403 -1.7460 0.9725
0.4858 -6.5796 -1.7082 0.9731
1.6470 -6.4005 -1.7112 0.9731
3.3153 -5.8026 -1.7303 0.9728
4.3466 -5.1896 -1.7527 0.9724
4.8294 -4.8207 -1.7668 0.9722
5.2864 -4.4114 -1.7827 0.9720
6.1096 -3.4760 -1.8200 0.9714
6.4693 -2.9528 -1.8413 0.9710
6.7899 -2.3951 -1.8642 0.9707
7.2994 -1.1852 -1.9147 0.9699
7.6100 0.1308 -1.9706 0.9690
7.6820 0.8194 -2.0003 0.9686
7.6943 1.5224 -2.0308 0.9681
7.6440 2.2346 -2.0620 0.9676
7.5286 2.9502 -2.0936 0.9671
7.0950 4.3659 -2.1570 0.9662
6.7749 5.0516 -2.1881 0.9657
5.9295 6.3402 -2.2476 0.9648
5.4078 6.9267 -2.2753 0.9643
4.5518 7.0425 -2.1712 0.9659
3.2248 7.7211 -2.1665 0.9660
2.5446 8.0385 -2.1831 0.9658
0.3364 8.5453 -2.2142 0.9653
-0.4258 8.5551 -2.2178 0.9652
-2.6570 8.1002 -2.2072 0.9654
-3.3511 7.7948 -2.1968 0.9655
-5.1712 6.4838 -2.1473 0.9663
-5.7723 6.0450 -2.1641 0.9661
-6.6106 5.7909 -2.2755 0.9643
-7.3441 4.4147 -2.2186 0.9652
-7.6023 3.6927 -2.1883 0.9657
-7.7883 2.9591 -2.1572 0.9662
-7.9489 1.4871 -2.0938 0.9671
-6.6048 -3.0979 -1.8889 0.9703
-6.2212 -3.6255 -1.8643 0.9707
-5.3502 -4.5598 -1.8201 0.9714
-3.8406 -5.6407 -1.7669 0.9722
-3.2971 -5.9126 -1.7528 0.9724
-1.5905 -6.4580 -1.7221 0.9729
-0.4182 -6.5959 -1.7112 0.9731
0.1699 -6.5973 -1.7087 0.9731
1.3371 -6.4662 -1.7096 0.9731
1.9107 -6.3341 -1.7130 0.9730
3.5602 -5.6761 -1.7348 0.9727
4.0770 -5.3711 -1.7459 0.9725
4.5725 -5.0244 -1.7590 0.9723
5.4877 -4.2091 -1.7907 0.9718
5.9009 -3.7427 -1.8092 0.9715
6.2803 -3.2389 -1.8296 0.9712
6.6224 -2.6995 -1.8516 0.9709
6.9237 -2.1266 -1.8753 0.9705
7.5475 -0.2323 -1.9551 0.9693
7.6953 1.1424 -2.0143 0.9684
7.5989 2.5649 -2.0766 0.9674
7.2387 3.9891 -2.1400 0.9664
6.9558 4.6851 -2.1714 0.9659
6.6039 5.3602 -2.2022 0.9655
6.1836 6.0068 -2.2321 0.9650
5.6966 6.6166 -2.2606 0.9646
4.1891 7.1059 -2.1358 0.9665
3.5745 7.5225 -2.1564 0.9662
2.9155 7.8762 -2.1745 0.9659
2.2187 8.1612 -2.1898 0.9657
1.4922 8.3726 -2.2020 0.9655
0.7445 8.5064 -2.2109 0.9653
-2.2700 8.2340 -2.2115 0.9653
-4.8787 6.7577 -2.1580 0.9661
-6.3518 6.1266 -2.2849 0.9642
-6.8054 5.4838 -2.2629 0.9645
-7.1750 4.7958 -2.2345 0.9650
-7.4723 4.0834 -2.2048 0.9654
-6.7533 -1.5053 -1.9587 0.9716
-6.5062 -2.0725 -1.9331 0.9720
-6.2161 -2.6095 -1.9085 0.9724
-5.8866 -3.1137 -1.8852 0.9727
-4.2462 -4.7643 -1.8067 0.9738
-3.2802 -5.3523 -1.7771 0.9742
-2.7719 -5.5843 -1.7649 0.9744
-2.2508 -5.7745 -1.7545 0.9746
-1.1814 -6.0284 -1.7390 0.9748
-0.6386 -6.0920 -1.7340 0.9749
-0.0940 -6.1134 -1.7309 0.9749
0.4499 -6.0928 -1.7295 0.9749
0.9904 -6.0303 -1.7300 0.9749
1.5249 -5.9262 -1.7323 0.9749
2.5659 -5.5947 -1.7425 0.9747
3.5518 -5.1018 -1.7598 0.9745
4.4608 -4.4528 -1.7843 0.9741
4.8795 -4.0719 -1.7991 0.9739
5.2704 -3.6549 -1.8157 0.9737
5.6303 -3.2033 -1.8338 0.9734
6.2453 -2.2030 -1.8748 0.9728
6.8584 -0.4939 -1.9466 0.9718
6.9678 0.1197 -1.9728 0.9714
7.0248 0.7492 -2.0000 0.9711
6.6818 3.3318 -2.1137 0.9694
6.4448 3.9658 -2.1422 0.9690
6.1459 4.5826 -2.1703 0.9686
5.7857 5.1754 -2.1976 0.9682
5.3655 5.7371 -2.2237 0.9679
4.8876 6.2605 -2.2485 0.9675
3.4852 6.6181 -2.1174 0.9694
2.9061 6.9578 -2.1346 0.9691
2.2913 7.2384 -2.1493 0.9689
0.9820 7.6046 -2.1707 0.9686
0.3025 7.6838 -2.1769 0.9685
-0.3828 7.6914 -2.1801 0.9685
-1.0655 7.6269 -2.1801 0.9685
-2.3899 7.2859 -2.1707 0.9686
-3.6075 6.6809 -2.1494 0.9689
-4.1588 6.2902 -2.1347 0.9691
-4.6641 5.8479 -2.1176 0.9694
-5.9748 5.2339 -2.2486 0.9675
-6.8965 3.3499 -2.1705 0.9686
-7.0745 2.6879 -2.1424 0.9690
-7.1636 0.0487 -2.0280 0.9707
-6.8673 -1.1884 -1.9730 0.9714
-6.6448 -1.7707 -1.9467 0.9718
-6.3774 -2.3243 -1.9216 0.9722
-4.9305 -4.2021 -1.8339 0.9734
-4.4922 -4.5782 -1.8158 0.9737
-3.5474 -5.2102 -1.7844 0.9741
-3.0473 -5.4646 -1.7713 0.9743
-2.5328 -5.6773 -1.7599 0.9745
-1.4719 -5.9766 -1.7425 0.9747
-0.9312 -6.0630 -1.7365 0.9748
-0.3872 -6.1071 -1.7324 0.9749
0.1574 -6.1091 -1.7300 0.9749
0.7000 -6.0691 -1.7295 0.9749
1.2381 -5.9874 -1.7309 0.9749
1.7690 -5.8643 -1.7340 0.9749
3.2930 -5.2501 -1.7544 0.9746
3.7692 -4.9656 -1.7648 0.9744
5.0636 -3.8838 -1.8066 0.9738
5.4405 -3.4507 -1.8238 0.9736
6.3654 -1.9551 -1.8851 0.9727
6.5945 -1.3981 -1.9083 0.9724
7.0328 1.0440 -2.0127 0.9709
7.0086 1.6888 -2.0409 0.9705
6.9262 2.3378 -2.0695 0.9701
6.3145 4.2531 -2.1553 0.9688
5.9872 4.8597 -2.1830 0.9685
5.5991 5.4390 -2.2098 0.9681
5.1519 5.9839 -2.2353 0.9677
4.6485 6.4873 -2.2593 0.9674
3.2227 6.7819 -2.1257 0.9693
2.6263 7.0950 -2.1417 0.9690
1.3425 7.5327 -2.1661 0.9687
-0.6988 7.6706 -2.1805 0.9685
-1.3775 7.5730 -2.1790 0.9685
-3.2935 6.8680 -2.1563 0.9688
-3.8674 6.5073 -2.1430 0.9690
-4.8805 5.6281 -2.1089 0.9695
-6.4961 4.3420 -2.2120 0.9680
-6.7738 3.7017 -2.1853 0.9684
-6.4031 -0.8387 -1.9863 0.9733
-6.0034 -1.9123 -1.9379 0.9740
-5.7414 -2.4102 -1.9152 0.9743
-5.4421 -2.8786 -1.8936 0.9746
-4.7450 -3.7184 -1.8542 0.9751
-4.3537 -4.0865 -1.8366 0.9753
-3.5010 -4.7131 -1.8058 0.9757
-3.0457 -4.9697 -1.7928 0.9759
-2.5750 -5.1876 -1.7814 0.9761
-1.0986 -5.6060 -1.7571 0.9764
-0.5940 -5.6663 -1.7524 0.9764
0.4185 -5.6681 -1.7481 0.9765
0.9213 -5.6098 -1.7486 0.9765
1.4185 -5.5125 -1.7508 0.9765
2.3858 -5.2020 -1.7603 0.9763
3.7310 -4.4546 -1.7872 0.9760
4.1407 -4.1332 -1.7995 0.9758
4.5267 -3.7774 -1.8134 0.9756
5.2159 -2.9675 -1.8458 0.9752
5.5136 -2.5166 -1.8642 0.9750
6.0008 -1.5325 -1.9050 0.9744
6.3249 -0.4555 -1.9505 0.9738
6.4647 0.6895 -1.9997 0.9732
6.4594 1.2780 -2.0253 0.9728
6.1212 3.0523 -2.1038 0.9718
5.6177 4.1888 -2.1553 0.9711
4.8940 5.2329 -2.2037 0.9705
4.4538 5.7048 -2.2261 0.9702
3.9624 6.1306 -2.2452 0.9699
3.2296 6.1327 -2.1319 0.9714
2.6416 6.3246 -2.1082 0.9717
1.4959 6.7689 -2.1322 0.9714
-0.3473 6.9779 -2.1489 0.9712
-0.9667 6.9193 -2.1489 0.9712
-1.5763 6.7970 -2.1461 0.9712
-2.1690 6.6127 -2.1405 0.9713
-3.2771 6.0691 -2.1215 0.9715
-3.7803 5.7177 -2.1083 0.9717
-5.0399 5.2780 -2.2446 0.9699
-5.4444 4.7692 -2.2262 0.9702
-6.5854 1.8511 -2.1040 0.9718
-6.6400 1.2422 -2.0778 0.9721
-6.6392 0.6385 -2.0515 0.9725
-6.4799 -0.5344 -1.9998 0.9732
-6.3265 -1.0948 -1.9748 0.9735
-5.6076 -2.6302 -1.9051 0.9744
-4.9446 -3.5056 -1.8643 0.9750
-4.5676 -3.8928 -1.8459 0.9752
-3.2929 -4.8363 -1.7996 0.9758
-1.8652 -5.4358 -1.7676 0.9762
-0.8660 -5.6387 -1.7547 0.9764
0.6512 -5.6461 -1.7481 0.9765
1.1517 -5.5697 -1.7494 0.9765
1.6454 -5.4545 -1.7523 0.9764
3.0604 -4.8792 -1.7715 0.9762
3.5015 -4.6129 -1.7813 0.9761
3.9229 -4.3106 -1.7927 0.9759
4.3220 -3.9732 -1.8057 0.9757
4.6960 -3.6019 -1.8203 0.9755
5.3575 -2.7630 -1.8541 0.9751
5.6393 -2.2988 -1.8731 0.9748
5.8847 -1.8075 -1.8935 0.9746
6.0909 -1.2914 -1.9151 0.9743
6.3563 2.1455 -2.0634 0.9723
6.2185 2.7368 -2.0897 0.9720
6.0249 3.3202 -2.1159 0.9716
4.2340 5.9089 -2.2359 0.9700
3.7130 6.2983 -2.2488 0.9699
2.9305 6.1671 -2.1001 0.9718
2.3866 6.4473 -2.1146 0.9716
1.8139 6.6721 -2.1267 0.9715
-0.0124 6.9827 -2.1477 0.9712
-2.9910 6.2371 -2.1276 0.9715
-3.5141 5.9130 -2.1157 0.9716
-3.9991 5.5394 -2.1014 0.9718
-4.7900 5.5238 -2.2488 0.9699
-5.2361 5.0504 -2.2376 0.9700
-5.6102 4.5208 -2.2161 0.9703
-6.1880 3.3815 -2.1689 0.9709
-5.3287 -2.2370 -1.9210 0.9759
-5.0551 -2.6738 -1.9009 0.9762
-4.0527 -3.8040 -1.8476 0.9768
-2.8398 -4.6338 -1.8065 0.9774
-1.9520 -5.0078 -1.7866 0.9776
-0.5547 -5.2914 -1.7685 0.9778
-0.0816 -5.3113 -1.7657 0.9779
0.3909 -5.2939 -1.7645 0.9779
0.8605 -5.2394 -1.7649 0.9779
2.2273 -4.8564 -1.7760 0.9777
3.4796 -4.1544 -1.8013 0.9774
3.8599 -3.8529 -1.8129 0.9773
4.2174 -3.5194 -1.8259 0.9771
4.5496 -3.1551 -1.8404 0.9769
4.8537 -2.7615 -1.8562 0.9767
5.7375 -0.9316 -1.9322 0.9758
5.8626 -0.4222 -1.9538 0.9755
5.9811 0.6379 -1.9994 0.9750
5.8017 2.2735 -2.0713 0.9741
5.6414 2.8130 -2.0954 0.9738
4.4936 4.8048 -2.1868 0.9727
4.0860 5.2337 -2.2071 0.9724
3.1345 5.9521 -2.2361 0.9720
2.4184 5.7902 -2.0858 0.9739
1.9046 6.0168 -2.0978 0.9737
0.8149 6.3106 -2.1151 0.9735
0.2509 6.3732 -2.1201 0.9735
-0.8835 6.3244 -2.1227 0.9734
-1.4409 6.2133 -2.1202 0.9735
-4.6249 4.8433 -2.2261 0.9722
-4.9948 4.3754 -2.2072 0.9724
-5.9603 2.2646 -2.1194 0.9735
-6.0691 1.7060 -2.0956 0.9738
-6.1307 0.5896 -2.0473 0.9744
-5.4617 -1.9906 -1.9323 0.9758
-4.9177 -2.8659 -1.8920 0.9763
-4.2504 -3.6224 -1.8563 0.9767
-3.4833 -4.2477 -1.8260 0.9771
-2.1956 -4.9216 -1.7914 0.9775
-1.7408 -5.0733 -1.7829 0.9776
-0.3364 -5.3052 -1.7670 0.9778
0.6082 -5.2733 -1.7645 0.9779
1.0756 -5.2018 -1.7657 0.9779
1.5365 -5.0936 -1.7685 0.9778
1.9885 -4.9491 -1.7729 0.9778
4.0279 -3.7029 -1.8187 0.9772
4.3741 -3.3549 -1.8324 0.9770
4.6936 -2.9769 -1.8475 0.9768
4.9839 -2.5703 -1.8640 0.9766
5.2423 -2.1370 -1.8818 0.9764
5.9059 -0.1818 -1.9641 0.9754
5.9822 0.8881 -2.0103 0.9748
5.9492 1.4335 -2.0342 0.9745
5.8669 1.9802 -2.0583 0.9742
5.7340 2.5236 -2.0825 0.9739
5.5501 3.0586 -2.1065 0.9736
4.6940 4.5598 -2.1753 0.9728
4.3110 5.0073 -2.1963 0.9725
2.1844 5.9011 -2.0916 0.9738
1.6594 6.1039 -2.1026 0.9737
1.1145 6.2532 -2.1114 0.9736
-0.0113 6.3826 -2.1216 0.9735
-0.5794 6.3605 -2.1230 0.9734
-1.1423 6.2802 -2.1218 0.9735
-2.2268 5.9506 -2.1120 0.9736
-3.2163 5.4118 -2.0926 0.9738
-4.3998 5.0738 -2.2323 0.9721
-4.8017 4.6314 -2.2176 0.9723
-5.4452 3.6395 -2.1771 0.9728
-5.6891 3.1089 -2.1550 0.9730
-5.5112 -0.7218 -1.9877 0.9767
-4.9664 -2.0849 -1.9262 0.9774
-4.7147 -2.4938 -1.9073 0.9776
-4.1223 -3.2304 -1.8729 0.9780
-2.6575 -4.3363 -1.8187 0.9786
-2.2486 -4.5301 -1.8086 0.9787
-0.9610 -4.9039 -1.7870 0.9790
0.3663 -4.9614 -1.7791 0.9791
0.8064 -4.9103 -1.7795 0.9791
1.2414 -4.8243 -1.7814 0.9791
1.6689 -4.7039 -1.7849 0.9790
2.8829 -4.1410 -1.8044 0.9788
3.6113 -3.6047 -1.8247 0.9786
4.5341 -2.5796 -1.8655 0.9781
5.0075 -1.7664 -1.8989 0.9777
5.1946 -1.3266 -1.9172 0.9775
5.4576 -0.3931 -1.9567 0.9770
5.2255 2.6056 -2.0881 0.9755
5.0254 3.0924 -2.1101 0.9752
4.7786 3.5631 -2.1316 0.9750
4.4859 4.0127 -2.1524 0.9748
3.7700 4.8289 -2.1908 0.9743
2.3673 5.6680 -2.1966 0.9742
1.2591 5.6974 -2.0866 0.9755
0.2308 5.8622 -2.0980 0.9754
-0.2919 5.8660 -2.1003 0.9754
-0.8126 5.8168 -2.1003 0.9754
-1.3254 5.7152 -2.0980 0.9754
-1.8245 5.5624 -2.0934 0.9754
-3.3603 5.0825 -2.1789 0.9744
-4.2644 4.4658 -2.2082 0.9741
-5.3620 2.6045 -2.1317 0.9750
-5.6217 1.5802 -2.0883 0.9755
-5.2876 -1.4090 -1.9569 0.9770
-5.0883 -1.8545 -1.9367 0.9773
-4.8542 -2.2768 -1.9174 0.9775
-4.5880 -2.6737 -1.8990 0.9777
-3.2574 -3.9722 -1.8370 0.9784
-2.4704 -4.4300 -1.8139 0.9787
-1.6304 -4.7515 -1.7964 0.9789
-0.7577 -4.9334 -1.7849 0.9790
0.1281 -4.9744 -1.7795 0.9791
1.0080 -4.8749 -1.7802 0.9791
1.4398 -4.7730 -1.7828 0.9790
2.2754 -4.4669 -1.7927 0.9789
3.4230 -3.7612 -1.8187 0.9786
4.3859 -2.7817 -1.8573 0.9782
5.0982 -1.5659 -1.9072 0.9776
5.4959 -0.1692 -1.9663 0.9769
5.5485 0.3238 -1.9875 0.9767
5.5579 0.8251 -2.0093 0.9764
5.4415 1.8367 -2.0538 0.9759
5.1390 2.8320 -2.0983 0.9754
4.6491 3.7736 -2.1413 0.9749
4.3358 4.2118 -2.1616 0.9746
3.5816 4.9983 -2.1990 0.9742
3.1462 5.3369 -2.2155 0.9740
2.6703 5.6194 -2.2249 0.9739
1.5274 5.6182 -2.0820 0.9756
0.5110 5.8383 -2.0958 0.9754
-0.0104 5.8705 -2.0994 0.9754
-1.0507 5.7763 -2.0995 0.9754
-1.5578 5.6509 -2.0962 0.9754
-2.5184 5.2516 -2.0828 0.9756
-2.9847 5.0222 -2.0892 0.9755
-4.0612 4.6833 -2.2168 0.9740
-4.7522 3.8293 -2.1825 0.9744
-5.0293 3.3616 -2.1633 0.9746
-2.3061 -0.3020 -0.8913 0.9901
-5.0135 -1.1175 -1.9684 0.9782
-4.6454 -1.9501 -1.9307 0.9786
-4.4128 -2.3341 -1.9130 0.9788
-4.1510 -2.6936 -1.8963 0.9790
-3.8627 -3.0270 -1.8806 0.9792
-2.4947 -4.0707 -1.8296 0.9798
-1.7171 -4.4052 -1.8119 0.9800
-0.4885 -4.6603 -1.7957 0.9801
0.3444 -4.6638 -1.7921 0.9802
0.7580 -4.6156 -1.7925 0.9802
1.5685 -4.4209 -1.7976 0.9801
1.9606 -4.2750 -1.8023 0.9801
2.3411 -4.0976 -1.8085 0.9800
2.7076 -3.8892 -1.8160 0.9799
3.0578 -3.6508 -1.8250 0.9798
4.4839 -2.0466 -1.8888 0.9791
4.8603 -1.2413 -1.9223 0.9787
5.1697 1.0228 -2.0195 0.9777
4.8614 2.4240 -2.0817 0.9770
4.6718 2.8748 -2.1021 0.9768
4.1644 3.7251 -2.1412 0.9763
3.8491 4.1156 -2.1595 0.9762
3.4953 4.4771 -2.1766 0.9760
3.1056 4.8050 -2.1925 0.9758
2.6834 5.0954 -2.2069 0.9756
1.7118 5.4077 -2.1737 0.9760
1.1647 5.2703 -2.0684 0.9771
0.2134 5.4205 -2.0789 0.9770
-0.2699 5.4236 -2.0810 0.9770
-0.7513 5.3781 -2.0810 0.9770
-2.1319 4.9587 -2.0685 0.9771
-2.6775 4.9587 -2.1596 0.9761
-3.1878 4.8215 -2.2150 0.9755
-3.5909 4.5024 -2.2070 0.9756
-4.5525 3.3215 -2.1596 0.9761
-4.7890 2.8788 -2.1413 0.9763
-4.9811 2.4195 -2.1221 0.9766
-5.1281 1.9484 -2.1022 0.9768
-5.2299 1.4701 -2.0819 0.9770
-5.2869 0.9891 -2.0612 0.9772
-2.3038 0.2215 -0.8869 0.9901
-2.2892 0.0156 -0.8773 0.9902
-4.9408 -1.3166 -1.9595 0.9783
-4.7577 -1.7340 -1.9406 0.9785
-4.5418 -2.1303 -1.9224 0.9787
-4.2954 -2.5032 -1.9052 0.9789
-4.0211 -2.8509 -1.8890 0.9791
-3.7214 -3.1716 -1.8738 0.9793
-3.3989 -3.4639 -1.8597 0.9794
0.5358 -4.6456 -1.7921 0.9802
0.9475 -4.5823 -1.7932 0.9802
1.7508 -4.3575 -1.7996 0.9801
2.5122 -4.0052 -1.8118 0.9800
3.8359 -2.9421 -1.8526 0.9795
4.3614 -2.2493 -1.8805 0.9792
4.7717 -1.4656 -1.9129 0.9788
5.0496 -0.6081 -1.9491 0.9784
5.1475 1.2403 -2.0291 0.9776
4.9454 2.1765 -2.0706 0.9771
4.5697 3.0779 -2.1114 0.9767
4.3174 3.5044 -2.1309 0.9765
2.9146 4.9440 -2.1993 0.9757
1.4479 5.3260 -2.1151 0.9766
0.4725 5.3989 -2.0768 0.9771
-0.4927 5.4086 -2.0813 0.9770
-1.4406 5.2255 -2.0772 0.9770
-1.8950 5.0640 -2.0721 0.9771
-2.9563 4.9743 -2.2175 0.9755
-3.7620 4.3383 -2.2005 0.9757
-4.1047 3.9591 -2.1855 0.9759
-4.6671 3.1195 -2.1513 0.9762
-2.0205 -0.2646 -0.8340 0.9912
-4.5447 -1.4477 -1.9521 0.9796
-4.1428 -2.1913 -1.9181 0.9799
-3.6302 -2.8448 -1.8876 0.9803
-3.3383 -3.1334 -1.8738 0.9804
-3.0257 -3.3949 -1.8612 0.9805
-2.6950 -3.6280 -1.8497 0.9807
-2.3484 -3.8319 -1.8394 0.9808
-0.8510 -4.3423 -1.8110 0.9811
-0.0678 -4.4094 -1.8049 0.9811
0.3246 -4.3955 -1.8039 0.9811
1.0996 -4.2734 -1.8060 0.9811
1.4780 -4.1658 -1.8091 0.9811
1.8472 -4.0278 -1.8136 0.9810
2.2053 -3.8598 -1.8194 0.9810
2.5499 -3.6627 -1.8265 0.9809
3.9947 -2.2728 -1.8810 0.9803
4.2129 -1.9229 -1.8953 0.9802
4.4025 -1.5530 -1.9107 0.9800
4.5616 -1.1650 -1.9269 0.9799
4.7781 1.3968 -2.0374 0.9787
4.6790 1.8336 -2.0568 0.9785
4.3596 2.6827 -2.0950 0.9781
4.1399 3.0869 -2.1135 0.9779
3.5854 3.8337 -2.1483 0.9776
3.2540 4.1681 -2.1642 0.9774
2.8898 4.4711 -2.1789 0.9773
2.4958 4.7392 -2.1922 0.9771
1.6291 5.1465 -2.2094 0.9769
0.1982 5.0346 -2.0621 0.9785
-1.1383 4.9083 -2.0622 0.9785
-3.3399 4.1876 -2.1922 0.9771
-3.9778 3.4845 -2.1643 0.9774
-4.2406 3.0939 -2.1484 0.9776
-2.0646 0.3862 -0.8596 0.9910
-1.9919 0.0135 -0.8152 0.9914
-2.0139 -0.1661 -0.8270 0.9913
-2.0500 -0.3548 -0.8515 0.9910
-4.6317 -1.2342 -1.9618 0.9795
-4.0337 -2.3507 -1.9108 0.9800
-3.4982 -2.9813 -1.8811 0.9803
-2.5368 -3.7258 -1.8448 0.9807
-0.6710 -4.3690 -1.8091 0.9811
0.5050 -4.3784 -1.8039 0.9811
1.6497 -4.1058 -1.8110 0.9811
2.0141 -3.9539 -1.8161 0.9810
3.0248 -3.3237 -1.8393 0.9808
4.0989 -2.1139 -1.8875 0.9803
4.3041 -1.7545 -1.9023 0.9801
4.6242 -0.9804 -1.9346 0.9798
4.7352 -0.5702 -1.9520 0.9796
4.8113 -0.1481 -1.9701 0.9794
4.8147 1.1602 -2.0269 0.9788
4.6196 2.0331 -2.0657 0.9784
4.4615 2.4586 -2.0849 0.9782
4.2631 2.8714 -2.1036 0.9780
2.3047 4.8502 -2.1978 0.9771
1.8722 5.0578 -2.2073 0.9770
1.4171 5.2126 -2.2108 0.9769
0.9194 5.1588 -2.1446 0.9776
-0.0090 5.0413 -2.0633 0.9784
-0.4576 5.0231 -2.0643 0.9784
-0.9022 4.9603 -2.0634 0.9784
-1.3468 4.8855 -2.0741 0.9783
-1.8264 4.8806 -2.1328 0.9777
-2.3355 4.8703 -2.2106 0.9769
-2.7551 4.6358 -2.2071 0.9770
-4.1039 3.3070 -2.1571 0.9775
-4.3485 2.9065 -2.1407 0.9776
-1.4732 -0.1929 -0.6475 0.9935
-1.4937 -0.4758 -0.6832 0.9932
-4.1010 -1.7216 -1.9384 0.9808
-3.8998 -2.0628 -1.9227 0.9809
-3.6723 -2.3830 -1.9079 0.9811
-3.4205 -2.6804 -1.8939 0.9812
-3.1467 -2.9536 -1.8809 0.9813
-2.8532 -3.2013 -1.8689 0.9815
-2.5422 -3.4224 -1.8580 0.9816
-1.5269 -3.9172 -1.8323 0.9818
-1.1684 -4.0240 -1.8262 0.9819
-0.4348 -4.1482 -1.8177 0.9820
2.0822 -3.6444 -1.8293 0.9819
2.7169 -3.2438 -1.8441 0.9817
3.0097 -3.0042 -1.8533 0.9816
4.2929 -1.0963 -1.9310 0.9809
4.4098 -0.7160 -1.9470 0.9807
4.4942 -0.3237 -1.9637 0.9805
4.5448 0.0781 -1.9810 0.9804
3.8739 2.8885 -2.1060 0.9791
3.6300 3.2471 -2.1226 0.9790
3.3515 3.5836 -2.1384 0.9788
3.0403 3.8943 -2.1532 0.9787
2.6988 4.1756 -2.1668 0.9785
1.5229 4.8111 -2.1993 0.9782
0.1968 4.9992 -2.1804 0.9784
-0.6837 4.8937 -2.1535 0.9787
-1.1280 4.8640 -2.1761 0.9784
-2.3977 4.4405 -2.1994 0.9782
-2.7715 4.1919 -2.1901 0.9783
-3.1179 3.9092 -2.1792 0.9784
-4.1745 2.5094 -2.1227 0.9790
-1.5256 0.5796 -0.7113 0.9929
-1.4936 0.4198 -0.6762 0.9933
-1.4688 0.2748 -0.6512 0.9935
-1.4685 0.1412 -0.6429 0.9936
-1.4648 -0.1208 -0.6406 0.9936
-1.4715 -0.2546 -0.6508 0.9935
-1.4927 -0.3978 -0.6732 0.9933
-1.4863 -0.5417 -0.6894 0.9931
-4.0116 -1.8816 -1.9311 0.9809
-3.2967 -2.8096 -1.8878 0.9813
-2.7117 -3.3067 -1.8637 0.9815
-2.3934 -3.5151 -1.8533 0.9816
-2.0609 -3.6956 -1.8441 0.9817
-0.6338 -4.1265 -1.8195 0.9819
-0.2638 -4.1598 -1.8165 0.9820
0.4770 -4.1361 -1.8145 0.9820
0.8435 -4.0794 -1.8155 0.9820
1.2046 -3.9931 -1.8177 0.9820
1.9019 -3.7337 -1.8261 0.9819
2.5521 -3.3622 -1.8396 0.9818
2.8543 -3.1363 -1.8482 0.9817
3.1385 -2.8852 -1.8579 0.9816
3.4025 -2.6097 -1.8688 0.9815
3.6444 -2.3114 -1.8808 0.9813
3.8621 -1.9917 -1.8938 0.9812
4.0536 -1.6524 -1.9078 0.9811
4.2171 -1.2953 -1.9226 0.9809
4.4529 -0.5362 -1.9547 0.9806
4.5219 -0.1392 -1.9716 0.9805
4.5173 1.0885 -2.0251 0.9799
4.3291 1.9053 -2.0614 0.9796
3.7657 3.0566 -2.1137 0.9791
3.5056 3.4054 -2.1300 0.9789
2.8863 4.0280 -2.1596 0.9786
2.1511 4.5270 -2.1844 0.9784
0.8874 4.9792 -2.2042 0.9782
-0.0088 4.9680 -2.1651 0.9786
-0.4478 4.9152 -2.1510 0.9787
-1.3391 4.8575 -2.1960 0.9783
-2.1842 4.5547 -2.2015 0.9782
-2.5735 4.3302 -2.1953 0.9783
-3.2676 3.7682 -2.1737 0.9785
-3.5685 3.4420 -2.1608 0.9786
-4.0658 2.7175 -2.1313 0.9789
-1.2682 -0.2827 -0.6014 0.9943
-1.2683 -0.4040 -0.6162 0.9941
-3.4665 -2.2494 -1.9128 0.9820
-3.2302 -2.5313 -1.8996 0.9821
-2.4033 -3.2353 -1.8656 0.9824
-2.0955 -3.4192 -1.8563 0.9825
-1.1056 -3.8077 -1.8353 0.9827
-0.7606 -3.8811 -1.8307 0.9827
-0.0606 -3.9425 -1.8251 0.9828
0.2902 -3.9303 -1.8242 0.9828
0.6388 -3.8896 -1.8246 0.9828
0.9831 -3.8207 -1.8261 0.9828
1.3211 -3.7238 -1.8290 0.9827
2.8456 -2.8404 -1.8611 0.9824
3.3407 -2.3167 -1.8818 0.9822
3.5559 -2.0231 -1.8937 0.9821
3.9121 -1.3800 -1.9202 0.9819
4.0496 -1.0342 -1.9347 0.9817
4.1579 -0.6751 -1.9498 0.9816
4.2355 -0.3050 -1.9656 0.9815
4.2147 1.2321 -2.0325 0.9808
3.9953 1.9922 -2.0665 0.9805
3.8328 2.3585 -2.0831 0.9804
3.6357 2.7109 -2.0993 0.9802
3.1424 3.3601 -2.1295 0.9799
2.8494 3.6498 -2.1433 0.9798
2.5284 3.9119 -2.1560 0.9797
1.8131 4.3411 -2.1777 0.9795
0.6078 4.7071 -2.1969 0.9793
0.1868 4.7458 -2.1985 0.9793
-0.2362 4.7449 -2.1990 0.9793
-1.0729 4.6263 -2.1983 0.9793
-1.4792 4.5095 -2.1968 0.9793
-2.2442 4.1561 -2.1864 0.9794
-2.5947 3.9245 -2.1777 0.9795
-3.7167 2.7117 -2.1296 0.9799
-1.2785 0.6210 -0.6579 0.9938
-1.2582 0.4780 -0.6230 0.9941
-1.2706 0.3572 -0.6109 0.9942
-1.2711 0.2378 -0.5986 0.9943
-1.2599 0.0085 -0.5832 0.9945
-1.2727 -0.1050 -0.5911 0.9944
-1.2728 -0.2203 -0.5979 0.9943
-1.2706 -0.3386 -0.6087 0.9942
-1.2656 -0.5936 -0.6471 0.9939
-3.5843 -2.0888 -1.9203 0.9819
-3.1138 -2.6538 -1.8938 0.9821
-2.8474 -2.9019 -1.8819 0.9822
-2.2629 -3.3235 -1.8611 0.9824
-1.2890 -3.7564 -1.8383 0.9826
-0.5998 -3.9055 -1.8290 0.9827
-0.2496 -3.9372 -1.8261 0.9828
0.1015 -3.9404 -1.8246 0.9828
0.7984 -3.8613 -1.8251 0.9828
1.1401 -3.7794 -1.8273 0.9828
1.4745 -3.6698 -1.8307 0.9827
1.7996 -3.5329 -1.8353 0.9827
2.1134 -3.3695 -1.8411 0.9826
2.6991 -2.9658 -1.8562 0.9825
3.2155 -2.4663 -1.8758 0.9823
4.2605 -0.1312 -1.9731 0.9814
4.2908 0.2504 -1.9895 0.9812
4.2874 0.6365 -2.0063 0.9811
4.2496 1.0240 -2.0234 0.9809
4.1766 1.4097 -2.0404 0.9808
4.0682 1.7905 -2.0574 0.9806
3.9246 2.1628 -2.0742 0.9804
3.7460 2.5231 -2.0906 0.9803
3.5334 2.8680 -2.1065 0.9801
3.2877 3.1938 -2.1217 0.9800
3.0108 3.4970 -2.1360 0.9799
2.0143 4.2389 -2.1724 0.9795
1.6363 4.4204 -2.1818 0.9794
1.2411 4.5650 -2.1898 0.9794
0.8324 4.6703 -2.1959 0.9793
-0.4310 4.7315 -2.1992 0.9793
-1.2618 4.5771 -2.1977 0.9793
-1.6625 4.4427 -2.1957 0.9793
-2.0461 4.2667 -2.1903 0.9794
-2.4089 4.0533 -2.1826 0.9794
-2.7482 3.8066 -2.1732 0.9795
-3.0606 3.5295 -2.1625 0.9796
-3.3437 3.2252 -2.1504 0.9797
-3.5951 2.8970 -2.1372 0.9799
-3.2789 -2.1277 -1.9173 0.9827
-3.0565 -2.3952 -1.9048 0.9828
-2.8139 -2.6412 -1.8931 0.9830
-2.2763 -3.0644 -1.8725 0.9831
-1.3691 -3.5125 -1.8492 0.9833
-1.0481 -3.6095 -1.8437 0.9834
0.2752 -3.7270 -1.8331 0.9835
0.6058 -3.6883 -1.8334 0.9835
0.9322 -3.6228 -1.8350 0.9835
1.2526 -3.5307 -1.8376 0.9834
1.5650 -3.4124 -1.8415 0.9834
1.8674 -3.2685 -1.8465 0.9834
2.1579 -3.0997 -1.8526 0.9833
3.3653 -1.9146 -1.8992 0.9829
3.5448 -1.6180 -1.9114 0.9828
3.6996 -1.3050 -1.9243 0.9827
4.0003 -0.2881 -1.9673 0.9823
4.0414 0.0694 -1.9827 0.9822
3.8845 1.5222 -2.0465 0.9816
3.7627 1.8762 -2.0624 0.9814
3.2026 2.8648 -2.1077 0.9810
2.6778 3.4299 -2.1345 0.9808
2.3752 3.6749 -2.1464 0.9807
1.3379 4.2266 -2.1746 0.9804
0.9595 4.3420 -2.1812 0.9804
0.5708 4.4202 -2.1862 0.9803
-1.3891 4.2350 -2.1863 0.9803
-1.7563 4.0853 -2.1813 0.9804
-2.7421 3.4381 -2.1572 0.9806
-3.4941 2.5493 -2.1216 0.9809
-1.0868 0.5279 -0.5927 0.9946
-1.1322 0.3183 -0.5769 0.9948
-1.1442 0.1100 -0.5639 0.9949
-1.1350 0.0077 -0.5567 0.9950
-1.1328 -0.3019 -0.5751 0.9948
-1.0927 -0.5126 -0.5921 0.9946
-3.3896 -1.9754 -1.9244 0.9827
-3.1789 -2.2538 -1.9114 0.9828
-2.9469 -2.5115 -1.8993 0.9829
-2.6957 -2.7473 -1.8880 0.9830
-2.1436 -3.1483 -1.8683 0.9832
-1.8467 -3.3117 -1.8599 0.9832
-1.5388 -3.4493 -1.8527 0.9833
-1.2218 -3.5606 -1.8465 0.9834
-0.5687 -3.7029 -1.8377 0.9834
0.0962 -3.7365 -1.8335 0.9835
0.7571 -3.6614 -1.8340 0.9835
1.0810 -3.5835 -1.8360 0.9835
1.3979 -3.4793 -1.8393 0.9834
1.7060 -3.3491 -1.8437 0.9834
2.0031 -3.1936 -1.8492 0.9833
2.2875 -3.0136 -1.8559 0.9833
2.8102 -2.5833 -1.8724 0.9831
3.0447 -2.3353 -1.8822 0.9830
3.2590 -2.0670 -1.8930 0.9830
3.6194 -1.4754 -1.9173 0.9827
3.7623 -1.1556 -1.9306 0.9826
3.8781 -0.8222 -1.9446 0.9825
3.9655 -0.4775 -1.9592 0.9824
4.0231 -0.1238 -1.9744 0.9822
4.0498 0.2364 -1.9899 0.9821
4.0447 0.6004 -2.0058 0.9819
3.9364 1.3286 -2.0379 0.9817
3.8324 1.6867 -2.0539 0.9815
3.6953 2.0364 -2.0697 0.9814
3.5256 2.3746 -2.0851 0.9812
2.5412 3.5464 -2.1401 0.9807
1.5360 4.1496 -2.1705 0.9805
0.7811 4.3828 -2.1837 0.9804
-0.0079 4.4658 -2.1906 0.9803
-0.4053 4.4493 -2.1915 0.9803
-1.1856 4.3007 -2.1883 0.9803
-1.9203 4.0044 -2.1784 0.9804
-1.1102 0.6067 -0.6206 0.9944
-1.0255 -0.2286 -0.5451 0.9953
-3.1070 -2.0162 -1.9215 0.9834
-2.8973 -2.2704 -1.9096 0.9835
-2.6682 -2.5044 -1.8984 0.9836
-2.4216 -2.7171 -1.8882 0.9837
-1.5967 -3.2167 -1.8630 0.9839
-1.2998 -3.3346 -1.8567 0.9840
-0.9951 -3.4272 -1.8514 0.9840
-0.3706 -3.5354 -1.8441 0.9841
-0.0546 -3.5505 -1.8422 0.9841
1.1896 -3.3529 -1.8456 0.9841
1.4860 -3.2402 -1.8493 0.9841
2.0484 -2.9424 -1.8599 0.9840
2.5577 -2.5530 -1.8748 0.9838
2.7878 -2.3264 -1.8837 0.9838
3.3595 -1.5334 -1.9158 0.9835
3.5050 -1.2364 -1.9281 0.9834
3.7854 -0.2726 -1.9689 0.9830
3.8302 0.4085 -1.9983 0.9828
3.8072 0.7533 -2.0134 0.9827
3.7532 1.0972 -2.0286 0.9825
3.6679 1.4373 -2.0437 0.9824
3.2261 2.4055 -2.0877 0.9820
3.0190 2.7005 -2.1013 0.9819
2.5224 3.2309 -2.1265 0.9817
1.9290 3.6630 -2.1477 0.9815
1.2589 3.9770 -2.1641 0.9814
0.9027 4.0849 -2.1703 0.9813
0.5369 4.1579 -2.1750 0.9813
0.1651 4.1953 -2.1781 0.9813
-0.5813 4.1612 -2.1797 0.9812
-0.9485 4.0900 -2.1781 0.9813
-1.3067 3.9837 -2.1750 0.9813
-2.5814 3.2367 -2.1478 0.9815
-3.2925 2.4022 -2.1144 0.9818
-0.9625 0.5786 -0.5826 0.9950
-0.9749 0.4735 -0.5623 0.9951
-1.0046 0.3817 -0.5575 0.9952
-1.0189 0.2864 -0.5491 0.9952
-1.0310 0.1929 -0.5442 0.9953
-1.0377 0.0998 -0.5408 0.9953
-1.0375 -0.0856 -0.5400 0.9953
-1.0197 -0.2717 -0.5475 0.9953
-2.7938 -2.3810 -1.9043 0.9836
-2.5564 -2.6053 -1.8936 0.9837
-2.3025 -2.8078 -1.8837 0.9838
-2.0339 -2.9872 -1.8748 0.9838
-1.7527 -3.1430 -1.8669 0.9839
-1.1600 -3.3805 -1.8541 0.9840
-0.8524 -3.4613 -1.8493 0.9841
-0.2248 -3.5456 -1.8431 0.9841
0.0914 -3.5488 -1.8416 0.9841
1.0266 -3.4032 -1.8441 0.9841
1.3275 -3.3039 -1.8472 0.9841
1.9017 -3.0319 -1.8567 0.9840
2.1712 -2.8604 -1.8630 0.9839
2.4266 -2.6664 -1.8704 0.9839
2.8879 -2.2150 -1.8881 0.9837
3.0902 -1.9599 -1.8984 0.9836
3.4297 -1.3981 -1.9214 0.9834
3.8063 -0.1172 -1.9756 0.9830
3.8234 0.5676 -2.0053 0.9827
3.7862 0.9123 -2.0204 0.9826
3.7177 1.2548 -2.0356 0.9825
3.4871 1.9217 -2.0655 0.9822
3.3255 2.2399 -2.0800 0.9821
2.9138 2.8305 -2.1074 0.9819
1.7803 3.7466 -2.1519 0.9815
1.0959 4.0311 -2.1671 0.9814
0.7348 4.1230 -2.1726 0.9813
0.3658 4.1797 -2.1766 0.9813
-0.0075 4.2003 -2.1791 0.9813
-1.8067 3.7675 -2.1677 0.9813
-2.1280 3.5806 -2.1608 0.9814
-2.4289 3.3644 -2.1527 0.9815
-3.3791 2.2586 -2.1085 0.9819
-0.9203 -0.2932 -0.5290 0.9956
-0.8822 -0.4666 -0.5466 0.9955
-0.8695 -0.5642 -0.5677 0.9953
-2.0519 -2.7623 -1.8847 0.9844
-1.5177 -3.0576 -1.8696 0.9846
-1.2357 -3.1702 -1.8636 0.9846
-0.9462 -3.2587 -1.8585 0.9846
-0.3524 -3.3622 -1.8516 0.9847
0.2486 -3.3666 -1.8489 0.9847
0.5472 -3.3317 -1.8492 0.9847
1.1312 -3.1885 -1.8530 0.9847
1.4131 -3.0811 -1.8565 0.9847
2.1961 -2.6220 -1.8733 0.9845
2.6485 -2.2101 -1.8893 0.9844
2.8487 -1.9755 -1.8987 0.9843
3.0293 -1.7235 -1.9089 0.9842
1.9232 -0.6784 -1.1170 0.9907
1.8855 -0.4815 -1.0658 0.9912
1.8870 -0.3064 -1.0470 0.9913
1.8872 -0.1359 -1.0363 0.9914
1.8768 0.0322 -1.0281 0.9915
1.8851 0.3730 -1.0525 0.9913
1.8810 0.5499 -1.0733 0.9911
3.4699 1.3597 -2.0412 0.9831
2.6286 2.8107 -2.1077 0.9826
2.3810 3.0498 -2.1192 0.9825
1.1872 3.7504 -2.1546 0.9822
0.8511 3.8514 -2.1603 0.9822
0.5062 3.9198 -2.1647 0.9821
0.1557 3.9547 -2.1677 0.9821
-0.5480 3.9224 -2.1692 0.9821
-0.8941 3.8555 -2.1677 0.9821
-1.2319 3.7555 -2.1648 0.9821
-1.5579 3.6237 -2.1604 0.9822
-1.8691 3.4615 -2.1546 0.9822
-2.1624 3.2707 -2.1475 0.9823
-2.6854 2.8123 -2.1297 0.9824
-3.1090 2.2683 -2.1078 0.9826
-0.9107 0.3460 -0.5336 0.9956
-0.9242 0.2598 -0.5258 0.9956
-0.9474 0.0911 -0.5213 0.9957
-0.9417 0.0064 -0.5158 0.9957
-0.9425 -0.1631 -0.5239 0.9956
-0.9254 -0.2466 -0.5245 0.9956
-0.8688 -0.5063 -0.5507 0.9954
-2.8597 -2.0275 -1.9200 0.9841
-2.4280 -2.4745 -1.8987 0.9843
-2.1874 -2.6674 -1.8894 0.9844
-1.6658 -2.9872 -1.8733 0.9845
-0.8106 -3.2914 -1.8566 0.9847
0.3868 -3.3535 -1.8489 0.9847
0.6838 -3.3072 -1.8497 0.9847
0.9763 -3.2365 -1.8516 0.9847
1.5402 -3.0236 -1.8585 0.9846
1.8079 -2.8824 -1.8635 0.9846
2.3062 -2.5341 -1.8766 0.9845
2.5332 -2.3287 -1.8846 0.9844
2.9346 -1.8612 -1.9033 0.9843
1.8861 -0.3999 -1.0560 0.9912
1.8854 0.1100 -1.0344 0.9914
1.8688 0.6308 -1.0803 0.9910
3.2969 1.8169 -2.0618 0.9830
2.9609 2.4033 -2.0887 0.9828
1.6794 3.5342 -2.1431 0.9823
0.6928 3.8871 -2.1625 0.9822
-0.0070 3.9594 -2.1686 0.9821
-0.7086 3.8957 -2.1687 0.9821
-1.3840 3.6986 -2.1629 0.9822
-2.0069 3.3768 -2.1515 0.9822
-2.2911 3.1736 -2.1438 0.9823
-2.7925 2.6935 -2.1250 0.9825
-3.0055 2.4219 -2.1141 0.9826
-0.8780 0.4798 -0.5480 0.9954
-0.8504 -0.3570 -0.5325 0.9957
-0.8286 -0.4383 -0.5412 0.9957
-0.7981 -0.5179 -0.5493 0.9956
-1.7037 -2.7800 -1.8825 0.9851
-1.4445 -2.9101 -1.8757 0.9851
-1.1762 -3.0177 -1.8700 0.9852
-0.9008 -3.1024 -1.8651 0.9852
-0.0494 -3.2155 -1.8567 0.9853
0.8018 -3.1158 -1.8575 0.9852
1.3453 -2.9334 -1.8632 0.9852
2.5194 -2.1024 -1.8945 0.9850
2.7092 -1.8788 -1.9035 0.9849
2.8802 -1.6387 -1.9132 0.9848
1.7396 -0.2825 -1.0175 0.9919
1.7389 -0.1252 -1.0065 0.9920
1.7343 0.3431 -1.0207 0.9919
3.1810 1.5862 -2.0522 0.9837
2.8854 2.1515 -2.0780 0.9835
2.4865 2.6587 -2.1017 0.9833
1.7201 3.2663 -2.1313 0.9831
1.4280 3.4189 -2.1391 0.9830
1.1217 3.5434 -2.1458 0.9830
0.8040 3.6383 -2.1513 0.9829
0.4781 3.7025 -2.1554 0.9829
-0.5175 3.7045 -2.1596 0.9829
-0.8445 3.6415 -2.1582 0.9829
-1.1636 3.5473 -2.1554 0.9829
-1.4717 3.4232 -2.1513 0.9829
-1.7659 3.2704 -2.1459 0.9830
-2.0435 3.0907 -2.1392 0.9830
-2.3019 2.8861 -2.1314 0.9831
-2.5388 2.6587 -2.1224 0.9832
-2.7524 2.4111 -2.1126 0.9832
-0.8020 0.5851 -0.5732 0.9954
-0.8109 0.4874 -0.5462 0.9956
-0.8380 0.4071 -0.5379 0.9957
-0.8566 0.3255 -0.5291 0.9958
-0.8822 -0.0727 -0.5110 0.9959
-0.8794 -0.1522 -0.5153 0.9959
-0.8689 -0.2315 -0.5192 0.9959
-0.8414 -0.3947 -0.5366 0.9957
-2.3091 -2.3533 -1.9035 0.9849
-2.0808 -2.5374 -1.8946 0.9850
-1.5853 -2.8428 -1.8793 0.9851
-1.3217 -2.9626 -1.8730 0.9851
-0.7717 -3.1336 -1.8633 0.9852
-0.4890 -3.1841 -1.8599 0.9852
0.3683 -3.1934 -1.8559 0.9853
0.9296 -3.0818 -1.8585 0.9852
1.2019 -2.9914 -1.8613 0.9852
1.4663 -2.8785 -1.8651 0.9852
2.1945 -2.4114 -1.8824 0.9851
2.7906 -1.7699 -1.9079 0.9849
2.9525 -1.5227 -1.9180 0.9848
1.7939 -0.7313 -1.1185 0.9911
1.7419 -0.2098 -1.0129 0.9919
1.7331 -0.0534 -1.0011 0.9920
1.7409 0.2584 -1.0161 0.9919
1.7321 0.4173 -1.0286 0.9918
3.2420 1.4268 -2.0450 0.9838
2.9755 2.0041 -2.0712 0.9836
2.3809 2.7654 -2.1068 0.9833
2.1359 2.9808 -2.1172 0.9832
1.8706 3.1731 -2.1266 0.9831
1.2881 3.4800 -2.1424 0.9830
0.3257 3.7216 -2.1569 0.9829
-0.6692 3.6793 -2.1591 0.9829
-1.3074 3.4937 -2.1537 0.9829
-1.6094 3.3561 -2.1489 0.9830
-2.1653 2.9992 -2.1357 0.9831
