ply
format ascii 1.0
element vertex 1536
property float32 x
property float32 y
property float32 z
property float32 I
end_header
-13.9515 -6.9974 2.7521 0.9386
-11.9715 -15.4303 3.4436 0.9237
-8.2094 -15.7148 3.1262 0.9305
-6.7798 -16.3914 3.1277 0.9305
-5.2146 -16.6811 3.0817 0.9315
-3.6826 -16.9641 3.0609 0.9319
-0.6729 -19.0350 3.3585 0.9256
4.2692 -18.0457 3.2698 0.9274
3.5580 15.0024 2.7187 0.9393
0.7101 13.0340 2.3017 0.9484
-1.6796 13.4761 2.3946 0.9463
-2.9693 13.7149 2.4743 0.9446
-4.3161 13.8338 2.5552 0.9428
-2.4444 5.9189 1.1292 0.9743
-7.4670 14.3128 2.8465 0.9365
-11.7270 15.1325 3.3757 0.9252
-14.9550 -5.2479 2.7946 0.9377
-14.4457 -6.5675 2.7981 0.9376
-10.7716 -15.4509 3.3211 0.9264
-7.4667 -16.2642 3.1556 0.9299
1.9163 -18.2001 3.2269 0.9284
3.4110 -17.3504 3.1179 0.9307
7.1103 14.7391 2.8855 0.9357
3.9792 14.3193 2.6206 0.9414
1.3653 14.6990 2.6030 0.9418
-14.9534 -5.8977 2.4625 0.9370
-16.2376 -8.1440 2.7828 0.9291
-14.3605 -8.8858 2.5870 0.9339
-11.9727 -15.4319 2.9922 0.9240
-10.1244 -15.7739 2.8714 0.9270
-8.4064 -16.0918 2.7813 0.9292
-6.7805 -16.3931 2.7177 0.9307
-5.2151 -16.6827 2.6777 0.9317
-3.6829 -16.9658 2.6596 0.9322
1.0451 -19.3788 2.9730 0.9245
2.5833 -17.9302 2.7752 0.9293
5.0092 15.0116 2.4243 0.9380
-1.6795 13.4748 2.0802 0.9465
-2.9690 13.7134 2.1495 0.9448
-2.4463 5.9236 0.9818 0.9744
-7.4265 14.2353 2.4597 0.9371
-12.5874 13.5524 2.8335 0.9279
-14.2936 -8.1066 2.5173 0.9357
-14.1337 -9.7762 2.6327 0.9328
-7.4674 -16.2659 2.7419 0.9301
1.9388 -18.4141 2.8365 0.9278
4.2318 15.2285 2.4213 0.9380
1.3997 15.0695 2.3185 0.9406
-10.1254 -15.7755 2.4410 0.9272
-8.4072 -16.0934 2.3644 0.9294
-3.6833 -16.9675 2.2610 0.9324
-0.4610 13.2481 1.7262 0.9479
-1.6793 13.4734 1.7681 0.9467
-2.9687 13.7120 1.8270 0.9450
-4.3594 13.9725 1.9060 0.9427
-11.6346 15.0132 2.4734 0.9262
-14.3084 12.8845 2.5074 0.9253
-14.6572 11.0014 2.3865 0.9287
-14.6395 -10.1260 2.3180 0.9307
-5.8801 -16.5614 2.2885 0.9316
-16.2178 -8.1341 1.9483 0.9296
-6.7785 -16.3883 1.9044 0.9311
-5.2160 -16.6859 1.8773 0.9321
-3.6837 -16.9691 1.8646 0.9325
-0.4656 13.3809 1.4377 0.9476
-1.6961 13.6085 1.4726 0.9463
-9.5760 14.9375 1.9053 0.9311
-11.9072 15.3650 2.0874 0.9248
-14.6594 11.0030 1.9682 0.9289
-9.2321 -16.1393 1.9966 0.9279
-4.3683 -16.9695 1.8816 0.9319
-16.2227 -8.1366 1.5363 0.9297
-6.7819 -16.3965 1.5021 0.9312
-5.2165 -16.6875 1.4801 0.9322
-3.6840 -16.9708 1.4701 0.9327
5.7475 13.1774 1.2170 0.9439
-1.6960 13.6072 1.1608 0.9464
-3.0326 14.0070 1.2132 0.9441
-2.4679 5.9759 0.5473 0.9744
-2.9494 5.6533 0.5398 0.9747
-11.9198 15.3811 1.6473 0.9249
-14.4269 12.9913 1.6435 0.9250
-6.5886 -9.4508 0.9753 0.9548
-9.2330 -16.1409 1.5741 0.9281
-5.9348 -16.7153 1.5015 0.9313
-4.3770 -17.0032 1.4863 0.9319
1.5396 16.5758 1.4092 0.9354
-16.2421 -8.1463 1.1268 0.9298
-10.1285 -15.7803 1.1628 0.9276
-8.4097 -16.0981 1.1263 0.9298
-5.2170 -16.6890 1.0843 0.9323
5.7442 13.1699 0.8910 0.9440
-0.4727 13.5831 0.8428 0.9470
-2.4708 5.9829 0.4014 0.9744
-9.7556 15.2178 1.1209 0.9301
-12.1050 15.6202 1.2254 0.9239
-12.8210 -15.2828 1.2370 0.9232
-6.5947 -9.4596 0.7151 0.9548
-9.2497 -16.1701 1.1552 0.9281
-7.2658 -15.8269 1.0799 0.9326
-4.3904 -17.0553 1.0921 0.9319
-16.2552 -8.1529 0.7171 0.9298
-6.7838 -16.4010 0.6998 0.9314
-5.2175 -16.6906 0.6895 0.9324
-3.6847 -16.9739 0.6849 0.9328
-0.4726 13.5818 0.5359 0.9471
-3.0434 14.0571 0.5671 0.9441
-14.7828 11.0956 0.7288 0.9287
-12.8224 -15.2845 0.7867 0.9232
-6.6010 -9.4686 0.4551 0.9548
-7.2595 -15.8130 0.6861 0.9327
1.5963 17.1854 0.6806 0.9332
-16.2441 -8.1473 0.3070 0.9299
-8.4113 -16.1013 0.3069 0.9299
-6.7844 -16.4026 0.2998 0.9315
-3.6850 -16.9755 0.2934 0.9329
-2.4581 -19.6337 0.3342 0.9239
0.7168 13.1572 0.2226 0.9487
-0.4726 13.5805 0.2295 0.9471
-3.0431 14.0557 0.2429 0.9441
-4.4402 14.2316 0.2518 0.9421
-2.4779 6.0002 0.1097 0.9744
-14.7849 11.0972 0.3123 0.9287
-7.2672 -15.8299 0.2942 0.9327
-5.8829 -16.5692 0.2970 0.9321
-4.3388 -16.8547 0.2940 0.9327
-10.1315 -15.7851 -0.1056 0.9277
-6.7851 -16.4042 -0.0999 0.9315
-5.2185 -16.6937 -0.0985 0.9324
-2.4552 -19.6108 -0.1113 0.9240
0.7168 13.1560 -0.0742 0.9487
-0.4708 13.5281 -0.0762 0.9473
-4.4297 14.1979 -0.0837 0.9422
-2.9258 5.6082 -0.0356 0.9750
-9.7519 15.2120 -0.1017 0.9303
-14.4358 12.9992 -0.1094 0.9252
-14.7871 11.0988 -0.1041 0.9287
-7.4726 -16.2771 -0.1008 0.9309
-5.8835 -16.5708 -0.0990 0.9321
-16.1649 -6.3756 -0.4893 0.9328
-10.1328 -15.7870 -0.5282 0.9277
-8.4131 -16.1047 -0.5116 0.9299
5.6791 13.0205 -0.4000 0.9447
0.7167 13.1548 -0.3710 0.9486
-0.4654 13.3732 -0.3768 0.9479
-1.6665 13.3706 -0.3794 0.9475
-2.9460 13.6070 -0.3920 0.9458
-5.9804 14.4811 -0.4412 0.9392
-2.9225 5.6018 -0.1779 0.9750
-9.7507 15.2100 -0.5087 0.9303
-14.5919 10.9523 -0.5137 0.9296
-5.9488 -16.7547 -0.5006 0.9313
-18.9818 -5.5913 -1.0035 0.9238
-15.7209 -6.2005 -0.8570 0.9346
-11.7607 -7.2771 -0.7014 0.9461
-8.8259 -7.9389 -0.6020 0.9536
-11.8750 -12.7713 -0.8844 0.9325
-10.6076 -13.6724 -0.8776 0.9330
-10.1338 -15.7886 -0.9514 0.9276
-5.2195 -16.6968 -0.8872 0.9323
-3.6861 -16.9802 -0.8812 0.9328
5.6628 12.9832 -0.7183 0.9448
0.7045 12.9311 -0.6568 0.9495
-1.6663 13.3693 -0.6833 0.9475
-2.9457 13.6057 -0.7060 0.9458
-5.9941 14.5145 -0.7964 0.9390
-14.2475 12.8297 -0.9723 0.9261
-14.5941 10.9539 -0.9254 0.9295
-17.7065 6.9949 -0.9655 0.9266
-14.2965 -6.4997 -0.7964 0.9390
-9.2421 -16.1567 -0.9440 0.9282
-7.4740 -16.2803 -0.9085 0.9308
-18.9816 -5.5913 -1.4509 0.9237
-15.7155 -6.1983 -1.2387 0.9345
-9.7441 -7.3053 -0.8930 0.9523
-7.2902 -7.8405 -0.7850 0.9580
-10.6107 -13.6764 -1.2692 0.9329
-10.1348 -15.7901 -1.3757 0.9275
-7.5591 -14.4699 -1.1970 0.9366
-5.2200 -16.6984 -1.2828 0.9322
-3.6864 -16.9818 -1.2741 0.9327
-2.4550 -19.6090 -1.4490 0.9238
1.0654 -19.7542 -1.4505 0.9237
16.1401 11.6258 -1.4585 0.9233
5.6385 12.9275 -1.0341 0.9450
2.3501 16.2482 -1.2038 0.9363
-1.6662 13.3680 -0.9878 0.9474
-4.3542 13.9559 -1.0719 0.9431
-2.9003 5.5594 -0.4598 0.9752
-11.8028 12.7076 -1.2717 0.9328
-14.2497 12.8317 -1.4060 0.9260
-12.2660 7.5991 -1.0580 0.9438
-15.7546 7.9127 -1.2927 0.9317
-16.9912 -5.9624 -1.3203 0.9303
-10.4003 -7.1939 -0.9272 0.9505
-7.7056 -7.6773 -0.7975 0.9573
-6.3890 -13.9169 -1.1228 0.9404
1.3274 14.2911 -1.0524 0.9441
-13.1629 -6.6019 -1.4137 0.9425
-9.7599 -7.3172 -1.1711 0.9522
-7.1862 -7.7286 -1.0132 0.9585
-10.1358 -15.7917 -1.8015 0.9274
-4.6550 -8.9107 -0.9652 0.9604
-3.6868 -16.9834 -1.6685 0.9325
2.6785 -18.5907 -1.8032 0.9273
2.2498 15.5543 -1.5088 0.9388
0.5372 9.8606 -0.9481 0.9611
-2.9451 13.6029 -1.3362 0.9456
-4.3538 13.9545 -1.4034 0.9430
-5.4724 13.2512 -1.3764 0.9440
-2.8955 5.5501 -0.6010 0.9752
-11.8243 7.3255 -1.3354 0.9456
-15.7291 7.8998 -1.6898 0.9317
-18.3633 7.2543 -1.8955 0.9237
-19.2161 3.8513 -1.8815 0.9243
-19.4690 0.3772 -1.8695 0.9247
-19.3772 -1.3556 -1.8649 0.9249
-19.1420 -3.0706 -1.8612 0.9251
-14.1694 -6.4419 -1.4943 0.9394
-12.0236 -6.8192 -1.3271 0.9460
-10.4170 -7.2054 -1.2160 0.9504
-7.6740 -7.6459 -1.0400 0.9574
-6.6988 -7.9851 -1.0006 0.9590
-6.8035 -9.7591 -1.1421 0.9533
-4.3408 -16.8625 -1.6717 0.9324
-2.9837 -18.1719 -1.7679 0.9287
-1.3601 -18.4651 -1.7775 0.9283
0.2921 -18.6191 -1.7877 0.9279
1.9616 -18.6303 -1.7985 0.9275
-15.7924 -1.7128 -1.8869 0.9380
-15.5550 -3.1086 -1.8843 0.9381
-14.7232 -5.8069 -1.8800 0.9382
-9.7210 -7.2880 -1.4432 0.9522
-8.4425 -7.5940 -1.3489 0.9553
-7.2408 -7.7873 -1.2631 0.9581
-3.8243 -9.2460 -1.1885 0.9605
-1.8667 -14.9102 -1.7849 0.9413
0.8168 -15.1445 -1.8016 0.9407
3.8184 -16.1402 -1.9701 0.9354
5.2687 -15.8182 -1.9805 0.9350
9.4139 -14.0854 -2.0124 0.9340
11.8887 -12.3198 -2.0337 0.9334
13.0050 -11.2687 -2.0441 0.9330
14.0259 -10.1146 -2.0541 0.9327
14.9412 -8.8663 -2.0638 0.9324
15.7414 -7.5332 -2.0729 0.9321
16.9626 -4.6566 -2.0895 0.9316
17.7505 -0.0049 -2.1085 0.9310
17.7185 1.5800 -2.1131 0.9309
17.2063 4.7132 -2.1192 0.9307
16.7297 6.2319 -2.1207 0.9306
14.4725 10.4246 -2.1187 0.9307
13.4685 11.6573 -2.1159 0.9308
11.1404 13.8065 -2.1073 0.9310
7.8175 14.2928 -1.9351 0.9365
5.4307 12.4510 -1.6136 0.9468
2.2496 15.5529 -1.8667 0.9387
0.3352 6.1525 -0.7319 0.9755
-3.9240 12.5772 -1.5650 0.9483
-5.8785 14.2345 -1.8294 0.9398
-2.9021 5.5628 -0.7453 0.9750
-10.3606 11.1548 -1.8084 0.9405
-8.2335 7.4142 -1.3161 0.9564
-8.9376 6.7084 -1.3274 0.9560
-13.3919 6.7260 -1.7801 0.9414
-14.9939 5.9232 -1.9150 0.9371
-15.7006 3.1467 -1.9021 0.9375
-15.8736 1.7304 -1.8967 0.9377
-15.9259 0.3085 -1.8921 0.9379
-15.3669 -3.8955 -1.8831 0.9381
-14.9480 -5.2454 -1.8818 0.9382
-12.3398 -6.9986 -1.6851 0.9445
-9.0011 -7.4949 -1.3913 0.9539
-7.6968 -7.6685 -1.2906 0.9572
-8.4304 -12.0927 -1.7511 0.9423
-5.7403 -10.0350 -1.3733 0.9545
-3.7162 -14.4360 -1.7707 0.9417
-2.4301 -14.8006 -1.7816 0.9414
2.9487 -14.9989 -1.8158 0.9403
6.0871 -15.5761 -1.9865 0.9349
7.4905 -15.0519 -1.9971 0.9345
10.1509 -13.6283 -2.0186 0.9338
11.3844 -12.7365 -2.0292 0.9335
14.5630 -9.4116 -2.0597 0.9325
15.4135 -8.1135 -2.0691 0.9322
16.1438 -6.7367 -2.0779 0.9320
17.2126 -3.7929 -2.0937 0.9315
17.5382 -2.2515 -2.1004 0.9313
17.7185 -0.6819 -2.1063 0.9311
17.7505 0.9016 -2.1112 0.9309
17.6329 2.4842 -2.1152 0.9308
16.9514 5.5873 -2.1201 0.9306
16.3929 7.0783 -2.1210 0.9306
14.8661 9.8685 -2.1195 0.9306
13.9124 11.1415 -2.1172 0.9307
12.8439 12.3171 -2.1139 0.9308
11.6713 13.3848 -2.1095 0.9310
8.3691 14.0033 -1.9378 0.9364
5.7102 15.1585 -1.9241 0.9368
4.3194 15.5436 -1.9163 0.9371
1.3313 14.3333 -1.7099 0.9437
-13.3556 -1.4485 -1.9034 0.9472
-13.1577 -2.6295 -1.9012 0.9472
-12.8605 -3.7883 -1.8996 0.9473
-11.9779 -6.0076 -1.8986 0.9473
-11.0744 -6.8525 -1.8452 0.9487
-7.1708 -7.7120 -1.4921 0.9583
-6.9537 -8.9628 -1.6073 0.9552
-6.4904 -10.1121 -1.7025 0.9526
-4.5120 -8.6371 -1.3807 0.9614
-3.8247 -9.2469 -1.4178 0.9604
3.2051 -13.5479 -1.9726 0.9453
4.4219 -13.2759 -1.9826 0.9450
5.6121 -12.8864 -1.9915 0.9448
7.8804 -11.7909 -2.0094 0.9443
8.9392 -11.0910 -2.0184 0.9441
9.9350 -10.2953 -2.0272 0.9438
10.8587 -9.4090 -2.0358 0.9436
11.7017 -8.4386 -2.0441 0.9434
12.4556 -7.3913 -2.0522 0.9432
13.1129 -6.2753 -2.0598 0.9430
13.6669 -5.0996 -2.0669 0.9428
14.4416 -2.6086 -2.0793 0.9424
14.7443 -0.0041 -2.0891 0.9422
14.5574 2.6212 -2.0958 0.9420
14.2801 3.9117 -2.0979 0.9419
13.8829 5.1714 -2.0991 0.9419
12.7434 7.5526 -2.0989 0.9419
9.2545 11.4693 -2.0881 0.9422
6.5006 11.8850 -1.9194 0.9467
5.4000 12.3806 -1.9138 0.9469
3.0959 13.0543 -1.9010 0.9472
0.5319 9.7636 -1.3854 0.9613
-0.4573 13.1408 -1.8630 0.9483
-1.6328 13.1006 -1.8706 0.9481
-8.7114 9.3792 -1.8137 0.9496
-10.7536 6.6622 -1.7924 0.9502
-12.6512 4.9978 -1.9273 0.9465
-13.0071 3.8392 -1.9216 0.9467
-13.4627 0.2608 -1.9079 0.9471
-13.2547 -2.1262 -1.9021 0.9472
-12.9997 -3.2955 -1.9002 0.9473
-12.6468 -4.4379 -1.8990 0.9473
-12.1983 -5.5458 -1.8986 0.9473
-11.6273 -6.5944 -1.8940 0.9474
-7.6955 -7.6672 -1.5392 0.9571
-6.6963 -7.9821 -1.4763 0.9588
-6.4291 -9.2220 -1.5929 0.9556
-5.2234 -11.3779 -1.7739 0.9507
-4.2013 -11.8328 -1.7791 0.9505
-2.0481 -12.4740 -1.7911 0.9502
0.1999 -12.7362 -1.8048 0.9498
2.5383 -12.9114 -1.8644 0.9482
3.9044 -13.4097 -1.9789 0.9451
6.2781 -12.6156 -1.9966 0.9447
7.4103 -12.0601 -2.0056 0.9444
8.4931 -11.4026 -2.0145 0.9442
9.5170 -10.6473 -2.0234 0.9439
11.3513 -8.8638 -2.0406 0.9435
14.7204 -0.5665 -2.0873 0.9422
14.7411 0.7487 -2.0914 0.9421
14.4136 3.3623 -2.0971 0.9420
14.0674 4.6367 -2.0987 0.9419
12.3374 8.1899 -2.0982 0.9419
11.5481 9.2481 -2.0963 0.9420
-11.1348 -3.2799 -1.9123 0.9540
-10.7942 -4.2573 -1.9115 0.9541
-7.3199 -7.8724 -1.7709 0.9574
-6.5996 -8.5064 -1.7736 0.9573
-4.6893 -8.9765 -1.6684 0.9598
-4.1414 -10.0125 -1.7850 0.9570
-2.8482 -9.1112 -1.5726 0.9620
-2.3113 -10.6473 -1.7949 0.9568
-1.3577 -10.8444 -1.8004 0.9567
-0.3874 -10.9582 -1.8064 0.9565
2.7625 -11.6769 -1.9767 0.9525
6.7704 -10.1302 -2.0072 0.9518
7.6753 -9.5229 -2.0149 0.9516
8.5250 -8.8342 -2.0225 0.9514
9.3121 -8.0688 -2.0298 0.9513
10.0291 -7.2324 -2.0370 0.9511
11.6948 -4.3637 -2.0563 0.9507
12.5236 -1.1237 -2.0714 0.9503
12.5972 -0.0035 -2.0753 0.9502
12.5667 1.1206 -2.0784 0.9501
12.4317 2.2385 -2.0809 0.9501
12.1932 3.3400 -2.0827 0.9500
11.8530 4.4153 -2.0837 0.9500
10.8803 6.4484 -2.0836 0.9500
10.2565 7.3878 -2.0824 0.9500
8.7632 9.0709 -2.0778 0.9502
7.3038 9.0518 -1.9161 0.9539
6.4559 9.6480 -1.9124 0.9540
4.6191 10.5904 -1.9034 0.9542
3.6471 10.9296 -1.8981 0.9544
2.6508 11.1775 -1.8924 0.9545
-0.3955 11.3647 -1.8733 0.9549
-3.3490 10.7341 -1.8524 0.9554
-4.2756 10.3530 -1.8453 0.9556
-5.9989 9.3577 -1.8312 0.9559
-8.1698 7.3568 -1.8111 0.9564
-9.7452 6.0374 -1.8885 0.9546
-11.2443 3.3189 -1.9314 0.9536
-11.4684 2.2985 -1.9269 0.9537
-11.6494 0.2257 -1.9195 0.9539
-11.6060 -0.8119 -1.9166 0.9539
-11.4741 -1.8406 -1.9144 0.9540
-11.2549 -2.8532 -1.9128 0.9540
-10.5622 -4.8020 -1.9114 0.9541
-10.0937 -5.7247 -1.9116 0.9540
-8.7407 -7.2781 -1.8738 0.9549
-7.6108 -7.5829 -1.7699 0.9574
-5.3620 -9.3738 -1.7790 0.9572
-4.5159 -9.8367 -1.7831 0.9571
-2.7127 -10.5380 -1.7926 0.9568
-0.8043 -10.9198 -1.8038 0.9566
0.1724 -10.9851 -1.8099 0.9564
2.3088 -11.7442 -1.9718 0.9526
3.3617 -11.5456 -1.9810 0.9524
4.3937 -11.2430 -1.9886 0.9522
5.3987 -10.8485 -1.9962 0.9521
8.1452 -9.1126 -2.0135 0.9517
8.9833 -8.4055 -2.0267 0.9513
9.7312 -7.5987 -2.0340 0.9512
10.9984 -5.7895 -2.0476 0.9509
11.9210 -3.7675 -2.0596 0.9506
12.2405 -2.6973 -2.0649 0.9505
12.4605 -1.5997 -2.0696 0.9503
12.3079 2.8711 -2.0820 0.9501
11.6138 5.0147 -2.0840 0.9500
10.5342 6.9929 -2.0830 0.9500
5.9480 9.9524 -1.9100 0.9541
3.0797 11.0826 -1.8949 0.9544
2.0736 11.2777 -1.8890 0.9546
1.0570 11.3798 -1.8828 0.9547
-10.1815 -1.1043 -1.9250 0.9592
-9.8089 -2.8893 -1.9220 0.9592
-9.5092 -3.7505 -1.9213 0.9592
-9.1367 -4.5826 -1.9213 0.9593
-8.6942 -5.3797 -1.9217 0.9592
-8.1847 -6.1362 -1.9227 0.9592
-7.6116 -6.8466 -1.9243 0.9592
-6.0371 -7.7814 -1.8512 0.9607
-3.6436 -8.8091 -1.7918 0.9619
-2.8394 -9.0832 -1.7888 0.9620
-2.0322 -9.3613 -1.8005 0.9618
-1.1933 -9.5311 -1.8054 0.9617
-0.3403 -9.6272 -1.8107 0.9616
1.4965 -10.3867 -1.9724 0.9582
2.4238 -10.2452 -1.9789 0.9581
4.2318 -9.7170 -1.9921 0.9578
5.0979 -9.3328 -1.9988 0.9576
6.7183 -8.3356 -2.0123 0.9574
7.4586 -7.7291 -2.0189 0.9572
8.7667 -6.3220 -2.0316 0.9570
9.3223 -5.5320 -2.0375 0.9568
10.6283 2.9114 -2.0713 0.9561
10.3311 3.8484 -2.0722 0.9561
9.9484 4.7541 -2.0725 0.9561
8.9404 6.4398 -2.0710 0.9561
8.3244 7.2050 -2.0693 0.9562
7.6408 7.9092 -2.0670 0.9562
6.3697 7.8941 -1.9066 0.9596
5.6316 8.4161 -1.9034 0.9596
4.8499 8.8672 -1.8997 0.9597
-0.3459 9.9396 -1.8694 0.9603
-2.0909 9.6574 -1.8573 0.9606
-2.9332 9.4012 -1.8511 0.9607
-3.7465 9.0718 -1.8448 0.9608
-5.2615 8.2075 -1.8325 0.9611
-5.9522 7.6807 -1.8264 0.9612
-7.1752 6.4612 -1.8149 0.9615
-8.8295 5.4701 -1.9523 0.9586
-9.6159 3.7987 -1.9433 0.9588
-10.0935 2.0229 -1.9349 0.9590
-10.2150 1.1135 -1.9314 0.9590
-9.9143 -2.5133 -1.9224 0.9592
-9.6465 -3.3851 -1.9216 0.9592
-9.3049 -4.2303 -1.9212 0.9593
-7.8644 -6.5485 -1.9236 0.9592
-5.4996 -7.8887 -1.8075 0.9616
-4.7194 -8.2504 -1.7865 0.9621
-3.9736 -8.6555 -1.7901 0.9620
-3.1937 -8.9952 -1.7941 0.9619
-2.3855 -9.2667 -1.7985 0.9618
-1.5544 -9.4673 -1.8033 0.9617
0.1548 -9.8671 -1.8548 0.9606
1.0951 -10.4012 -1.9658 0.9583
2.0280 -10.3158 -1.9761 0.9581
2.9487 -10.1274 -1.9826 0.9580
3.8522 -9.8573 -1.9892 0.9578
4.7310 -9.5069 -1.9960 0.9577
5.5780 -9.0782 -2.0027 0.9576
6.3861 -8.5738 -2.0094 0.9574
8.5079 -6.6435 -2.0289 0.9570
9.0931 -5.8766 -2.0350 0.9569
10.0468 -4.1924 -2.0462 0.9567
10.4059 -3.2887 -2.0513 0.9566
10.8702 -1.3955 -2.0599 0.9564
10.9702 -0.4222 -2.0635 0.9563
10.9802 0.5577 -2.0665 0.9562
10.8996 1.5356 -2.0689 0.9562
10.7288 2.5027 -2.0707 0.9562
8.5967 6.8845 -2.0701 0.9562
7.9413 7.6156 -2.0681 0.9562
6.6707 7.6500 -1.9078 0.9595
5.9533 8.2011 -1.9048 0.9596
4.3860 9.0919 -1.8974 0.9597
1.8116 9.8531 -1.8831 0.9600
0.9239 9.9465 -1.8776 0.9602
-9.0884 -0.9857 -1.9324 0.9633
-5.6143 -7.2364 -1.9360 0.9632
-4.9463 -7.7064 -1.9357 0.9633
-4.2314 -8.1000 -1.9317 0.9633
-1.1300 -9.0253 -1.9227 0.9635
0.5017 -9.3028 -1.9693 0.9626
1.3323 -9.2470 -1.9748 0.9625
2.1571 -9.1178 -1.9805 0.9624
3.7633 -8.6414 -1.9923 0.9622
4.5319 -8.2966 -1.9983 0.9621
5.9679 -7.4045 -2.0103 0.9619
6.6231 -6.8633 -2.0161 0.9618
7.7792 -5.6099 -2.0273 0.9615
8.2695 -4.9072 -2.0326 0.9614
8.6951 -4.1611 -2.0376 0.9614
9.0519 -3.3776 -2.0422 0.9613
9.5456 -1.7242 -2.0504 0.9611
9.6774 -0.8683 -2.0538 0.9611
9.7032 0.8653 -2.0592 0.9610
9.1468 3.4072 -2.0632 0.9609
8.8078 4.2091 -2.0635 0.9609
8.3963 4.9762 -2.0631 0.9609
7.9160 5.7020 -2.0622 0.9609
7.3712 6.3800 -2.0607 0.9609
4.2976 7.8574 -1.8931 0.9640
3.5735 8.1931 -1.8894 0.9641
2.8233 8.4608 -1.8854 0.9642
2.0535 8.6586 -1.8810 0.9643
1.2707 8.7853 -1.8764 0.9644
0.3352 6.1516 -1.3022 0.9751
-1.0889 8.7363 -1.8610 0.9646
-2.6067 8.3550 -1.8500 0.9649
-3.3308 8.0653 -1.8445 0.9650
-2.8946 5.5485 -1.3229 0.9747
-5.8688 6.3187 -1.8229 0.9654
-6.3906 5.7546 -1.8178 0.9655
-8.8244 2.6046 -1.9448 0.9631
-9.0048 1.8047 -1.9413 0.9631
-9.1150 0.9936 -1.9381 0.9632
-9.1545 0.1773 -1.9354 0.9633
-9.0218 -1.4472 -1.9314 0.9633
-8.3076 -3.7769 -1.9290 0.9634
-7.5089 -5.1938 -1.9299 0.9634
-7.0206 -5.8458 -1.9311 0.9633
-6.4775 -6.4537 -1.9328 0.9633
-5.8833 -7.0129 -1.9349 0.9633
-2.9669 -8.3561 -1.8743 0.9644
1.8051 -9.1821 -1.9781 0.9625
2.6237 -9.0110 -1.9838 0.9624
5.6737 -7.6174 -2.0077 0.9619
6.3484 -7.1024 -2.0136 0.9618
6.9759 -6.5272 -2.0194 0.9617
7.5506 -5.8960 -2.0250 0.9616
8.5211 -4.4854 -2.0355 0.9614
9.2236 -2.9151 -2.0447 0.9612
9.4654 -2.0858 -2.0488 0.9611
9.6305 -1.2363 -2.0524 0.9611
9.6518 1.3598 -2.0603 0.9609
9.4996 2.2160 -2.0619 0.9609
8.9620 3.8697 -2.0634 0.9609
8.5811 4.6525 -2.0633 0.9609
8.1298 5.3968 -2.0626 0.9609
7.6120 6.0960 -2.0614 0.9609
7.0325 6.7441 -2.0596 0.9609
5.9082 6.7756 -1.9002 0.9639
5.2737 7.2650 -1.8976 0.9640
3.8871 8.0576 -1.8911 0.9641
2.3850 8.5826 -1.8829 0.9642
1.6069 8.7398 -1.8784 0.9643
-7.3609 -3.6919 -1.9354 0.9667
-7.0041 -4.3339 -1.9358 0.9667
-6.5929 -4.9428 -1.9366 0.9667
-3.1720 -7.6690 -1.9505 0.9665
-0.2957 -8.3640 -1.9670 0.9662
0.4518 -8.3774 -1.9717 0.9661
1.1994 -8.3248 -1.9767 0.9660
1.9414 -8.2061 -1.9819 0.9659
2.6719 -8.0218 -1.9871 0.9659
3.3850 -7.7727 -1.9925 0.9658
4.0751 -7.4603 -1.9979 0.9657
5.3631 -6.6542 -2.0086 0.9655
5.9502 -6.1660 -2.0139 0.9654
6.4924 -5.6256 -2.0190 0.9653
8.5609 -1.5464 -2.0446 0.9649
8.6984 0.7757 -2.0524 0.9648
8.6018 1.5488 -2.0541 0.9647
8.4346 2.3104 -2.0553 0.9647
8.1980 3.0538 -2.0561 0.9647
7.5254 4.4600 -2.0559 0.9647
7.0953 5.1108 -2.0551 0.9647
6.6074 5.7189 -2.0538 0.9647
6.0653 6.2783 -2.0516 0.9648
5.0586 6.2692 -1.8932 0.9674
3.8545 7.0472 -1.8878 0.9675
3.2057 7.3498 -1.8845 0.9676
2.5332 7.5916 -1.8809 0.9677
-0.2758 7.9254 -1.8638 0.9679
-0.9783 7.8492 -1.8590 0.9680
-1.6694 7.7106 -1.8542 0.9681
-4.0811 5.2661 -1.5658 0.9730
-5.2838 5.6889 -1.8248 0.9686
-5.9353 5.3447 -1.8771 0.9677
-6.6892 5.0207 -1.9657 0.9662
-7.4417 3.7376 -1.9572 0.9664
-7.7297 3.0535 -1.9533 0.9664
-7.9564 2.3484 -1.9497 0.9665
-8.1399 -1.3058 -1.9375 0.9667
-7.7714 -2.7271 -1.9356 0.9667
-7.4964 -3.4082 -1.9354 0.9667
-6.7754 -4.6865 -1.9362 0.9667
-6.3344 -5.2745 -1.9373 0.9667
-5.8439 -5.8224 -1.9388 0.9667
-2.0752 -8.0614 -1.9564 0.9664
-0.6142 -8.3382 -1.9650 0.9662
0.1315 -8.3797 -1.9697 0.9661
1.6248 -8.2650 -1.9796 0.9660
2.3610 -8.1087 -1.9849 0.9659
3.0823 -7.8872 -1.9902 0.9658
5.0994 -6.8463 -2.0063 0.9655
6.2661 -5.8630 -2.0168 0.9654
7.9930 -3.3354 -2.0355 0.9650
8.4897 -1.8708 -2.0431 0.9649
8.6363 -1.1087 -2.0464 0.9649
8.7180 0.4428 -2.0516 0.9648
8.6519 1.2189 -2.0535 0.9647
8.5147 1.9863 -2.0549 0.9647
8.3076 2.7382 -2.0558 0.9647
8.0322 3.4682 -2.0562 0.9647
6.3042 6.0456 -2.0528 0.9647
5.6689 6.5011 -2.0272 0.9652
4.7288 6.5142 -1.8918 0.9675
2.8236 7.4957 -1.8825 0.9676
2.1402 7.7019 -1.8787 0.9677
1.4424 7.8449 -1.8746 0.9678
-7.3554 -1.4700 -1.9421 0.9695
-7.1919 -2.1185 -1.9412 0.9695
-6.9728 -2.7501 -1.9407 0.9695
-6.6998 -3.3603 -1.9406 0.9695
-3.4897 -6.6802 -1.9514 0.9693
-2.8851 -6.9753 -1.9544 0.9693
-1.6070 -7.4029 -1.9614 0.9692
-0.9429 -7.5315 -1.9653 0.9691
1.0896 -7.5626 -1.9783 0.9689
2.4261 -7.2838 -1.9878 0.9688
3.0729 -7.0559 -1.9926 0.9687
3.6983 -6.7706 -1.9975 0.9686
5.3961 -5.5918 -2.0120 0.9684
5.8864 -5.1005 -2.0166 0.9683
7.7527 -1.4004 -2.0398 0.9680
7.8980 -0.0022 -2.0449 0.9679
7.8743 0.7022 -2.0469 0.9679
7.7863 1.4020 -2.0484 0.9678
7.6345 2.0913 -2.0495 0.9678
7.4201 2.7640 -2.0502 0.9678
7.1449 3.4144 -2.0503 0.9678
6.4223 4.6260 -2.0493 0.9678
5.9811 5.1768 -2.0481 0.9678
5.4917 5.6846 -2.0465 0.9679
4.6563 5.7706 -1.9199 0.9698
2.2950 6.8775 -1.8772 0.9705
0.3351 6.1512 -1.5950 0.9749
-1.5144 6.9947 -1.8530 0.9709
-2.6010 4.9857 -1.4560 0.9770
-3.2786 5.1143 -1.5729 0.9752
-4.8003 5.1683 -1.8263 0.9713
-5.6492 5.0870 -1.9683 0.9691
-6.4494 3.9956 -1.9644 0.9691
-7.2369 2.1361 -1.9537 0.9693
-7.3873 1.4805 -1.9507 0.9693
-7.5142 0.1456 -1.9459 0.9694
-7.4901 -0.5240 -1.9441 0.9695
-7.2687 -1.8427 -1.9415 0.9695
-6.8231 -3.1020 -1.9406 0.9695
-6.1666 -4.2654 -1.9414 0.9695
-4.8293 -5.7566 -1.9455 0.9694
-3.7399 -6.5381 -1.9502 0.9694
-3.1472 -6.8554 -1.9531 0.9693
-1.2287 -7.4836 -1.9636 0.9692
0.1195 -7.6149 -1.9719 0.9690
0.7993 -7.5911 -1.9763 0.9690
1.4759 -7.5072 -1.9810 0.9689
2.7983 -7.1605 -1.9905 0.9687
4.0445 -6.5824 -2.0003 0.9686
5.6818 -5.3163 -2.0147 0.9684
6.1467 -4.7998 -2.0192 0.9683
6.5641 -4.2422 -2.0236 0.9682
6.9301 -3.6480 -2.0277 0.9682
7.2414 -3.0218 -2.0316 0.9681
7.4951 -2.3688 -2.0352 0.9680
7.6887 -1.6943 -2.0385 0.9680
7.8924 0.4009 -2.0461 0.9679
7.8318 1.1034 -2.0478 0.9678
7.7072 1.7979 -2.0491 0.9678
6.9611 3.7742 -2.0502 0.9678
6.5954 4.3782 -2.0497 0.9678
6.1761 4.9460 -2.0487 0.9678
4.2816 5.8983 -1.8871 0.9703
3.7342 6.2480 -1.8846 0.9704
3.1579 6.5461 -1.8818 0.9704
1.9391 6.9782 -1.8752 0.9705
0.6671 7.1823 -1.8676 0.9706
-6.7422 -1.3474 -1.9464 0.9718
-6.1417 -3.0804 -1.9451 0.9718
-4.2232 -5.4434 -1.9504 0.9718
-3.1975 -6.1209 -1.9550 0.9717
-2.6432 -6.3904 -1.9577 0.9717
-2.0666 -6.6108 -1.9608 0.9716
-0.2460 -6.9598 -1.9715 0.9715
0.3758 -6.9681 -1.9755 0.9714
1.6134 -6.8197 -1.9839 0.9713
2.2195 -6.6635 -1.9883 0.9712
3.9290 -5.8787 -2.0017 0.9710
4.4469 -5.5174 -2.0061 0.9710
4.9315 -5.1103 -2.0105 0.9709
5.3785 -4.6604 -2.0147 0.9708
6.1445 -3.6462 -2.0227 0.9707
6.4567 -3.0899 -2.0264 0.9707
6.9250 -1.9011 -2.0330 0.9706
7.0768 -1.2783 -2.0358 0.9705
7.1714 -0.6435 -2.0383 0.9705
7.2078 -0.0020 -2.0405 0.9705
7.1048 1.2793 -2.0437 0.9704
6.7702 2.5219 -2.0452 0.9704
5.8600 4.2210 -2.0445 0.9704
5.0115 5.1874 -2.0419 0.9705
2.6509 6.0778 -1.8771 0.9728
2.0955 6.2799 -1.8742 0.9729
0.9443 6.5287 -1.8675 0.9729
-1.3843 6.3940 -1.8520 0.9732
-1.9442 6.2314 -1.8479 0.9732
-2.3010 5.5718 -1.7066 0.9753
-2.6012 4.9861 -1.5921 0.9769
-3.9631 5.1139 -1.8316 0.9735
-4.7387 5.1019 -1.9712 0.9715
-5.1831 4.6673 -1.9745 0.9714
-5.9061 3.6590 -1.9668 0.9715
-6.1975 3.1127 -1.9633 0.9716
-6.4395 2.5439 -1.9601 0.9716
-6.6304 1.9570 -1.9571 0.9717
-6.7690 1.3566 -1.9544 0.9717
-6.8546 0.7472 -1.9520 0.9717
-6.8652 -0.4803 -1.9482 0.9718
-6.6630 -1.6891 -1.9459 0.9718
-5.9770 -3.3899 -1.9452 0.9718
-5.6527 -3.9100 -1.9458 0.9718
-4.4261 -5.2760 -1.9496 0.9718
-3.9424 -5.6551 -1.9516 0.9717
-2.8835 -6.2809 -1.9565 0.9717
-2.3159 -6.5226 -1.9594 0.9716
-1.7284 -6.7140 -1.9627 0.9716
-0.5112 -6.9395 -1.9698 0.9715
0.7316 -6.9481 -1.9778 0.9714
1.3506 -6.8700 -1.9821 0.9713
2.5597 -6.5500 -1.9908 0.9712
3.6981 -6.0186 -1.9998 0.9711
4.2290 -5.6778 -2.0042 0.9710
4.7284 -5.2900 -2.0086 0.9709
5.1920 -4.8580 -2.0129 0.9709
6.6124 -2.7593 -2.0284 0.9707
6.8430 -2.1627 -2.0316 0.9706
7.1379 -0.9164 -2.0373 0.9705
7.1994 -0.2771 -2.0396 0.9705
7.2023 0.3658 -2.0416 0.9705
5.6355 4.5131 -2.0439 0.9704
5.2076 4.9940 -2.0426 0.9705
3.9078 5.3833 -1.8832 0.9727
3.4085 5.7032 -1.8809 0.9728
2.8829 5.9760 -1.8783 0.9728
2.3354 6.1996 -1.8755 0.9728
-6.2173 -1.2425 -1.9501 0.9738
-6.0795 -1.7908 -1.9494 0.9738
-5.8945 -2.3249 -1.9490 0.9738
-5.6638 -2.8407 -1.9489 0.9738
-4.7155 -4.2416 -1.9508 0.9738
-4.3218 -4.6480 -1.9521 0.9738
-3.8938 -5.0188 -1.9538 0.9738
-1.9046 -6.0926 -1.9634 0.9736
-0.2267 -6.4115 -1.9733 0.9735
0.9183 -6.3740 -1.9808 0.9734
1.4856 -6.2794 -1.9847 0.9734
2.0433 -6.1345 -1.9887 0.9733
2.5870 -5.9402 -1.9928 0.9732
4.0909 -5.0757 -2.0051 0.9731
4.5359 -4.7004 -2.0091 0.9730
4.9462 -4.2859 -2.0130 0.9730
5.3183 -3.8353 -2.0168 0.9729
5.6489 -3.3521 -2.0204 0.9729
6.3638 -1.7470 -2.0298 0.9728
6.5888 -0.5912 -2.0347 0.9727
6.6217 -0.0018 -2.0367 0.9727
6.6009 0.5886 -2.0383 0.9726
6.5263 1.1751 -2.0396 0.9726
6.3985 1.7527 -2.0405 0.9726
6.2185 2.3164 -2.0411 0.9726
5.9878 2.8614 -2.0412 0.9726
5.3826 3.8771 -2.0404 0.9726
4.1508 5.1442 -2.0331 0.9727
3.4230 5.1155 -1.8932 0.9746
-0.2102 6.0389 -1.8585 0.9750
-1.7889 5.7338 -1.8474 0.9752
-2.2777 5.5153 -1.8354 0.9753
-3.2217 5.0254 -1.8361 0.9753
-3.8379 4.9525 -1.9271 0.9741
-5.1288 3.8495 -1.9724 0.9735
-5.4419 3.3714 -1.9690 0.9736
-5.7111 2.8684 -1.9657 0.9736
-5.9349 2.3445 -1.9627 0.9736
-6.2400 1.2506 -1.9575 0.9737
-6.3195 0.6889 -1.9553 0.9737
-6.2616 -1.0045 -1.9506 0.9738
-5.9794 -2.0983 -1.9491 0.9738
-5.7681 -2.6224 -1.9489 0.9738
-5.5119 -3.1261 -1.9490 0.9738
-4.0810 -4.8646 -1.9530 0.9738
-1.0369 -6.3149 -1.9683 0.9736
-0.4709 -6.3932 -1.9717 0.9735
0.1008 -6.4215 -1.9753 0.9735
1.2437 -6.3261 -1.9830 0.9734
1.8060 -6.2026 -1.9870 0.9733
2.3562 -6.0293 -1.9911 0.9733
2.8900 -5.8074 -1.9952 0.9732
3.4029 -5.5382 -1.9993 0.9732
3.8908 -5.2237 -2.0034 0.9731
4.3495 -4.8660 -2.0074 0.9731
4.7751 -4.4679 -2.0114 0.9730
5.1639 -4.0323 -2.0152 0.9730
5.5127 -3.5627 -2.0189 0.9729
5.8181 -3.0626 -2.0223 0.9729
6.0776 -2.5362 -2.0256 0.9728
6.2888 -1.9875 -2.0286 0.9728
6.5584 -0.8420 -2.0338 0.9727
6.6142 -0.2545 -2.0359 0.9727
6.6164 0.3361 -2.0377 0.9727
6.5647 0.9249 -2.0391 0.9726
6.4596 1.5069 -2.0402 0.9726
6.3018 2.0771 -2.0409 0.9726
6.0926 2.6307 -2.0412 0.9726
5.8338 3.1630 -2.0411 0.9726
5.5276 3.6693 -2.0407 0.9726
5.1765 4.1455 -2.0398 0.9726
4.3527 4.9917 -2.0371 0.9727
2.6492 5.4916 -1.8754 0.9748
2.1464 5.6978 -1.8727 0.9748
1.6277 5.8573 -1.8699 0.9749
1.0975 5.9692 -1.8668 0.9749
-5.7624 -1.1516 -1.9533 0.9755
-5.6349 -1.6598 -1.9526 0.9755
-5.4635 -2.1549 -1.9522 0.9755
-4.9949 -3.0907 -1.9525 0.9755
-4.7011 -3.5245 -1.9531 0.9755
-4.3704 -3.9311 -1.9540 0.9755
-4.0053 -4.3076 -1.9552 0.9755
-2.7311 -5.2280 -1.9607 0.9754
-1.2563 -5.7872 -1.9685 0.9753
-0.2099 -5.9372 -1.9748 0.9753
0.3205 -5.9425 -1.9782 0.9752
0.8502 -5.9009 -1.9817 0.9752
1.3751 -5.8124 -1.9854 0.9751
1.8910 -5.6774 -1.9891 0.9751
2.8796 -5.2717 -1.9967 0.9750
3.3442 -5.0037 -2.0005 0.9750
3.7838 -4.6947 -2.0043 0.9749
4.1947 -4.3469 -2.0080 0.9749
4.5735 -3.9629 -2.0116 0.9748
5.2218 -3.0987 -2.0184 0.9747
5.7059 -2.1291 -2.0244 0.9747
6.0082 -1.0853 -2.0295 0.9746
6.0874 -0.5462 -2.0316 0.9746
6.1174 -0.0017 -2.0334 0.9745
6.0977 0.5437 -2.0350 0.9745
6.0285 1.0855 -2.0361 0.9745
5.9103 1.6190 -2.0370 0.9745
5.5308 2.6430 -2.0376 0.9745
5.2727 3.1250 -2.0374 0.9745
4.9720 3.5813 -2.0368 0.9745
4.2528 4.4022 -2.0346 0.9745
3.8407 4.7599 -2.0331 0.9745
3.3855 5.0595 -2.0236 0.9747
2.7055 4.9464 -1.8741 0.9765
1.7800 5.3343 -1.8693 0.9766
-1.1780 5.4409 -1.8505 0.9768
-2.1169 5.1260 -1.8435 0.9769
-3.6492 4.7089 -1.9803 0.9752
-4.0556 4.3665 -1.9809 0.9752
-4.4206 3.9807 -1.9774 0.9752
-4.7496 3.5649 -1.9740 0.9753
-5.0401 3.1225 -1.9708 0.9753
-5.2902 2.6569 -1.9678 0.9754
-5.8843 0.1140 -1.9563 0.9755
-5.8034 -0.9309 -1.9537 0.9755
-5.6949 -1.4437 -1.9529 0.9755
-5.5421 -1.9448 -1.9524 0.9755
-5.3463 -2.4306 -1.9522 0.9755
-5.1088 -2.8975 -1.9523 0.9755
-4.8315 -3.3419 -1.9528 0.9755
-4.5163 -3.7606 -1.9535 0.9755
-2.4626 -5.3641 -1.9620 0.9754
-0.9603 -5.8488 -1.9702 0.9753
0.6238 -5.9245 -1.9802 0.9752
1.1512 -5.8560 -1.9838 0.9752
1.6715 -5.7408 -1.9875 0.9751
3.5989 -4.8318 -2.0027 0.9749
4.0226 -4.5003 -2.0064 0.9749
4.7744 -3.7282 -2.0136 0.9748
5.0962 -3.2935 -2.0170 0.9747
5.8115 -1.8367 -2.0260 0.9746
5.9595 -1.3132 -2.0285 0.9746
6.1122 0.3104 -2.0344 0.9745
6.0642 0.8543 -2.0357 0.9745
5.8209 1.9186 -2.0373 0.9745
5.3886 2.9216 -2.0375 0.9745
4.7817 3.8293 -2.0363 0.9745
4.0211 4.6114 -2.0338 0.9745
3.5836 4.9367 -2.0278 0.9746
1.9836 5.2656 -1.8704 0.9766
-5.4408 -0.5901 -1.9571 0.9770
-5.3640 -1.0720 -1.9561 0.9770
-5.0860 -2.0060 -1.9551 0.9770
-4.8869 -2.4510 -1.9551 0.9770
-4.0681 -3.6593 -1.9567 0.9770
-3.7281 -4.0095 -1.9579 0.9770
-3.3585 -4.3289 -1.9593 0.9770
-2.9620 -4.6149 -1.9610 0.9770
-2.5416 -4.8653 -1.9630 0.9770
-1.6417 -5.2516 -1.9676 0.9769
-0.1952 -5.5225 -1.9761 0.9768
0.2981 -5.5268 -1.9793 0.9768
0.7906 -5.4874 -1.9826 0.9767
1.2785 -5.4044 -1.9860 0.9767
1.7580 -5.2782 -1.9895 0.9766
2.2253 -5.1096 -1.9930 0.9766
2.6764 -4.8997 -1.9965 0.9766
3.5159 -4.3622 -2.0036 0.9765
3.8972 -4.0385 -2.0070 0.9764
4.2486 -3.6814 -2.0103 0.9764
4.5670 -3.2935 -2.0136 0.9764
4.8496 -2.8778 -2.0166 0.9763
5.0941 -2.4378 -2.0195 0.9763
5.4598 -1.4988 -2.0247 0.9762
5.5778 -1.0075 -2.0269 0.9762
5.6509 -0.5071 -2.0289 0.9762
5.6598 0.5047 -2.0320 0.9762
5.5953 1.0075 -2.0331 0.9761
3.9475 4.0861 -2.0317 0.9762
3.1492 4.7063 -2.0250 0.9762
2.6250 4.7992 -1.9562 0.9770
2.0902 4.7922 -1.8697 0.9780
1.2033 5.0739 -1.8648 0.9781
0.7454 5.1533 -1.8621 0.9781
0.2828 5.1912 -1.8592 0.9782
-0.1805 5.1874 -1.8562 0.9782
-0.6397 5.1323 -1.8495 0.9783
-1.9676 4.7645 -1.8434 0.9783
-2.4550 4.7058 -1.8981 0.9777
-3.7715 4.0606 -1.9818 0.9767
-4.1115 3.7023 -1.9786 0.9768
-4.9219 2.4720 -1.9696 0.9769
-5.2691 1.5552 -1.9646 0.9769
-5.4608 -0.3820 -1.9576 0.9770
-5.3012 -1.3439 -1.9557 0.9770
-5.1592 -1.8104 -1.9552 0.9770
-4.4975 -3.1109 -1.9556 0.9770
-4.2040 -3.5006 -1.9563 0.9770
-3.8774 -3.8632 -1.9574 0.9770
-2.7243 -4.7626 -1.9621 0.9770
-2.2916 -4.9917 -1.9642 0.9769
-1.8400 -5.1822 -1.9665 0.9769
0.0868 -5.5303 -1.9779 0.9768
0.5801 -5.5096 -1.9812 0.9767
1.0705 -5.4452 -1.9845 0.9767
2.0270 -5.1869 -1.9915 0.9766
2.4855 -4.9945 -1.9950 0.9766
3.7374 -4.1813 -2.0055 0.9765
4.1020 -3.8382 -2.0089 0.9764
4.4349 -3.4631 -2.0122 0.9764
4.7332 -3.0589 -2.0153 0.9763
4.9943 -2.6289 -2.0183 0.9763
5.3959 -1.7053 -2.0237 0.9762
5.5327 -1.2192 -2.0260 0.9762
5.6252 -0.7222 -2.0281 0.9762
5.6722 -0.2183 -2.0299 0.9762
5.6734 0.2882 -2.0315 0.9762
5.6285 0.7930 -2.0327 0.9761
5.5380 1.2919 -2.0336 0.9761
5.0011 2.7115 -2.0344 0.9761
4.7387 3.1457 -2.0340 0.9761
4.4381 3.5541 -2.0333 0.9761
4.1017 3.9334 -2.0323 0.9761
3.7324 4.2804 -2.0309 0.9762
2.8981 4.8491 -2.0202 0.9763
1.8417 4.8892 -1.8683 0.9781
1.3970 5.0272 -1.8659 0.9781
0.9422 5.1244 -1.8632 0.9781
0.4812 5.1801 -1.8604 0.9781
-2.3027 -0.2497 -0.8876 0.9901
-4.7523 -1.8743 -1.9577 0.9784
-4.0889 -3.0655 -1.9584 0.9783
-3.1377 -4.0443 -1.9616 0.9783
-2.7671 -4.3112 -1.9632 0.9783
-2.3742 -4.5449 -1.9650 0.9783
-1.9619 -4.7433 -1.9671 0.9783
-1.5333 -4.9049 -1.9694 0.9782
-0.6401 -5.1125 -1.9745 0.9782
0.2783 -5.1600 -1.9803 0.9781
0.7381 -5.1226 -1.9834 0.9781
1.1934 -5.0446 -1.9865 0.9780
1.6408 -4.9262 -1.9898 0.9780
2.0766 -4.7683 -1.9931 0.9780
2.8995 -4.3383 -1.9997 0.9779
4.2590 -3.0713 -2.0122 0.9778
4.7496 -2.2730 -2.0178 0.9777
5.1993 -0.9392 -2.0247 0.9776
5.2671 -0.4726 -2.0265 0.9776
5.2748 0.4704 -2.0294 0.9776
5.1120 1.4003 -2.0312 0.9776
4.7835 2.2860 -2.0317 0.9775
4.5604 2.7028 -2.0315 0.9775
4.3004 3.0976 -2.0310 0.9776
3.3228 4.1181 -2.0278 0.9776
2.5278 4.6217 -2.0187 0.9777
1.5409 4.6179 -1.8656 0.9794
0.6951 4.8054 -1.8607 0.9794
0.2638 4.8413 -1.8580 0.9794
-1.0212 4.7165 -1.8493 0.9795
-1.4350 4.5993 -1.8463 0.9796
-2.3972 4.5949 -1.9861 0.9780
-4.5967 2.3087 -1.9712 0.9782
-2.3026 0.2510 -0.8876 0.9901
-2.2937 0.0444 -0.8791 0.9902
-2.3037 -0.1612 -0.8850 0.9902
-5.0474 -0.8097 -1.9590 0.9783
-4.9533 -1.2557 -1.9582 0.9783
-4.6503 -2.1142 -1.9576 0.9784
-3.6228 -3.6095 -1.9598 0.9783
-2.9287 -4.2009 -1.9625 0.9783
-2.5450 -4.4491 -1.9642 0.9783
-1.2820 -4.9803 -1.9707 0.9782
-0.3788 -5.1426 -1.9761 0.9782
0.0810 -5.1635 -1.9790 0.9781
0.5416 -5.1436 -1.9820 0.9781
0.9993 -5.0829 -1.9852 0.9781
2.3193 -4.6606 -1.9949 0.9779
3.1199 -4.1887 -2.0015 0.9779
3.8260 -3.5799 -2.0079 0.9778
4.6567 -2.4512 -2.0167 0.9777
4.8628 -2.0292 -2.0193 0.9777
5.0302 -1.5898 -2.0217 0.9777
5.1574 -1.1365 -2.0238 0.9776
5.2432 -0.6731 -2.0258 0.9776
5.0346 1.6594 -2.0314 0.9775
4.8673 2.1016 -2.0317 0.9775
4.6606 2.5269 -2.0316 0.9775
4.4161 2.9315 -2.0313 0.9775
4.1360 3.3123 -2.0306 0.9776
3.4787 3.9894 -2.0284 0.9776
2.7069 4.5291 -2.0220 0.9777
1.3025 4.6871 -1.8643 0.9794
0.8785 4.7782 -1.8618 0.9794
-2.0185 -0.2189 -0.8310 0.9913
-4.5944 -1.3534 -1.9603 0.9795
-4.4549 -1.7571 -1.9599 0.9795
-3.5630 -3.2049 -1.9614 0.9795
-2.9410 -3.7907 -1.9636 0.9795
-2.2251 -4.2595 -1.9668 0.9794
-1.0228 -4.7115 -1.9732 0.9794
-0.1708 -4.8308 -1.9784 0.9793
1.1177 -4.7245 -1.9870 0.9792
1.5365 -4.6132 -1.9900 0.9792
3.0701 -3.8092 -2.0023 0.9791
3.7084 -3.2133 -2.0083 0.9790
3.9855 -2.8741 -2.0111 0.9790
4.2313 -2.5109 -2.0137 0.9790
4.7613 -1.3071 -2.0208 0.9789
4.9500 -0.0014 -2.0259 0.9788
4.7808 1.3096 -2.0288 0.9788
4.6460 1.7307 -2.0292 0.9788
4.4736 2.1378 -2.0293 0.9788
4.0219 2.8970 -2.0286 0.9788
3.7464 3.2426 -2.0279 0.9788
3.4409 3.5617 -2.0269 0.9788
2.7503 4.1102 -2.0241 0.9789
1.9675 4.5109 -2.0142 0.9790
1.5107 4.5272 -1.9533 0.9796
0.6504 4.4965 -1.8595 0.9806
0.2468 4.5305 -1.8570 0.9806
-0.1576 4.5281 -1.8544 0.9806
-0.9662 4.4630 -1.8689 0.9805
-1.4080 4.5128 -1.9348 0.9798
-1.8553 4.4926 -1.9893 0.9792
-2.2495 4.3118 -1.9904 0.9792
-2.6232 4.0920 -1.9893 0.9792
-2.9729 3.8361 -1.9863 0.9792
-3.2979 3.5507 -1.9834 0.9793
-3.5959 3.2381 -1.9805 0.9793
-3.8648 2.9008 -1.9777 0.9793
-4.1024 2.5416 -1.9751 0.9794
-1.9952 0.0386 -0.8168 0.9914
-2.1227 -0.5381 -0.8963 0.9906
-4.3593 -1.9819 -1.9599 0.9795
-4.1656 -2.3625 -1.9600 0.9795
-3.6821 -3.0659 -1.9610 0.9795
-3.0827 -3.6746 -1.9630 0.9795
-2.7450 -3.9374 -1.9644 0.9795
-2.0061 -4.3698 -1.9679 0.9794
-0.7817 -4.7610 -1.9746 0.9794
0.0759 -4.8371 -1.9799 0.9793
0.9359 -4.7607 -1.9857 0.9792
1.3584 -4.6654 -1.9887 0.9792
2.5557 -4.1593 -1.9980 0.9791
3.2632 -3.6508 -2.0041 0.9791
3.8706 -3.0224 -2.0099 0.9790
4.1301 -2.6692 -2.0126 0.9790
4.3571 -2.2935 -2.0152 0.9789
4.7058 -1.4873 -2.0199 0.9789
4.8245 -1.0631 -2.0219 0.9789
4.9044 -0.6296 -2.0237 0.9789
4.7084 1.5519 -2.0290 0.9788
4.3586 2.3631 -2.0292 0.9788
4.1300 2.7416 -2.0289 0.9788
3.5752 3.4285 -2.0273 0.9788
3.2536 3.7313 -2.0262 0.9788
2.5359 4.2430 -2.0231 0.9789
2.1413 4.4387 -2.0170 0.9789
1.7166 4.5570 -1.9930 0.9792
1.2473 4.4884 -1.9066 0.9801
-1.4935 -0.4399 -0.6785 0.9932
-2.4377 -3.7980 -1.9668 0.9805
-2.0914 -4.0034 -1.9685 0.9805
-0.9611 -4.4274 -1.9745 0.9804
-0.5635 -4.5008 -1.9768 0.9804
-0.1605 -4.5388 -1.9793 0.9804
0.2449 -4.5410 -1.9819 0.9804
1.0499 -4.4377 -1.9874 0.9803
1.4431 -4.3328 -1.9903 0.9803
1.8261 -4.1930 -1.9932 0.9802
2.5487 -3.8134 -1.9990 0.9802
3.1941 -3.3099 -2.0046 0.9801
3.4810 -3.0163 -2.0074 0.9801
3.9712 -2.3566 -2.0125 0.9801
4.3363 -1.6180 -2.0171 0.9800
4.4677 -1.2265 -2.0191 0.9800
4.5633 -0.8243 -2.0209 0.9800
4.6223 -0.4148 -2.0226 0.9800
4.6283 0.4127 -2.0251 0.9799
4.4849 1.2285 -2.0266 0.9799
4.0009 2.3712 -2.0269 0.9799
3.7730 2.7177 -2.0265 0.9799
3.5146 3.0420 -2.0258 0.9799
3.2281 3.3414 -2.0248 0.9799
2.9158 3.6136 -2.0236 0.9799
1.8499 4.2414 -2.0166 0.9800
0.2399 4.4033 -1.9219 0.9809
-0.5503 4.4153 -1.9391 0.9808
-0.9615 4.4410 -1.9803 0.9804
-2.1147 4.0534 -1.9925 0.9802
-3.0981 3.3356 -1.9840 0.9803
-3.3783 3.0421 -1.9813 0.9804
-3.8548 2.3882 -1.9763 0.9804
-4.0475 2.0328 -1.9740 0.9804
-4.2080 1.6623 -1.9718 0.9805
-1.4710 0.1603 -0.6449 0.9936
-1.4606 -0.1022 -0.6381 0.9936
-1.4730 -0.2363 -0.6502 0.9935
-1.4895 -0.5227 -0.6880 0.9931
-3.9160 -2.2210 -1.9620 0.9805
-3.4613 -2.8821 -1.9630 0.9805
-3.1921 -3.1804 -1.9638 0.9805
-2.5801 -3.7010 -1.9662 0.9805
-0.7345 -4.4737 -1.9758 0.9804
-0.3334 -4.5269 -1.9782 0.9804
0.4766 -4.5261 -1.9835 0.9803
1.2759 -4.3820 -1.9890 0.9803
1.6636 -4.2571 -1.9919 0.9803
2.3997 -3.9055 -1.9977 0.9802
3.0636 -3.4274 -2.0035 0.9801
3.3614 -3.1452 -2.0062 0.9801
3.8763 -2.5052 -2.0115 0.9801
4.0891 -2.1525 -2.0139 0.9800
4.2694 -1.7816 -2.0162 0.9800
4.4157 -1.3956 -2.0183 0.9800
4.5268 -0.9975 -2.0202 0.9800
4.6396 0.2356 -2.0246 0.9799
4.5280 1.0563 -2.0264 0.9799
4.4169 1.4558 -2.0269 0.9799
4.2701 1.8438 -2.0271 0.9799
3.0525 3.5006 -2.0242 0.9799
2.7267 3.7562 -2.0229 0.9800
2.3793 3.9811 -2.0213 0.9800
2.0131 4.1729 -2.0192 0.9800
1.6286 4.3233 -2.0134 0.9800
1.2337 4.4394 -2.0081 0.9801
-1.2692 -0.2536 -0.5991 0.9943
-1.2701 -0.3741 -0.6129 0.9942
-1.2547 -0.4949 -0.6243 0.9941
-3.7923 -1.9020 -1.9638 0.9815
-3.6081 -2.2326 -1.9640 0.9815
-3.3956 -2.5457 -1.9644 0.9815
-1.9705 -3.7721 -1.9699 0.9814
-1.2721 -4.0694 -1.9735 0.9814
-0.9054 -4.1709 -1.9756 0.9814
-0.5308 -4.2397 -1.9778 0.9813
-0.1511 -4.2752 -1.9802 0.9813
0.6116 -4.2449 -1.9852 0.9813
0.9887 -4.1790 -1.9878 0.9812
1.7193 -3.9479 -1.9932 0.9812
2.0671 -3.7842 -1.9960 0.9812
2.3993 -3.5899 -1.9987 0.9811
3.0064 -3.1154 -2.0040 0.9811
3.7370 -2.2176 -2.0114 0.9810
4.0799 -1.5224 -2.0157 0.9810
4.2033 -1.1539 -2.0176 0.9810
4.2931 -0.7755 -2.0194 0.9810
4.3035 0.7749 -2.0241 0.9809
4.2186 1.1556 -2.0247 0.9809
4.0996 1.5271 -2.0250 0.9809
3.9474 1.8864 -2.0251 0.9809
2.4275 3.6278 -2.0205 0.9809
2.0930 3.8267 -2.0190 0.9810
1.3770 4.1267 -2.0137 0.9810
1.0016 4.2234 -2.0092 0.9810
0.2353 4.3187 -2.0020 0.9811
-0.5338 4.2829 -1.9978 0.9812
-0.9128 4.2160 -1.9967 0.9812
-1.6454 3.9842 -1.9953 0.9812
-1.9911 3.8165 -1.9926 0.9812
-2.9178 3.1414 -1.9846 0.9813
-3.1820 2.8653 -1.9820 0.9813
-3.4204 2.5673 -1.9796 0.9813
-3.6313 2.2497 -1.9773 0.9813
-1.2701 0.3749 -0.6130 0.9942
-1.2748 0.1390 -0.5936 0.9944
-1.2627 0.0245 -0.5846 0.9944
-1.2712 -0.0889 -0.5899 0.9944
-1.2740 -0.2044 -0.5972 0.9943
-1.2704 -0.3221 -0.6066 0.9942
-1.2640 -0.4435 -0.6200 0.9941
-1.2579 -0.5719 -0.6396 0.9939
-3.6905 -2.0931 -1.9639 0.9815
-3.4899 -2.4140 -1.9642 0.9815
-3.2619 -2.7161 -1.9648 0.9815
-3.0081 -2.9971 -1.9656 0.9815
-2.7306 -3.2549 -1.9666 0.9814
-2.4312 -3.4874 -1.9678 0.9814
-1.0635 -4.1314 -1.9747 0.9814
-0.6920 -4.2143 -1.9769 0.9814
-0.3141 -4.2641 -1.9791 0.9813
0.0672 -4.2804 -1.9816 0.9813
0.8279 -4.2113 -1.9867 0.9813
1.2014 -4.1264 -1.9893 0.9812
1.5664 -4.0083 -1.9920 0.9812
1.9200 -3.8581 -1.9948 0.9812
2.5813 -3.4656 -2.0002 0.9811
2.8836 -3.2261 -2.0029 0.9811
3.1637 -2.9602 -2.0055 0.9811
3.8477 -2.0254 -2.0127 0.9810
4.0171 -1.6763 -2.0149 0.9810
4.2588 -0.9385 -2.0186 0.9810
4.3642 -0.1680 -2.0216 0.9809
4.3293 0.6099 -2.0237 0.9809
4.2592 0.9936 -2.0244 0.9809
3.8459 2.0852 -2.0251 0.9809
2.8714 3.2930 -2.0224 0.9809
1.1632 4.1859 -2.0110 0.9810
0.4003 4.3092 -2.0033 0.9811
-1.1443 -0.1241 -0.5646 0.9949
-1.1380 -0.2274 -0.5693 0.9948
-1.1314 -0.3333 -0.5785 0.9948
-1.0886 -0.5460 -0.5974 0.9946
-3.4077 -2.1086 -1.9657 0.9823
-2.7313 -2.9375 -1.9675 0.9823
-2.1691 -3.3795 -1.9698 0.9823
-1.8608 -3.5620 -1.9713 0.9823
-1.5373 -3.7166 -1.9729 0.9822
-0.5011 -4.0027 -1.9787 0.9822
0.2177 -4.0373 -1.9833 0.9821
0.5773 -4.0067 -1.9857 0.9821
0.9331 -3.9443 -1.9882 0.9821
1.9505 -3.5708 -1.9958 0.9820
2.2638 -3.3872 -1.9984 0.9820
2.8362 -2.9390 -2.0035 0.9820
3.0905 -2.6779 -2.0059 0.9819
3.5247 -2.0916 -2.0104 0.9819
3.7009 -1.7711 -2.0125 0.9819
4.1002 -0.3679 -2.0193 0.9818
4.1192 -0.0011 -2.0206 0.9818
4.1049 0.3660 -2.0216 0.9818
3.9775 1.0895 -2.0229 0.9818
3.7217 1.7785 -2.0233 0.9818
3.3461 2.4102 -2.0228 0.9818
2.8631 2.9637 -2.0214 0.9818
2.5863 3.2053 -2.0203 0.9818
1.2997 3.8948 -2.0141 0.9819
0.2224 4.0819 -2.0052 0.9820
-0.1420 4.0805 -2.0028 0.9820
-0.8628 3.9853 -2.0002 0.9820
-1.5526 3.7596 -1.9952 0.9820
-1.8790 3.6016 -1.9927 0.9821
-2.1896 3.4155 -1.9901 0.9821
-2.4820 3.2028 -1.9876 0.9821
-3.0037 2.7048 -1.9827 0.9822
-3.2290 2.4236 -1.9804 0.9822
-3.4283 2.1239 -1.9782 0.9822
-1.0887 0.5468 -0.5976 0.9946
-1.1148 0.4404 -0.5879 0.9947
-1.1379 0.2281 -0.5693 0.9948
-1.1372 0.0220 -0.5579 0.9949
-1.1432 -0.0800 -0.5621 0.9949
-1.1427 -0.1833 -0.5677 0.9949
-1.1330 -0.2872 -0.5733 0.9948
-1.1241 -0.3945 -0.5844 0.9947
-3.4855 -1.9768 -1.9655 0.9823
-3.2960 -2.2799 -1.9659 0.9823
-2.8409 -2.8305 -1.9671 0.9823
-2.2959 -3.2933 -1.9693 0.9823
-1.9948 -3.4872 -1.9706 0.9823
-1.6775 -3.6539 -1.9722 0.9822
-1.3464 -3.7921 -1.9739 0.9822
-1.0041 -3.9007 -1.9758 0.9822
-0.2965 -4.0256 -1.9800 0.9822
0.0634 -4.0406 -1.9823 0.9822
1.4783 -3.7827 -1.9922 0.9821
2.7204 -3.0436 -2.0024 0.9820
3.4407 -2.2236 -2.0095 0.9819
3.7885 -1.5809 -2.0137 0.9819
3.9179 -1.2383 -2.0155 0.9819
4.0161 -0.8850 -2.0172 0.9818
4.1151 -0.1584 -2.0201 0.9818
4.1151 0.2090 -2.0212 0.9818
3.7869 1.6351 -2.0233 0.9818
3.6261 1.9660 -2.0233 0.9818
3.4360 2.2809 -2.0230 0.9818
3.2183 2.5773 -2.0225 0.9818
2.7075 3.1050 -2.0208 0.9818
2.4187 3.3319 -2.0196 0.9818
2.1107 3.5317 -2.0182 0.9818
1.0987 3.9538 -2.0129 0.9819
0.7409 4.0296 -2.0098 0.9819
-1.0376 -0.1125 -0.5414 0.9953
-1.0178 -0.2998 -0.5505 0.9952
-1.0013 -0.3949 -0.5584 0.9952
-0.9679 -0.5989 -0.5904 0.9949
-3.0346 -2.2751 -1.9676 0.9831
-1.4544 -3.5162 -1.9740 0.9830
-1.1363 -3.6350 -1.9757 0.9830
-0.8087 -3.7252 -1.9776 0.9830
-0.4740 -3.7862 -1.9795 0.9830
-0.1350 -3.8174 -1.9816 0.9829
0.5460 -3.7893 -1.9861 0.9829
0.8824 -3.7300 -1.9885 0.9829
1.2127 -3.6410 -1.9909 0.9829
1.5342 -3.5227 -1.9933 0.9828
1.8442 -3.3762 -1.9957 0.9828
2.1402 -3.2023 -1.9982 0.9828
2.6810 -2.7782 -2.0029 0.9828
3.1385 -2.2633 -2.0074 0.9827
3.4975 -1.6738 -2.0115 0.9827
3.8336 0.6903 -2.0208 0.9826
3.7579 1.0294 -2.0213 0.9826
3.6518 1.3603 -2.0216 0.9826
3.1614 2.2771 -2.0212 0.9826
2.7052 2.8002 -2.0198 0.9826
2.4437 3.0285 -2.0188 0.9826
2.1629 3.2323 -2.0176 0.9826
1.5526 3.5596 -2.0147 0.9827
0.5544 3.8328 -2.0091 0.9827
-0.1344 3.8619 -2.0047 0.9827
-0.4774 3.8302 -2.0024 0.9828
-1.4680 3.5547 -1.9952 0.9828
-3.0543 2.2924 -1.9811 0.9829
-1.0012 0.3955 -0.5584 0.9952
-1.0178 0.3004 -0.5505 0.9952
-1.0376 0.1131 -0.5415 0.9953
-1.0323 0.0200 -0.5356 0.9954
-1.0370 -0.0726 -0.5393 0.9953
-1.0202 -0.2586 -0.5460 0.9953
-2.6882 -2.6783 -1.9686 0.9830
-2.4400 -2.9085 -1.9695 0.9830
-2.1723 -3.1160 -1.9706 0.9830
-1.5870 -3.4570 -1.9734 0.9830
-0.9499 -3.6901 -1.9768 0.9830
-0.6180 -3.7637 -1.9787 0.9830
-0.2805 -3.8077 -1.9807 0.9829
0.0600 -3.8217 -1.9829 0.9829
1.0723 -3.6827 -1.9898 0.9829
1.3978 -3.5769 -1.9923 0.9828
2.3024 -3.0911 -1.9996 0.9828
2.8211 -2.6396 -2.0043 0.9827
3.0484 -2.3804 -2.0065 0.9827
3.2519 -2.1016 -2.0086 0.9827
3.5803 -1.4940 -2.0126 0.9827
3.7024 -1.1701 -2.0144 0.9827
3.7949 -0.8363 -2.0160 0.9826
3.8570 -0.4952 -2.0174 0.9826
3.8882 -0.1496 -2.0186 0.9826
3.8881 0.1975 -2.0197 0.9826
3.7008 1.2198 -2.0215 0.9826
3.5778 1.5448 -2.0217 0.9826
3.2463 2.1550 -2.0214 0.9826
3.0406 2.4350 -2.0209 0.9826
2.8106 2.6953 -2.0202 0.9826
1.6879 3.4990 -2.0154 0.9826
1.3683 3.6324 -2.0137 0.9827
0.3579 3.8538 -2.0079 0.9827
-0.9086 -0.3584 -0.5350 0.9956
-0.8632 -0.5341 -0.5560 0.9954
-2.8763 -2.1564 -1.9689 0.9837
-1.6685 -3.1939 -1.9736 0.9837
-1.3783 -3.3323 -1.9751 0.9837
-1.0768 -3.4447 -1.9767 0.9837
-0.7663 -3.5300 -1.9784 0.9837
0.5172 -3.5900 -1.9865 0.9836
0.8360 -3.5336 -1.9888 0.9836
2.0270 -3.0329 -1.9979 0.9835
2.5388 -2.6309 -2.0025 0.9835
2.7661 -2.3968 -2.0046 0.9834
2.9717 -2.1431 -2.0067 0.9834
3.1540 -1.8716 -2.0087 0.9834
3.3113 -1.5847 -2.0106 0.9834
1.8847 -0.3404 -1.0490 0.9913
1.8848 0.3394 -1.0489 0.9913
3.1729 1.8805 -2.0201 0.9833
2.9922 2.1553 -2.0198 0.9833
2.5606 2.6505 -2.0185 0.9833
2.0474 3.0597 -2.0164 0.9834
1.7655 3.2278 -2.0151 0.9834
1.1627 3.4845 -2.0119 0.9834
0.8469 3.5711 -2.0102 0.9834
0.5249 3.6289 -2.0083 0.9834
-1.0862 3.4814 -1.9974 0.9835
-1.3904 3.3669 -1.9951 0.9835
-1.6829 3.2258 -1.9928 0.9835
-1.9614 3.0596 -1.9905 0.9836
-0.8883 0.4461 -0.5445 0.9955
-0.9085 0.3589 -0.5350 0.9956
-0.9229 0.2724 -0.5271 0.9956
-0.9387 0.1881 -0.5243 0.9956
-0.9470 -0.0663 -0.5199 0.9957
-0.9439 -0.1514 -0.5236 0.9956
-0.9283 -0.2353 -0.5245 0.9956
-0.9154 -0.3212 -0.5313 0.9956
-0.8982 -0.4084 -0.5404 0.9955
-0.8728 -0.4950 -0.5496 0.9954
-0.8774 -0.6069 -0.5843 0.9951
-2.7630 -2.3007 -1.9692 0.9837
-2.5479 -2.5386 -1.9699 0.9837
-2.3126 -2.7567 -1.9708 0.9837
-1.5040 -3.2762 -1.9744 0.9837
-0.9002 -3.4968 -1.9777 0.9837
0.0568 -3.6210 -1.9835 0.9836
0.7001 -3.5612 -1.9878 0.9836
1.0158 -3.4886 -1.9901 0.9836
1.9088 -3.1065 -1.9970 0.9835
2.4354 -2.7246 -2.0015 0.9835
3.3895 -1.4144 -2.0116 0.9834
1.8842 0.0957 -1.0333 0.9914
1.8865 0.4401 -1.0610 0.9912
3.3863 1.4622 -2.0202 0.9833
3.0726 2.0397 -2.0199 0.9833
2.8780 2.3048 -2.0195 0.9833
2.4214 2.7769 -2.0179 0.9833
2.1632 2.9800 -2.0169 0.9833
1.5979 3.3123 -2.0142 0.9834
1.2954 3.4388 -2.0127 0.9834
0.6633 3.6077 -2.0091 0.9834
0.3389 3.6489 -2.0071 0.9834
-0.8772 -0.1753 -0.5165 0.9959
-0.8656 -0.2550 -0.5210 0.9958
-0.8545 -0.3370 -0.5303 0.9958
-0.8347 -0.4186 -0.5391 0.9957
-0.8036 -0.6025 -0.5798 0.9954
-2.3252 -2.5007 -1.9715 0.9844
-1.5836 -3.0315 -1.9747 0.9843
-1.0220 -3.2692 -1.9776 0.9843
-0.7272 -3.3501 -1.9792 0.9843
-0.1213 -3.4323 -1.9829 0.9843
0.7931 -3.3526 -1.9890 0.9842
1.0899 -3.2721 -1.9912 0.9842
1.3786 -3.1655 -1.9934 0.9842
1.9227 -2.8768 -1.9977 0.9841
2.1737 -2.6970 -1.9999 0.9841
2.6233 -2.2731 -2.0041 0.9841
3.1399 -1.5026 -2.0097 0.9841
1.6997 -0.6342 -1.0474 0.9917
1.7284 -0.4745 -1.0348 0.9918
1.7261 -0.0005 -0.9965 0.9921
1.7406 0.1552 -1.0089 0.9920
1.6999 0.6332 -1.0473 0.9917
3.1550 1.5077 -2.0189 0.9840
3.0080 1.7827 -2.0187 0.9840
2.8367 2.0433 -2.0184 0.9840
2.1930 2.7179 -2.0163 0.9840
1.9411 2.9009 -2.0152 0.9840
1.6739 3.0604 -2.0140 0.9840
0.4978 3.4413 -2.0075 0.9841
-0.1207 3.4682 -2.0036 0.9841
-0.4288 3.4401 -2.0015 0.9841
-1.3190 3.1939 -1.9951 0.9842
-0.8345 0.4191 -0.5392 0.9957
-0.8544 0.3375 -0.5304 0.9958
-0.8656 0.2555 -0.5210 0.9958
-0.8708 -0.2208 -0.5187 0.9959
-0.8604 -0.3019 -0.5265 0.9958
-0.8442 -0.3838 -0.5354 0.9957
-0.7984 -0.5523 -0.5605 0.9955
-2.4186 -2.4097 -1.9711 0.9844
-1.9543 -2.8033 -1.9729 0.9843
-1.4275 -3.1095 -1.9754 0.9843
-1.1457 -3.2267 -1.9769 0.9843
0.6643 -3.3789 -1.9881 0.9842
0.9637 -3.3098 -1.9903 0.9842
1.8106 -2.9468 -1.9968 0.9842
2.0682 -2.7768 -1.9990 0.9841
2.5335 -2.3706 -2.0032 0.9841
2.9198 -1.8870 -2.0072 0.9841
1.7189 -0.5432 -1.0408 0.9917
1.7418 -0.2236 -1.0139 0.9919
1.7345 -0.0668 -1.0021 0.9920
1.7324 0.4041 -1.0271 0.9918
3.2103 1.3861 -2.0189 0.9840
3.0740 1.6666 -2.0188 0.9840
2.7284 2.1850 -2.0181 0.9840
2.5221 2.4187 -2.0175 0.9840
2.2957 2.6327 -2.0167 0.9840
1.5150 3.1406 -2.0132 0.9840
1.2283 3.2607 -2.0117 0.9840
0.3214 3.4604 -2.0064 0.9841
