ply
format ascii 1.0
element vertex 1274
property float32 x
property float32 y
property float32 z
property float32 I
end_header
14.5031 8.0367 2.9237 0.9349
11.1605 7.5636 2.3772 0.9467
13.0792 12.8047 3.2274 0.9284
10.7833 12.6373 2.9293 0.9348
8.6885 12.2528 2.6485 0.9408
7.2055 12.3767 2.5252 0.9435
5.7409 12.2701 2.3887 0.9465
3.1947 12.0851 2.2041 0.9505
-6.7490 13.6798 2.6897 0.9399
-6.8674 13.5220 2.3233 0.9405
11.9940 6.6463 2.1007 0.9460
10.6440 12.4740 2.5121 0.9358
8.8606 12.4954 2.3466 0.9399
7.2045 12.3749 2.1936 0.9437
4.4161 12.1723 1.9837 0.9490
0.9467 11.9208 1.8319 0.9528
-6.7362 13.6538 2.3324 0.9402
-5.9135 -16.0094 2.6145 0.9333
-6.8677 13.5226 1.9750 0.9407
12.4129 10.1452 2.0876 0.9374
12.5074 12.2450 2.2793 0.9318
10.7798 12.6332 2.1626 0.9352
8.8592 12.4935 1.9944 0.9401
5.7394 12.2669 1.7636 0.9468
4.4155 12.1708 1.6860 0.9491
3.1939 12.0822 1.6274 0.9508
2.0454 11.9989 1.5851 0.9521
-0.2008 19.4132 2.5281 0.9247
-5.9141 -16.0109 2.2226 0.9335
-3.2727 16.0506 1.7590 0.9362
-6.8690 13.5250 1.6289 0.9408
12.9403 12.6688 1.9446 0.9297
10.7781 12.6312 1.7830 0.9354
8.8579 12.4917 1.6444 0.9403
4.4639 12.3042 1.4055 0.9487
2.0678 12.1306 1.3214 0.9517
0.9569 12.0501 1.2980 0.9525
1.8276 -19.3563 2.0878 0.9248
5.3549 -19.1011 2.1302 0.9233
-3.3722 16.5388 1.4289 0.9345
3.8070 -19.2409 1.6604 0.9243
4.5194 12.4572 1.1218 0.9482
3.2285 12.2132 1.0694 0.9506
2.1022 12.3323 1.0590 0.9510
-5.9153 -16.0143 1.4452 0.9338
1.8325 -19.4086 1.6503 0.9247
3.5792 -19.2610 1.6584 0.9244
11.0062 12.8985 1.0515 0.9343
9.1034 12.8379 0.9759 0.9389
5.8008 12.3980 0.8488 0.9466
1.9383 7.3322 0.4703 0.9701
2.1020 12.3308 0.7757 0.9511
-5.9158 -16.0156 1.0587 0.9339
-3.3732 16.5436 0.6658 0.9346
-6.8916 13.5695 0.6001 0.9409
13.8462 13.5556 0.7641 0.9254
9.1021 12.8360 0.6205 0.9390
7.3079 12.5525 0.5727 0.9435
4.5370 12.5056 0.5246 0.9481
0.9566 12.0460 0.4765 0.9528
-5.9163 -16.0169 0.6733 0.9339
-3.3737 16.5460 0.2852 0.9347
-3.0623 -18.6162 0.3187 0.9273
11.0027 12.8944 0.2863 0.9344
9.1008 12.8341 0.2658 0.9390
4.5364 12.5040 0.2247 0.9482
-6.8198 13.8232 0.2604 0.9402
-3.3742 16.5484 -0.0951 0.9347
-6.5903 -18.4996 -0.1106 0.9245
-4.7955 -18.5765 -0.1080 0.9261
-2.9897 -18.1746 -0.1037 0.9290
-1.3647 -18.5479 -0.1047 0.9283
1.9234 -18.1216 -0.1026 0.9297
3.5331 -17.8564 -0.1025 0.9298
7.0172 -17.8518 -0.1080 0.9261
14.0480 13.7532 -0.1107 0.9244
11.0010 12.8923 -0.0954 0.9345
6.9325 11.9078 -0.0776 0.9464
5.7985 12.3932 -0.0770 0.9467
4.5359 12.5025 -0.0749 0.9482
-6.8082 13.7996 -0.0866 0.9403
-5.9172 -16.0196 -0.0962 0.9340
-3.2328 -18.3221 -0.1047 0.9283
-6.9445 13.6738 -0.4318 0.9405
6.8463 -17.4171 -0.5270 0.9278
14.0452 13.7505 -0.5535 0.9244
1.8783 7.1053 -0.2069 0.9710
2.0664 12.1221 -0.3463 0.9520
-6.8192 13.8220 -0.4340 0.9402
-4.9914 -18.4481 -0.5381 0.9264
-3.2273 -18.2908 -0.5230 0.9284
-1.5564 -18.2550 -0.5159 0.9293
3.2961 -17.7372 -0.5080 0.9304
-6.9515 13.6876 -0.7785 0.9404
-6.6683 -18.7183 -1.0077 0.9235
-4.7564 -18.4253 -0.9651 0.9266
0.2908 -18.0058 -0.9133 0.9304
5.1784 -17.6796 -0.9343 0.9289
6.8572 -17.4447 -0.9506 0.9277
11.3349 7.6817 -0.6944 0.9466
14.0425 13.7478 -0.9966 0.9243
9.4615 11.0882 -0.7392 0.9433
7.9798 11.2533 -0.6996 0.9462
6.6340 11.3950 -0.6687 0.9486
2.0279 11.8964 -0.6120 0.9528
0.9385 11.8178 -0.6012 0.9536
-6.8362 13.8565 -0.7836 0.9400
-5.9182 -16.0222 -0.8663 0.9339
-3.2126 -18.2074 -0.9376 0.9286
1.7019 -18.0256 -0.9182 0.9301
3.2891 -17.6995 -0.9130 0.9304
4.9588 -17.6882 -0.9316 0.9291
-2.3426 11.4889 -0.8597 0.9541
-6.9826 13.7487 -1.1306 0.9400
6.7465 -17.1631 -1.3522 0.9287
8.5303 -17.0404 -1.3972 0.9264
11.3087 7.6640 -1.0017 0.9467
14.0035 13.7097 -1.4369 0.9244
1.8541 7.0140 -0.5319 0.9713
0.9384 11.8164 -0.8691 0.9536
0.0801 -17.6220 -1.2921 0.9318
1.6536 -17.5136 -1.2898 0.9319
3.2343 -17.4048 -1.2980 0.9315
4.8481 -17.2937 -1.3169 0.9305
-5.6945 19.0315 -1.9072 0.9233
-18.4054 7.4394 -1.9059 0.9233
-18.8700 5.7242 -1.8931 0.9238
-19.1859 3.9878 -1.8813 0.9243
-19.3537 2.2422 -1.8705 0.9247
-18.4197 -4.5669 -1.8219 0.9266
-18.0441 -6.2336 -1.8328 0.9262
-17.3759 -7.8060 -1.8288 0.9263
-16.5826 -9.3152 -1.8260 0.9264
-15.6694 -10.7525 -1.8245 0.9265
-12.2706 -14.5504 -1.8273 0.9264
-8.9490 -15.5786 -1.7248 0.9304
-7.4142 -16.0890 -1.7007 0.9313
-1.3037 -17.7194 -1.7058 0.9311
0.2844 -17.6100 -1.6909 0.9317
1.8576 -17.5016 -1.6897 0.9317
8.4297 -16.8396 -1.8079 0.9271
9.9834 -16.1484 -1.8227 0.9265
11.4828 -15.3166 -1.8378 0.9260
12.9147 -14.3472 -1.8532 0.9254
4.6420 -3.5931 -0.5636 0.9767
14.0007 13.7069 -1.8811 0.9243
6.5021 11.1684 -1.2407 0.9494
5.4775 11.7071 -1.2409 0.9494
1.8488 6.9939 -0.6945 0.9713
2.0275 11.8937 -1.1583 0.9527
0.9383 11.8150 -1.1379 0.9535
-1.6458 16.4132 -1.5837 0.9359
-5.4789 19.1161 -1.9091 0.9232
-8.0419 13.1783 -1.4821 0.9398
-18.3343 7.6595 -1.9076 0.9233
-18.8182 5.9479 -1.8947 0.9238
-19.3402 2.4684 -1.8718 0.9246
-19.3801 0.7242 -1.8619 0.9250
-19.2752 -1.0079 -1.8530 0.9254
-18.6421 -4.3931 -1.8388 0.9259
-18.1212 -6.0258 -1.8334 0.9261
-17.4696 -7.6057 -1.8292 0.9263
-15.7943 -10.5707 -1.8246 0.9265
-3.1170 -17.6660 -1.7222 0.9305
-1.5119 -17.7338 -1.7087 0.9310
1.6538 -17.5156 -1.6891 0.9317
3.2346 -17.4068 -1.6997 0.9313
-2.3679 11.6129 -1.4079 0.9534
-4.5713 15.2777 -1.8943 0.9378
-7.3548 11.7437 -1.6460 0.9457
-11.2426 12.3448 -1.9834 0.9350
-13.0897 10.0109 -1.9575 0.9358
-14.4838 7.4251 -1.9334 0.9365
-15.0028 6.0641 -1.9222 0.9369
-15.8301 1.8340 -1.8930 0.9378
-15.8625 0.4085 -1.8849 0.9381
-15.7747 -1.0086 -1.8776 0.9383
-15.5688 -2.4078 -1.8713 0.9385
-15.2473 -3.7804 -1.8660 0.9387
-14.8133 -5.1175 -1.8617 0.9388
-12.0306 -9.9497 -1.8545 0.9390
-11.0969 -10.9909 -1.8553 0.9390
-10.0790 -11.9516 -1.8571 0.9390
-8.9830 -12.8252 -1.8600 0.9389
-6.5842 -14.2879 -1.8687 0.9386
-5.2955 -14.8648 -1.8744 0.9384
-2.4875 -15.1214 -1.8204 0.9401
-1.1060 -15.0328 -1.7905 0.9411
2.9204 -14.7601 -1.7873 0.9412
5.7216 -14.5558 -1.8578 0.9389
7.2296 -14.4422 -1.9185 0.9370
10.0518 -13.4077 -1.9905 0.9347
4.4820 -2.8672 -0.6320 0.9788
5.1311 -2.6682 -0.6870 0.9770
16.7516 -5.1879 -2.0831 0.9318
17.8621 1.0380 -2.1253 0.9305
15.2965 6.7655 -1.9868 0.9348
14.6516 8.1191 -1.9898 0.9348
11.2886 7.6504 -1.6199 0.9466
12.9835 10.6115 -1.9918 0.9347
6.6649 11.4480 -1.5735 0.9480
5.4891 11.7318 -1.5386 0.9492
4.1053 11.3156 -1.4299 0.9527
1.8446 6.9779 -0.8573 0.9713
-4.3974 15.3426 -1.8959 0.9377
-6.5217 13.2190 -1.7509 0.9424
-8.0049 13.1177 -1.8254 0.9400
-11.1082 12.4853 -1.9851 0.9349
-13.7539 8.9115 -1.9467 0.9361
-14.4077 7.5986 -1.9349 0.9365
-14.9423 6.2424 -1.9236 0.9369
-15.8171 2.0188 -1.8941 0.9378
-15.7928 -0.8258 -1.8785 0.9383
-15.6021 -2.2279 -1.8721 0.9385
-14.8758 -4.9466 -1.8622 0.9388
-13.7122 -7.4948 -1.8562 0.9390
-12.9767 -8.6850 -1.8548 0.9390
-12.1451 -9.8092 -1.8544 0.9391
-10.2154 -11.8319 -1.8568 0.9390
-9.1292 -12.7172 -1.8596 0.9389
-5.4658 -14.7973 -1.8738 0.9384
-1.2826 -15.0442 -1.7935 0.9410
1.4037 -14.8675 -1.7739 0.9416
4.1137 -14.6738 -1.8102 0.9405
-3.8148 12.7495 -1.8856 0.9477
-5.9600 11.7353 -1.8649 0.9482
-9.4335 10.3583 -1.9851 0.9450
-10.2651 9.4201 -1.9741 0.9453
-12.2026 6.2557 -1.9429 0.9461
-13.4172 0.3455 -1.9017 0.9472
-13.3508 -0.8536 -1.8955 0.9474
-13.1834 -2.0389 -1.8901 0.9475
-12.5536 -4.3368 -1.8819 0.9478
-12.0968 -5.4344 -1.8790 0.9478
-9.4090 -9.3192 -1.8764 0.9479
-8.5446 -10.1322 -1.8780 0.9479
-6.6223 -11.5282 -1.8838 0.9477
0.2189 -13.5534 -1.9206 0.9467
1.4371 -13.5401 -1.9293 0.9465
3.8650 -13.1956 -1.9482 0.9460
5.0565 -12.8639 -1.9584 0.9457
6.2207 -12.4268 -1.9690 0.9454
7.3482 -11.8859 -1.9800 0.9451
8.4294 -11.2437 -1.9911 0.9448
4.0064 -3.7197 -0.7746 0.9782
5.0117 -2.6061 -0.8004 0.9774
6.0308 -2.4784 -0.9238 0.9740
14.7811 -0.4665 -2.0954 0.9420
14.7276 2.1903 -2.1097 0.9416
14.5122 3.5089 -2.1155 0.9415
14.1543 4.7981 -2.1176 0.9414
12.1259 6.7194 -1.9643 0.9455
10.9351 7.4108 -1.8717 0.9480
9.9109 9.7029 -1.9652 0.9455
8.9947 10.5411 -1.9634 0.9456
7.8421 11.0591 -1.9209 0.9467
5.4936 11.7414 -1.8367 0.9490
4.1153 11.3433 -1.7097 0.9524
1.8407 6.9632 -1.0205 0.9713
0.9381 11.8123 -1.6789 0.9533
-2.5223 13.1479 -1.8969 0.9474
-3.6692 12.8019 -1.8869 0.9476
-4.7738 12.3548 -1.8767 0.9479
-5.8276 11.8123 -1.8663 0.9482
-6.8226 11.1803 -1.8558 0.9485
-7.7515 10.4655 -1.8453 0.9487
-9.3194 10.4747 -1.9865 0.9449
-11.5751 7.4998 -1.9542 0.9458
-12.1371 6.4010 -1.9442 0.9461
-12.5990 5.2634 -1.9347 0.9463
-13.3687 1.7063 -1.9096 0.9470
-13.4183 0.5015 -1.9026 0.9472
-11.0033 -7.3642 -1.8760 0.9479
-10.2985 -8.3178 -1.8757 0.9479
-9.5159 -9.2086 -1.8763 0.9479
-7.7379 -10.7790 -1.8801 0.9478
-6.7539 -11.4477 -1.8833 0.9477
-4.6274 -12.5276 -1.8922 0.9475
-3.4985 -12.9302 -1.8979 0.9473
-2.3355 -13.2364 -1.9044 0.9471
1.2791 -13.5477 -1.9281 0.9465
3.7092 -13.2308 -1.9469 0.9460
-3.2702 10.9293 -1.8794 0.9548
-4.2152 10.5434 -1.8706 0.9550
-5.1171 10.0757 -1.8617 0.9552
-6.7649 8.9153 -1.8437 0.9556
-8.1187 8.9146 -1.9863 0.9523
-10.0519 6.3485 -1.9586 0.9529
-10.9277 4.4170 -1.9417 0.9533
-11.5627 -0.7393 -1.9087 0.9541
-11.4221 -1.7665 -1.9040 0.9542
-11.1947 -2.7756 -1.9000 0.9543
-10.0160 -5.6265 -1.8926 0.9545
-8.8475 -7.3171 -1.8914 0.9545
-5.7402 -9.9926 -1.8984 0.9544
-4.8323 -10.4862 -1.9021 0.9543
-2.9003 -11.2350 -1.9115 0.9541
-0.8568 -11.6453 -1.9236 0.9538
0.1892 -11.7174 -1.9306 0.9536
1.2417 -11.6988 -1.9381 0.9534
2.2929 -11.5884 -1.9461 0.9532
4.3600 -11.0918 -1.9633 0.9528
5.3598 -10.7069 -1.9725 0.9526
4.9149 -2.5557 -0.9126 0.9778
5.8843 -2.4182 -1.0480 0.9745
7.4520 -2.3079 -1.2852 0.9689
12.2620 -2.6230 -2.0657 0.9504
12.4941 -1.5210 -2.0735 0.9503
12.6233 -0.3984 -2.0806 0.9501
10.3332 5.7260 -1.9462 0.9532
6.5085 5.3195 -1.3848 0.9665
7.6654 8.9833 -1.9454 0.9533
6.8225 9.6213 -1.9431 0.9533
3.9974 11.0184 -1.9309 0.9536
0.9190 11.5720 -1.9124 0.9540
-1.1490 11.4589 -1.8972 0.9544
-2.1603 11.2613 -1.8890 0.9546
-3.1450 10.9731 -1.8805 0.9548
-4.0951 10.5982 -1.8717 0.9550
-5.8618 9.6058 -1.8538 0.9554
-6.6652 8.9989 -1.8448 0.9556
-8.7519 8.2206 -1.9781 0.9525
-9.4078 7.3696 -1.9687 0.9527
-10.4755 5.5247 -1.9510 0.9531
-11.1995 3.5398 -1.9350 0.9535
-11.4452 -1.6343 -1.9046 0.9542
-11.2290 -2.6461 -1.9005 0.9543
-10.0816 -5.5104 -1.8927 0.9545
-8.9318 -7.2139 -1.8914 0.9545
-8.2527 -7.9862 -1.8919 0.9545
-6.7089 -9.3456 -1.8952 0.9544
-5.8545 -9.9231 -1.8980 0.9544
-2.0214 -11.4564 -1.9165 0.9539
-0.9915 -11.6294 -1.9228 0.9538
0.0532 -11.7132 -1.9296 0.9536
2.1571 -11.6079 -1.9450 0.9533
-2.0005 9.8114 -1.8821 0.9601
-2.8590 9.5550 -1.8746 0.9602
-3.6873 9.2231 -1.8670 0.9604
-4.4790 8.8192 -1.8592 0.9605
-8.8295 5.5764 -1.9629 0.9584
-10.1944 1.1811 -1.9290 0.9591
-10.2308 0.2635 -1.9236 0.9592
-10.1881 -0.6514 -1.9189 0.9593
-10.0671 -1.5569 -1.9147 0.9594
-9.8692 -2.4469 -1.9112 0.9595
-8.3510 -5.7305 -1.9037 0.9596
-7.8041 -6.4542 -1.9035 0.9596
-6.5348 -7.7489 -1.9053 0.9596
-5.0610 -8.8103 -1.9098 0.9595
-2.5551 -9.8976 -1.9214 0.9592
-1.6636 -10.1132 -1.9264 0.9591
-0.7543 -10.2513 -1.9321 0.9590
0.1665 -10.3104 -1.9382 0.9589
1.0921 -10.2891 -1.9448 0.9588
2.9301 -10.0038 -1.9593 0.9585
3.8286 -9.7400 -1.9671 0.9583
6.3566 -8.4789 -1.9918 0.9578
3.4141 -3.1698 -0.8757 0.9812
4.8710 -2.5329 -1.0319 0.9779
5.8108 -2.3881 -1.1808 0.9748
10.6996 -2.2888 -2.0566 0.9564
11.0048 -0.3473 -2.0695 0.9562
11.0213 0.6405 -2.0751 0.9561
7.3499 7.1957 -1.9333 0.9590
6.6720 7.8191 -1.9320 0.9590
5.1586 8.8607 -1.9271 0.9591
3.4828 9.5998 -1.9195 0.9593
0.8017 10.0946 -1.9034 0.9596
-0.1044 10.0919 -1.8970 0.9598
-1.8875 9.8389 -1.8830 0.9600
-2.7494 9.5926 -1.8756 0.9602
-3.5819 9.2702 -1.8680 0.9604
-5.1335 8.4123 -1.8523 0.9607
-5.8406 7.8856 -1.8445 0.9608
-7.6782 7.2121 -1.9800 0.9580
-8.2584 6.4693 -1.9718 0.9582
-8.7687 5.6815 -1.9639 0.9584
-9.5676 3.9970 -1.9490 0.9587
-10.2306 0.3823 -1.9243 0.9592
-10.1981 -0.5332 -1.9195 0.9593
-8.8919 -4.8601 -1.9047 0.9596
-6.6236 -7.6718 -1.9051 0.9596
-3.5327 -9.5638 -1.9163 0.9594
-2.6689 -9.8642 -1.9207 0.9593
-0.8728 -10.2379 -1.9313 0.9590
0.0468 -10.3072 -1.9374 0.9589
2.8124 -10.0321 -1.9583 0.9585
-1.7746 8.7033 -1.8776 0.9643
-2.5372 8.4797 -1.8710 0.9645
-3.2739 8.1889 -1.8642 0.9646
-6.9036 6.3353 -1.9806 0.9624
-7.8649 4.9672 -1.9663 0.9627
-8.2492 4.2290 -1.9595 0.9628
-8.5661 3.4624 -1.9530 0.9629
-7.8947 -4.4348 -1.9141 0.9637
-7.4632 -5.1214 -1.9133 0.9637
-6.9746 -5.7681 -1.9131 0.9637
-4.5214 -7.8710 -1.9188 0.9636
-3.8048 -8.2565 -1.9217 0.9635
-3.0563 -8.5793 -1.9251 0.9635
-2.2812 -8.8368 -1.9292 0.9634
-0.6730 -9.1471 -1.9387 0.9632
0.9737 -9.1743 -1.9502 0.9630
1.7965 -9.0796 -1.9565 0.9629
2.6105 -8.9127 -1.9631 0.9627
3.4095 -8.6739 -1.9700 0.9626
4.1871 -8.3644 -1.9772 0.9625
4.9371 -7.9858 -1.9846 0.9623
3.1911 -3.5450 -1.0082 0.9807
3.4913 -2.7023 -0.9332 0.9821
4.8275 -2.5103 -1.1502 0.9780
5.8287 -2.3954 -1.3321 0.9746
7.2752 -2.2531 -1.6099 0.9693
9.6525 -1.1751 -2.0554 0.9610
9.7564 0.5670 -2.0658 0.9608
9.6868 1.4406 -2.0701 0.9608
9.5362 2.3057 -2.0739 0.9607
9.3054 3.1544 -2.0769 0.9606
8.9962 3.9789 -2.0793 0.9606
8.2935 4.5957 -2.0042 0.9620
6.4713 5.2890 -1.7666 0.9664
5.2534 7.4085 -1.9198 0.9635
4.5636 7.8388 -1.9173 0.9636
3.8378 8.2024 -1.9142 0.9637
1.2229 7.1740 -1.5383 0.9707
-0.8896 8.8717 -1.8847 0.9642
-1.6742 8.7272 -1.8784 0.9643
-2.4398 8.5125 -1.8718 0.9644
-3.8893 7.8834 -1.8582 0.9647
-7.3526 5.7597 -1.9743 0.9625
-7.8103 5.0605 -1.9672 0.9627
-8.2032 4.3263 -1.9604 0.9628
-8.5290 3.5631 -1.9539 0.9629
-8.7858 2.7769 -1.9477 0.9630
-9.1325 0.3413 -1.9318 0.9633
-9.1060 -0.4761 -1.9274 0.9634
-9.0090 -1.2864 -1.9236 0.9635
-8.8429 -2.0838 -1.9204 0.9635
-8.6090 -2.8627 -1.9177 0.9636
-8.3093 -3.6176 -1.9157 0.9636
-7.9462 -4.3432 -1.9142 0.9637
-6.5053 -6.2953 -1.9135 0.9637
-5.9191 -6.8557 -1.9145 0.9636
-5.2864 -7.3641 -1.9162 0.9636
-4.6117 -7.8167 -1.9184 0.9636
-2.3829 -8.8072 -1.9286 0.9634
-1.5890 -9.0059 -1.9331 0.9633
0.0418 -9.1942 -1.9435 0.9631
2.5058 -8.9384 -1.9622 0.9628
-1.5930 7.8125 -1.8739 0.9678
-2.9409 7.3561 -1.8619 0.9680
-3.5754 7.0399 -1.8557 0.9681
-4.1767 6.6692 -1.8494 0.9682
-5.6912 6.2491 -1.9865 0.9659
-6.2133 5.7018 -1.9820 0.9659
-6.6764 5.1061 -1.9754 0.9661
-7.0836 4.4738 -1.9690 0.9662
-7.4323 3.8102 -1.9629 0.9663
-7.7204 3.1206 -1.9571 0.9664
-8.2405 0.2122 -1.9373 0.9667
-8.1159 -1.2552 -1.9301 0.9668
-7.9592 -1.9734 -1.9272 0.9669
-7.1293 -4.0049 -1.9218 0.9670
-5.2733 -6.2530 -1.9224 0.9669
-4.6964 -6.7052 -1.9240 0.9669
-3.4346 -7.4531 -1.9287 0.9668
-2.0584 -7.9739 -1.9355 0.9667
0.8777 -8.2697 -1.9545 0.9664
1.6189 -8.1818 -1.9602 0.9663
2.3516 -8.0286 -1.9662 0.9662
4.4425 -7.1859 -1.9855 0.9659
5.0849 -6.7825 -1.9923 0.9658
4.0088 -2.5645 -1.1184 0.9806
7.2776 -2.2539 -1.7905 0.9692
8.7349 -0.2757 -2.0539 0.9647
8.7433 0.5081 -2.0583 0.9647
8.6790 1.2908 -2.0622 0.9646
8.5425 2.0655 -2.0655 0.9645
6.7435 4.5701 -1.9145 0.9671
6.3081 5.1557 -1.9147 0.9671
4.7049 6.6350 -1.9116 0.9671
3.4381 7.3482 -1.9067 0.9672
2.3730 6.5410 -1.6353 0.9718
1.7183 6.5002 -1.5802 0.9728
-2.1908 7.6437 -1.8688 0.9679
-2.8566 7.3929 -1.8627 0.9680
-3.4949 7.0840 -1.8565 0.9681
-4.6697 6.3047 -1.8439 0.9683
-5.6161 6.3123 -1.9857 0.9659
-7.0341 4.5576 -1.9699 0.9661
-7.3905 3.8977 -1.9637 0.9663
-7.6866 3.2112 -1.9578 0.9663
-8.1976 1.0463 -1.9423 0.9666
-8.2397 0.3079 -1.9379 0.9667
-8.2175 -0.4297 -1.9339 0.9668
-8.1316 -1.1611 -1.9305 0.9668
-7.1758 -3.9221 -1.9219 0.9670
-6.3586 -5.1357 -1.9210 0.9670
-2.8475 -7.7089 -1.9314 0.9668
-2.1503 -7.9474 -1.9350 0.9667
-1.4336 -8.1249 -1.9390 0.9667
0.0377 -8.2905 -1.9485 0.9665
0.7814 -8.2763 -1.9538 0.9664
1.5232 -8.1969 -1.9594 0.9663
2.2573 -8.0521 -1.9654 0.9662
-2.0654 6.9028 -1.8655 0.9707
-2.6668 6.6705 -1.8600 0.9708
-3.2431 6.3858 -1.8544 0.9708
-7.0199 2.8375 -1.9604 0.9692
-7.2271 2.1923 -1.9554 0.9693
-7.3765 1.5332 -1.9507 0.9693
-7.4733 -0.4778 -1.9389 0.9695
-6.7974 -3.0537 -1.9294 0.9697
-6.4930 -3.6475 -1.9283 0.9697
-5.7368 -4.7445 -1.9275 0.9697
-5.2903 -5.2398 -1.9279 0.9697
-4.2769 -6.1062 -1.9302 0.9697
-1.2190 -7.4105 -1.9445 0.9694
-0.5523 -7.5059 -1.9487 0.9694
1.4718 -7.4384 -1.9633 0.9692
2.7897 -7.0970 -1.9744 0.9690
3.4237 -6.8393 -1.9803 0.9689
4.0341 -6.5253 -1.9863 0.9688
3.1800 -3.5327 -1.2307 0.9806
3.3977 -2.6300 -1.1125 0.9824
4.7416 -2.4656 -1.3838 0.9782
5.8653 -2.4104 -1.6419 0.9741
7.2800 -2.2546 -1.9732 0.9690
7.7012 -1.6474 -2.0391 0.9680
7.8360 -0.9539 -2.0439 0.9679
7.8533 1.1680 -2.0557 0.9677
7.7286 1.8687 -2.0587 0.9677
7.2873 3.2231 -2.0631 0.9676
4.2558 6.0017 -1.9050 0.9701
3.1107 6.6485 -1.9005 0.9701
-1.3618 7.0990 -1.8716 0.9706
-2.5902 6.7036 -1.8608 0.9707
-3.7208 6.0974 -1.8495 0.9709
-5.5848 5.2457 -1.9839 0.9688
-6.0136 4.7108 -1.9779 0.9689
-7.3604 1.6192 -1.9513 0.9693
-7.4590 0.9520 -1.9469 0.9694
-7.4988 0.2802 -1.9429 0.9695
-7.4800 -0.3911 -1.9393 0.9695
-7.4030 -1.0571 -1.9362 0.9696
-7.2686 -1.7129 -1.9335 0.9696
-7.0781 -2.3537 -1.9313 0.9696
-6.5354 -3.5721 -1.9284 0.9697
-6.1873 -4.1410 -1.9277 0.9697
-5.7914 -4.6775 -1.9275 0.9697
-4.8679 -5.6383 -1.9287 0.9697
-4.3470 -6.0554 -1.9300 0.9697
-3.7914 -6.4263 -1.9319 0.9696
-2.5922 -7.0178 -1.9370 0.9696
-0.6392 -7.4968 -1.9481 0.9694
-1.3186 6.4669 -1.8684 0.9729
-1.8870 6.3064 -1.8635 0.9730
-3.4651 5.5329 -1.8481 0.9732
-4.1763 5.5038 -1.9559 0.9717
-5.5516 4.2458 -1.9786 0.9714
-5.8934 3.7221 -1.9733 0.9714
-6.4297 2.5989 -1.9633 0.9716
-6.6209 2.0084 -1.9587 0.9716
-6.7591 1.4049 -1.9543 0.9717
-6.7747 -1.0478 -1.9407 0.9719
-6.4648 -2.2334 -1.9363 0.9720
-5.9554 -3.3454 -1.9337 0.9720
-5.6304 -3.8637 -1.9331 0.9720
-5.2619 -4.3517 -1.9330 0.9720
-4.8523 -4.8060 -1.9334 0.9720
-3.4087 -5.9339 -1.9373 0.9720
-1.1173 -6.7921 -1.9486 0.9718
0.7312 -6.8887 -1.9611 0.9716
4.2221 -5.6317 -1.9926 0.9712
3.0868 -3.4292 -1.3062 0.9810
3.3957 -2.6284 -1.2156 0.9823
4.7414 -2.4655 -1.5129 0.9780
7.1516 -0.8706 -2.0395 0.9705
7.2150 -0.2277 -2.0435 0.9704
7.2191 0.4195 -2.0471 0.9704
7.1638 1.0654 -2.0503 0.9703
7.0491 1.7044 -2.0530 0.9703
6.8758 2.3308 -2.0553 0.9703
6.0155 4.0768 -2.0572 0.9702
5.3793 4.3965 -1.9667 0.9715
4.7999 4.6992 -1.9016 0.9725
4.3583 5.1075 -1.9008 0.9725
3.3726 5.7930 -1.8976 0.9725
2.8373 6.0643 -1.8954 0.9726
1.1196 6.5677 -1.8861 0.9727
-0.6604 6.5855 -1.8737 0.9729
-1.8143 6.3301 -1.8641 0.9730
-2.8976 5.8732 -1.8540 0.9731
-4.0022 5.4034 -1.9036 0.9724
-4.6732 5.2526 -1.9903 0.9712
-5.1101 4.7999 -1.9847 0.9713
-5.5039 4.3115 -1.9793 0.9714
-6.1515 3.2443 -1.9688 0.9715
-6.5991 2.0858 -1.9592 0.9716
-6.8573 -0.3586 -1.9439 0.9719
-6.7876 -0.9692 -1.9410 0.9719
-5.9941 -3.2762 -1.9338 0.9720
-3.4769 -5.8932 -1.9370 0.9720
0.0314 -6.9096 -1.9561 0.9717
1.2683 -6.8251 -1.9652 0.9716
1.8786 -6.7012 -1.9702 0.9715
-1.7351 5.7989 -1.8618 0.9750
-2.2414 5.6065 -1.8571 0.9750
-5.4287 3.4286 -1.9749 0.9735
-6.2309 1.2951 -1.9575 0.9737
-6.3099 0.7310 -1.9538 0.9738
-6.3186 -0.4040 -1.9474 0.9739
-6.2487 -0.9664 -1.9448 0.9739
-5.7515 -2.5838 -1.9394 0.9740
-5.4945 -3.0865 -1.9384 0.9740
-5.1949 -3.5648 -1.9378 0.9740
-4.4769 -4.4341 -1.9381 0.9740
-4.0638 -4.8188 -1.9389 0.9740
-3.6186 -5.1663 -1.9401 0.9739
-3.1445 -5.4739 -1.9417 0.9739
-2.6449 -5.7394 -1.9437 0.9739
-0.4666 -6.3413 -1.9557 0.9737
0.1029 -6.3701 -1.9596 0.9737
0.6738 -6.3487 -1.9637 0.9736
1.8028 -6.1550 -1.9727 0.9735
2.3520 -5.9836 -1.9775 0.9735
2.8852 -5.7636 -1.9825 0.9734
3.3980 -5.4963 -1.9875 0.9733
3.8862 -5.1837 -1.9927 0.9733
3.1331 -2.9089 -1.3150 0.9823
6.6275 -0.2092 -2.0395 0.9726
6.6304 0.3853 -2.0428 0.9726
6.3130 2.1400 -2.0503 0.9725
6.1010 2.6984 -2.0519 0.9725
5.5271 3.7458 -2.0536 0.9724
5.1570 4.2148 -2.0486 0.9725
3.0966 5.3190 -1.8931 0.9746
2.0940 5.7719 -1.8885 0.9746
1.5668 5.9271 -1.8857 0.9747
-0.0631 6.0962 -1.8752 0.9748
-1.1435 5.9607 -1.8668 0.9749
-1.6682 5.8205 -1.8624 0.9750
-2.1769 5.6340 -1.8577 0.9750
-3.8502 5.1982 -1.9896 0.9733
-4.3019 4.8351 -1.9906 0.9733
-5.0687 3.9706 -1.9804 0.9734
-5.3903 3.4925 -1.9755 0.9735
-5.6675 2.9890 -1.9708 0.9735
-5.8987 2.4643 -1.9663 0.9736
-6.0822 1.9224 -1.9620 0.9737
-6.3382 0.2369 -1.9508 0.9738
-6.2605 -0.8940 -1.9451 0.9739
-6.1482 -1.4488 -1.9429 0.9739
-5.9881 -1.9912 -1.9410 0.9739
-5.7816 -2.5171 -1.9395 0.9740
-5.5302 -3.0227 -1.9385 0.9740
-5.2360 -3.5043 -1.9379 0.9740
-4.9011 -3.9584 -1.9377 0.9740
-4.5279 -4.3817 -1.9380 0.9740
-4.1192 -4.7710 -1.9387 0.9740
-3.6780 -5.1235 -1.9399 0.9740
-2.7109 -5.7075 -1.9434 0.9739
-2.1920 -5.9344 -1.9458 0.9739
-1.1026 -6.2490 -1.9518 0.9738
-0.5400 -6.3339 -1.9552 0.9737
0.0289 -6.3692 -1.9590 0.9737
0.5999 -6.3543 -1.9631 0.9736
-1.6042 5.3615 -1.8603 0.9767
-3.6249 4.7772 -1.9934 0.9750
-4.4009 4.0386 -1.9855 0.9751
-4.7335 3.6201 -1.9808 0.9752
-5.4884 2.2184 -1.9678 0.9754
-5.8475 0.6775 -1.9567 0.9755
-5.8569 -0.3745 -1.9508 0.9756
-5.6832 -1.4091 -1.9463 0.9756
-5.5295 -1.9103 -1.9446 0.9756
-5.3329 -2.3958 -1.9433 0.9757
-4.5017 -3.7230 -1.9418 0.9757
-4.1512 -4.1116 -1.9422 0.9757
-3.3551 -4.7901 -1.9440 0.9756
-2.9153 -5.0751 -1.9455 0.9756
-1.9683 -5.5252 -1.9497 0.9756
-1.4680 -5.6868 -1.9523 0.9755
-0.9548 -5.8041 -1.9553 0.9755
0.0953 -5.9019 -1.9621 0.9754
0.6242 -5.8812 -1.9659 0.9754
1.1503 -5.8138 -1.9700 0.9753
1.6695 -5.6999 -1.9743 0.9753
2.6709 -5.3354 -1.9833 0.9752
3.1450 -5.0871 -1.9880 0.9751
3.5961 -4.7968 -1.9928 0.9750
3.1132 -3.4585 -1.5468 0.9806
5.9688 -1.2768 -2.0290 0.9746
6.0701 -0.7390 -2.0326 0.9746
6.1221 -0.1932 -2.0360 0.9745
6.1240 0.3559 -2.0391 0.9745
5.8292 1.9760 -2.0460 0.9744
5.3903 2.9870 -2.0485 0.9744
4.7728 3.9008 -2.0490 0.9744
3.6942 4.3293 -1.8918 0.9763
3.2901 4.6397 -1.8907 0.9763
2.8594 4.9115 -1.8891 0.9763
1.9340 5.3307 -1.8850 0.9764
0.9501 5.5735 -1.8794 0.9764
-0.0583 5.6333 -1.8726 0.9765
-1.5424 5.3813 -1.8608 0.9767
-2.0130 5.2098 -1.8565 0.9767
-2.4653 4.9971 -1.8522 0.9768
-3.5685 4.8179 -1.9929 0.9750
-4.3550 4.0907 -1.9861 0.9751
-4.6925 3.6759 -1.9814 0.9752
-4.9911 3.2339 -1.9769 0.9752
-5.4638 2.2826 -1.9683 0.9753
-5.6347 1.7810 -1.9643 0.9754
-5.7605 1.2673 -1.9606 0.9754
-5.8743 0.2195 -1.9540 0.9755
-5.8619 -0.3065 -1.9512 0.9756
-5.5519 -1.8462 -1.9448 0.9756
-5.3607 -2.3339 -1.9435 0.9757
-5.1279 -2.8028 -1.9425 0.9757
-4.5446 -3.6705 -1.9418 0.9757
-3.8194 -4.4238 -1.9428 0.9757
-2.5132 -5.2912 -1.9471 0.9756
-2.0320 -5.5011 -1.9494 0.9756
-1.5337 -5.6683 -1.9519 0.9756
0.5558 -5.8865 -1.9654 0.9754
1.0825 -5.8251 -1.9695 0.9753
-1.0407 5.1040 -1.8628 0.9781
-1.4901 4.9802 -1.8590 0.9782
-1.9256 4.8166 -1.8550 0.9782
-4.0920 3.7551 -1.9861 0.9767
-5.1064 2.0640 -1.9696 0.9769
-5.3730 1.1168 -1.9625 0.9770
-5.4426 0.6305 -1.9593 0.9770
-5.4525 -0.3486 -1.9538 0.9771
-4.7444 -2.6651 -1.9460 0.9771
-3.8658 -3.8288 -1.9457 0.9772
-3.1242 -4.4605 -1.9474 0.9771
-2.7145 -4.7255 -1.9489 0.9771
-1.8325 -5.1439 -1.9527 0.9771
-1.3666 -5.2939 -1.9552 0.9770
-0.4024 -5.4689 -1.9610 0.9770
0.0887 -5.4922 -1.9643 0.9769
2.0253 -5.1525 -1.9798 0.9768
3.3429 -4.4589 -1.9929 0.9766
3.2303 -3.5886 -1.7267 0.9797
3.3786 -2.6151 -1.5279 0.9820
4.9987 -2.5993 -2.0148 0.9763
5.2218 -2.1460 -2.0189 0.9763
5.5414 -1.1854 -2.0265 0.9762
5.6347 -0.6860 -2.0299 0.9762
5.6822 -0.1793 -2.0330 0.9761
5.6834 0.3303 -2.0358 0.9761
5.5461 1.3410 -2.0405 0.9761
5.4085 1.8334 -2.0422 0.9760
5.2263 2.3115 -2.0436 0.9760
4.4283 3.6193 -2.0452 0.9760
4.0807 3.9951 -2.0422 0.9760
3.6401 4.2659 -2.0054 0.9765
2.2326 4.7718 -1.8840 0.9779
1.7947 4.9469 -1.8819 0.9779
1.3432 5.0810 -1.8794 0.9779
0.8819 5.1733 -1.8767 0.9780
0.4148 5.2231 -1.8737 0.9780
-0.0541 5.2301 -1.8704 0.9780
-0.5209 5.1946 -1.8670 0.9781
-1.8701 4.8399 -1.8555 0.9782
-2.2907 4.6430 -1.8515 0.9782
-2.9037 4.7584 -1.9935 0.9766
-3.3213 4.4842 -1.9955 0.9766
-4.0493 3.8034 -1.9867 0.9767
-4.3638 3.4184 -1.9823 0.9767
-4.6422 3.0078 -1.9781 0.9768
-4.8826 2.5751 -1.9740 0.9768
-5.2431 1.6572 -1.9664 0.9769
-5.3609 1.1793 -1.9629 0.9770
-5.4681 0.2044 -1.9568 0.9770
-5.3071 -1.2506 -1.9499 0.9771
-5.1697 -1.7190 -1.9482 0.9771
-4.9919 -2.1733 -1.9470 0.9771
-4.5213 -3.0260 -1.9456 0.9772
-4.2321 -3.4182 -1.9454 0.9772
-3.5567 -4.1196 -1.9463 0.9771
-3.1755 -4.4235 -1.9473 0.9771
-2.7689 -4.6932 -1.9486 0.9771
-2.3400 -4.9265 -1.9504 0.9771
-1.8918 -5.1215 -1.9524 0.9771
-1.4277 -5.2767 -1.9548 0.9770
-0.9512 -5.3908 -1.9576 0.9770
-0.4657 -5.4627 -1.9606 0.9770
0.5171 -5.4772 -1.9674 0.9769
1.0071 -5.4193 -1.9712 0.9769
1.4909 -5.3181 -1.9751 0.9768
-0.9704 4.7593 -1.8614 0.9794
-2.3395 4.6065 -1.9799 0.9781
-3.4978 3.8407 -1.9907 0.9780
-4.1094 3.1429 -1.9826 0.9781
-4.3655 2.7571 -1.9787 0.9781
-4.9138 1.4906 -1.9678 0.9782
-5.0192 1.0433 -1.9646 0.9783
-2.2956 0.0591 -0.8800 0.9902
-2.3032 -0.1473 -0.8844 0.9902
-4.9454 -1.2261 -1.9525 0.9784
-3.9184 -3.2406 -1.9486 0.9785
-3.6133 -3.5787 -1.9489 0.9785
-2.9200 -4.1689 -1.9505 0.9784
-2.5370 -4.4164 -1.9518 0.9784
-2.1334 -4.6296 -1.9535 0.9784
-1.7124 -4.8068 -1.9554 0.9784
-1.2769 -4.9465 -1.9577 0.9784
-0.8303 -5.0476 -1.9603 0.9783
0.5425 -5.1109 -1.9696 0.9782
0.9994 -5.0510 -1.9732 0.9782
2.3184 -4.6313 -1.9847 0.9781
2.7291 -4.4143 -1.9888 0.9780
3.1196 -4.1611 -1.9930 0.9780
3.4867 -3.8734 -1.9971 0.9779
4.8688 -2.0009 -2.0172 0.9777
5.2518 -0.6393 -2.0274 0.9776
5.2956 -0.1671 -2.0304 0.9776
5.1674 1.2494 -2.0373 0.9775
4.8689 2.1535 -2.0402 0.9775
4.4102 2.9888 -2.0416 0.9774
3.8066 3.7267 -2.0414 0.9774
3.4495 4.0426 -2.0365 0.9775
2.9954 4.2242 -1.9845 0.9781
1.6723 4.6096 -1.8791 0.9792
1.2517 4.7350 -1.8769 0.9792
0.3866 4.8684 -1.8715 0.9793
-0.0504 4.8755 -1.8685 0.9793
-0.9153 4.7714 -1.8618 0.9794
-1.3360 4.6614 -1.8583 0.9794
-1.7443 4.5142 -1.8546 0.9795
-2.2605 4.5820 -1.9580 0.9784
-2.7140 4.4476 -1.9967 0.9779
-3.0992 4.1843 -1.9954 0.9779
-3.4540 3.8821 -1.9913 0.9780
-3.7796 3.5501 -1.9872 0.9780
-4.0738 3.1912 -1.9831 0.9781
-4.7474 1.9833 -1.9717 0.9782
-4.8972 1.5479 -1.9682 0.9782
-5.0078 1.1017 -1.9650 0.9783
-2.2987 0.0859 -0.8815 0.9902
-2.3016 -0.1203 -0.8832 0.9902
-5.0493 -0.7210 -1.9546 0.9784
-4.9598 -1.1688 -1.9528 0.9784
-4.6656 -2.0312 -1.9500 0.9784
-4.4633 -2.4395 -1.9492 0.9784
-4.2260 -2.8284 -1.9487 0.9785
-3.6544 -3.5365 -1.9488 0.9785
-3.3244 -3.8504 -1.9494 0.9784
-1.7678 -4.7859 -1.9552 0.9784
-1.3340 -4.9306 -1.9574 0.9784
-0.8887 -5.0367 -1.9600 0.9783
-0.4351 -5.1033 -1.9628 0.9783
0.9405 -5.0610 -1.9727 0.9782
-0.9080 4.4533 -1.8601 0.9805
-1.7725 4.4334 -1.9541 0.9796
-2.5921 4.1390 -1.9988 0.9791
-2.9463 3.8828 -1.9949 0.9792
-3.2755 3.5966 -1.9910 0.9792
-4.0896 2.5829 -1.9796 0.9793
-4.2965 2.2026 -1.9761 0.9793
-2.0803 0.4324 -0.8696 0.9909
-2.0194 0.2340 -0.8320 0.9913
-2.0300 -0.3140 -0.8407 0.9912
-2.1032 -0.5215 -0.8868 0.9907
-4.3521 -1.9551 -1.9527 0.9796
-4.1581 -2.3358 -1.9519 0.9796
-3.0752 -3.6465 -1.9523 0.9796
-2.7379 -3.9089 -1.9532 0.9796
-1.6053 -4.5063 -1.9579 0.9795
-1.1970 -4.6370 -1.9600 0.9795
-0.7783 -4.7313 -1.9624 0.9795
-0.3523 -4.7885 -1.9651 0.9795
0.0777 -4.8079 -1.9680 0.9794
0.9364 -4.7326 -1.9745 0.9794
1.7713 -4.5061 -1.9816 0.9793
2.1714 -4.3377 -1.9853 0.9793
2.5557 -4.1340 -1.9892 0.9792
2.9211 -3.8963 -1.9930 0.9792
3.5827 -3.3263 -2.0008 0.9791
3.8734 -2.9982 -2.0047 0.9791
3.8840 -2.4847 -1.8871 0.9803
4.8319 -1.0336 -2.0223 0.9789
4.9528 0.2878 -2.0305 0.9788
4.7114 1.5971 -2.0360 0.9787
4.5522 2.0134 -2.0372 0.9787
4.1231 2.7943 -2.0385 0.9787
3.5588 3.4842 -2.0384 0.9787
2.4365 4.1851 -1.9820 0.9793
0.7687 4.5094 -1.8722 0.9804
-0.0472 4.5609 -1.8668 0.9805
-1.7082 4.4208 -1.9397 0.9797
-2.1601 4.3783 -1.9982 0.9791
-2.5446 4.1698 -1.9993 0.9791
-2.9018 3.9177 -1.9954 0.9791
-3.2343 3.6353 -1.9915 0.9792
-4.2717 2.2528 -1.9765 0.9793
-4.5892 1.4505 -1.9699 0.9794
-2.0879 0.4593 -0.8750 0.9908
-1.9999 0.0747 -0.8191 0.9914
-2.0207 -0.2885 -0.8354 0.9912
-4.3747 -1.9046 -1.9528 0.9796
-4.1851 -2.2875 -1.9520 0.9796
-3.1171 -3.6104 -1.9522 0.9796
-1.2506 -4.6221 -1.9597 0.9795
-0.8330 -4.7212 -1.9621 0.9795
-0.4078 -4.7832 -1.9647 0.9795
0.0218 -4.8075 -1.9676 0.9794
0.4526 -4.7939 -1.9707 0.9794
0.8812 -4.7421 -1.9740 0.9794
-0.8655 4.2449 -1.8880 0.9813
-2.7668 3.6463 -1.9948 0.9802
-3.0763 3.3779 -1.9911 0.9803
-3.3601 3.0835 -1.9875 0.9803
-3.8422 2.4266 -1.9805 0.9804
-4.1993 1.6973 -1.9740 0.9804
-1.4939 0.4532 -0.6804 0.9932
-1.4768 0.3070 -0.6574 0.9934
-1.4395 0.0371 -0.6276 0.9937
-1.4734 -0.2279 -0.6498 0.9935
-1.4898 -0.3694 -0.6689 0.9933
-1.4906 -0.5149 -0.6873 0.9931
-4.0922 -1.8384 -1.9551 0.9806
-3.9099 -2.1964 -1.9544 0.9806
-3.6969 -2.5369 -1.9541 0.9806
-3.4550 -2.8574 -1.9540 0.9806
-2.5744 -3.6754 -1.9556 0.9806
-2.2365 -3.8933 -1.9568 0.9806
-1.8806 -4.0809 -1.9583 0.9806
-1.1253 -4.3591 -1.9620 0.9805
-0.7316 -4.4474 -1.9643 0.9805
0.0730 -4.5187 -1.9696 0.9805
0.8799 -4.4470 -1.9757 0.9804
1.6640 -4.2333 -1.9823 0.9803
2.0397 -4.0746 -1.9859 0.9803
2.4005 -3.8828 -1.9895 0.9803
3.3638 -3.1231 -2.0004 0.9802
3.6363 -2.8146 -2.0041 0.9801
3.8805 -2.4824 -2.0076 0.9801
4.4222 -1.3695 -2.0176 0.9800
4.6087 -0.5610 -2.0234 0.9799
4.5319 1.0958 -2.0320 0.9799
4.4188 1.4979 -2.0334 0.9798
3.8668 2.6206 -2.0357 0.9798
3.6170 2.9562 -2.0359 0.9798
3.3376 3.2675 -2.0356 0.9798
2.3409 4.0208 -2.0277 0.9799
1.9405 4.1474 -1.9956 0.9802
1.4989 4.1315 -1.9154 0.9810
1.0981 4.1540 -1.8726 0.9814
0.3393 4.2725 -1.8679 0.9815
-0.4264 4.2520 -1.8624 0.9815
-0.8131 4.2384 -1.8809 0.9813
-1.6543 4.2815 -2.0004 0.9802
-2.7249 3.6790 -1.9953 0.9802
-3.3248 3.1230 -1.9880 0.9803
-4.0137 2.1168 -1.9776 0.9804
-1.4938 0.4721 -0.6828 0.9932
-1.4817 0.3260 -0.6612 0.9934
-1.4730 0.1880 -0.6472 0.9935
-1.4534 -0.0760 -0.6343 0.9937
-1.4737 -0.2104 -0.6488 0.9935
-1.4868 -0.3504 -0.6657 0.9934
-3.7262 -2.4939 -1.9541 0.9806
-2.9311 -3.3949 -1.9547 0.9806
-2.6167 -3.6451 -1.9555 0.9806
-2.2813 -3.8668 -1.9566 0.9806
-1.5581 -4.2182 -1.9598 0.9806
-0.7830 -4.4380 -1.9640 0.9805
0.8280 -4.4560 -1.9752 0.9804
1.2254 -4.3712 -1.9785 0.9804
-0.8611 4.2234 -1.9952 0.9812
-1.2405 4.1459 -2.0032 0.9811
-1.6067 4.0189 -2.0034 0.9811
-2.8966 3.1806 -1.9913 0.9812
-3.1642 2.9037 -1.9879 0.9812
-1.2522 0.5061 -0.6252 0.9941
-1.2696 0.3851 -0.6141 0.9942
-1.2678 0.2635 -0.5994 0.9943
-1.2750 0.1477 -0.5941 0.9944
-1.2640 0.0325 -0.5853 0.9944
-1.2703 -0.0812 -0.5892 0.9944
-1.2649 -0.4370 -0.6194 0.9941
-3.4848 -2.3914 -1.9564 0.9815
-0.6894 -4.1910 -1.9660 0.9815
-0.3120 -4.2410 -1.9684 0.9814
0.0688 -4.2575 -1.9710 0.9814
0.4501 -4.2403 -1.9738 0.9814
0.8289 -4.1892 -1.9767 0.9814
1.5672 -3.9871 -1.9830 0.9813
2.2604 -3.6562 -1.9897 0.9812
2.5829 -3.4453 -1.9932 0.9812
2.8858 -3.2059 -1.9966 0.9812
3.8527 -2.0034 -2.0101 0.9810
4.0228 -1.6532 -2.0132 0.9810
4.1607 -1.2886 -2.0162 0.9810
4.2653 -0.9124 -2.0190 0.9810
4.3354 -0.5278 -2.0216 0.9809
4.3338 0.6445 -2.0281 0.9809
4.0149 1.7758 -2.0321 0.9808
3.8413 2.1286 -2.0328 0.9808
3.1386 3.0727 -2.0331 0.9808
2.8503 3.3403 -2.0326 0.9808
2.2056 3.7886 -2.0292 0.9809
1.8534 3.9612 -2.0244 0.9809
1.0849 4.1042 -1.9650 0.9815
0.6991 4.1014 -1.9258 0.9818
0.3267 4.1137 -1.9102 0.9820
-1.1923 4.1600 -2.0031 0.9811
-1.5599 4.0371 -2.0034 0.9811
-2.2492 3.6858 -1.9987 0.9811
-2.5655 3.4638 -1.9952 0.9812
-2.8602 3.2148 -1.9918 0.9812
-3.1310 2.9409 -1.9883 0.9812
-3.5929 2.3280 -1.9817 0.9813
-1.2483 0.5215 -0.6262 0.9941
-1.2679 0.2789 -0.6009 0.9943
-1.2684 -0.0663 -0.5879 0.9944
-1.2749 -0.1821 -0.5961 0.9943
-1.2667 -0.4212 -0.6179 0.9941
-1.2468 -0.5428 -0.6294 0.9940
-3.2878 -2.6555 -1.9563 0.9815
-2.7629 -3.2001 -1.9570 0.9815
-2.4664 -3.4358 -1.9577 0.9815
-1.1079 -4.0949 -1.9636 0.9815
-0.7379 -4.1821 -1.9658 0.9815
0.0193 -4.2573 -1.9707 0.9814
0.4007 -4.2444 -1.9734 0.9814
1.1543 -4.1175 -1.9794 0.9813
-0.8172 4.0078 -2.0064 0.9819
-1.5169 3.7943 -2.0044 0.9820
-1.8474 3.6375 -2.0012 0.9820
-2.7337 3.0017 -1.9915 0.9821
-3.4163 2.1576 -1.9820 0.9822
-1.0914 0.5595 -0.6016 0.9946
-1.1382 0.0293 -0.5585 0.9949
-1.1427 -0.0731 -0.5617 0.9949
-1.1330 -0.2809 -0.5726 0.9948
-1.1250 -0.3887 -0.5839 0.9947
-1.0994 -0.4939 -0.5912 0.9946
-3.4815 -1.9558 -1.9588 0.9824
-2.5748 -3.0531 -1.9591 0.9824
-2.2922 -3.2726 -1.9599 0.9824
-1.9912 -3.4664 -1.9609 0.9823
-1.6742 -3.6330 -1.9622 0.9823
-1.3435 -3.7713 -1.9638 0.9823
-0.2947 -4.0050 -1.9698 0.9823
0.4249 -4.0036 -1.9749 0.9822
0.7826 -3.9551 -1.9777 0.9822
1.1350 -3.8750 -1.9806 0.9822
1.4794 -3.7636 -1.9836 0.9821
1.8131 -3.6219 -1.9868 0.9821
2.1333 -3.4507 -1.9900 0.9821
2.4374 -3.2512 -1.9932 0.9821
2.7230 -3.0250 -1.9965 0.9820
2.9876 -2.7738 -1.9997 0.9820
3.2290 -2.4993 -2.0029 0.9820
3.4451 -2.2039 -2.0061 0.9819
3.9238 -1.2152 -2.0149 0.9819
4.0880 -0.4977 -2.0201 0.9818
4.1207 -0.1300 -2.0223 0.9818
4.1200 0.2394 -2.0244 0.9818
4.0179 0.9715 -2.0277 0.9818
3.9174 1.3279 -2.0290 0.9817
3.6209 2.0065 -2.0306 0.9817
3.4275 2.3229 -2.0310 0.9817
2.9585 2.8964 -2.0309 0.9817
2.6868 3.1487 -2.0304 0.9817
2.0806 3.5738 -2.0285 0.9817
1.0513 3.9770 -2.0178 0.9818
0.6901 4.0481 -2.0143 0.9819
-0.0424 4.0958 -2.0092 0.9819
-0.7707 4.0172 -2.0065 0.9819
-1.1266 3.9309 -2.0059 0.9819
-1.4731 3.8124 -2.0048 0.9820
-2.4209 3.2685 -1.9951 0.9820
-3.1864 2.4961 -1.9855 0.9821
-3.3917 2.1976 -1.9824 0.9822
-1.0982 0.5792 -0.6090 0.9945
-1.1438 -0.1633 -0.5667 0.9949
-1.1037 -0.4805 -0.5905 0.9947
-3.1059 -2.5085 -1.9584 0.9824
-2.6099 -3.0229 -1.9590 0.9824
-2.3299 -3.2455 -1.9597 0.9824
-2.0312 -3.4427 -1.9608 0.9823
-1.7161 -3.6130 -1.9620 0.9823
-0.3411 -4.0007 -1.9695 0.9823
0.0183 -4.0201 -1.9720 0.9822
1.0897 -3.8871 -1.9802 0.9822
-0.7737 3.7944 -2.0090 0.9827
-2.5849 2.8384 -1.9916 0.9828
-2.8242 2.5917 -1.9886 0.9829
-3.0402 2.3251 -1.9856 0.9829
-1.0281 0.2137 -0.5447 0.9953
-1.0332 0.0266 -0.5362 0.9954
-1.0349 -0.1601 -0.5433 0.9953
-1.0204 -0.2530 -0.5454 0.9953
-3.1157 -2.1381 -1.9603 0.9831
-2.9119 -2.4082 -1.9603 0.9831
-2.6850 -2.6593 -1.9605 0.9831
-2.4369 -2.8896 -1.9610 0.9831
-2.1693 -3.0972 -1.9617 0.9831
-1.8845 -3.2805 -1.9627 0.9831
-1.5844 -3.4381 -1.9639 0.9831
-1.2714 -3.5688 -1.9654 0.9831
-0.2788 -3.7894 -1.9712 0.9830
0.4020 -3.7876 -1.9759 0.9830
2.0173 -3.2631 -1.9902 0.9829
2.5745 -2.8601 -1.9963 0.9828
2.8244 -2.6223 -1.9994 0.9828
3.0524 -2.3626 -2.0025 0.9828
3.4347 -1.7860 -2.0083 0.9827
3.7080 -1.1484 -2.0138 0.9827
3.8006 -0.8130 -2.0163 0.9826
3.8626 -0.4702 -2.0186 0.9826
3.8933 -0.1229 -2.0208 0.9826
3.8924 0.2262 -2.0227 0.9826
3.7005 1.2544 -2.0270 0.9825
3.5750 1.5812 -2.0279 0.9825
3.4203 1.8953 -2.0286 0.9825
2.7945 2.7359 -2.0289 0.9825
1.9654 3.3760 -2.0266 0.9826
1.3302 3.6666 -2.0235 0.9826
0.6532 3.8318 -2.0165 0.9826
-0.0401 3.8775 -2.0117 0.9827
-0.7296 3.8033 -2.0091 0.9827
-1.3924 3.6037 -2.0042 0.9827
-2.0064 3.2878 -1.9982 0.9828
-2.2890 3.0904 -1.9951 0.9828
-2.5523 2.8687 -1.9920 0.9828
-2.7945 2.6248 -1.9890 0.9829
-3.0136 2.3607 -1.9860 0.9829
-0.9601 0.5063 -0.5631 0.9951
-0.9955 0.4159 -0.5597 0.9952
-1.0155 0.3210 -0.5525 0.9952
-1.0260 0.2257 -0.5450 0.9953
-1.0369 0.1323 -0.5423 0.9953
-1.0359 -0.0542 -0.5381 0.9953
-1.0359 -0.1479 -0.5429 0.9953
-1.0132 -0.3369 -0.5540 0.9952
-0.9906 -0.4313 -0.5605 0.9951
-0.9528 -0.5208 -0.5633 0.9951
-2.9396 -2.3742 -1.9603 0.9831
-2.7156 -2.6279 -1.9605 0.9831
-1.9223 -3.2582 -1.9625 0.9831
-1.6240 -3.4192 -1.9637 0.9831
-1.3126 -3.5534 -1.9652 0.9831
-0.9902 -3.6597 -1.9669 0.9831
-0.6594 -3.7373 -1.9688 0.9830
0.3580 -3.7913 -1.9756 0.9830
-0.7327 3.5938 -2.0088 0.9834
-1.0500 3.5091 -2.0061 0.9834
-1.6539 3.2566 -2.0005 0.9835
-1.9358 3.0910 -1.9976 0.9835
-2.4486 2.6886 -1.9917 0.9836
-2.8803 2.2028 -1.9860 0.9836
-0.9071 0.3667 -0.5359 0.9955
-0.9374 0.1948 -0.5244 0.9956
-0.9470 0.1097 -0.5221 0.9957
-0.9439 0.0243 -0.5172 0.9957
-0.9467 -0.0605 -0.5196 0.9957
-0.9163 -0.3165 -0.5310 0.9956
-0.8742 -0.4911 -0.5492 0.9954
-2.7605 -2.2830 -1.9620 0.9838
-2.0565 -2.9362 -1.9634 0.9838
-1.5019 -3.2592 -1.9655 0.9838
-1.2051 -3.3829 -1.9669 0.9838
-0.8984 -3.4800 -1.9685 0.9837
-0.2642 -3.5914 -1.9723 0.9837
0.0582 -3.6047 -1.9745 0.9837
0.3810 -3.5893 -1.9769 0.9837
1.0172 -3.4729 -1.9820 0.9836
1.3257 -3.3725 -1.9847 0.9836
1.6244 -3.2450 -1.9875 0.9836
1.9110 -3.0911 -1.9904 0.9836
2.1831 -2.9119 -1.9933 0.9835
2.4384 -2.7089 -1.9962 0.9835
2.6749 -2.4835 -1.9991 0.9835
2.8905 -2.2374 -2.0020 0.9835
3.0835 -1.9725 -2.0048 0.9834
3.3948 -1.3951 -2.0102 0.9834
1.8889 -0.2300 -1.0422 0.9914
1.8804 -0.0593 -1.0304 0.9915
1.8854 0.1096 -1.0344 0.9914
1.8881 0.2808 -1.0455 0.9913
3.3832 1.4963 -2.0261 0.9833
2.8658 2.3423 -2.0272 0.9833
2.4017 2.8146 -2.0265 0.9833
1.2591 3.4707 -2.0221 0.9833
0.6193 3.6330 -2.0185 0.9833
0.2914 3.6693 -2.0160 0.9834
-0.0380 3.6770 -2.0140 0.9834
-0.6911 3.6026 -2.0092 0.9834
-1.0093 3.5216 -2.0065 0.9834
-2.1680 2.9271 -1.9950 0.9835
-2.8550 2.2365 -1.9864 0.9836
-0.8826 0.4655 -0.5465 0.9955
-0.9049 0.3780 -0.5371 0.9955
-0.9464 0.1208 -0.5226 0.9957
-0.9450 0.0353 -0.5180 0.9957
-0.9461 -0.0495 -0.5189 0.9957
-0.9455 -0.1350 -0.5231 0.9957
-0.9322 -0.2197 -0.5246 0.9956
-0.9183 -0.3054 -0.5300 0.9956
-0.9018 -0.3926 -0.5387 0.9955
-0.8780 -0.4799 -0.5480 0.9954
-2.7868 -2.2508 -1.9620 0.9838
-1.8223 -3.0887 -1.9642 0.9838
-1.5395 -3.2413 -1.9653 0.9838
-1.2442 -3.3684 -1.9667 0.9838
-0.3059 -3.5876 -1.9721 0.9837
0.3392 -3.5929 -1.9766 0.9837
0.6602 -3.5526 -1.9791 0.9837
0.9767 -3.4838 -1.9817 0.9836
-0.6949 3.4079 -2.0080 0.9841
-1.5687 3.0888 -2.0001 0.9841
-2.0883 2.7522 -1.9946 0.9842
-2.5384 2.3295 -1.9891 0.9842
-0.8028 0.5070 -0.5482 0.9956
-0.8530 0.3448 -0.5312 0.9958
-0.8651 0.2624 -0.5219 0.9958
-0.8764 0.1822 -0.5168 0.9959
-0.8806 -0.1362 -0.5145 0.9959
-0.8716 -0.2161 -0.5184 0.9959
-0.8610 -0.2975 -0.5260 0.9958
-0.8452 -0.3797 -0.5350 0.9957
-0.7978 -0.5475 -0.5586 0.9955
-2.4167 -2.3936 -1.9638 0.9844
-1.9525 -2.7876 -1.9649 0.9844
-1.6960 -2.9524 -1.9658 0.9844
-0.5543 -3.3695 -1.9715 0.9844
-0.2508 -3.4089 -1.9735 0.9843
0.6657 -3.3645 -1.9801 0.9843
0.9653 -3.2956 -1.9826 0.9843
1.5413 -3.0789 -1.9879 0.9842
1.8130 -2.9326 -1.9906 0.9842
2.3131 -2.5696 -1.9961 0.9842
2.9243 -1.8707 -2.0043 0.9841
3.0840 -1.6037 -2.0069 0.9841
1.8045 -0.7416 -1.1264 0.9910
1.7332 -0.0547 -1.0012 0.9920
1.7373 0.1010 -1.0047 0.9920
1.7408 0.2589 -1.0161 0.9919
1.7320 0.4188 -1.0288 0.9918
3.2068 1.4183 -2.0245 0.9839
2.9040 1.9681 -2.0254 0.9839
2.7164 2.2201 -2.0254 0.9839
2.5066 2.4540 -2.0253 0.9839
2.0280 2.8599 -2.0242 0.9839
1.7631 3.0285 -2.0232 0.9839
1.4842 3.1723 -2.0221 0.9840
0.8937 3.3810 -2.0191 0.9840
0.2763 3.4796 -2.0153 0.9840
-0.3475 3.4654 -2.0108 0.9840
-0.9572 3.3397 -2.0058 0.9841
-1.5330 3.1074 -2.0005 0.9841
-2.5117 2.3592 -1.9895 0.9842
-2.7090 2.1221 -1.9868 0.9842
-0.8289 0.4372 -0.5411 0.9957
-0.8641 0.2731 -0.5232 0.9958
-0.8818 0.1125 -0.5132 0.9959
-0.8813 -0.0461 -0.5095 0.9959
-0.8477 -0.3691 -0.5338 0.9957
-0.8245 -0.4506 -0.5425 0.9957
-0.7958 -0.5326 -0.5529 0.9956
-2.6459 -2.1370 -1.9637 0.9844
-2.4443 -2.3654 -1.9638 0.9844
-1.9846 -2.7646 -1.9648 0.9844
-0.2903 -3.4053 -1.9732 0.9843
0.3219 -3.4099 -1.9775 0.9843
0.6265 -3.3714 -1.9798 0.9843
