ply
format ascii 1.0
element vertex 1588
property float32 x
property float32 y
property float32 z
property float32 I
end_header
12.5649 -8.7433 -1.4696 0.9403
13.6331 -7.7808 -1.5070 0.9389
15.6861 -5.5485 -1.5974 0.9353
17.5891 -2.8629 -1.7109 0.9309
8.8930 0.1537 -0.8539 0.9649
9.3416 0.9996 -0.9020 0.9630
11.6153 2.3052 -1.1369 0.9535
3.0971 14.2679 -1.4017 0.9430
7.9703 -9.4915 -1.4722 0.9513
8.9158 -8.8726 -1.4941 0.9506
12.4262 -5.6344 -1.6207 0.9465
13.9567 -3.5202 -1.7098 0.9437
14.6443 -2.3295 -1.7614 0.9420
9.3532 -0.6411 -1.1136 0.9629
8.8635 0.1851 -1.0531 0.9649
9.2413 1.0225 -1.1044 0.9632
11.5203 2.3295 -1.3962 0.9538
16.9231 5.0286 -2.0971 0.9314
17.0578 6.7766 -2.1803 0.9287
17.0490 8.6061 -2.2686 0.9260
8.0064 15.4503 -2.0671 0.9323
3.6500 8.9102 -1.1438 0.9620
4.6645 15.1074 -1.8781 0.9383
3.0321 14.2148 -1.7265 0.9431
1.6331 13.4493 -1.6093 0.9469
0.4028 12.7754 -1.5183 0.9498
-2.6545 17.9131 -2.1511 0.9297
-2.7006 11.2087 -1.3695 0.9546
-7.5239 11.1476 -1.5976 0.9473
-19.2065 3.3610 -2.3161 0.9245
-14.5867 -5.5349 -1.8532 0.9391
-13.5836 -6.5949 -1.7937 0.9410
-12.5480 -7.5439 -1.7392 0.9427
-11.4879 -8.3869 -1.6896 0.9443
-10.4099 -9.1290 -1.6447 0.9458
-9.3197 -9.7752 -1.6043 0.9470
-8.2217 -10.3303 -1.5683 0.9482
-7.1198 -10.7985 -1.5364 0.9492
-6.0170 -11.1838 -1.5085 0.9501
-4.9158 -11.4898 -1.4845 0.9509
-3.8183 -11.7197 -1.4642 0.9516
-2.7262 -11.8761 -1.4474 0.9521
-0.5634 -11.9772 -1.4243 0.9528
2.6101 -11.6205 -1.4148 0.9532
6.6645 -10.2119 -1.4485 0.9521
8.5904 -9.0954 -1.4861 0.9509
9.5208 -8.4286 -1.5104 0.9501
12.1430 -5.9660 -1.6071 0.9470
12.9464 -4.9821 -1.6478 0.9457
14.4125 -2.7527 -1.7430 0.9426
15.0602 -1.5020 -1.7978 0.9409
8.9779 -0.0906 -1.0665 0.9645
8.7761 0.6968 -1.0458 0.9652
17.0694 7.9630 -2.2374 0.9269
16.9573 9.8404 -2.3289 0.9241
8.7187 15.6208 -2.1250 0.9305
6.5374 14.6485 -1.9054 0.9374
3.4530 14.0419 -1.7177 0.9434
2.0963 13.7029 -1.6466 0.9457
0.8135 13.0004 -1.5473 0.9489
-0.3646 13.5861 -1.6144 0.9467
-1.9115 16.3837 -1.9594 0.9357
-5.2584 17.3190 -2.1500 0.9297
-10.3087 16.3433 -2.2953 0.9251
-7.0016 9.1711 -1.3706 0.9546
-19.3881 4.0152 -2.3519 0.9233
-18.7350 2.1620 -2.2402 0.9268
-13.9356 -6.2402 -1.8137 0.9403
-11.8578 -8.1062 -1.7062 0.9438
-5.2974 -11.3925 -1.4924 0.9507
-4.1984 -11.6484 -1.4708 0.9513
-3.1042 -11.8301 -1.4528 0.9519
3.2876 -11.4636 -1.4166 0.9531
4.3140 -11.1685 -1.4222 0.9529
10.1149 -7.9525 -1.5284 0.9495
12.6725 -5.3329 -1.6332 0.9461
14.1736 -3.1650 -1.7251 0.9432
14.8429 -1.9462 -1.7782 0.9415
8.7946 0.4247 -1.0459 0.9652
9.9135 1.3725 -1.1888 0.9605
16.7544 3.8680 -2.0425 0.9331
16.9786 5.5551 -2.1220 0.9306
17.0149 9.1816 -2.2966 0.9251
3.8396 13.7611 -1.6971 0.9441
2.5820 13.9686 -1.6874 0.9444
0.0532 12.8305 -1.5241 0.9496
-1.3052 15.2873 -1.8225 0.9401
-3.3932 19.2489 -2.3218 0.9243
-5.2397 8.9067 -1.2275 0.9592
-19.0350 2.7964 -2.2854 0.9254
-18.3070 1.0363 -2.1781 0.9288
-17.0464 -2.0915 -2.0401 0.9332
-16.1835 -3.4731 -1.9661 0.9355
-14.2833 -5.8719 -1.8344 0.9397
-13.2693 -6.8973 -1.7764 0.9415
-12.2254 -7.8132 -1.7234 0.9432
-11.1591 -8.6248 -1.6753 0.9448
-10.0769 -9.3370 -1.6318 0.9462
-8.9838 -9.9549 -1.5928 0.9474
-7.8843 -10.4828 -1.5581 0.9485
-5.6792 -11.2859 -1.5008 0.9504
-3.4830 -11.7753 -1.4587 0.9517
-2.3927 -11.9097 -1.4430 0.9522
-1.3097 -11.9735 -1.4308 0.9526
1.8852 -11.7562 -1.4143 0.9532
3.9596 -11.2783 -1.4199 0.9530
4.9769 -10.9397 -1.4276 0.9527
8.8781 -8.8989 -1.4932 0.9506
9.8009 -8.2093 -1.5187 0.9498
10.6971 -7.4436 -1.5480 0.9489
12.3935 -5.6735 -1.6191 0.9466
13.9278 -3.5663 -1.7078 0.9437
14.6178 -2.3793 -1.7592 0.9421
17.0550 6.7045 -2.1768 0.9288
12.3361 13.2510 -2.1505 0.9297
8.1053 15.5043 -2.0782 0.9320
3.6974 8.9341 -1.1485 0.9618
8.5789 -7.1334 -1.5809 0.9559
9.3362 -6.4469 -1.6076 0.9552
11.9794 -3.0215 -1.7505 0.9513
9.2718 -0.6355 -1.3168 0.9632
8.7644 0.1831 -1.2421 0.9652
14.0738 4.1819 -2.0803 0.9424
13.7450 8.5560 -2.2940 0.9367
11.8360 10.7084 -2.2615 0.9376
9.3941 14.7396 -2.4766 0.9318
8.0319 15.4995 -2.4735 0.9319
3.6450 8.8981 -1.3624 0.9619
2.8982 13.5873 -1.9685 0.9454
1.6310 13.4318 -1.9171 0.9468
0.4023 12.7598 -1.8088 0.9497
-0.8347 14.4256 -2.0474 0.9433
-2.4612 16.6088 -2.3790 0.9344
-2.6866 11.1506 -1.6251 0.9547
-6.3280 18.7340 -2.8017 0.9232
-13.7635 14.1278 -2.7947 0.9234
-14.5906 12.5193 -2.7240 0.9253
-15.6589 9.1855 -2.5723 0.9293
-15.7296 2.7526 -2.2626 0.9375
-14.4226 -1.3701 -2.0527 0.9432
-13.8054 -2.5697 -1.9897 0.9448
-12.3730 -4.6949 -1.8751 0.9479
-10.7441 -6.4593 -1.7763 0.9506
-8.0698 -8.4643 -1.6570 0.9539
-6.2002 -9.4037 -1.5959 0.9555
-5.2521 -9.7621 -1.5707 0.9562
-0.4953 -10.5294 -1.4936 0.9583
1.3752 -10.3875 -1.4846 0.9586
3.2061 -9.9997 -1.4879 0.9585
4.1023 -9.7143 -1.4941 0.9583
7.5126 -7.9543 -1.5502 0.9568
8.3092 -7.3560 -1.5724 0.9562
9.8129 -5.9624 -1.6269 0.9547
10.5120 -5.1647 -1.6595 0.9538
11.7799 -3.3624 -1.7357 0.9517
12.3367 -2.3563 -1.7796 0.9505
12.8329 -1.2799 -1.8273 0.9492
8.8756 -0.0895 -1.2576 0.9648
8.7623 0.6957 -1.2454 0.9651
14.0989 5.1015 -2.1244 0.9412
13.8446 8.0341 -2.2680 0.9374
13.5092 9.5454 -2.3437 0.9354
12.3311 10.4805 -2.2930 0.9367
9.7500 14.3007 -2.4524 0.9325
2.0936 13.6847 -1.9615 0.9456
-0.3643 13.5754 -1.9242 0.9466
-1.9096 16.3681 -2.3349 0.9356
-2.3079 11.0741 -1.6029 0.9553
-5.2755 17.3750 -2.5728 0.9293
-7.3689 18.2321 -2.7863 0.9236
-8.8613 17.2983 -2.7539 0.9245
-10.2100 16.1868 -2.7116 0.9256
-15.5280 9.7673 -2.5992 0.9286
-15.8466 8.0927 -2.5211 0.9306
-15.9914 6.4400 -2.4426 0.9327
-15.5265 1.7918 -2.2145 0.9388
-14.6182 -0.9331 -2.0755 0.9425
-14.0279 -2.1640 -2.0111 0.9443
-7.4643 -8.8046 -1.6355 0.9544
-6.5273 -9.2624 -1.6055 0.9553
-2.7224 -10.3749 -1.5198 0.9576
-0.8227 -10.5287 -1.4964 0.9582
8.0360 -7.5708 -1.5643 0.9564
10.9466 -4.6066 -1.6828 0.9532
11.5740 -3.6949 -1.7214 0.9521
9.8157 1.3590 -1.4040 0.9608
14.0917 4.6106 -2.1008 0.9419
13.9270 7.5154 -2.2423 0.9381
13.1967 10.5301 -2.3921 0.9341
3.3378 8.8296 -1.3375 0.9626
1.2390 13.2175 -1.8810 0.9478
0.0532 12.8210 -1.8166 0.9495
-1.3040 15.2737 -2.1720 0.9399
-2.8867 16.3753 -2.3560 0.9350
-3.0245 11.1977 -1.6434 0.9542
-8.3589 17.6436 -2.7663 0.9242
-7.8912 11.0284 -1.9214 0.9467
-14.0381 13.6419 -2.7735 0.9240
-15.7564 8.6720 -2.5483 0.9299
-15.9600 7.0093 -2.4698 0.9320
-15.6407 2.2977 -2.2399 0.9381
-15.2745 0.8647 -2.1677 0.9401
-13.6017 -2.9191 -1.9711 0.9453
-11.3268 -5.8876 -1.8087 0.9497
-10.4815 -6.6987 -1.7625 0.9510
-9.6056 -7.4241 -1.7201 0.9521
-8.7054 -8.0663 -1.6816 0.9532
-7.7865 -8.6281 -1.6467 0.9541
-6.8534 -9.1122 -1.6155 0.9550
-5.9103 -9.5212 -1.5878 0.9557
-4.0073 -10.1238 -1.5427 0.9570
-3.0531 -10.3218 -1.5251 0.9574
-2.1002 -10.4535 -1.5107 0.9578
0.7304 -10.4647 -1.4863 0.9585
1.6587 -10.3439 -1.4843 0.9586
5.2499 -9.2490 -1.5069 0.9579
6.1078 -8.8215 -1.5203 0.9576
7.7596 -7.7778 -1.5567 0.9566
8.5477 -7.1597 -1.5798 0.9560
10.0313 -5.7252 -1.6365 0.9544
11.3619 -4.0189 -1.7076 0.9525
11.9565 -3.0615 -1.7488 0.9514
8.7774 0.1517 -1.2438 0.9652
14.0933 5.5402 -2.1456 0.9407
13.3762 10.0114 -2.3673 0.9347
11.8592 10.6520 -2.2586 0.9376
8.1359 15.5629 -2.4882 0.9315
3.6975 8.9344 -1.3700 0.9617
2.9350 13.5208 -1.9604 0.9456
5.4649 -7.8327 -1.5734 0.9620
7.6003 -6.3196 -1.6283 0.9607
8.8757 -5.0234 -1.6801 0.9595
10.4845 -2.6444 -1.7813 0.9571
10.9190 -1.7369 -1.8214 0.9562
9.3782 -0.6428 -1.5486 0.9626
8.7561 0.1829 -1.4428 0.9651
12.0346 3.5760 -2.0682 0.9504
11.9930 4.7645 -2.1259 0.9490
11.1959 8.4426 -2.3100 0.9447
10.4025 9.4114 -2.3110 0.9447
8.3785 9.0651 -2.0335 0.9512
8.5532 11.0951 -2.3079 0.9448
7.7103 12.0977 -2.3633 0.9435
6.7475 13.0210 -2.4160 0.9423
4.4927 14.5510 -2.5088 0.9401
2.8966 13.5797 -2.2874 0.9453
1.6289 13.4143 -2.2261 0.9467
0.4018 12.7441 -2.1005 0.9496
-0.7263 12.5517 -2.0712 0.9503
-1.7749 11.9772 -1.9947 0.9521
-2.6727 11.0926 -1.8797 0.9548
-5.0744 15.0225 -2.6122 0.9377
-7.2961 10.8101 -2.1485 0.9485
-10.3316 12.6975 -2.6967 0.9358
-11.2114 11.5082 -2.6468 0.9369
-11.9411 10.2459 -2.5921 0.9382
-13.0680 1.0993 -2.1604 0.9482
-12.7560 -0.0688 -2.1014 0.9496
-11.8800 -2.2113 -1.9907 0.9522
-11.3361 -3.1782 -1.9395 0.9534
-9.3861 -5.6429 -1.8042 0.9566
-7.8948 -6.9234 -1.7299 0.9583
-6.3061 -7.9234 -1.6682 0.9598
-3.8180 -8.9239 -1.5990 0.9614
-1.2841 -9.3610 -1.5566 0.9624
0.3961 -9.3558 -1.5426 0.9627
2.0487 -9.1211 -1.5400 0.9628
3.6572 -8.6603 -1.5487 0.9626
7.3658 -6.5209 -1.6206 0.9609
9.2603 -4.5497 -1.6997 0.9590
9.8140 -3.7767 -1.7323 0.9583
11.1703 -1.1141 -1.8493 0.9555
8.7498 0.6947 -1.4460 0.9650
11.9085 5.5554 -2.1648 0.9481
11.6858 6.7814 -2.2258 0.9467
11.3437 8.0153 -2.2882 0.9452
10.8680 9.2370 -2.3497 0.9438
9.4930 9.6533 -2.2304 0.9466
8.8167 10.7324 -2.2882 0.9452
8.0164 11.7580 -2.3444 0.9439
7.0946 12.7110 -2.3981 0.9427
3.3043 13.4371 -2.2796 0.9454
2.0908 13.6664 -2.2776 0.9455
0.8114 12.9679 -2.1405 0.9487
-0.3424 12.7617 -2.1031 0.9496
-1.4201 12.1717 -2.0188 0.9515
-2.3474 11.2638 -1.8955 0.9544
-5.9155 14.6361 -2.6006 0.9380
-6.9216 9.0663 -1.8791 0.9548
-10.9231 11.9301 -2.6647 0.9365
-12.3357 9.3932 -2.5543 0.9391
-12.8149 8.0608 -2.4940 0.9405
-13.1468 6.7139 -2.4319 0.9419
-13.3377 5.3713 -2.3687 0.9434
-13.3960 4.0490 -2.3054 0.9448
-13.1538 1.5180 -2.1813 0.9477
-11.5317 -2.8511 -1.9569 0.9530
-10.9486 -3.7709 -1.9077 0.9541
-10.3126 -4.6178 -1.8614 0.9552
-8.1615 -6.7218 -1.7418 0.9580
-7.3847 -7.2803 -1.7083 0.9588
-5.7724 -8.1912 -1.6508 0.9602
-4.9455 -8.5467 -1.6267 0.9608
-4.1094 -8.8377 -1.6056 0.9613
-2.4225 -9.2321 -1.5724 0.9620
0.1063 -9.3733 -1.5442 0.9627
0.9397 -9.3041 -1.5406 0.9628
1.7649 -9.1780 -1.5397 0.9628
3.3823 -8.7563 -1.5464 0.9627
4.1702 -8.4611 -1.5540 0.9625
5.6931 -7.7016 -1.5778 0.9619
6.4229 -7.2369 -1.5940 0.9615
7.1278 -6.7152 -1.6133 0.9611
9.0583 -4.8043 -1.6891 0.9593
10.1507 -3.2405 -1.7554 0.9577
10.6237 -2.3723 -1.7932 0.9568
9.1063 -0.3741 -1.5014 0.9637
8.6977 0.4200 -1.4345 0.9653
9.6709 1.3389 -1.6084 0.9612
11.9592 5.1343 -2.1440 0.9486
11.7762 6.3547 -2.2044 0.9472
9.6987 9.2698 -2.2102 0.9471
9.0653 10.3633 -2.2683 0.9457
3.3216 8.7867 -1.5475 0.9626
3.8413 13.7673 -2.3546 0.9437
-1.0562 12.3710 -2.0454 0.9509
-3.0084 11.1381 -1.9007 0.9543
-5.4732 14.8497 -2.6072 0.9379
-6.7198 14.1837 -2.5856 0.9384
-7.6115 10.6375 -2.1548 0.9484
-10.6169 12.3422 -2.6820 0.9361
-12.1343 9.8481 -2.5745 0.9386
-13.0481 7.1814 -2.4536 0.9414
-13.2870 5.8354 -2.3907 0.9429
-13.3902 4.5043 -2.3274 0.9443
-12.9823 0.7349 -2.1421 0.9487
-12.2183 -1.4992 -2.0279 0.9513
-11.1572 -3.4602 -1.9244 0.9537
-7.6567 -7.0946 -1.7196 0.9586
-6.8656 -7.6077 -1.6882 0.9593
-3.5599 -8.9937 -1.5935 0.9615
-2.7157 -9.1813 -1.5773 0.9619
-1.0255 -9.3753 -1.5537 0.9625
2.2985 -9.0651 -1.5406 0.9628
3.8987 -8.5699 -1.5510 0.9626
4.6760 -8.2379 -1.5605 0.9623
5.4348 -7.8495 -1.5728 0.9620
6.8864 -6.9026 -1.6063 0.9612
7.5732 -6.3434 -1.6274 0.9607
8.2295 -5.7265 -1.6517 0.9602
8.8514 -5.0518 -1.6790 0.9595
9.4347 -4.3190 -1.7094 0.9588
9.9745 -3.5282 -1.7430 0.9580
10.4658 -2.6798 -1.7797 0.9571
9.5101 -0.6862 -1.5708 0.9621
8.7712 0.1516 -1.4452 0.9651
9.0591 0.9694 -1.5009 0.9637
12.0342 3.5288 -2.0660 0.9504
11.9967 4.7160 -2.1235 0.9491
11.8525 5.9296 -2.1833 0.9477
11.2139 8.3930 -2.3075 0.9448
8.5846 11.0533 -2.3056 0.9448
7.7467 12.0587 -2.3611 0.9436
3.6860 8.9065 -1.5879 0.9617
4.5420 14.5251 -2.5071 0.9402
5.5765 -6.6408 -1.6299 0.9653
7.3929 -5.1050 -1.6887 0.9641
8.4385 -3.8263 -1.7415 0.9630
8.8996 -3.1120 -1.7721 0.9624
9.3136 -2.3491 -1.8054 0.9617
9.6752 -1.5391 -1.8414 0.9609
9.9792 -0.6840 -1.8801 0.9601
10.4873 2.1206 -2.0111 0.9574
10.5016 3.1205 -2.0592 0.9564
10.4283 4.1429 -2.1091 0.9554
9.9956 6.2221 -2.2131 0.9532
9.1453 8.2741 -2.3181 0.9510
7.2710 9.4319 -2.2385 0.9527
5.6960 10.9919 -2.3270 0.9509
3.6101 8.8129 -1.7901 0.9620
2.9572 9.5777 -1.8841 0.9600
2.6998 12.6570 -2.4325 0.9487
-2.6587 11.0349 -2.1335 0.9549
-4.2301 12.5231 -2.4845 0.9476
-7.2038 10.6734 -2.4204 0.9489
-10.0944 8.6614 -2.5001 0.9473
-10.6198 7.5788 -2.4523 0.9483
-11.0228 6.4660 -2.4020 0.9493
-11.4723 4.2121 -2.2971 0.9515
-11.4818 2.0092 -2.1909 0.9537
-11.3390 0.9538 -2.1388 0.9547
-10.7982 -1.0258 -2.0388 0.9568
-10.4165 -1.9389 -1.9915 0.9578
-8.9190 -4.3302 -1.8636 0.9605
-8.3259 -5.0055 -1.8260 0.9612
-7.6963 -5.6188 -1.7911 0.9620
-6.3495 -6.6599 -1.7295 0.9632
-5.6418 -7.0887 -1.7029 0.9638
-1.1570 -8.4344 -1.6002 0.9659
-0.3981 -8.4627 -1.5924 0.9661
1.1066 -8.3584 -1.5848 0.9663
3.2969 -7.8070 -1.5929 0.9661
4.6856 -7.1796 -1.6114 0.9657
5.3510 -6.7884 -1.6247 0.9654
7.1968 -5.3061 -1.6806 0.9643
8.2684 -4.0624 -1.7316 0.9632
8.7448 -3.3653 -1.7612 0.9626
8.8299 0.7010 -1.6649 0.9646
10.4629 1.7804 -1.9949 0.9577
10.5063 2.7709 -2.0423 0.9567
10.3302 4.8191 -2.1426 0.9547
10.0993 5.8607 -2.1948 0.9536
9.7665 6.9008 -2.2477 0.9525
8.1108 8.2477 -2.1743 0.9540
5.1024 11.4330 -2.3533 0.9503
1.9708 12.8824 -2.4496 0.9483
-0.3427 12.7729 -2.4017 0.9493
-1.4184 12.1577 -2.3007 0.9514
-5.9573 11.6292 -2.4560 0.9482
-6.8903 10.9238 -2.4276 0.9488
-6.8983 9.0357 -2.1367 0.9548
-9.1940 10.0415 -2.5590 0.9461
-9.8836 9.0267 -2.5159 0.9470
-10.4515 7.9585 -2.4692 0.9479
-10.8968 6.8543 -2.4197 0.9490
-11.4273 4.6020 -2.3155 0.9511
-11.5213 3.4824 -2.2623 0.9522
-11.3989 1.3154 -2.1568 0.9544
-10.9143 -0.6966 -2.0556 0.9565
-10.5565 -1.6285 -2.0077 0.9575
-9.6494 -3.3234 -1.9183 0.9593
-7.2681 -5.9859 -1.7698 0.9624
-6.5901 -6.4970 -1.7394 0.9630
-5.8893 -6.9469 -1.7118 0.9636
-5.1701 -7.3364 -1.6870 0.9641
-3.6911 -7.9382 -1.6455 0.9650
-2.9383 -8.1523 -1.6288 0.9653
-2.1805 -8.3099 -1.6148 0.9656
-1.4205 -8.4119 -1.6035 0.9659
-0.6610 -8.4590 -1.5948 0.9661
0.0958 -8.4521 -1.5888 0.9662
0.8476 -8.3917 -1.5853 0.9663
1.5919 -8.2784 -1.5845 0.9663
2.3266 -8.1127 -1.5863 0.9662
4.4500 -7.3032 -1.6075 0.9658
5.7734 -6.5051 -1.6348 0.9652
6.9968 -5.5010 -1.6729 0.9644
7.5628 -4.9222 -1.6961 0.9639
8.0934 -4.2925 -1.7220 0.9634
8.5845 -3.6126 -1.7506 0.9628
9.4302 -2.1058 -1.8162 0.9614
9.7748 -1.2817 -1.8530 0.9607
10.0600 -0.4133 -1.8925 0.9598
10.4888 3.4318 -2.0743 0.9561
10.3874 4.4595 -2.1247 0.9550
10.1907 5.4991 -2.1765 0.9540
9.4921 7.5740 -2.2825 0.9518
8.9518 8.5560 -2.3275 0.9508
7.7262 8.8326 -2.2057 0.9534
4.2203 8.7202 -1.8209 0.9613
3.3013 8.7331 -1.7548 0.9627
1.2235 13.0521 -2.4640 0.9480
-1.0601 12.4160 -2.3422 0.9505
-2.9933 11.0820 -2.1576 0.9544
-4.5640 12.3829 -2.4806 0.9477
-5.6112 11.8439 -2.4634 0.9481
-5.2231 8.8786 -1.9362 0.9589
-7.4638 10.4311 -2.4109 0.9491
-8.9199 10.3695 -2.5710 0.9459
-10.7563 7.2402 -2.4371 0.9486
-11.1221 6.1213 -2.3862 0.9496
-11.5250 2.7616 -2.2276 0.9529
-11.2773 0.6384 -2.1231 0.9551
-11.0214 -0.3613 -2.0727 0.9561
-10.6885 -1.3115 -2.0241 0.9571
-10.2864 -2.2076 -1.9775 0.9581
-9.8231 -3.0464 -1.9331 0.9590
-7.4970 -5.7943 -1.7810 0.9622
-4.6921 -7.5587 -1.6722 0.9644
-0.9242 -8.4488 -1.5975 0.9660
-0.1661 -8.4606 -1.5906 0.9661
0.5876 -8.4187 -1.5862 0.9662
2.0731 -8.1761 -1.5854 0.9663
2.8003 -7.9762 -1.5889 0.9662
4.2121 -7.4206 -1.6038 0.9659
4.8918 -7.0652 -1.6152 0.9656
6.1852 -6.1997 -1.6461 0.9650
6.7929 -5.6898 -1.6655 0.9646
7.3703 -5.1287 -1.6877 0.9641
9.9682 -0.7193 -1.8785 0.9601
10.2115 0.1765 -1.9197 0.9593
9.1046 0.9742 -1.7211 0.9634
10.4849 2.0809 -2.0092 0.9574
10.5027 3.0797 -2.0572 0.9564
10.2700 5.1379 -2.1584 0.9543
10.0083 6.1801 -2.2109 0.9533
9.6434 7.2176 -2.2640 0.9522
9.1701 8.2366 -2.3168 0.9511
7.2988 9.3977 -2.2366 0.9527
6.5627 10.2157 -2.2822 0.9518
2.7441 12.6413 -2.4314 0.9487
6.6883 -4.6185 -1.7181 0.9673
8.0137 -2.8022 -1.7945 0.9659
8.3708 -2.1113 -1.8248 0.9653
9.1260 0.1906 -1.9295 0.9634
9.2565 1.0242 -1.9686 0.9626
9.3062 2.7653 -2.0521 0.9611
9.2157 3.6611 -2.0961 0.9603
9.0426 4.5646 -2.1411 0.9594
8.7831 5.4673 -2.1869 0.9586
7.9938 7.2322 -2.2787 0.9569
5.6582 8.8778 -2.2253 0.9579
4.9225 9.4990 -2.2615 0.9572
3.3936 8.2844 -1.8924 0.9641
-4.5405 10.3036 -2.3801 0.9550
-8.1526 8.3684 -2.4696 0.9534
-8.7325 7.4928 -2.4322 0.9540
-9.2107 6.5732 -2.3919 0.9548
-9.5863 5.6233 -2.3493 0.9556
-10.0344 3.6841 -2.2595 0.9572
-10.1131 2.7180 -2.2136 0.9581
-9.8282 -0.0530 -2.0775 0.9606
-9.5798 -0.9101 -2.0341 0.9614
-8.4644 -3.2118 -1.9137 0.9637
-7.9901 -3.8792 -1.8775 0.9643
-5.7311 -6.0113 -1.7556 0.9666
-5.1000 -6.4080 -1.7312 0.9671
-4.4508 -6.7505 -1.7092 0.9675
-3.7872 -7.0393 -1.6896 0.9678
-3.1125 -7.2749 -1.6726 0.9682
-2.4298 -7.4579 -1.6580 0.9684
-1.7420 -7.5890 -1.6459 0.9687
5.4369 -5.7565 -1.6737 0.9681
7.0059 -4.2569 -1.7328 0.9670
8.2523 -2.3555 -1.8140 0.9655
8.8502 -0.8827 -1.8800 0.9643
9.0656 -0.0915 -1.9164 0.9636
9.2188 0.7319 -1.9548 0.9629
9.3190 2.4577 -2.0372 0.9614
8.8831 5.1549 -2.1710 0.9589
8.5654 6.0522 -2.2169 0.9580
8.1569 6.9327 -2.2628 0.9572
7.6342 7.7630 -2.3015 0.9565
5.8954 8.6470 -2.2122 0.9581
5.1860 9.2915 -2.2493 0.9574
2.6450 10.7559 -2.3413 0.9557
1.6911 11.0537 -2.3637 0.9553
-0.3037 11.3181 -2.3933 0.9548
-1.3156 11.2766 -2.3998 0.9546
-3.2926 10.8445 -2.3956 0.9547
-5.9259 9.3948 -2.3479 0.9556
-7.9207 8.6508 -2.4793 0.9532
-8.5428 7.8021 -2.4455 0.9538
-9.0565 6.8962 -2.4062 0.9545
-9.7765 4.9928 -2.3205 0.9561
-9.9850 4.0211 -2.2753 0.9569
-10.1153 2.0948 -2.1835 0.9586
-9.6737 -0.6175 -2.0490 0.9611
-9.3815 -1.4472 -2.0065 0.9619
-9.0275 -2.2319 -1.9657 0.9627
-8.1596 -3.6537 -1.8898 0.9641
-7.1179 -4.8659 -1.8225 0.9654
-5.9450 -5.8610 -1.7647 0.9664
-4.6778 -6.6378 -1.7165 0.9673
-2.6673 -7.4003 -1.6628 0.9684
-1.2914 -7.6469 -1.6393 0.9688
0.7713 -7.6365 -1.6224 0.9691
1.4487 -7.5337 -1.6217 0.9691
2.1171 -7.3821 -1.6233 0.9691
2.7741 -7.1820 -1.6274 0.9690
3.4174 -6.9337 -1.6340 0.9689
4.0444 -6.6376 -1.6430 0.9687
5.8011 -5.4653 -1.6847 0.9679
7.3083 -3.8761 -1.7487 0.9667
8.1281 -2.5948 -1.8035 0.9657
8.4705 -1.8915 -1.8346 0.9651
8.7619 -1.1489 -1.8679 0.9645
9.3226 2.1523 -2.0224 0.9616
9.1716 3.9376 -2.1098 0.9600
8.9724 4.8417 -2.1551 0.9592
8.6857 5.7424 -2.2010 0.9583
6.7245 7.6874 -2.1589 0.9591
6.1230 8.4091 -2.1988 0.9584
5.4407 9.0755 -2.2367 0.9577
4.2213 8.7225 -2.0483 0.9612
2.0263 10.9624 -2.3565 0.9554
1.0489 11.1900 -2.3757 0.9551
0.0469 11.3052 -2.3897 0.9548
-3.9091 10.6061 -2.3893 0.9548
-8.3410 8.1055 -2.4585 0.9536
-9.6809 5.3282 -2.3358 0.9558
-10.0685 3.3869 -2.2455 0.9575
-10.0802 1.4809 -2.1536 0.9592
-9.9583 0.5637 -2.1084 0.9600
-8.3238 -3.4219 -1.9024 0.9639
-7.8362 -4.0732 -1.8668 0.9645
-6.1561 -5.7041 -1.7740 0.9663
-5.5398 -6.1387 -1.7479 0.9668
-4.9028 -6.5187 -1.7242 0.9672
-3.5814 -7.1171 -1.6842 0.9680
-2.9040 -7.3365 -1.6679 0.9683
-2.2194 -7.5036 -1.6540 0.9685
-1.5307 -7.6189 -1.6427 0.9687
-0.8404 -7.6831 -1.6337 0.9689
-0.1511 -7.6968 -1.6273 0.9690
0.5347 -7.6606 -1.6232 0.9691
1.2147 -7.5749 -1.6216 0.9691
1.8865 -7.4402 -1.6225 0.9691
2.5477 -7.2569 -1.6257 0.9690
5.6092 -5.6224 -1.6788 0.9681
6.1536 -5.1543 -1.6968 0.9677
6.6683 -4.6401 -1.7172 0.9673
7.9984 -2.8292 -1.7933 0.9659
8.9226 -0.6438 -1.8910 0.9641
9.2209 3.6249 -2.0943 0.9603
9.0512 4.5281 -2.1393 0.9595
2.3570 10.8583 -2.3487 0.9556
5.1475 -5.1226 -1.7068 0.9706
5.6388 -4.6887 -1.7235 0.9703
6.1013 -4.2131 -1.7426 0.9700
6.5315 -3.6967 -1.7639 0.9696
6.9263 -3.1406 -1.7874 0.9692
7.2819 -2.5463 -1.8130 0.9688
7.8606 -1.2504 -1.8706 0.9678
8.0758 -0.5535 -1.9024 0.9673
8.3374 0.9225 -1.9714 0.9661
8.3469 2.4802 -2.0465 0.9649
7.8247 4.8708 -2.1662 0.9628
7.4967 5.6530 -2.2067 0.9622
7.0891 6.4137 -2.2468 0.9615
5.5768 7.2341 -2.1467 0.9632
4.9855 7.8224 -2.1801 0.9626
4.3289 8.3536 -2.2113 0.9621
3.3879 8.2703 -2.1005 0.9639
1.1819 9.7331 -2.3043 0.9605
0.3108 9.8563 -2.3176 0.9603
-1.4533 9.8073 -2.3301 0.9601
-2.3213 9.6343 -2.3291 0.9601
-3.1634 9.3651 -2.3232 0.9602
-3.9679 9.0043 -2.3126 0.9604
-4.7241 8.5580 -2.2974 0.9606
-6.0552 7.4418 -2.2548 0.9613
-7.6856 6.5945 -2.3801 0.9592
-8.4717 4.9695 -2.3083 0.9604
-8.7328 4.1239 -2.2697 0.9611
-8.9977 2.4182 -2.1897 0.9624
-8.6001 -0.8170 -2.0303 0.9651
-7.6450 -2.9009 -1.9218 0.9670
-7.2299 -3.5102 -1.8889 0.9675
-5.7647 -5.0553 -1.8020 0.9690
-3.4598 -6.4308 -1.7162 0.9704
1.5416 -6.8632 -1.6532 0.9715
2.7481 -6.5075 -1.6602 0.9714
3.3314 -6.2624 -1.6671 0.9713
4.9709 -5.2632 -1.7015 0.9707
5.4716 -4.8439 -1.7175 0.9704
5.9444 -4.3827 -1.7357 0.9701
6.3862 -3.8803 -1.7562 0.9698
7.1632 -2.7566 -1.8039 0.9690
7.4913 -2.1383 -1.8309 0.9685
7.7739 -1.4848 -1.8601 0.9680
8.0072 -0.7986 -1.8912 0.9675
8.1869 -0.0826 -1.9242 0.9669
8.3647 2.2060 -2.0331 0.9651
7.6194 5.3838 -2.1927 0.9624
7.2395 6.1530 -2.2330 0.9617
6.7800 6.8945 -2.2726 0.9610
2.3162 9.4188 -2.2796 0.9609
-0.2652 9.8839 -2.3238 0.9602
-1.1485 9.8443 -2.3293 0.9601
-2.8751 9.4691 -2.3258 0.9602
-5.1874 8.2241 -2.2852 0.9608
-5.8437 7.6544 -2.2633 0.9612
-7.5137 6.8623 -2.3915 0.9590
-8.8564 3.5666 -2.2439 0.9615
-8.9728 1.0355 -2.1228 0.9636
-8.8594 0.2266 -2.0828 0.9642
-8.6779 -0.5539 -2.0437 0.9649
-8.4338 -1.3010 -2.0056 0.9655
-8.1322 -2.0106 -1.9688 0.9662
-7.7788 -2.6791 -1.9336 0.9668
-7.3786 -3.3040 -1.9001 0.9673
-6.4586 -4.4152 -1.8387 0.9684
-5.9483 -4.8990 -1.8111 0.9688
-4.2675 -6.0557 -1.7411 0.9700
-3.6701 -6.3427 -1.7223 0.9703
-2.4400 -6.7699 -1.6913 0.9709
-1.1828 -7.0039 -1.6694 0.9712
0.0800 -7.0482 -1.6566 0.9715
1.3281 -6.9065 -1.6529 0.9715
2.5424 -6.5821 -1.6583 0.9714
3.1309 -6.3524 -1.6644 0.9713
4.2580 -5.7602 -1.6835 0.9710
4.7914 -5.3986 -1.6964 0.9708
5.3010 -4.9941 -1.7117 0.9705
5.7838 -4.5473 -1.7291 0.9702
7.0396 -2.9625 -1.7950 0.9691
7.3825 -2.3568 -1.8213 0.9687
7.6813 -1.7152 -1.8497 0.9682
8.2736 0.3996 -1.9467 0.9665
8.3560 1.1569 -1.9826 0.9659
8.2025 3.5215 -2.0979 0.9640
7.3802 5.8889 -2.2190 0.9619
6.2447 7.1388 -2.2291 0.9618
4.7910 7.9917 -2.1899 0.9624
4.1154 8.5036 -2.2203 0.9619
3.0687 8.1178 -2.0396 0.9650
1.7730 9.5920 -2.2925 0.9607
-1.7213 9.7647 -2.3303 0.9601
-3.4145 9.2640 -2.3204 0.9602
-4.2053 8.8763 -2.3084 0.9604
-4.9447 8.4053 -2.2919 0.9607
-5.6237 7.8595 -2.2713 0.9611
-6.2348 7.2480 -2.2470 0.9615
-7.3315 7.1246 -2.4027 0.9589
-7.8288 6.3538 -2.3697 0.9594
-8.7953 3.8627 -2.2577 0.9613
-9.0091 2.1587 -2.1773 0.9626
-8.2429 -1.7690 -1.9814 0.9660
-7.9069 -2.4521 -1.9456 0.9666
-7.0945 -3.6877 -1.8792 0.9677
-6.6284 -4.2362 -1.8488 0.9682
-6.1286 -4.7367 -1.8204 0.9687
-5.5997 -5.1886 -1.7942 0.9691
-3.2728 -6.5037 -1.7111 0.9705
-0.7699 -7.0391 -1.6642 0.9713
-0.1385 -7.0540 -1.6582 0.9714
0.4901 -7.0222 -1.6544 0.9715
1.7293 -6.8205 -1.6537 0.9715
2.3351 -6.6513 -1.6567 0.9715
2.9285 -6.4371 -1.6621 0.9714
4.6090 -5.5289 -1.6917 0.9709
6.5149 -3.7182 -1.7630 0.9696
6.9111 -3.1637 -1.7864 0.9693
7.8508 -1.2778 -1.8694 0.9678
8.0681 -0.5822 -1.9011 0.9673
8.2307 0.1423 -1.9347 0.9667
8.2529 3.2443 -2.0841 0.9642
7.1071 6.3836 -2.2452 0.9615
6.6092 7.0994 -2.2796 0.9609
5.5992 7.2094 -2.1454 0.9632
5.0107 7.7998 -2.1788 0.9626
4.3566 8.3335 -2.2100 0.9621
3.4263 8.2790 -2.1058 0.9639
4.2631 -5.0767 -1.7164 0.9730
4.7360 -4.7131 -1.7300 0.9728
5.6041 -3.8698 -1.7633 0.9723
7.1771 -1.1417 -1.8817 0.9704
7.3627 -0.5047 -1.9108 0.9700
7.0476 4.3870 -2.1494 0.9663
4.4508 6.9834 -2.1441 0.9664
3.8587 7.4462 -2.1715 0.9659
2.5277 8.1866 -2.2184 0.9652
1.8025 8.4506 -2.2372 0.9649
-0.5068 8.7586 -2.2715 0.9644
-1.2879 8.6912 -2.2749 0.9643
-3.5194 7.9864 -2.2597 0.9646
-4.1932 7.5963 -2.2466 0.9648
-4.8177 7.1380 -2.2297 0.9650
-5.3859 6.6193 -2.2095 0.9654
-6.3788 6.5476 -2.3668 0.9629
-7.5809 4.4469 -2.2756 0.9643
-7.8283 3.6968 -2.2415 0.9649
-7.9992 2.9369 -2.2063 0.9654
-8.0953 2.1757 -2.1704 0.9660
-8.0747 0.6792 -2.0981 0.9671
-7.9649 -0.0430 -2.0623 0.9676
-7.2893 -2.0437 -1.9601 0.9692
-6.5957 -3.2022 -1.8984 0.9702
-6.1896 -3.7212 -1.8699 0.9706
-5.7498 -4.1977 -1.8432 0.9710
-5.2803 -4.6306 -1.8184 0.9714
-4.2680 -5.3626 -1.7746 0.9721
-3.7325 -5.6610 -1.7557 0.9724
-3.1818 -5.9141 -1.7388 0.9726
-2.6192 -6.1219 -1.7240 0.9729
-2.0475 -6.2846 -1.7114 0.9731
-0.3060 -6.5048 -1.6861 0.9735
0.8515 -6.4318 -1.6798 0.9735
1.4219 -6.3305 -1.6799 0.9735
3.0708 -5.7725 -1.6929 0.9733
3.5916 -5.5033 -1.7015 0.9732
4.0938 -5.1935 -1.7122 0.9730
4.5747 -4.8437 -1.7250 0.9728
6.2295 -3.0607 -1.7971 0.9717
6.5608 -2.5248 -1.8201 0.9714
7.3040 -0.7285 -1.9005 0.9701
7.5557 0.5999 -1.9625 0.9692
7.5801 1.9991 -2.0297 0.9681
7.3526 3.4300 -2.1007 0.9670
6.5006 5.5250 -2.2089 0.9654
6.0770 6.1796 -2.2440 0.9648
4.6432 6.8104 -2.1342 0.9665
3.4440 7.7169 -2.1880 0.9657
2.7708 8.0777 -2.2111 0.9653
-0.2351 8.7619 -2.2694 0.9644
-1.0179 8.7243 -2.2742 0.9644
-2.5484 8.3933 -2.2711 0.9644
-4.6072 7.3042 -2.2360 0.9649
-6.6982 6.1175 -2.3487 0.9632
-7.4771 4.7032 -2.2871 0.9642
-7.7512 3.9585 -2.2535 0.9647
-7.9485 3.2010 -2.2186 0.9652
-8.0703 2.4393 -2.1829 0.9658
-7.8602 -0.5017 -2.0393 0.9680
-7.0817 -2.4391 -1.9393 0.9695
-6.7279 -3.0126 -1.9086 0.9700
-6.3345 -3.5460 -1.8796 0.9705
-5.9058 -4.0373 -1.8523 0.9709
-5.4462 -4.4854 -1.8268 0.9713
-4.4496 -5.2486 -1.7816 0.9720
-2.8155 -6.0549 -1.7289 0.9728
-1.6706 -6.3666 -1.7042 0.9732
-1.0901 -6.4553 -1.6951 0.9733
-0.5079 -6.4997 -1.6880 0.9734
0.6521 -6.4569 -1.6803 0.9735
2.8863 -5.8562 -1.6904 0.9734
3.4130 -5.6013 -1.6983 0.9733
4.8761 -4.5938 -1.7346 0.9727
5.3159 -4.1794 -1.7508 0.9724
5.7269 -3.7273 -1.7692 0.9722
6.1060 -3.2385 -1.7896 0.9718
6.4502 -2.7144 -1.8119 0.9715
6.7561 -2.1568 -1.8362 0.9711
7.2392 -0.9492 -1.8904 0.9703
7.4095 -0.3044 -1.9201 0.9698
7.2203 3.8962 -2.1243 0.9667
6.6312 5.2912 -2.1965 0.9656
6.2317 5.9562 -2.2320 0.9650
5.7532 6.5770 -2.2625 0.9645
4.8287 6.6315 -2.1240 0.9667
3.6667 7.5765 -2.1794 0.9658
3.0092 7.9603 -2.2034 0.9654
1.5741 8.5160 -2.2423 0.9648
0.8134 8.6770 -2.2565 0.9646
0.0363 8.7548 -2.2668 0.9645
-0.7468 8.7471 -2.2730 0.9644
-1.5254 8.6534 -2.2751 0.9643
-3.7307 7.8745 -2.2561 0.9646
-6.5325 6.3482 -2.3585 0.9631
-6.9861 5.6699 -2.3296 0.9635
-7.3640 4.9568 -2.2984 0.9640
-7.6649 4.2186 -2.2653 0.9645
-7.8887 3.4645 -2.2308 0.9650
-8.1102 1.9433 -2.1593 0.9661
-8.1128 1.1918 -2.1231 0.9667
-8.0477 0.4556 -2.0870 0.9672
-7.9190 -0.2596 -2.0515 0.9678
-7.7308 -0.9485 -2.0166 0.9683
-7.1943 -2.2312 -1.9503 0.9694
-6.8553 -2.8182 -1.9191 0.9698
-6.0582 -3.8718 -1.8616 0.9707
-5.6089 -4.3350 -1.8354 0.9711
-5.1311 -4.7544 -1.8112 0.9715
-4.6288 -5.1292 -1.7889 0.9719
-0.1277 -6.5049 -1.6846 0.9735
0.4521 -6.4768 -1.6810 0.9735
1.0271 -6.4053 -1.6796 0.9736
2.1535 -6.1339 -1.6832 0.9735
2.7000 -5.9350 -1.6882 0.9734
4.2435 -5.0905 -1.7159 0.9730
4.7174 -4.7285 -1.7294 0.9728
5.9783 -3.4120 -1.7823 0.9720
6.6546 -2.3539 -1.8276 0.9713
6.9336 -1.7754 -1.8531 0.9709
7.3562 -0.5308 -1.9096 0.9700
7.4928 0.1295 -1.9403 0.9695
7.5990 1.5081 -2.0059 0.9685
7.5622 2.2175 -2.0404 0.9680
7.4613 2.9331 -2.0758 0.9674
7.2941 3.6491 -2.1117 0.9669
7.0585 4.3586 -2.1479 0.9663
5.9334 6.3734 -2.2546 0.9647
5.0539 6.5073 -2.1333 0.9665
1.8324 8.4414 -2.2365 0.9649
3.4898 -5.0018 -1.7266 0.9750
5.5322 -3.1311 -1.7996 0.9739
6.1416 -2.1476 -1.8419 0.9733
6.3900 -1.6117 -1.8656 0.9730
6.8733 0.1436 -1.9462 0.9718
6.9369 0.7676 -1.9758 0.9714
6.9007 2.0505 -2.0379 0.9705
6.6309 3.3472 -2.1028 0.9696
6.4041 3.9864 -2.1355 0.9691
6.1148 4.6110 -2.1681 0.9687
4.8604 6.3048 -2.2536 0.9674
3.4766 6.7089 -2.1391 0.9691
2.8938 7.0644 -2.1612 0.9688
1.6192 7.5910 -2.1973 0.9682
0.9414 7.7526 -2.2108 0.9681
0.2472 7.8414 -2.2210 0.9679
-1.8449 7.6571 -2.2297 0.9678
-2.5155 7.4470 -2.2252 0.9679
-5.7433 5.8953 -2.3300 0.9664
-6.1794 5.3022 -2.3050 0.9667
-6.8520 4.0194 -2.2488 0.9675
-7.0858 3.3461 -2.2183 0.9679
-7.2512 2.6623 -2.1868 0.9684
-7.3496 1.9753 -2.1545 0.9689
-7.3828 1.2919 -2.1218 0.9693
-7.3534 0.6186 -2.0891 0.9698
-7.2646 -0.0392 -2.0566 0.9703
-7.1197 -0.6764 -2.0246 0.9707
-6.9227 -1.2886 -1.9934 0.9712
-6.6774 -1.8721 -1.9632 0.9716
-6.3879 -2.4239 -1.9342 0.9720
-4.8666 -4.2678 -1.8324 0.9735
-4.4146 -4.6304 -1.8111 0.9738
-3.9411 -4.9518 -1.7916 0.9740
-3.4494 -5.2316 -1.7740 0.9743
-0.8232 -6.0009 -1.7147 0.9751
1.3184 -5.8695 -1.7030 0.9753
2.8456 -5.3491 -1.7152 0.9751
3.7904 -4.8086 -1.7333 0.9749
5.4127 -3.2888 -1.7930 0.9740
6.3084 -1.8006 -1.8572 0.9731
6.5300 -1.2472 -1.8820 0.9727
6.8392 -0.0690 -1.9362 0.9720
6.9207 0.5495 -1.9654 0.9716
6.9496 1.1825 -1.9957 0.9711
6.9232 1.8259 -2.0269 0.9707
6.4898 3.7661 -2.1242 0.9693
6.2222 4.3965 -2.1568 0.9688
5.8921 5.0078 -2.1891 0.9684
5.5000 5.5928 -2.2206 0.9679
4.1906 6.1465 -2.1060 0.9695
2.4919 7.2647 -2.1742 0.9686
1.8489 7.5186 -2.1919 0.9683
-0.2109 7.8592 -2.2257 0.9678
-0.9128 7.8238 -2.2299 0.9678
-1.6074 7.7130 -2.2304 0.9678
-2.2857 7.5280 -2.2272 0.9678
-4.6715 6.1190 -2.1793 0.9685
-5.5759 6.0899 -2.3375 0.9663
-6.0355 5.5122 -2.3140 0.9666
-6.4288 4.8953 -2.2875 0.9670
-7.0124 3.5812 -2.2291 0.9678
-7.2015 2.9002 -2.1978 0.9682
-7.3785 1.5281 -2.1331 0.9692
-7.3705 0.8506 -2.1004 0.9696
-7.3019 0.1868 -2.0678 0.9701
-6.7677 -1.6732 -1.9736 0.9714
-6.4930 -2.2363 -1.9441 0.9719
-6.1767 -2.7658 -1.9159 0.9723
-3.6218 -5.1393 -1.7799 0.9742
-2.6049 -5.6021 -1.7490 0.9746
-0.4707 -6.0243 -1.7106 0.9752
0.0683 -6.0260 -1.7060 0.9753
1.6595 -5.7865 -1.7041 0.9753
2.1733 -5.6265 -1.7075 0.9752
2.6749 -5.4273 -1.7129 0.9752
3.1619 -5.1893 -1.7203 0.9751
4.0822 -4.5995 -1.7410 0.9748
4.9137 -3.8632 -1.7695 0.9744
5.9465 -2.5024 -1.8264 0.9735
6.2220 -1.9863 -1.8490 0.9732
6.4580 -1.4421 -1.8732 0.9729
6.7992 -0.2793 -1.9264 0.9721
6.8983 0.3331 -1.9551 0.9717
6.9457 0.9616 -1.9850 0.9713
6.9388 1.6019 -2.0160 0.9708
6.7519 2.8987 -2.0801 0.9699
6.3221 4.1797 -2.1455 0.9690
6.0136 4.7985 -2.1780 0.9685
5.6429 5.3934 -2.2098 0.9681
5.2111 5.9572 -2.2406 0.9676
4.5140 6.1994 -2.1710 0.9686
3.8551 6.4305 -2.1225 0.9693
3.3025 6.8238 -2.1461 0.9690
2.7072 7.1616 -2.1674 0.9687
1.4137 7.6481 -2.2018 0.9682
0.0326 7.8537 -2.2234 0.9679
-0.6698 7.8446 -2.2288 0.9678
-2.0529 7.6004 -2.2287 0.9678
-2.7158 7.3684 -2.2231 0.9679
-3.3483 7.0675 -2.2139 0.9680
-3.9428 6.7023 -2.2013 0.9682
-4.4924 6.2785 -2.1855 0.9684
-5.8838 5.7177 -2.3226 0.9665
-6.6495 4.4759 -2.2692 0.9672
-7.3666 1.7652 -2.1445 0.9690
-7.3803 1.0842 -2.1117 0.9695
-7.3323 0.4151 -2.0791 0.9699
-7.2260 -0.2369 -2.0467 0.9704
-7.0647 -0.8668 -2.0150 0.9708
-5.5732 -3.5618 -1.8724 0.9729
-3.7922 -5.0420 -1.7860 0.9741
-3.2955 -5.3090 -1.7690 0.9744
-2.2629 -5.7168 -1.7406 0.9748
-1.7326 -5.8577 -1.7293 0.9749
-0.6578 -6.0141 -1.7127 0.9752
-0.1184 -6.0300 -1.7074 0.9752
0.4191 -6.0049 -1.7041 0.9753
0.9524 -5.9390 -1.7028 0.9753
1.4789 -5.8327 -1.7034 0.9753
1.9964 -5.6865 -1.7061 0.9753
2.5025 -5.5008 -1.7108 0.9752
2.9949 -5.2762 -1.7175 0.9751
3.9284 -4.7125 -1.7368 0.9748
4.3646 -4.3748 -1.7494 0.9746
6.1307 -2.1686 -1.8409 0.9733
6.5894 -1.0725 -1.8899 0.9726
6.7533 -0.4873 -1.9168 0.9722
6.8696 0.1187 -1.9450 0.9718
6.9353 0.7421 -1.9746 0.9714
6.9475 1.3788 -2.0052 0.9710
6.8013 2.6737 -2.0688 0.9701
6.4144 3.9609 -2.1342 0.9691
5.3676 5.7657 -2.2301 0.9678
4.8816 6.2855 -2.2530 0.9675
4.0358 6.2822 -2.1138 0.9694
2.2982 7.3495 -2.1799 0.9685
3.2470 -4.6538 -1.7454 0.9765
4.8066 -3.3191 -1.7966 0.9759
5.1323 -2.9047 -1.8139 0.9756
5.4269 -2.4607 -1.8328 0.9754
6.3390 0.1324 -1.9502 0.9738
6.3915 1.2924 -2.0057 0.9731
6.3410 1.8842 -2.0346 0.9727
6.2368 2.4777 -2.0641 0.9723
6.0775 3.0678 -2.0940 0.9719
5.8620 3.6490 -2.1238 0.9715
5.5900 4.2153 -2.1534 0.9711
4.8784 5.2782 -2.2107 0.9704
3.6871 5.7852 -2.1101 0.9717
3.1597 6.0974 -2.1123 0.9717
2.6276 6.4145 -2.1321 0.9714
1.4680 6.8821 -2.1644 0.9710
0.2239 7.1019 -2.1855 0.9707
-1.0456 7.0560 -2.1940 0.9706
-1.6703 6.9324 -2.1933 0.9706
-3.4123 6.1815 -2.1718 0.9709
-3.9259 5.8168 -2.1585 0.9711
-5.6185 4.8209 -2.2771 0.9695
-5.9615 4.2544 -2.2527 0.9698
-6.4647 3.0529 -2.1990 0.9705
-6.6239 2.4320 -2.1704 0.9709
-6.7224 1.8067 -2.1410 0.9713
-6.7615 1.1832 -2.1113 0.9717
-6.7433 0.5672 -2.0814 0.9721
-6.6705 -0.0360 -2.0517 0.9725
-6.3726 -1.1862 -1.9937 0.9732
-5.8942 -2.2365 -1.9390 0.9740
-5.2635 -3.1644 -1.8890 0.9746
-4.8999 -3.5772 -1.8660 0.9749
-4.0935 -4.2936 -1.8246 0.9755
-2.2536 -5.2673 -1.7622 0.9763
-1.7635 -5.4129 -1.7510 0.9765
-0.7663 -5.5861 -1.7343 0.9767
-0.2641 -5.6141 -1.7287 0.9768
0.7353 -5.5539 -1.7232 0.9768
1.7125 -5.3411 -1.7252 0.9768
2.1869 -5.1786 -1.7290 0.9767
2.6488 -4.9793 -1.7347 0.9767
3.0959 -4.7438 -1.7423 0.9766
3.9358 -4.1672 -1.7631 0.9763
4.3237 -3.8278 -1.7762 0.9761
4.6869 -3.4556 -1.7910 0.9759
5.0227 -3.0518 -1.8077 0.9757
5.3284 -2.6179 -1.8260 0.9755
5.6014 -2.1556 -1.8460 0.9752
5.8388 -1.6666 -1.8676 0.9749
6.0379 -1.1532 -1.8907 0.9746
6.1959 -0.6180 -1.9152 0.9743
6.3101 -0.0637 -1.9410 0.9739
6.3779 0.5064 -1.9679 0.9736
6.2792 2.2720 -2.0539 0.9724
5.9431 3.4488 -2.1135 0.9717
5.6907 4.0210 -2.1432 0.9713
2.8162 6.3104 -2.1255 0.9715
2.2614 6.5927 -2.1437 0.9713
0.4432 7.0826 -2.1827 0.9707
-0.1909 7.1166 -2.1897 0.9706
-1.4552 6.9828 -2.1939 0.9706
-2.0696 6.8163 -2.1910 0.9706
-2.6619 6.5861 -2.1849 0.9707
-5.0644 5.5313 -2.3067 0.9691
-5.8494 4.4541 -2.2614 0.9697
-6.1529 3.8702 -2.2358 0.9700
-6.3951 3.2659 -2.2087 0.9704
-6.5756 2.6481 -2.1804 0.9708
-6.7018 0.1714 -2.0620 0.9723
-6.5947 -0.4209 -2.0325 0.9727
-6.4380 -0.9931 -2.0036 0.9731
-5.3825 -3.0131 -1.8973 0.9745
-4.2400 -4.1801 -1.8314 0.9754
-3.8108 -4.4950 -1.8126 0.9756
-3.3626 -4.7715 -1.7954 0.9759
-2.8985 -5.0092 -1.7801 0.9761
-1.9343 -5.3669 -1.7547 0.9764
-0.4383 -5.6088 -1.7304 0.9767
0.0636 -5.6114 -1.7260 0.9768
0.5631 -5.5753 -1.7236 0.9768
1.0578 -5.5010 -1.7230 0.9768
2.4902 -5.0525 -1.7325 0.9767
2.9427 -4.8295 -1.7395 0.9766
4.9095 -3.1953 -1.8017 0.9758
5.7607 -1.8391 -1.8600 0.9750
5.9734 -1.3339 -1.8825 0.9747
6.3598 0.3071 -1.9584 0.9737
6.3816 1.4733 -2.0145 0.9730
6.1939 2.6592 -2.0733 0.9722
5.7846 3.8244 -2.1329 0.9714
5.4953 4.3849 -2.1624 0.9710
4.7501 5.4303 -2.2191 0.9703
2.4575 6.5010 -2.1377 0.9713
1.8824 6.7466 -2.1544 0.9711
1.2814 6.9325 -2.1684 0.9709
0.0295 7.1124 -2.1876 0.9707
-1.2384 7.0252 -2.1941 0.9706
-1.8587 6.8814 -2.1924 0.9706
-2.4594 6.6729 -2.1874 0.9707
-3.0335 6.4029 -2.1792 0.9708
-4.9028 5.6996 -2.3124 0.9690
-5.3461 5.1952 -2.2929 0.9693
-5.7300 4.6504 -2.2698 0.9696
-6.5200 2.8635 -2.1903 0.9706
-6.7267 0.3808 -2.0723 0.9722
-6.6376 -0.2176 -2.0427 0.9726
-5.8067 -2.3871 -1.9310 0.9741
-3.9619 -4.3902 -1.8189 0.9756
-2.1043 -5.3161 -1.7586 0.9764
-1.1138 -5.5438 -1.7392 0.9766
-0.1103 -5.6149 -1.7273 0.9768
0.3903 -5.5922 -1.7242 0.9768
1.3773 -5.4320 -1.7236 0.9768
2.3299 -5.1214 -1.7306 0.9767
2.7876 -4.9109 -1.7369 0.9766
3.2296 -4.6645 -1.7450 0.9765
4.4378 -3.7171 -1.7805 0.9761
5.4157 -2.4792 -1.8320 0.9754
6.0908 -0.9914 -1.8981 0.9745
6.3890 0.6837 -1.9763 0.9735
6.3441 1.8603 -2.0335 0.9727
6.2421 2.4538 -2.0630 0.9723
6.0850 3.0442 -2.0927 0.9719
5.8718 3.6258 -2.1226 0.9715
5.6020 4.1928 -2.1522 0.9711
4.8949 5.2579 -2.2096 0.9704
4.4569 5.7386 -2.2349 0.9700
3.7275 5.8023 -2.1212 0.9716
3.1804 6.0836 -2.1114 0.9717
2.0851 6.6680 -2.1489 0.9712
3.4271 -4.0812 -1.7715 0.9778
3.8014 -3.7831 -1.7827 0.9776
4.4812 -3.0944 -1.8102 0.9773
4.7817 -2.7063 -1.8264 0.9771
5.4958 -1.3862 -1.8840 0.9764
5.6629 -0.9008 -1.9060 0.9761
5.7904 -0.3969 -1.9293 0.9758
5.9172 0.6547 -1.9789 0.9752
5.8592 1.7410 -2.0318 0.9746
5.7566 2.2869 -2.0590 0.9742
5.6033 2.8285 -2.0864 0.9739
5.3986 3.3605 -2.1138 0.9736
4.8353 4.3746 -2.1675 0.9729
4.4783 4.8453 -2.1932 0.9726
4.0734 5.2839 -2.2177 0.9723
2.8924 5.5816 -2.0897 0.9738
0.7788 6.4137 -2.1476 0.9731
0.2044 6.4821 -2.1558 0.9730
-1.5240 6.3254 -2.1628 0.9729
-2.0787 6.1540 -2.1592 0.9730
-3.1162 5.6451 -2.1434 0.9732
-3.7665 5.5805 -2.2380 0.9720
-4.7733 4.8996 -2.2738 0.9716
-5.1451 4.4146 -2.2535 0.9718
-5.7284 3.3603 -2.2076 0.9724
-5.9371 2.8037 -2.1825 0.9727
-6.1870 1.6628 -2.1296 0.9734
-6.1597 -0.0332 -2.0475 0.9744
-6.0512 -0.5748 -2.0205 0.9747
-5.8974 -1.0977 -1.9940 0.9750
-5.7012 -1.5984 -1.9682 0.9754
-5.4658 -2.0740 -1.9433 0.9757
-4.5563 -3.3264 -1.8752 0.9765
-2.5514 -4.7423 -1.7900 0.9776
-2.1038 -4.9172 -1.7778 0.9777
-0.2468 -5.2475 -1.7462 0.9781
0.2218 -5.2381 -1.7427 0.9781
0.6874 -5.1923 -1.7410 0.9782
1.1479 -5.1105 -1.7411 0.9782
2.0441 -4.8403 -1.7465 0.9781
2.4753 -4.6531 -1.7519 0.9780
2.8923 -4.4317 -1.7591 0.9779
3.6740 -3.8900 -1.7786 0.9777
4.0342 -3.5714 -1.7910 0.9775
4.6807 -2.8440 -1.8206 0.9772
4.9622 -2.4380 -1.8378 0.9770
5.2125 -2.0059 -1.8565 0.9767
5.6093 -1.0714 -1.8983 0.9762
5.7508 -0.5736 -1.9211 0.9759
5.8511 -0.0590 -1.9451 0.9756
5.9080 0.4691 -1.9700 0.9753
5.9193 1.0072 -1.9959 0.9750
5.8832 1.5516 -2.0225 0.9747
5.7979 2.0979 -2.0495 0.9743
5.4754 3.1774 -2.1043 0.9737
5.2371 3.7004 -2.1315 0.9733
3.7772 5.5402 -2.2289 0.9721
3.0835 5.5246 -2.1031 0.9737
2.5766 5.7735 -2.1016 0.9737
0.9755 6.3762 -2.1441 0.9732
-0.1743 6.4944 -2.1595 0.9730
-1.8885 6.2200 -2.1608 0.9730
-4.1870 5.4844 -2.2936 0.9713
-4.6325 5.0596 -2.2803 0.9715
-5.0220 4.5866 -2.2608 0.9717
-5.3595 4.0811 -2.2392 0.9720
-5.6430 3.5495 -2.2160 0.9723
-6.2211 1.2884 -2.1118 0.9736
-6.1862 0.1582 -2.0570 0.9743
-6.0941 -0.3890 -2.0298 0.9746
-5.9557 -0.9188 -2.0031 0.9749
-5.7739 -1.4275 -1.9771 0.9752
-5.2924 -2.3699 -1.9275 0.9759
-4.9992 -2.7985 -1.9044 0.9761
-4.6752 -3.1960 -1.8825 0.9764
-4.3237 -3.5610 -1.8619 0.9767
-3.5507 -4.1882 -1.8252 0.9771
-3.1351 -4.4487 -1.8091 0.9773
-2.7040 -4.6730 -1.7946 0.9775
-2.2601 -4.8607 -1.7818 0.9777
-1.8063 -5.0115 -1.7707 0.9778
-1.3449 -5.1253 -1.7614 0.9779
0.0595 -5.2455 -1.7437 0.9781
0.5264 -5.2122 -1.7414 0.9782
1.4448 -5.0377 -1.7421 0.9782
3.5441 -3.9932 -1.7748 0.9777
3.9118 -3.6854 -1.7865 0.9776
4.8680 -2.5819 -1.8317 0.9770
5.3579 -1.7105 -1.8696 0.9766
5.7063 -0.7482 -1.9130 0.9760
5.9207 0.8197 -1.9868 0.9751
5.9012 1.3624 -2.0132 0.9748
5.8331 1.9085 -2.0401 0.9745
5.5460 2.9928 -2.0948 0.9738
5.0537 4.0325 -2.1491 0.9731
4.3592 4.9834 -2.2008 0.9725
3.9391 5.4097 -2.2244 0.9722
2.7460 5.6741 -2.0954 0.9738
1.7203 6.1654 -2.1277 0.9734
1.1704 6.3318 -2.1404 0.9732
-0.5533 6.4808 -2.1621 0.9730
-1.6960 6.2790 -2.1620 0.9730
-2.2446 6.0901 -2.1575 0.9730
-4.0180 5.6154 -2.2952 0.9713
-4.4859 5.2149 -2.2866 0.9714
-5.2485 4.2597 -2.2469 0.9719
-5.5509 3.7364 -2.2242 0.9722
-5.7983 3.1913 -2.2000 0.9725
-5.9898 2.6306 -2.1746 0.9728
-6.2324 0.9156 -2.0939 0.9738
-6.1314 -0.2010 -2.0392 0.9745
-5.8416 -1.2537 -1.9860 0.9751
-5.1045 -2.6533 -1.9123 0.9760
-4.7908 -3.0618 -1.8899 0.9763
-4.4485 -3.4382 -1.8689 0.9766
-3.2811 -4.3625 -1.8145 0.9773
-2.8550 -4.5994 -1.7995 0.9774
-1.9646 -4.9634 -1.7744 0.9778
-1.5056 -5.0900 -1.7644 0.9779
-1.0406 -5.1797 -1.7562 0.9780
-0.5723 -5.2325 -1.7497 0.9781
0.3649 -5.2279 -1.7420 0.9782
1.2876 -5.0782 -1.7414 0.9782
2.1776 -4.7866 -1.7480 0.9781
2.6047 -4.5888 -1.7539 0.9780
3.0168 -4.3572 -1.7616 0.9779
3.7868 -3.7957 -1.7822 0.9777
4.1399 -3.4676 -1.7951 0.9775
5.0424 -2.3083 -1.8434 0.9769
5.2826 -1.8686 -1.8626 0.9767
5.4883 -1.4053 -1.8832 0.9764
5.7860 -0.4175 -1.9283 0.9758
5.8733 0.1015 -1.9526 0.9755
5.9134 1.1736 -2.0040 0.9749
5.8623 1.7190 -2.0307 0.9746
5.6104 2.8068 -2.0853 0.9739
5.1537 3.8573 -2.1398 0.9732
4.8486 4.3550 -2.1664 0.9729
4.4936 4.8269 -2.1921 0.9726
4.0906 5.2670 -2.2168 0.9723
2.9114 5.5691 -2.0889 0.9739
2.4237 5.8566 -2.1069 0.9736
1.9059 6.0950 -2.1227 0.9734
3.5605 -3.5433 -1.7963 0.9789
3.8885 -3.2334 -1.8085 0.9787
4.4717 -2.5308 -1.8375 0.9784
4.9420 -1.7281 -1.8722 0.9780
5.3952 -0.3698 -1.9339 0.9773
5.4702 0.1143 -1.9566 0.9770
5.4941 1.1109 -2.0045 0.9765
5.4397 1.6164 -2.0293 0.9762
3.3359 5.2340 -2.2196 0.9740
2.2118 5.3995 -2.0866 0.9755
1.2327 5.7792 -2.1132 0.9752
0.7156 5.8936 -2.1231 0.9751
-0.3449 5.9610 -2.1353 0.9750
-0.8761 5.9123 -2.1374 0.9749
-1.9093 5.6525 -2.1336 0.9750
-2.3992 5.4445 -2.1277 0.9750
-2.9180 5.2861 -2.1593 0.9747
-3.5629 5.2788 -2.2775 0.9733
-4.0032 4.9200 -2.2683 0.9734
-4.3940 4.5103 -2.2518 0.9736
-4.7396 4.0668 -2.2333 0.9738
-5.0374 3.5949 -2.2131 0.9741
-5.4828 2.5892 -2.1683 0.9746
-5.6290 2.0667 -2.1444 0.9748
-5.7155 -0.0309 -2.0439 0.9760
-5.4824 -1.0205 -1.9942 0.9766
-5.0903 -1.9315 -1.9470 0.9771
-4.5617 -2.7425 -1.9034 0.9776
-3.5639 -3.7381 -1.8470 0.9783
-2.7958 -4.2403 -1.8163 0.9787
-1.5434 -4.7373 -1.7817 0.9791
-1.1095 -4.8335 -1.7735 0.9792
-0.6714 -4.8948 -1.7668 0.9792
-0.2315 -4.9212 -1.7618 0.9793
0.6448 -4.8704 -1.7569 0.9793
1.9170 -4.5394 -1.7621 0.9793
2.7112 -4.1543 -1.7740 0.9791
3.4417 -3.6440 -1.7925 0.9789
3.7774 -3.3441 -1.8041 0.9788
4.3782 -2.6602 -1.8320 0.9785
4.6386 -2.2790 -1.8482 0.9783
5.0680 -1.4466 -1.8847 0.9779
5.2323 -0.9993 -1.9049 0.9776
5.3599 -0.5346 -1.9263 0.9774
5.4488 -0.0550 -1.9486 0.9771
5.5024 0.9363 -1.9960 0.9766
5.2485 2.4484 -2.0711 0.9757
5.0704 2.9424 -2.0964 0.9754
4.8450 3.4234 -2.1215 0.9751
4.5728 3.8866 -2.1461 0.9748
3.4885 5.1168 -2.2146 0.9740
1.9019 5.5447 -2.0962 0.9754
1.4085 5.7275 -2.1092 0.9753
0.8965 5.8599 -2.1199 0.9751
0.3717 5.9396 -2.1282 0.9750
-1.2193 5.8510 -2.1373 0.9749
-2.2319 5.5223 -2.1300 0.9750
-3.3994 5.3894 -2.2787 0.9733
-4.2635 4.6565 -2.2578 0.9735
-4.9396 3.7614 -2.2203 0.9740
-5.2052 3.2741 -2.1990 0.9742
-5.4202 2.7680 -2.1764 0.9745
-5.5841 2.2488 -2.1528 0.9748
-5.6970 1.7219 -2.1283 0.9750
-5.7594 1.1928 -2.1033 0.9753
-5.7726 0.6662 -2.0780 0.9756
-5.7382 0.1468 -2.0527 0.9759
-5.6581 -0.3612 -2.0275 0.9762
-5.5348 -0.8538 -2.0027 0.9765
-5.3708 -1.3279 -1.9785 0.9768
-4.9316 -2.2083 -1.9323 0.9773
-4.3634 -2.9829 -1.8901 0.9778
-2.9336 -4.1629 -1.8212 0.9786
-2.5315 -4.3750 -1.8076 0.9788
-1.2606 -4.8041 -1.7761 0.9791
-0.8237 -4.8775 -1.7689 0.9792
-0.3841 -4.9160 -1.7634 0.9793
0.0558 -4.9198 -1.7595 0.9793
0.4938 -4.8891 -1.7573 0.9793
1.3551 -4.7252 -1.7579 0.9793
1.7741 -4.5930 -1.7607 0.9793
2.1823 -4.4277 -1.7653 0.9792
2.5776 -4.2302 -1.7715 0.9792
2.9577 -4.0011 -1.7793 0.9791
3.3204 -3.7412 -1.7888 0.9790
3.9845 -3.1327 -1.8125 0.9787
4.2813 -2.7865 -1.8267 0.9785
4.5515 -2.4140 -1.8424 0.9784
5.0029 -1.5971 -1.8780 0.9779
5.3199 -0.6976 -1.9187 0.9775
5.4225 -0.2228 -1.9408 0.9772
5.4850 0.2649 -1.9638 0.9769
5.5055 0.7622 -1.9876 0.9767
5.4138 1.7713 -2.0370 0.9761
5.1375 2.7723 -2.0876 0.9755
4.9285 3.2584 -2.1128 0.9752
4.6725 3.7283 -2.1377 0.9749
4.0231 4.5991 -2.1851 0.9744
3.6332 4.9897 -2.2073 0.9741
3.1964 5.3317 -2.2230 0.9739
2.5819 5.3349 -2.1195 0.9751
2.0678 5.4701 -2.0912 0.9755
1.5819 5.6697 -2.1050 0.9753
1.0757 5.8198 -2.1165 0.9752
-0.5082 5.9519 -2.1362 0.9749
-1.5576 5.7667 -2.1361 0.9749
-3.1436 5.3437 -2.2171 0.9740
-3.7040 5.1765 -2.2763 0.9733
-4.5049 4.3777 -2.2463 0.9737
-5.5331 2.4300 -2.1611 0.9747
-5.7735 0.8482 -2.0868 0.9755
-5.5823 -0.6849 -2.0113 0.9764
-5.4321 -1.1658 -1.9868 0.9767
-5.2429 -1.6260 -1.9630 0.9770
-5.0176 -2.0627 -1.9400 0.9772
-4.7590 -2.4737 -1.9180 0.9775
-4.1538 -3.2105 -1.8774 0.9779
-3.8131 -3.5331 -1.8590 0.9782
-3.4507 -3.8237 -1.8419 0.9784
-2.6725 -4.3053 -1.8121 0.9787
-1.8406 -4.6502 -1.7885 0.9790
-0.9756 -4.8560 -1.7712 0.9792
-0.5367 -4.9066 -1.7651 0.9793
0.3423 -4.9036 -1.7578 0.9793
0.7778 -4.8505 -1.7567 0.9793
1.2077 -4.7633 -1.7573 0.9793
1.6299 -4.6426 -1.7596 0.9793
2.0421 -4.4887 -1.7635 0.9793
2.8277 -4.0841 -1.7764 0.9791
3.5468 -3.5552 -1.7959 0.9789
4.1813 -2.9096 -1.8216 0.9786
4.4610 -2.5460 -1.8368 0.9784
4.9337 -1.7452 -1.8715 0.9780
5.1221 -1.3115 -1.8908 0.9778
5.4953 1.0906 -2.0035 0.9765
5.4427 1.5960 -2.0283 0.9762
5.3442 2.1009 -2.0535 0.9759
4.7666 3.5675 -2.1291 0.9750
3.7731 4.8581 -2.1997 0.9742
3.3540 5.2209 -2.2191 0.9740
1.7530 5.6059 -2.1004 0.9754
1.2533 5.7735 -2.1127 0.9752
2.6727 -3.8306 -1.7899 0.9802
3.0180 -3.5939 -1.7984 0.9801
4.9419 -0.7861 -1.9176 0.9788
5.0454 -0.3458 -1.9380 0.9786
5.1116 0.1068 -1.9593 0.9783
5.1389 0.5686 -1.9813 0.9781
5.0707 1.5067 -2.0271 0.9776
4.9729 1.9756 -2.0506 0.9773
4.8317 2.4390 -2.0741 0.9771
4.6468 2.8926 -2.0976 0.9768
4.4184 3.3318 -2.1207 0.9766
3.4823 4.5172 -2.1857 0.9759
3.0928 4.8526 -2.2052 0.9757
2.6632 5.1392 -2.2182 0.9755
2.1281 5.1951 -2.1514 0.9762
1.6025 5.1903 -2.0817 0.9770
0.6611 5.4448 -2.1019 0.9768
0.1734 5.4997 -2.1086 0.9767
-1.2924 5.3641 -2.1145 0.9766
-2.2525 5.1114 -2.1406 0.9764
-3.3005 4.8902 -2.2609 0.9750
-5.2271 1.9191 -2.1339 0.9764
-5.3664 0.9391 -2.0878 0.9769
-2.3042 0.1938 -0.8861 0.9901
-2.3039 -0.2189 -0.8869 0.9901
-5.1165 -0.9524 -1.9944 0.9780
-4.9548 -1.3892 -1.9720 0.9782
-4.5290 -2.1989 -1.9294 0.9787
-3.6743 -3.2222 -1.8728 0.9793
-3.3426 -3.5059 -1.8563 0.9795
-0.6314 -4.6032 -1.7805 0.9803
1.4124 -4.4053 -1.7728 0.9804
1.8031 -4.2696 -1.7761 0.9803
2.1826 -4.1029 -1.7809 0.9803
2.5491 -3.9059 -1.7874 0.9802
3.2338 -3.4239 -1.8048 0.9800
3.5478 -3.1409 -1.8158 0.9799
4.3503 -2.1374 -1.8575 0.9795
4.7472 -1.3550 -1.8919 0.9791
4.8977 -0.9354 -1.9108 0.9789
5.1339 0.4076 -1.9736 0.9782
5.1349 0.8737 -1.9961 0.9779
4.8856 2.2792 -2.0660 0.9772
4.5025 3.1814 -2.1127 0.9767
4.2461 3.6088 -2.1355 0.9764
3.6088 4.3930 -2.1787 0.9759
2.8166 5.0463 -2.2147 0.9755
2.3406 5.2447 -2.2009 0.9757
1.7588 5.1275 -2.0773 0.9770
1.3019 5.2940 -2.0892 0.9769
0.8283 5.4143 -2.0990 0.9768
0.3433 5.4863 -2.1066 0.9767
-0.6394 5.4808 -2.1146 0.9766
-1.6017 5.2755 -2.1128 0.9767
-2.0615 5.1005 -2.1082 0.9767
-2.6564 5.1855 -2.2327 0.9754
-3.5670 4.6723 -2.2526 0.9751
-3.9442 4.3078 -2.2382 0.9753
-4.5754 3.4840 -2.2038 0.9757
-5.0278 2.5676 -2.1635 0.9761
-5.1839 2.0877 -2.1416 0.9763
-5.2930 1.5999 -2.1190 0.9766
-5.3555 1.1091 -2.0959 0.9768
-2.3017 0.2656 -0.8879 0.9901
-5.0150 -1.2399 -1.9797 0.9781
-4.8301 -1.6636 -1.9577 0.9784
-4.3632 -2.4425 -1.9162 0.9788
-3.7844 -3.1168 -1.8788 0.9792
-3.4599 -3.4110 -1.8619 0.9794
-3.1154 -3.6749 -1.8462 0.9796
-2.3774 -4.1087 -1.8191 0.9799
-1.9889 -4.2773 -1.8077 0.9800
-0.3613 -4.6236 -1.7773 0.9803
0.8727 -4.5382 -1.7710 0.9804
1.2748 -4.4450 -1.7721 0.9804
2.4236 -3.9776 -1.7849 0.9802
2.7803 -3.7611 -1.7924 0.9802
4.2695 -2.2644 -1.8520 0.9795
4.8493 -1.0829 -1.9041 0.9789
4.9775 -0.6527 -1.9238 0.9787
5.0697 -0.2083 -1.9444 0.9785
5.1242 0.2475 -1.9660 0.9783
5.1392 0.7115 -1.9882 0.9780
4.9343 2.1184 -2.0578 0.9773
4.3398 3.4629 -2.1277 0.9765
3.7308 4.2650 -2.1715 0.9760
2.5249 5.2172 -2.2212 0.9755
1.9478 5.1526 -2.1109 0.9767
0.5125 5.4669 -2.1042 0.9768
-0.4692 5.4961 -2.1139 0.9766
-0.9582 5.4354 -2.1151 0.9766
-1.4383 5.3251 -2.1138 0.9766
-1.9042 5.1665 -2.1101 0.9767
-2.9949 5.0910 -2.2635 0.9750
-3.8178 4.4382 -2.2435 0.9752
-4.1691 4.0514 -2.2278 0.9754
-4.4784 3.6346 -2.2103 0.9756
-4.7434 3.1929 -2.1912 0.9758
-4.9627 2.7313 -2.1708 0.9760
-5.3391 1.2793 -2.1039 0.9768
-5.3715 0.7891 -2.0806 0.9770
-5.0708 -1.0883 -1.9875 0.9780
-4.8981 -1.5190 -1.9653 0.9783
-4.1854 -2.6749 -1.9035 0.9789
-3.8918 -3.0080 -1.8850 0.9792
-1.7297 -4.3699 -1.8010 0.9801
-1.3264 -4.4844 -1.7921 0.9802
0.7317 -4.5630 -1.7710 0.9804
1.5332 -4.3670 -1.7737 0.9804
3.0044 -3.6040 -1.7981 0.9801
3.6398 -3.0487 -1.8195 0.9799
3.9249 -2.7312 -1.8324 0.9797
4.7969 -1.2283 -1.8975 0.9790
5.1097 0.0883 -1.9584 0.9783
5.1385 0.5499 -1.9804 0.9781
4.9777 1.9568 -2.0496 0.9773
3.8480 4.1334 -2.1641 0.9761
3.4972 4.5030 -2.1849 0.9759
2.6812 5.1287 -2.2178 0.9755
2.1523 5.2008 -2.1570 0.9762
1.6208 5.1833 -2.0812 0.9770
1.1583 5.3359 -2.0924 0.9769
3.4387 -2.8593 -1.8303 0.9809
3.7047 -2.5582 -1.8426 0.9807
3.9470 -2.2339 -1.8562 0.9806
4.1636 -1.8879 -1.8711 0.9804
4.6391 -0.7379 -1.9225 0.9799
4.7920 0.1001 -1.9617 0.9795
4.8141 0.5327 -1.9823 0.9793
4.7983 0.9703 -2.0036 0.9791
4.7433 1.4095 -2.0252 0.9788
3.2411 4.2043 -2.1727 0.9773
2.8768 4.5138 -2.1907 0.9771
2.4813 4.7883 -2.2073 0.9770
2.0528 5.0112 -2.2163 0.9769
1.5622 5.0595 -2.1672 0.9774
1.0633 4.9850 -2.0861 0.9782
0.6136 5.0533 -2.0834 0.9782
-3.0647 4.5407 -2.2421 0.9766
-3.4390 4.2265 -2.2301 0.9767
-3.7785 3.8785 -2.2161 0.9769
-4.0804 3.5011 -2.2005 0.9770
-4.5623 2.6762 -2.1648 0.9774
-4.9632 1.3339 -2.1034 0.9780
-2.0143 0.1694 -0.8273 0.9913
-2.0164 -0.1916 -0.8290 0.9913
-2.0636 -0.3841 -0.8591 0.9910
-4.4619 -1.6931 -1.9532 0.9796
-4.2499 -2.0633 -1.9335 0.9798
-3.7435 -2.7330 -1.8970 0.9802
-2.8154 -3.5374 -1.8503 0.9806
-2.4711 -3.7478 -1.8373 0.9808
-2.1134 -3.9281 -1.8256 0.9809
-1.7446 -4.0778 -1.8153 0.9810
-0.2053 -4.3649 -1.7884 0.9813
0.1845 -4.3586 -1.7855 0.9813
0.5721 -4.3212 -1.7840 0.9813
0.9553 -4.2531 -1.7840 0.9813
1.3320 -4.1546 -1.7856 0.9813
1.7002 -4.0261 -1.7887 0.9813
