ply
format ascii 1.0
element vertex 1596
property float32 x
property float32 y
property float32 z
property float32 I
end_header
-6.8760 9.2887 -1.9039 0.9542
-9.1854 7.2108 -1.9238 0.9538
-11.2140 5.9363 -2.0903 0.9499
-11.7423 4.9303 -2.0980 0.9497
-12.1562 3.8696 -2.1016 0.9496
-12.6623 -1.7653 -2.1062 0.9495
-11.1775 -6.0466 -2.0935 0.9498
-9.8720 -7.8947 -2.0824 0.9500
-2.4883 -3.4256 -0.6975 0.9830
-1.8280 -3.0574 -0.5868 0.9857
-0.9235 -3.3257 -0.5686 0.9861
-1.1216 -12.1333 -2.0073 0.9518
1.0430 -12.0269 -1.9887 0.9522
3.1353 -11.5447 -1.9708 0.9527
4.1347 -11.1700 -1.9622 0.9529
5.0933 -10.7113 -1.9539 0.9531
9.6514 -6.4746 -1.9146 0.9540
10.9564 -3.6658 -1.9033 0.9542
11.4096 -1.6567 -1.8993 0.9543
11.5164 0.3973 -1.8983 0.9544
10.6890 4.4169 -1.9053 0.9542
9.0288 5.7940 -1.7673 0.9574
7.8983 7.3464 -1.7770 0.9572
7.2344 8.0474 -1.7827 0.9571
4.7561 7.6957 -1.4904 0.9640
3.1085 10.5889 -1.8180 0.9562
2.1193 10.6623 -1.7909 0.9569
-0.8065 11.2109 -1.8516 0.9555
-2.8121 10.9904 -1.8689 0.9551
-3.9515 6.9253 -1.3135 0.9682
-8.2314 8.2127 -1.9155 0.9540
-10.2022 5.7906 -1.9326 0.9536
-11.5849 5.2697 -2.0967 0.9497
-12.0310 4.2228 -2.1005 0.9496
-12.6208 2.0222 -2.1057 0.9495
-12.7885 -0.2533 -2.1072 0.9495
-12.5270 -2.5196 -2.1050 0.9495
-12.2380 -3.6230 -2.1026 0.9496
5.7826 -8.6000 -1.9479 0.9587
7.7841 -6.7017 -1.9306 0.9591
8.3305 -5.9658 -1.9259 0.9592
9.8246 -2.6569 -1.9130 0.9594
10.1263 -0.8673 -1.9103 0.9595
10.1616 0.0397 -1.9100 0.9595
10.1193 0.9463 -1.9103 0.9595
9.8036 2.7335 -1.9130 0.9594
9.5320 3.6016 -1.9153 0.9594
8.1015 4.8556 -1.7753 0.9623
7.6524 5.5711 -1.7792 0.9622
7.1423 6.2469 -1.7835 0.9621
5.3231 6.6709 -1.6041 0.9659
3.0086 9.1976 -1.8189 0.9614
-0.4053 9.8248 -1.8482 0.9608
-2.1625 9.6747 -1.8633 0.9605
-3.8781 9.2087 -1.8781 0.9601
-4.4044 6.7627 -1.5169 0.9677
-6.2453 7.9381 -1.8985 0.9597
-8.7248 5.3112 -1.9199 0.9593
-10.9261 2.0953 -2.0911 0.9557
-11.0765 1.1128 -2.0924 0.9557
-11.1344 0.1201 -2.0930 0.9557
-10.9715 -1.8596 -2.0916 0.9557
-10.7523 -2.8285 -2.0898 0.9558
-10.0496 -4.6811 -2.0838 0.9559
-9.0194 -6.3657 -2.0750 0.9561
-8.3938 -7.1266 -2.0697 0.9562
-3.3799 -3.4335 -0.9056 0.9806
-2.5208 -3.0656 -0.7460 0.9840
-2.0112 -2.9470 -0.6706 0.9856
-1.0403 -3.0290 -0.6020 0.9870
-0.7753 -3.1480 -0.6094 0.9869
-0.5304 -3.4596 -0.6579 0.9859
-0.6689 -10.6376 -2.0034 0.9575
3.9136 -9.6884 -1.9640 0.9584
4.7450 -9.2667 -1.9568 0.9585
6.2739 -8.2201 -1.9437 0.9588
6.9611 -7.6043 -1.9377 0.9589
8.1580 -6.2128 -1.9274 0.9591
8.6602 -5.4478 -1.9231 0.9592
9.4566 -3.8082 -1.9162 0.9594
9.7458 -2.9454 -1.9137 0.9594
10.1585 -0.2588 -1.9100 0.9595
10.0475 1.5515 -1.9109 0.9595
9.3083 4.1705 -1.9172 0.9593
8.2353 4.6126 -1.7742 0.9623
7.8070 5.3400 -1.7778 0.9622
7.3166 6.0294 -1.7820 0.9621
6.7673 6.6757 -1.7867 0.9620
5.6591 6.6797 -1.6455 0.9650
4.7806 6.7888 -1.5607 0.9668
4.8026 8.3070 -1.8035 0.9617
3.2733 9.0939 -1.8167 0.9614
2.4583 9.3857 -1.8237 0.9613
-2.7458 9.5534 -1.8684 0.9604
-3.6013 9.3068 -1.8757 0.9602
-4.1272 6.7636 -1.4893 0.9683
-4.7320 6.3924 -1.4949 0.9681
-7.3951 6.9570 -1.9084 0.9595
-8.5586 5.5610 -1.9184 0.9593
-10.8567 2.4146 -2.0905 0.9557
-11.0372 1.4374 -2.0921 0.9557
-11.1256 0.4471 -2.0929 0.9557
-9.7386 -5.2682 -2.0812 0.9559
-9.2097 -6.1028 -2.0766 0.9560
-8.6071 -6.8831 -2.0715 0.9561
-7.9366 -7.6025 -2.0657 0.9563
-1.7677 -2.9565 -0.6475 0.9861
-1.1278 -2.9946 -0.6015 0.9871
-0.8637 -3.1103 -0.6067 0.9869
-0.0302 -10.6294 -1.9979 0.9577
0.9146 -10.5467 -1.9898 0.9578
2.7525 -10.1350 -1.9740 0.9582
4.4761 -9.4132 -1.9592 0.9585
6.0361 -8.4097 -1.9457 0.9587
9.3453 -4.0864 -1.9171 0.9593
9.6589 -3.2317 -1.9144 0.9594
9.8979 -2.3544 -1.9123 0.9594
9.7190 3.0332 -1.9137 0.9594
9.0176 4.7083 -1.9121 0.9594
7.9548 5.1047 -1.7766 0.9623
7.4845 5.8072 -1.7806 0.9622
6.9542 6.4683 -1.7851 0.9621
4.9904 6.6621 -1.5646 0.9667
3.5347 8.9828 -1.8144 0.9615
2.7295 9.2976 -1.8213 0.9613
1.8965 9.5413 -1.8285 0.9612
0.1719 9.8052 -1.8433 0.9609
-0.7065 9.8215 -1.8508 0.9607
-3.3222 9.3965 -1.8733 0.9602
-4.1633 9.0977 -1.8806 0.9601
-3.9540 6.9297 -1.4996 0.9680
-5.7556 8.2727 -1.8943 0.9598
-6.4924 7.7521 -1.9006 0.9597
-7.1806 7.1642 -1.9065 0.9596
-8.3850 5.8055 -1.9169 0.9593
-8.8897 5.0456 -1.9213 0.9593
-10.0916 4.5904 -2.0839 0.9559
-10.7775 2.7315 -2.0898 0.9558
-10.9879 1.7606 -2.0916 0.9557
-11.1068 0.7736 -2.0927 0.9557
-11.1329 -0.2205 -2.0930 0.9557
-10.6567 -3.1548 -2.0890 0.9558
-9.8955 -4.9831 -2.0825 0.9559
5.1561 -7.6682 -1.9533 0.9629
6.4015 -6.5933 -1.9425 0.9631
6.9473 -5.9813 -1.9378 0.9632
7.4370 -5.3260 -1.9336 0.9633
7.8674 -4.6323 -1.9299 0.9634
8.2357 -3.9054 -1.9267 0.9634
8.9470 -1.5799 -1.9205 0.9635
9.0481 -0.7749 -1.9196 0.9636
9.0797 0.0354 -1.9193 0.9636
9.0418 0.8455 -1.9196 0.9636
8.9344 1.6496 -1.9205 0.9635
8.5147 3.2172 -1.9240 0.9635
7.2443 4.3419 -1.7853 0.9661
6.8317 4.9736 -1.7862 0.9660
6.3746 5.5754 -1.7901 0.9660
4.7077 7.1208 -1.8044 0.9657
3.3883 7.8933 -1.8157 0.9655
1.9446 8.4269 -1.8281 0.9653
1.1892 8.5972 -1.8346 0.9651
-0.3603 8.7346 -1.8479 0.9649
-1.9208 8.5934 -1.8613 0.9646
-3.6185 6.8179 -1.6316 0.9689
-4.1684 6.4004 -1.6145 0.9693
-5.5356 7.0361 -1.8924 0.9641
-6.1588 6.5326 -1.8978 0.9640
-6.7346 5.9727 -1.9028 0.9639
-9.1627 3.5343 -2.0759 0.9606
-9.4530 2.7060 -2.0784 0.9606
-9.6653 1.8535 -2.0803 0.9606
-9.7976 0.9843 -2.0814 0.9605
-9.7052 -1.6449 -2.0807 0.9606
-9.5123 -2.5023 -2.0791 0.9606
-9.2408 -3.3373 -2.0768 0.9606
-8.8935 -4.1426 -2.0739 0.9607
-8.4738 -4.9111 -2.0703 0.9607
-7.4340 -6.3117 -2.0614 0.9609
-2.9360 -2.9826 -0.8847 0.9830
-2.3887 -2.9050 -0.7950 0.9847
-1.9803 -2.9018 -0.7426 0.9857
-1.6304 -2.9181 -0.7066 0.9864
-0.2385 -3.7929 -0.8033 0.9846
1.9100 -9.1760 -1.9812 0.9624
2.7116 -8.9378 -1.9743 0.9625
3.4864 -8.6310 -1.9676 0.9627
4.2288 -8.2586 -1.9612 0.9628
4.9335 -7.8241 -1.9552 0.9629
6.2103 -6.7842 -1.9442 0.9631
8.1216 -4.1477 -1.9277 0.9634
8.4469 -3.4016 -1.9248 0.9635
8.7065 -2.6313 -1.9226 0.9635
9.0225 -1.0405 -1.9198 0.9635
9.0770 -0.2313 -1.9193 0.9636
9.0619 0.5795 -1.9194 0.9636
8.8238 2.1832 -1.9214 0.9635
8.6022 2.9646 -1.9233 0.9635
8.3140 3.7250 -1.9257 0.9634
7.8814 4.4144 -1.9095 0.9637
6.0387 5.9570 -1.7930 0.9659
4.2812 7.4051 -1.8081 0.9656
2.1888 8.3566 -1.8260 0.9653
-1.6656 8.6360 -1.8591 0.9647
-3.1965 8.2605 -1.8723 0.9644
-3.6251 7.3434 -1.7311 0.9671
-4.7320 6.3924 -1.6812 0.9680
-6.5508 6.1628 -1.9012 0.9639
-7.0919 5.5674 -1.9058 0.9638
-7.5770 4.9232 -1.9100 0.9637
-9.6042 2.1360 -2.0797 0.9606
-9.8408 0.3955 -2.0818 0.9605
-9.8369 -0.4841 -2.0818 0.9605
-9.7511 -1.3594 -2.0811 0.9605
-9.0159 -3.8815 -2.0749 0.9607
-8.6196 -4.6629 -2.0715 0.9607
-7.6221 -6.0954 -2.0630 0.9609
-3.1171 -2.9859 -0.9124 0.9825
-1.7419 -2.9133 -0.7175 0.9862
-1.4120 -2.9266 -0.6869 0.9868
-1.1057 -2.9359 -0.6631 0.9873
-0.8216 -2.9589 -0.6491 0.9875
-0.5787 -3.1531 -0.6776 0.9870
-0.3265 -3.5321 -0.7498 0.9856
-0.0268 -9.4514 -1.9979 0.9621
0.8136 -9.3821 -1.9906 0.9622
1.6416 -9.2389 -1.9835 0.9624
2.4507 -9.0238 -1.9765 0.9625
3.9886 -8.3881 -1.9633 0.9627
4.7062 -7.9736 -1.9571 0.9629
5.3828 -7.4995 -1.9513 0.9630
6.0136 -6.9698 -1.9459 0.9631
6.5945 -6.3890 -1.9409 0.9632
7.1215 -5.7616 -1.9363 0.9632
7.5912 -5.0925 -1.9322 0.9633
8.0006 -4.3869 -1.9287 0.9634
8.6285 -2.8869 -1.9233 0.9635
8.4160 3.4776 -1.9249 0.9635
8.0687 4.2129 -1.9241 0.9635
7.1027 4.5579 -1.7839 0.9661
5.6805 6.3189 -1.7961 0.9659
4.4923 7.2689 -1.8062 0.9657
3.8378 7.6644 -1.8119 0.9656
2.4306 8.2793 -1.8239 0.9653
0.9269 8.6402 -1.8368 0.9651
0.1528 8.7198 -1.8435 0.9650
-1.4096 8.6709 -1.8569 0.9647
-2.9491 8.3413 -1.8701 0.9645
-4.4502 6.3964 -1.6471 0.9686
-5.7540 6.8704 -1.8943 0.9640
-6.9199 5.7688 -1.9044 0.9638
-9.2707 3.2539 -2.0768 0.9606
-9.8243 0.6843 -2.0817 0.9605
-9.4280 -2.7911 -2.0784 0.9606
-9.1303 -3.6167 -2.0759 0.9606
5.2324 -6.4533 -1.9526 0.9664
5.7734 -5.9464 -1.9479 0.9665
7.1000 -4.1805 -1.9364 0.9667
7.7089 -2.8442 -1.9312 0.9668
7.9243 -2.1430 -1.9293 0.9668
8.1698 -0.6997 -1.9271 0.9669
8.1641 0.7635 -1.9271 0.9669
8.0668 1.4895 -1.9279 0.9669
7.9073 2.2048 -1.9293 0.9668
7.4059 3.5829 -1.9335 0.9668
7.0447 4.2223 -1.9303 0.9668
6.1642 4.4876 -1.7920 0.9692
5.7505 5.0296 -1.7955 0.9691
4.7869 5.9990 -1.8038 0.9690
2.4130 7.3768 -1.8241 0.9686
-1.0269 7.8200 -1.8536 0.9681
-1.7261 7.7221 -1.8597 0.9680
-2.4158 7.5614 -1.8656 0.9679
-3.5502 6.6892 -1.7798 0.9694
-5.5233 5.8586 -1.8924 0.9675
-6.9379 4.2234 -1.9089 0.9672
-8.2084 3.1663 -2.0677 0.9645
-8.4674 2.4239 -2.0700 0.9645
-8.7748 0.8815 -2.0727 0.9644
-8.7926 -0.6921 -2.0729 0.9644
-8.6923 -1.4733 -2.0720 0.9644
-8.5202 -2.2414 -2.0706 0.9644
-7.9681 -3.7115 -2.0659 0.9645
-7.1576 -5.0517 -2.0590 0.9646
-3.3259 -2.8238 -1.0254 0.9822
-1.9575 -2.8684 -0.8162 0.9858
-0.9956 -2.8990 -0.7204 0.9875
-0.7152 -2.9040 -0.7029 0.9878
-0.4740 -3.0915 -0.7351 0.9872
-0.2172 -3.4537 -0.8133 0.9859
0.5090 -4.3726 -1.0346 0.9821
2.4417 -8.0480 -1.9766 0.9660
4.4466 -7.0519 -1.9593 0.9663
5.0447 -6.6096 -1.9542 0.9664
5.6006 -6.1181 -1.9494 0.9665
6.1103 -5.5814 -1.9450 0.9666
7.3303 -3.7436 -1.9344 0.9667
7.8602 -2.3755 -1.9298 0.9668
8.0344 -1.6634 -1.9283 0.9668
8.1824 0.5233 -1.9270 0.9669
8.1057 1.2516 -1.9276 0.9669
7.9666 1.9711 -1.9288 0.9668
7.7658 2.6764 -1.9305 0.9668
7.5046 3.3624 -1.9327 0.9668
4.9571 5.8511 -1.8023 0.9690
4.4264 6.2858 -1.8068 0.9689
3.8583 6.6736 -1.8117 0.9688
1.9707 7.5238 -1.8279 0.9685
1.2956 7.6939 -1.8337 0.9684
0.3760 4.8425 -1.1415 0.9802
-0.0931 7.8524 -1.8456 0.9682
-0.7959 7.8383 -1.8517 0.9681
-1.4969 7.7613 -1.8577 0.9680
-2.1904 7.6211 -1.8637 0.9679
-3.5318 7.1545 -1.8752 0.9677
-4.6922 6.3386 -1.8535 0.9681
-6.7907 4.4123 -1.9033 0.9673
-8.6023 1.9132 -2.0711 0.9644
-8.7333 -1.2175 -2.0724 0.9644
-8.3653 -2.7462 -2.0693 0.9645
-2.9850 -2.8593 -0.9715 0.9832
-1.7165 -2.8709 -0.7861 0.9863
-1.3923 -2.8858 -0.7530 0.9869
0.3751 -4.3254 -1.0204 0.9823
1.4775 -8.3153 -1.9849 0.9659
2.2065 -8.1245 -1.9786 0.9660
2.9136 -7.8710 -1.9725 0.9661
3.5935 -7.5572 -1.9667 0.9662
5.4227 -6.2849 -1.9509 0.9665
6.4248 -5.1980 -1.9423 0.9666
7.2207 -3.9592 -1.9354 0.9667
7.9840 -1.8991 -1.9288 0.9668
8.1868 -0.4495 -1.9270 0.9669
8.1938 0.2827 -1.9269 0.9669
8.1379 1.0129 -1.9273 0.9669
8.0192 1.7358 -1.9283 0.9668
7.8385 2.4463 -1.9299 0.9668
6.0280 4.6770 -1.7931 0.9691
5.5981 5.2069 -1.7968 0.9691
4.6052 6.1479 -1.8053 0.9689
2.8363 7.2080 -1.8205 0.9687
1.5195 7.6445 -1.8318 0.9685
0.8340 7.7745 -1.8377 0.9684
-1.2669 7.7936 -1.8557 0.9681
-2.6488 7.4920 -1.8676 0.9679
-3.6562 6.4077 -1.7339 0.9701
-5.1613 6.1627 -1.8892 0.9675
-5.7046 5.6917 -1.8939 0.9674
-6.2038 5.1717 -1.8982 0.9674
-8.3048 2.9149 -2.0686 0.9645
-8.5402 2.1645 -2.0706 0.9644
-8.7985 0.6128 -2.0729 0.9644
-8.8190 -0.1746 -2.0731 0.9644
-8.7664 -0.9606 -2.0727 0.9644
-8.4451 -2.5001 -2.0699 0.9645
-7.8470 -3.9515 -2.0649 0.9645
4.2265 -6.2858 -1.9612 0.9692
5.2526 -5.4100 -1.9524 0.9693
6.4630 -3.8054 -1.9419 0.9695
6.7675 -3.2092 -1.9393 0.9695
7.3563 -1.2990 -1.9341 0.9696
7.4400 -0.6372 -1.9334 0.9696
7.4662 0.0291 -1.9331 0.9696
7.4348 0.6952 -1.9334 0.9696
5.2328 4.5768 -1.8000 0.9717
4.8132 5.0354 -1.8036 0.9716
3.8590 5.8370 -1.8117 0.9715
1.5903 6.8914 -1.8312 0.9712
0.9719 7.0261 -1.8365 0.9711
-0.2941 7.1289 -1.8474 0.9709
-1.5656 7.0044 -1.8583 0.9708
-2.8015 6.6524 -1.8689 0.9706
-3.9603 6.0809 -1.8789 0.9705
-5.0018 5.3054 -1.8879 0.9703
-5.4668 4.8483 -1.8919 0.9703
-5.8889 4.3495 -1.8955 0.9702
-6.7575 4.1136 -2.0483 0.9678
-7.1327 3.5116 -2.0585 0.9677
-7.4267 2.8647 -2.0610 0.9676
-7.6602 2.1928 -2.0630 0.9676
-7.9783 0.0861 -2.0658 0.9676
-7.9534 -0.6261 -2.0657 0.9676
-7.7078 -2.0276 -2.0636 0.9676
-7.4894 -2.7048 -2.0617 0.9676
-2.7831 -2.8273 -1.0272 0.9837
-2.3358 -2.8407 -0.9522 0.9849
-0.9825 -2.8606 -0.7831 0.9876
-0.4562 -2.9755 -0.7794 0.9876
0.0981 -3.6955 -0.9572 0.9848
0.4390 -3.7713 -0.9831 0.9844
0.7962 -3.8253 -1.0117 0.9840
2.8541 -7.0656 -1.9730 0.9690
3.4639 -6.7647 -1.9678 0.9691
5.0950 -5.5658 -1.9537 0.9693
6.3516 -3.9955 -1.9429 0.9695
6.6732 -3.4080 -1.9401 0.9695
7.1571 -2.1630 -1.9359 0.9696
7.3163 -1.5148 -1.9345 0.9696
7.4640 -0.1902 -1.9332 0.9696
7.3815 1.1398 -1.9338 0.9696
7.2543 1.7948 -1.9349 0.9696
6.8325 3.0612 -1.9385 0.9695
6.5405 3.6633 -1.9410 0.9695
5.3647 4.4209 -1.7999 0.9717
4.9556 4.8886 -1.8023 0.9716
4.5093 5.3225 -1.8062 0.9716
2.9603 6.3731 -1.8194 0.9714
1.1767 6.9878 -1.8347 0.9711
-0.0845 7.1275 -1.8456 0.9710
-0.7222 7.1126 -1.8511 0.9709
-1.3579 7.0406 -1.8565 0.9708
-1.9864 6.9114 -1.8619 0.9707
-3.2010 6.4845 -1.8724 0.9706
-3.7768 6.1894 -1.8773 0.9705
-4.3248 5.8424 -1.8821 0.9704
-5.3184 5.0033 -1.8906 0.9703
-6.3304 4.1132 -1.9547 0.9693
-7.0232 3.7179 -2.0575 0.9677
-7.3366 3.0805 -2.0602 0.9677
-7.5903 2.4162 -2.0624 0.9676
-7.9721 0.3204 -2.0658 0.9676
-7.7659 -1.8008 -2.0641 0.9676
-6.6138 -4.3826 -2.0543 0.9677
-2.9524 -2.8281 -1.0586 0.9832
-2.4759 -2.8369 -0.9749 0.9846
-2.0801 -2.8636 -0.9164 0.9855
-1.0762 -2.8574 -0.7906 0.9875
-0.7963 -2.8678 -0.7706 0.9878
-0.2899 -3.1361 -0.8155 0.9871
-0.0100 -3.5350 -0.9153 0.9855
2.0046 -7.3811 -1.9803 0.9689
3.2665 -6.8694 -1.9695 0.9691
3.8564 -6.5337 -1.9644 0.9691
4.4132 -6.1485 -1.9596 0.9692
5.4118 -5.2432 -1.9510 0.9693
5.8467 -4.7303 -1.9472 0.9694
6.2347 -4.1826 -1.9439 0.9695
6.5731 -3.6042 -1.9409 0.9695
6.8597 -2.9995 -1.9385 0.9695
7.0925 -2.3730 -1.9364 0.9696
7.4555 -0.4094 -1.9333 0.9696
7.4619 0.2575 -1.9332 0.9696
7.1374 2.2275 -1.9359 0.9696
6.9169 2.8582 -1.9378 0.9695
5.5002 4.2675 -1.8025 0.9716
5.0938 4.7378 -1.8012 0.9717
4.6603 5.1840 -1.8049 0.9716
3.6818 5.9573 -1.8133 0.9715
3.1435 6.2780 -1.8179 0.9714
1.9885 6.7735 -1.8278 0.9713
1.3801 6.9436 -1.8330 0.9712
0.7573 7.0596 -1.8383 0.9711
-4.6746 5.5816 -1.8851 0.9704
-5.1656 5.1538 -1.8893 0.9703
-5.6163 4.6820 -1.8932 0.9702
-6.0228 4.1699 -1.8967 0.9702
-7.5136 2.6372 -2.0618 0.9676
-7.7259 1.9581 -2.0636 0.9676
-7.9772 -0.1580 -2.0658 0.9676
-7.9298 -0.8689 -2.0655 0.9676
-7.6401 -2.2618 -2.0630 0.9676
-7.4005 -2.9315 -2.0610 0.9676
3.8716 -5.7579 -1.9642 0.9716
4.3605 -5.3779 -1.9600 0.9716
5.5983 -4.0092 -1.9493 0.9718
6.4361 -2.3746 -1.9421 0.9719
6.6170 -1.7895 -1.9405 0.9719
6.7463 -1.1912 -1.9394 0.9719
6.7368 1.2439 -1.9394 0.9719
6.1818 2.9908 -1.9441 0.9719
4.8572 4.2483 -1.8268 0.9735
3.9893 4.9994 -1.8106 0.9738
3.5349 5.3468 -1.8145 0.9737
2.5402 5.9177 -1.8231 0.9736
2.0071 6.1360 -1.8276 0.9735
0.2304 4.7848 -1.3561 0.9803
-1.4311 6.4023 -1.8572 0.9731
-2.0018 6.2656 -1.8621 0.9730
-5.4836 4.0502 -1.9299 0.9721
-6.5066 3.2033 -2.0531 0.9703
-7.1417 1.3695 -2.0586 0.9702
-7.1708 -1.2154 -2.0590 0.9702
-7.0297 -1.8492 -2.0578 0.9702
-6.2692 -3.6334 -2.0513 0.9703
-2.3098 -2.8091 -1.0295 0.9850
-1.9249 -2.8206 -0.9667 0.9859
-0.9700 -2.8244 -0.8454 0.9877
-0.1947 -3.0967 -0.8784 0.9872
0.0899 -3.3860 -0.9589 0.9860
1.1595 -3.8218 -1.1306 0.9835
3.1721 -6.1948 -1.9703 0.9715
3.7035 -5.8734 -1.9657 0.9715
5.0954 -4.6544 -1.9537 0.9717
5.4810 -4.1741 -1.9503 0.9718
5.8227 -3.6628 -1.9474 0.9718
6.1183 -3.1246 -1.9448 0.9718
6.3656 -2.5634 -1.9427 0.9719
6.7095 -1.3891 -1.9397 0.9719
6.8038 -0.7846 -1.9389 0.9719
6.8339 0.4371 -1.9386 0.9719
6.4840 2.2346 -1.9415 0.9719
6.2647 2.8069 -1.9434 0.9719
5.9964 3.3586 -1.9457 0.9718
5.6764 3.8826 -1.9469 0.9718
4.5414 4.4800 -1.8059 0.9738
3.6878 5.2369 -1.8132 0.9737
3.2130 5.5575 -1.8173 0.9737
2.7107 5.8358 -1.8216 0.9736
2.1847 6.0694 -1.8261 0.9735
1.6386 6.2561 -1.8308 0.9735
1.0768 6.3942 -1.8356 0.9734
0.3728 4.8011 -1.3632 0.9802
-0.0773 6.5187 -1.8455 0.9733
-0.6603 6.5034 -1.8505 0.9732
-1.8154 6.3163 -1.8605 0.9730
-3.9487 5.3343 -1.8788 0.9728
-6.9228 2.2037 -2.0567 0.9702
-7.0971 1.5784 -2.0582 0.9702
-7.0825 -1.6423 -2.0582 0.9702
-6.9026 -2.2660 -2.0567 0.9702
-6.6664 -2.8700 -2.0547 0.9703
-6.3760 -3.4492 -2.0522 0.9703
-6.0343 -3.9986 -2.0493 0.9704
-5.6442 -4.5137 -2.0459 0.9704
-2.0622 -2.8389 -0.9933 0.9855
-1.0621 -2.8199 -0.8531 0.9876
-0.7864 -2.8321 -0.8321 0.9879
-0.2793 -3.0218 -0.8591 0.9875
0.9923 -3.6539 -1.0719 0.9844
3.5320 -5.9842 -1.9672 0.9715
5.3589 -4.3356 -1.9514 0.9718
5.7154 -3.8341 -1.9483 0.9718
6.5038 -2.1760 -1.9415 0.9719
6.7786 -0.9842 -1.9391 0.9719
6.6968 1.4496 -1.9397 0.9719
6.3423 2.6208 -1.9427 0.9719
5.7896 3.7153 -1.9474 0.9718
5.4238 4.2083 -1.9434 0.9719
4.2703 4.7502 -1.8082 0.9738
3.8373 5.1227 -1.8119 0.9737
2.8787 5.7491 -1.8202 0.9736
1.8201 6.2000 -1.8292 0.9735
1.2630 6.3542 -1.8340 0.9734
0.6929 6.4588 -1.8389 0.9734
0.1142 6.5124 -1.8439 0.9733
-0.4686 6.5142 -1.8489 0.9732
-1.0508 6.4639 -1.8539 0.9731
-2.7465 6.0017 -1.8685 0.9729
-3.2790 5.7468 -1.8731 0.9729
-4.2675 5.0955 -1.8816 0.9727
-4.7148 4.7041 -1.8854 0.9727
-5.8466 4.0480 -2.0131 0.9709
-6.3018 3.5768 -2.0513 0.9703
-6.8531 2.4054 -2.0561 0.9703
-7.0461 1.7858 -2.0578 0.9702
-7.1815 1.1507 -2.0590 0.9702
-7.1290 -1.4339 -2.0586 0.9702
-6.9681 -2.0628 -2.0572 0.9702
4.0193 -4.9572 -1.9629 0.9736
4.8194 -4.1492 -1.9560 0.9737
5.1625 -3.6971 -1.9531 0.9738
5.7232 -2.7139 -1.9482 0.9738
6.1040 -1.6508 -1.9449 0.9739
6.2236 -1.0990 -1.9439 0.9739
6.2948 -0.5391 -1.9432 0.9739
6.3171 0.0247 -1.9430 0.9739
6.2904 0.5882 -1.9432 0.9739
6.2148 1.1475 -1.9439 0.9739
6.0910 1.6983 -1.9449 0.9739
5.9196 2.2366 -1.9464 0.9739
5.7018 2.7585 -1.9482 0.9738
5.1335 3.7373 -1.9531 0.9738
2.8111 5.2097 -1.8208 0.9755
2.3402 5.4517 -1.8248 0.9755
1.8487 5.6518 -1.8290 0.9754
-0.2475 5.9999 -1.8470 0.9752
-1.3164 5.8896 -1.8562 0.9751
-2.8492 5.3685 -1.8694 0.9749
-3.7740 4.7970 -1.8774 0.9748
-4.1951 4.4497 -1.8810 0.9747
-4.5835 4.0649 -1.8843 0.9747
-5.3268 3.9344 -2.0369 0.9727
-5.9753 2.9418 -2.0485 0.9725
-6.5572 1.2574 -2.0536 0.9724
-6.6457 0.6677 -2.0544 0.9724
-6.6798 0.0721 -2.0547 0.9724
-6.6591 -0.5242 -2.0545 0.9724
-6.5837 -1.1159 -2.0539 0.9724
-6.4545 -1.6979 -2.0528 0.9725
-6.2725 -2.2653 -2.0513 0.9725
-6.0396 -2.8132 -2.0493 0.9725
-5.4296 -3.8321 -2.0441 0.9726
-2.7089 -2.7519 -1.1877 0.9840
-1.9087 -2.7969 -1.0415 0.9859
-1.5393 -2.7551 -0.9707 0.9869
-0.6888 -2.7967 -0.8859 0.9880
-0.4311 -2.8115 -0.8748 0.9882
0.3701 -3.1791 -0.9844 0.9867
0.6670 -3.2042 -1.0067 0.9864
1.0230 -3.3720 -1.0838 0.9854
2.9227 -5.7078 -1.9724 0.9735
3.4130 -5.4127 -1.9682 0.9736
3.8745 -5.0763 -1.9642 0.9736
4.6979 -4.2913 -1.9571 0.9737
5.0541 -3.8490 -1.9540 0.9738
5.3699 -3.3780 -1.9513 0.9738
5.9811 2.0613 -1.9458 0.9739
5.5304 3.0976 -1.9497 0.9738
4.8945 4.0334 -1.9508 0.9738
2.9608 5.1212 -1.8195 0.9755
2.4975 5.3767 -1.8235 0.9755
2.0124 5.5908 -1.8276 0.9754
0.9914 5.8875 -1.8364 0.9753
0.3719 4.7895 -1.4776 0.9801
-0.0711 5.9997 -1.8455 0.9752
-0.6076 5.9843 -1.8501 0.9751
-1.1420 5.9209 -1.8547 0.9751
-1.6698 5.8096 -1.8592 0.9750
-2.1866 5.6509 -1.8637 0.9750
-2.6883 5.4459 -1.8680 0.9749
-4.0600 4.5682 -1.8798 0.9747
-4.4596 4.1954 -1.8833 0.9747
-5.1303 4.0274 -2.0061 0.9731
-5.5736 3.6215 -2.0444 0.9726
-5.8840 3.1148 -2.0477 0.9725
-6.3567 2.0235 -2.0518 0.9725
-6.5163 1.4493 -2.0532 0.9725
-6.6226 0.8625 -2.0542 0.9724
-6.6746 0.2682 -2.0546 0.9724
-6.6719 -0.3284 -2.0546 0.9724
-6.5029 -1.5079 -2.0532 0.9725
-6.3381 -2.0807 -2.0518 0.9725
-5.5424 -3.6727 -2.0450 0.9726
-2.8786 -2.7574 -1.2261 0.9835
-2.4199 -2.7727 -1.1319 0.9847
-1.6521 -2.7632 -0.9902 0.9866
-1.3352 -2.7673 -0.9451 0.9872
-1.0485 -2.7839 -0.9150 0.9876
-0.7766 -2.7967 -0.8928 0.9879
-0.2695 -2.9158 -0.9007 0.9878
-0.0089 -3.1276 -0.9620 0.9870
0.2742 -3.1613 -0.9760 0.9868
0.8901 -3.2775 -1.0446 0.9859
2.2328 -6.0319 -1.9783 0.9734
3.7261 -5.1913 -1.9655 0.9736
4.1664 -4.8288 -1.9617 0.9737
5.5580 -3.0476 -1.9496 0.9738
5.8015 -2.5368 -1.9475 0.9738
5.9994 -2.0073 -1.9458 0.9739
6.2535 -0.9080 -1.9436 0.9739
6.3135 0.2178 -1.9430 0.9739
6.2700 0.7804 -1.9434 0.9739
6.1778 1.3372 -1.9442 0.9739
5.6169 2.9327 -1.9489 0.9738
5.0146 3.8908 -1.9522 0.9738
4.5446 4.2270 -1.9090 0.9744
3.9449 4.3883 -1.8150 0.9756
3.5369 4.7217 -1.8145 0.9756
3.1078 5.0286 -1.8182 0.9756
2.1741 5.5251 -1.8262 0.9755
0.5161 4.8106 -1.4881 0.9800
0.1051 5.9943 -1.8440 0.9752
-0.4312 5.9947 -1.8486 0.9752
-2.5253 5.5183 -1.8666 0.9749
-3.0144 5.2829 -1.8708 0.9749
-3.4812 5.0036 -1.8748 0.9748
-3.9216 4.6825 -1.8786 0.9748
-4.8454 4.0394 -1.9403 0.9739
-6.0648 2.7587 -2.0493 0.9725
-6.4696 1.6397 -2.0528 0.9725
-6.5936 1.0565 -2.0539 0.9724
-6.6636 0.4641 -2.0545 0.9724
-6.6394 -0.7275 -2.0544 0.9724
-6.5455 -1.3165 -2.0536 0.9724
-6.3981 -1.8941 -2.0523 0.9725
-6.1984 -2.4554 -2.0506 0.9725
-5.9485 -2.9955 -2.0485 0.9725
4.1118 -4.2350 -1.9621 0.9754
4.4663 -3.8453 -1.9591 0.9755
5.0652 -2.9824 -1.9539 0.9755
5.5039 -2.0307 -1.9501 0.9756
5.7703 -1.0189 -1.9478 0.9756
5.8572 0.0229 -1.9470 0.9756
5.7622 1.0639 -1.9478 0.9756
5.6471 1.5746 -1.9487 0.9756
5.4879 2.0736 -1.9501 0.9756
5.2857 2.5572 -1.9518 0.9756
3.4069 4.2695 -1.8157 0.9772
2.6037 4.8253 -1.8226 0.9772
2.1672 5.0487 -1.8263 0.9771
1.7118 5.2331 -1.8302 0.9771
1.2408 5.3768 -1.8342 0.9770
0.2290 4.7558 -1.5827 0.9801
-1.7025 5.3288 -1.8595 0.9767
-4.9325 3.6432 -2.0383 0.9745
-5.2480 3.1947 -2.0423 0.9744
-5.7443 2.2158 -2.0466 0.9744
-6.0547 1.1611 -2.0493 0.9743
-6.1486 -0.4840 -2.0501 0.9743
-6.0792 -1.0304 -2.0496 0.9743
-5.9601 -1.5679 -2.0486 0.9744
-5.7924 -2.0919 -2.0471 0.9744
-5.5776 -2.5981 -2.0453 0.9744
-5.3178 -3.0820 -2.0431 0.9744
-5.0153 -3.5397 -2.0405 0.9745
-3.2748 -2.7804 -1.4280 0.9821
-2.6721 -2.7145 -1.2661 0.9841
-1.5229 -2.7259 -1.0379 0.9869
-0.9456 -2.7532 -0.9677 0.9878
-0.4262 -2.7799 -0.9349 0.9882
0.0782 -2.9464 -0.9798 0.9877
0.6247 -3.0013 -1.0190 0.9872
2.2291 -5.5183 -1.9783 0.9752
3.1615 -5.0139 -1.9703 0.9753
4.3536 -3.9768 -1.9600 0.9755
4.6842 -3.5673 -1.9572 0.9755
4.9774 -3.1311 -1.9546 0.9755
5.2310 -2.6715 -1.9524 0.9755
5.6130 -1.6964 -1.9491 0.9756
5.7387 -1.1881 -1.9480 0.9756
5.8197 -0.6711 -1.9473 0.9756
5.8456 0.3738 -1.9471 0.9756
5.7902 0.8941 -1.9475 0.9756
5.6898 1.4078 -1.9484 0.9756
5.1265 2.8713 -1.9532 0.9755
4.5460 3.7462 -1.9581 0.9755
3.1488 4.4715 -1.8179 0.9772
2.3130 4.9795 -1.8250 0.9771
1.8634 5.1769 -1.8289 0.9771
1.3972 5.3341 -1.8329 0.9770
0.3710 4.7778 -1.5929 0.9800
-0.0658 5.5515 -1.8455 0.9769
-1.0563 5.4765 -1.8540 0.9768
-2.0218 5.2249 -1.8623 0.9767
-2.4852 5.0344 -1.8663 0.9766
-3.3538 4.5307 -1.8738 0.9765
-5.1498 3.3461 -2.0414 0.9744
-5.4343 2.8768 -2.0439 0.9744
-5.6751 2.3828 -2.0460 0.9744
-5.8699 1.8685 -2.0477 0.9744
-6.1150 0.7964 -2.0498 0.9743
-6.1629 0.2477 -2.0502 0.9743
-5.8528 -1.9214 -2.0477 0.9744
-5.4081 -2.9256 -2.0439 0.9744
-5.1193 -3.3923 -2.0414 0.9744
-2.8424 -2.7227 -1.3084 0.9835
-1.6388 -2.7410 -1.0616 0.9866
-1.3172 -2.7301 -1.0076 0.9873
-1.0351 -2.7483 -0.9762 0.9877
0.2580 -2.9746 -0.9925 0.9875
0.5333 -3.0012 -1.0133 0.9872
1.2016 -3.2462 -1.1506 0.9855
2.5522 -5.3673 -1.9756 0.9753
3.8603 -4.4741 -1.9643 0.9754
4.2371 -4.1051 -1.9610 0.9754
4.5795 -3.7050 -1.9581 0.9755
5.1521 -2.8250 -1.9531 0.9755
5.5620 -1.8609 -1.9496 0.9756
5.7981 -0.8419 -1.9475 0.9756
5.8134 0.7236 -1.9473 0.9756
5.7278 1.2398 -1.9480 0.9756
5.2068 2.7186 -1.9525 0.9755
4.9490 3.1759 -1.9547 0.9755
4.6520 3.6094 -1.9572 0.9755
4.3088 4.0077 -1.9560 0.9755
2.4566 4.9061 -1.8238 0.9771
0.5125 4.7777 -1.5973 0.9799
0.0972 5.5468 -1.8441 0.9769
-0.3990 5.5461 -1.8483 0.9768
-0.8943 5.5011 -1.8526 0.9768
-1.8661 5.2782 -1.8609 0.9767
-2.3347 5.1017 -1.8650 0.9766
-2.7863 4.8832 -1.8689 0.9766
-3.6238 4.3269 -1.8761 0.9765
-4.6949 3.9139 -2.0318 0.9746
-5.6009 2.5477 -2.0453 0.9744
-5.8110 2.0396 -2.0472 0.9744
-5.9740 1.5141 -2.0486 0.9744
-6.1527 0.4285 -2.0501 0.9743
-6.0439 -1.2156 -2.0493 0.9743
-5.9080 -1.7490 -2.0481 0.9744
-5.7241 -2.2674 -2.0466 0.9744
3.0755 -4.5739 -1.9710 0.9769
3.8268 -3.9415 -1.9646 0.9769
4.4541 -3.1898 -1.9591 0.9770
4.9395 -2.3423 -1.9549 0.9770
5.1246 -1.8907 -1.9533 0.9771
5.2694 -1.4250 -1.9521 0.9771
5.3731 -0.9488 -1.9512 0.9771
5.3655 0.9907 -1.9512 0.9771
5.2581 1.4661 -1.9521 0.9771
4.6937 2.8132 -1.9569 0.9770
4.4291 3.2244 -1.9591 0.9770
3.3526 4.2015 -1.9222 0.9774
2.8080 4.2474 -1.8208 0.9786
2.4223 4.4891 -1.8241 0.9786
1.1538 5.0000 -1.8350 0.9784
0.7046 5.0936 -1.8389 0.9784
0.2284 4.7431 -1.6981 0.9800
-1.1313 5.0614 -1.8546 0.9782
-2.4461 4.6090 -1.8660 0.9781
-2.8529 4.3806 -1.8695 0.9780
-3.2381 4.1159 -1.8728 0.9780
-3.8181 4.0499 -1.9904 0.9766
-4.2482 3.7676 -2.0306 0.9762
-4.8704 2.9649 -2.0390 0.9761
-5.1210 2.5212 -2.0412 0.9760
-5.3302 2.0560 -2.0430 0.9760
-5.6177 1.0773 -2.0455 0.9760
-5.6932 0.5720 -2.0462 0.9760
-5.7223 0.0617 -2.0465 0.9760
-5.3747 -1.9411 -2.0435 0.9760
-5.1758 -2.4109 -2.0419 0.9760
-4.9351 -2.8602 -2.0398 0.9761
-4.6548 -3.2852 -2.0374 0.9761
-3.2571 -2.7654 -1.5279 0.9820
-1.8765 -2.7497 -1.1905 0.9860
-0.9335 -2.7182 -1.0278 0.9879
-0.6723 -2.7296 -1.0053 0.9881
0.0737 -2.7748 -0.9926 0.9883
0.5896 -2.8327 -1.0347 0.9878
0.8779 -2.8935 -1.0813 0.9872
1.2468 -3.0865 -1.1904 0.9860
2.5182 -4.9179 -1.9758 0.9768
2.9415 -4.6650 -1.9722 0.9768
3.3402 -4.3763 -1.9687 0.9769
4.0521 -3.7014 -1.9626 0.9770
4.3603 -3.3206 -1.9599 0.9770
4.6336 -2.9148 -1.9576 0.9770
4.8701 -2.4872 -1.9555 0.9770
5.0681 -2.0409 -1.9538 0.9771
5.2263 -1.5795 -1.9524 0.9771
5.3436 -1.1063 -1.9514 0.9771
5.4432 0.3481 -1.9505 0.9771
5.3917 0.8326 -1.9509 0.9771
5.2980 1.3108 -1.9517 0.9771
4.9874 2.2346 -1.9544 0.9771
4.5201 3.0917 -1.9584 0.9770
4.2315 3.4871 -1.9608 0.9770
3.5418 4.1806 -1.9594 0.9770
2.1516 4.6321 -1.8264 0.9785
1.2993 4.9605 -1.8338 0.9785
-0.5224 5.1452 -1.8494 0.9783
-1.8781 4.8535 -1.8611 0.9781
-2.3082 4.6759 -1.8648 0.9781
-3.1141 4.2068 -1.8717 0.9780
-3.6107 4.0626 -1.9437 0.9772
-4.4775 3.5150 -2.0357 0.9761
-5.2661 2.2111 -2.0425 0.9760
-5.5828 1.2416 -2.0452 0.9760
-5.7179 0.2298 -2.0464 0.9760
-5.2459 -2.2585 -2.0424 0.9760
-4.7511 -3.1484 -2.0382 0.9761
-2.0089 -2.7656 -1.2224 0.9856
-1.3050 -2.7047 -1.0739 0.9873
1.1117 -3.0031 -1.1451 0.9865
2.3742 -4.9929 -1.9771 0.9768
3.2120 -4.4750 -1.9699 0.9769
4.2627 -3.4487 -1.9608 0.9770
4.5477 -3.0508 -1.9583 0.9770
4.7965 -2.6300 -1.9562 0.9770
5.3096 -1.2630 -1.9517 0.9771
5.3989 -0.7839 -1.9509 0.9771
5.4510 0.1881 -1.9505 0.9771
5.4133 0.6738 -1.9508 0.9771
5.3334 1.1545 -1.9514 0.9771
5.0495 2.0866 -1.9538 0.9771
4.3303 3.3598 -1.9600 0.9770
3.6645 4.0763 -1.9602 0.9770
3.1502 4.2055 -1.8791 0.9779
1.8726 4.7589 -1.8288 0.9785
1.0011 5.0365 -1.8363 0.9784
0.5101 4.7549 -1.7101 0.9799
0.0904 5.1561 -1.8441 0.9783
-0.8310 5.1119 -1.8521 0.9782
-1.2865 5.0280 -1.8560 0.9782
-2.1685 4.7386 -1.8636 0.9781
-2.5876 4.5350 -1.8672 0.9781
-3.4124 4.0744 -1.9006 0.9777
-4.0080 3.9989 -2.0247 0.9762
-4.9607 2.8156 -2.0398 0.9761
-5.1974 2.3642 -2.0419 0.9760
-5.6487 0.9051 -2.0458 0.9760
-5.6878 -0.6233 -2.0462 0.9760
-5.6077 -1.1279 -2.0455 0.9760
-5.4819 -1.6229 -2.0445 0.9760
-5.0980 -2.5672 -2.0412 0.9760
3.8840 -3.3439 -1.9640 0.9783
4.6159 -2.1889 -1.9577 0.9784
4.9247 -1.3318 -1.9550 0.9784
5.0976 0.0199 -1.9535 0.9784
5.0146 0.9259 -1.9542 0.9784
4.9142 1.3702 -1.9550 0.9784
4.7752 1.8043 -1.9562 0.9784
4.3859 2.6287 -1.9595 0.9783
3.1985 4.0083 -1.9652 0.9783
1.4864 4.5441 -1.8322 0.9797
0.6576 4.7543 -1.8393 0.9797
0.2278 4.7316 -1.8153 0.9799
-0.1986 4.8147 -1.8466 0.9796
-0.6286 4.7873 -1.8503 0.9795
-1.0554 4.7215 -1.8540 0.9795
-1.4753 4.6174 -1.8576 0.9794
-1.8849 4.4759 -1.8611 0.9794
-2.6675 4.0959 -1.8731 0.9793
-3.1970 4.0636 -1.9814 0.9781
-3.9656 3.5170 -2.0313 0.9776
-4.5386 2.7629 -2.0362 0.9775
-4.9664 1.9157 -2.0399 0.9775
-2.3041 -0.1814 -0.8857 0.9901
-5.1522 -1.3554 -2.0416 0.9774
-5.0078 -1.8086 -2.0404 0.9775
-4.8227 -2.2464 -2.0388 0.9775
-4.3378 -3.0616 -2.0347 0.9775
-2.6365 -2.6784 -1.4402 0.9840
-1.2072 -2.7020 -1.1341 0.9874
-0.6647 -2.6988 -1.0651 0.9882
-0.1731 -2.7527 -1.0570 0.9883
0.0726 -2.7358 -1.0488 0.9883
0.3181 -2.7326 -1.0543 0.9883
0.5663 -2.7208 -1.0650 0.9882
0.8318 -2.7416 -1.0979 0.9878
1.2377 -3.0640 -1.2664 0.9859
2.3516 -4.5925 -1.9772 0.9781
2.7472 -4.3569 -1.9738 0.9782
3.1199 -4.0877 -1.9706 0.9782
3.7857 -3.4580 -1.9649 0.9783
4.0740 -3.1025 -1.9624 0.9783
4.5509 -2.3242 -1.9583 0.9783
4.7363 -1.9073 -1.9567 0.9784
4.9941 -1.0340 -1.9544 0.9784
5.0648 -0.5841 -1.9538 0.9784
5.0960 -0.1298 -1.9535 0.9784
5.0874 0.3254 -1.9536 0.9784
4.6608 2.0882 -1.9572 0.9784
3.3159 3.9139 -1.9658 0.9783
2.9479 4.1862 -1.9621 0.9783
2.0092 4.3254 -1.8277 0.9798
1.6182 4.4957 -1.8310 0.9797
1.2130 4.6309 -1.8345 0.9797
0.3691 4.7540 -1.8273 0.9798
-0.0571 4.8152 -1.8454 0.9796
-2.1524 4.3603 -1.8634 0.9794
-2.5374 4.1582 -1.8668 0.9793
-3.8577 3.6292 -2.0297 0.9776
-4.4539 2.8939 -2.0355 0.9775
-4.9067 2.0602 -2.0394 0.9775
-5.0746 1.6154 -2.0408 0.9774
-5.2013 1.1568 -2.0419 0.9774
-2.3011 -0.1132 -0.8829 0.9902
-5.2793 -0.7360 -2.0427 0.9774
-5.1907 -1.2036 -2.0419 0.9774
-4.8879 -2.1044 -2.0394 0.9775
-4.6766 -2.5298 -2.0376 0.9775
-2.8001 -2.6823 -1.4859 0.9835
-2.3686 -2.7139 -1.3804 0.9847
-1.9912 -2.7413 -1.2984 0.9856
-1.3072 -2.7094 -1.1528 0.9872
-1.0123 -2.6879 -1.1007 0.9878
-0.7476 -2.6922 -1.0707 0.9881
-0.4976 -2.7114 -1.0564 0.9883
-0.0078 -2.7416 -1.0506 0.9883
0.4841 -2.7247 -1.0605 0.9882
0.7392 -2.7217 -1.0808 0.9880
3.0001 -4.1798 -1.9717 0.9782
3.3558 -3.8894 -1.9686 0.9782
3.6841 -3.5693 -1.9658 0.9783
3.9827 -3.2222 -1.9632 0.9783
4.4821 -2.4576 -1.9589 0.9783
4.6794 -2.0461 -1.9572 0.9784
4.8398 -1.6193 -1.9558 0.9784
4.9623 -1.1804 -1.9547 0.9784
5.0459 -0.7327 -1.9540 0.9784
5.0946 0.1758 -1.9535 0.9784
4.9846 1.0790 -1.9544 0.9784
4.5299 2.3651 -1.9583 0.9783
3.7544 3.4921 -1.9649 0.9783
3.4307 3.8162 -1.9665 0.9783
3.0735 4.1031 -1.9646 0.9783
2.5913 4.1929 -1.8889 0.9791
2.1341 4.2621 -1.8266 0.9798
0.9345 4.7014 -1.8369 0.9797
0.5082 4.7373 -1.8258 0.9798
-1.2000 4.6901 -1.8552 0.9795
-1.6169 4.5732 -1.8588 0.9794
-2.4128 4.2285 -1.8657 0.9794
-3.7444 3.7359 -2.0270 0.9776
-4.3653 3.0224 -2.0347 0.9775
-5.1643 1.3089 -2.0416 0.9774
-2.3036 0.1605 -0.8849 0.9902
-2.2938 -0.0454 -0.8792 0.9902
-5.2245 -1.0508 -2.0422 0.9774
-5.1074 -1.5120 -2.0412 0.9774
-4.9489 -1.9604 -2.0399 0.9775
-4.7503 -2.3921 -2.0382 0.9775
3.0336 -3.7414 -1.9714 0.9794
3.6406 -3.1343 -1.9661 0.9795
4.3275 -2.0521 -1.9602 0.9795
4.4901 -1.6566 -1.9588 0.9795
4.7627 -0.4079 -1.9564 0.9796
4.7594 0.4451 -1.9564 0.9796
4.7018 0.8681 -1.9569 0.9795
4.6075 1.2847 -1.9577 0.9795
3.6160 3.1627 -1.9661 0.9795
3.3236 3.4771 -1.9686 0.9794
2.6539 4.0143 -1.9695 0.9794
1.0089 4.3718 -1.8363 0.9808
0.2166 4.4981 -1.8431 0.9807
-0.1860 4.5079 -1.8465 0.9807
-0.5885 4.4817 -1.8500 0.9807
-0.9879 4.4195 -1.8534 0.9806
-3.0500 3.8768 -2.0189 0.9789
-3.3963 3.6025 -2.0264 0.9788
-3.7091 3.2895 -2.0291 0.9788
-3.9927 2.9490 -2.0315 0.9788
-4.2444 2.5838 -2.0337 0.9788
-4.4621 2.1968 -2.0356 0.9787
-4.6439 1.7913 -2.0371 0.9787
-1.9930 0.0215 -0.8157 0.9914
-2.0462 -0.3468 -0.8494 0.9911
-4.8174 -1.2673 -2.0387 0.9787
-3.7808 -3.2100 -2.0299 0.9788
-2.6365 -2.6784 -1.5382 0.9839
-2.2312 -2.7134 -1.4378 0.9849
-1.8461 -2.7052 -1.3404 0.9859
-1.5168 -2.7149 -1.2728 0.9866
-0.9224 -2.6857 -1.1622 0.9878
-0.6572 -2.6682 -1.1247 0.9882
-0.4119 -2.6866 -1.1124 0.9883
-0.1715 -2.7270 -1.1183 0.9883
0.8249 -2.7190 -1.1629 0.9878
2.5743 -4.0825 -1.9753 0.9794
2.9238 -3.8307 -1.9723 0.9794
3.2493 -3.5495 -1.9695 0.9794
3.8188 -2.9083 -1.9646 0.9795
4.2665 -2.1789 -1.9607 0.9795
4.5795 -1.3840 -1.9580 0.9795
4.7490 -0.5476 -1.9565 0.9796
4.6425 1.1486 -1.9574 0.9795
4.5239 1.5591 -1.9584 0.9795
4.3697 1.9578 -1.9597 0.9795
3.9592 2.7081 -1.9632 0.9795
3.7059 3.0539 -1.9654 0.9795
3.4228 3.3765 -1.9678 0.9794
2.4079 4.1650 -1.9690 0.9794
1.5159 4.2115 -1.8319 0.9808
0.7460 4.4298 -1.8385 0.9808
-0.8571 4.4439 -1.8523 0.9806
-1.2525 4.3577 -1.8557 0.9806
-3.2850 3.6962 -2.0239 0.9789
-3.6094 3.3956 -2.0282 0.9788
-3.9028 3.0638 -2.0307 0.9788
-4.3944 2.3262 -2.0350 0.9787
-4.7450 1.5104 -2.0380 0.9787
-2.0204 0.2631 -0.8339 0.9912
-2.0010 0.0804 -0.8196 0.9914
-2.0207 -0.2817 -0.8350 0.9912
-2.0948 -0.4857 -0.8801 0.9907
-4.5706 -1.9677 -2.0366 0.9787
-4.1406 -2.7438 -2.0330 0.9788
-2.8002 -2.6823 -1.5870 0.9834
-1.3089 -2.7129 -1.2328 0.9871
-0.2506 -2.7108 -1.1142 0.9883
-0.0077 -2.7276 -1.1163 0.9883
0.2351 -2.7111 -1.1137 0.9883
0.4790 -2.6961 -1.1207 0.9882
2.8114 -3.9169 -1.9733 0.9794
3.1450 -3.6451 -1.9704 0.9794
4.2019 -2.3040 -1.9613 0.9795
4.6527 -1.1067 -1.9574 0.9795
4.7312 -0.6870 -1.9567 0.9795
4.7770 0.1648 -1.9562 0.9796
4.7439 0.5904 -1.9565 0.9796
4.6737 1.0117 -1.9571 0.9795
4.5669 1.4253 -1.9580 0.9795
4.4242 1.8282 -1.9592 0.9795
4.2467 2.2173 -1.9607 0.9795
3.5190 3.2731 -1.9670 0.9794
1.6462 4.1836 -1.8400 0.9808
0.8752 4.4033 -1.8374 0.9808
0.4797 4.4721 -1.8408 0.9807
-0.3239 4.5030 -1.8477 0.9807
-0.7258 4.4645 -1.8512 0.9806
-1.1233 4.3900 -1.8546 0.9806
-2.3339 4.0904 -1.9274 0.9799
-2.8105 4.0397 -2.0141 0.9790
-3.1711 3.7864 -2.0214 0.9789
-3.5066 3.4986 -2.0273 0.9788
-3.8096 3.1759 -2.0299 0.9788
-4.0825 2.8266 -2.0323 0.9788
-4.5285 2.0599 -2.0361 0.9787
-4.6976 1.6488 -2.0376 0.9787
-2.0758 -0.4175 -0.8666 0.9909
-4.7756 -1.4138 -2.0384 0.9787
-4.6275 -1.8331 -2.0371 0.9787
-4.4421 -2.2369 -2.0355 0.9787
3.1493 -3.2437 -1.9703 0.9805
3.4221 -2.9463 -1.9680 0.9805
4.3414 -1.1741 -1.9600 0.9806
4.4782 -0.3835 -1.9588 0.9806
4.4943 0.0175 -1.9587 0.9806
3.8654 2.3167 -1.9640 0.9805
3.6467 2.6549 -1.9659 0.9805
2.4990 3.7799 -1.9748 0.9804
2.1510 3.9865 -1.9742 0.9804
1.7864 4.1616 -1.9737 0.9804
0.9614 4.1661 -1.8633 0.9815
-0.1746 4.2332 -1.8464 0.9817
-0.9274 4.1492 -1.8529 0.9816
-2.8677 3.6451 -2.0213 0.9800
-3.4799 3.0862 -2.0271 0.9799
-3.7456 2.7665 -2.0294 0.9799
-4.1855 2.0606 -2.0332 0.9798
-1.5413 0.5945 -0.7200 0.9928
-1.4936 0.4276 -0.6771 0.9932
-1.4691 0.2817 -0.6519 0.9935
-1.4636 -0.1152 -0.6399 0.9936
-1.4720 -0.2495 -0.6507 0.9935
-1.4871 -0.5371 -0.6891 0.9931
-4.2300 -1.9703 -2.0337 0.9798
-4.0341 -2.3380 -2.0320 0.9799
-3.8057 -2.6860 -2.0301 0.9799
-2.6365 -2.6784 -1.6380 0.9837
-2.2419 -2.7265 -1.5384 0.9847
-0.9239 -2.6903 -1.2397 0.9877
-0.4073 -2.6562 -1.1711 0.9883
0.0719 -2.7078 -1.1805 0.9883
0.3125 -2.6843 -1.1778 0.9883
1.2092 -2.9934 -1.4070 0.9860
2.0703 -4.0432 -1.9796 0.9804
2.4191 -3.8365 -1.9766 0.9804
3.0540 -3.3362 -1.9712 0.9805
3.5899 -2.7339 -1.9665 0.9805
3.8157 -2.4003 -1.9646 0.9805
4.0112 -2.0485 -1.9629 0.9805
4.1749 -1.6812 -1.9615 0.9806
4.3058 -1.3013 -1.9603 0.9806
4.4653 -0.5149 -1.9589 0.9806
4.4853 0.2868 -1.9588 0.9806
4.4426 0.6860 -1.9591 0.9806
4.1083 1.8407 -1.9619 0.9805
3.9307 2.2016 -1.9635 0.9805
3.7219 2.5458 -1.9652 0.9805
2.2674 3.9219 -1.9743 0.9804
1.4989 4.1643 -1.9289 0.9809
1.0912 4.1661 -1.8769 0.9814
0.7020 4.1684 -1.8422 0.9817
-0.0502 4.2340 -1.8454 0.9817
-0.4285 4.2201 -1.8486 0.9817
-0.8047 4.1723 -1.8519 0.9816
-1.1851 4.1233 -1.8697 0.9815
-1.5890 4.1063 -1.9189 0.9810
-3.0847 3.4708 -2.0237 0.9799
-3.9073 2.5388 -2.0308 0.9799
-4.1220 2.1821 -2.0326 0.9799
-4.3036 1.8070 -2.0342 0.9798
-1.4937 0.4755 -0.6832 0.9932
-1.4731 0.1919 -0.6474 0.9935
-1.4519 -0.0715 -0.6335 0.9937
-1.4857 -0.3445 -0.6647 0.9934
-2.3312 -2.6711 -1.5451 0.9846
-0.2482 -2.6854 -1.1753 0.9883
-0.0077 -2.7134 -1.1826 0.9882
0.2332 -2.6885 -1.1761 0.9883
0.4740 -2.6675 -1.1808 0.9882
1.0205 -2.7568 -1.2811 0.9873
2.6421 -3.6810 -1.9747 0.9804
2.9559 -3.4259 -1.9720 0.9804
3.2457 -3.1445 -1.9695 0.9805
3.7447 -2.5121 -1.9652 0.9805
4.1246 -1.8035 -1.9619 0.9805
4.2664 -1.4275 -1.9607 0.9806
4.4486 -0.6459 -1.9591 0.9806
4.4877 -0.2464 -1.9587 0.9806
4.3944 0.9512 -1.9595 0.9806
4.2939 1.3401 -1.9604 0.9806
4.1596 1.7188 -1.9615 0.9806
3.5651 2.7662 -1.9666 0.9805
2.7153 3.6249 -1.9738 0.9804
0.0742 4.2312 -1.8443 0.9817
-0.3042 4.2284 -1.8476 0.9817
-0.6814 4.1917 -1.8508 0.9816
-1.0569 4.1307 -1.8582 0.9816
-1.8730 4.0929 -1.9617 0.9806
-2.2861 4.0065 -2.0104 0.9801
-2.6429 3.7988 -2.0168 0.9800
-3.8298 2.6516 -2.0301 0.9799
-1.4730 0.2360 -0.6502 0.9935
-1.4738 -0.2964 -0.6552 0.9935
-1.4936 -0.4422 -0.6789 0.9932
-4.3404 -1.7194 -2.0347 0.9798
2.3831 -3.5442 -1.9769 0.9814
2.6863 -3.3131 -1.9743 0.9814
2.9675 -3.0564 -1.9719 0.9814
3.6599 -2.1549 -1.9659 0.9815
3.9790 -1.4680 -1.9632 0.9815
4.2362 0.0165 -1.9609 0.9815
3.4367 2.5019 -1.9677 0.9814
2.6603 3.3339 -1.9743 0.9814
2.3554 3.5627 -1.9769 0.9814
2.0302 3.7625 -1.9790 0.9813
1.6864 3.9286 -1.9790 0.9813
1.3296 4.0647 -1.9796 0.9813
0.5734 4.1449 -1.9369 0.9817
0.1994 4.1410 -1.9190 0.9819
-0.9194 4.1134 -1.9510 0.9816
-1.3094 4.0983 -1.9915 0.9812
-1.6817 3.9932 -2.0056 0.9811
-2.0369 3.8379 -2.0112 0.9810
-2.9979 3.1799 -2.0229 0.9809
-3.2735 2.9032 -2.0253 0.9809
-3.5232 2.6023 -2.0275 0.9809
-3.7449 2.2797 -2.0294 0.9809
-3.9366 1.9381 -2.0311 0.9808
-1.2569 0.4848 -0.6236 0.9941
-1.2704 0.2436 -0.5988 0.9943
-1.2723 -0.1001 -0.5908 0.9944
-1.2706 -0.3342 -0.6081 0.9942
-1.2639 -0.5887 -0.6454 0.9939
-3.7943 -2.1990 -2.0300 0.9809
-3.5797 -2.5265 -2.0281 0.9809
-3.3366 -2.8329 -2.0261 0.9809
-2.6365 -2.6784 -1.7397 0.9836
-2.2249 -2.7057 -1.6215 0.9847
-0.9256 -2.6949 -1.3190 0.9875
-0.6587 -2.6744 -1.2749 0.9879
-0.4070 -2.6545 -1.2431 0.9882
0.5729 -2.7524 -1.3013 0.9877
1.9502 -3.8087 -1.9807 0.9813
2.5889 -3.3920 -1.9752 0.9814
2.8776 -3.1435 -1.9727 0.9814
3.3830 -2.5763 -1.9683 0.9814
3.5960 -2.2621 -1.9665 0.9814
3.7804 -1.9307 -1.9649 0.9815
3.9349 -1.5846 -1.9635 0.9815
4.1499 -0.8592 -1.9617 0.9815
4.2349 -0.1079 -1.9609 0.9815
4.2278 0.2704 -1.9610 0.9815
4.1875 0.6466 -1.9613 0.9815
4.1144 1.0180 -1.9619 0.9815
4.0090 1.3816 -1.9628 0.9815
3.8721 1.7348 -1.9640 0.9815
3.5076 2.3992 -1.9671 0.9814
3.2827 2.7052 -1.9690 0.9814
3.0316 2.9906 -1.9711 0.9814
2.4579 3.4904 -1.9761 0.9814
1.8010 3.8773 -1.9789 0.9813
1.4482 4.0234 -1.9793 0.9813
0.6981 4.1456 -1.9460 0.9816
-0.4192 4.1286 -1.9209 0.9819
-1.1794 4.1036 -1.9764 0.9814
-1.5623 4.0374 -2.0039 0.9811
-1.9215 3.8924 -2.0093 0.9810
-2.5958 3.5066 -2.0195 0.9810
-3.1857 2.9970 -2.0246 0.9809
-3.8770 2.0523 -2.0305 0.9809
-1.2477 0.5239 -0.6264 0.9941
-1.2683 0.4038 -0.6161 0.9942
-1.2681 0.2820 -0.6013 0.9943
-1.2666 0.0509 -0.5867 0.9944
-1.2690 -0.2943 -0.6030 0.9943
-3.8583 -2.0872 -2.0305 0.9809
-2.8002 -2.6823 -1.7949 0.9831
-2.3313 -2.6712 -1.6411 0.9845
-1.6237 -2.7157 -1.4646 0.9862
-1.0175 -2.7017 -1.3363 0.9874
-0.7446 -2.6815 -1.2882 0.9878
-0.4883 -2.6604 -1.2520 0.9881
0.2312 -2.6658 -1.2386 0.9883
0.4853 -2.7315 -1.2842 0.9878
0.7212 -2.6556 -1.2737 0.9879
1.8384 -3.8662 -1.9816 0.9813
2.1729 -3.6814 -1.9788 0.9813
2.4893 -3.4681 -1.9760 0.9814
3.0584 -2.9631 -1.9711 0.9814
3.7230 -2.0414 -1.9654 0.9815
3.8875 -1.6998 -1.9640 0.9815
4.1234 -0.9808 -1.9619 0.9815
4.2300 -0.2323 -1.9610 0.9815
4.2338 0.1461 -1.9609 0.9815
4.1420 0.8966 -1.9617 0.9815
3.9205 1.6200 -1.9636 0.9815
3.7629 1.9647 -1.9649 0.9815
3.5755 2.2944 -1.9665 0.9814
2.8492 3.1694 -1.9727 0.9814
1.9141 3.8227 -1.9789 0.9813
1.2049 4.1042 -1.9799 0.9813
0.4445 4.1438 -1.9291 0.9818
-0.2972 4.1317 -1.9174 0.9819
-1.8046 3.9435 -2.0075 0.9811
-2.8037 3.3477 -2.0213 0.9809
-3.0951 3.0880 -2.0238 0.9809
-3.3621 2.8028 -2.0261 0.9809
-1.2580 0.5722 -0.6397 0.9939
-1.2703 0.3220 -0.6066 0.9942
-1.2711 0.0885 -0.5898 0.9944
-1.2701 -0.3760 -0.6131 0.9942
-1.2543 -0.4969 -0.6245 0.9941
2.2501 -3.3464 -1.9781 0.9822
2.8023 -2.8863 -1.9733 0.9822
3.0454 -2.6220 -1.9712 0.9823
3.2641 -2.3375 -1.9693 0.9823
3.4567 -2.0353 -1.9677 0.9823
3.7584 -1.3867 -1.9651 0.9823
3.8653 -1.0453 -1.9641 0.9823
3.9418 -0.6960 -1.9635 0.9823
4.0017 0.0156 -1.9629 0.9823
3.9362 0.7268 -1.9635 0.9823
3.8570 1.0755 -1.9641 0.9823
3.4407 2.0622 -1.9677 0.9823
3.0249 2.6456 -1.9712 0.9823
2.5121 3.1481 -1.9756 0.9822
1.5949 3.7155 -1.9833 0.9821
0.1950 4.0505 -1.9892 0.9821
-0.1674 4.0576 -1.9920 0.9821
-0.5296 4.0334 -1.9954 0.9820
-0.8891 3.9778 -1.9993 0.9820
-1.9245 3.6262 -2.0137 0.9819
-2.8270 2.9986 -2.0215 0.9818
-3.0866 2.7374 -2.0237 0.9818
-3.3219 2.4536 -2.0258 0.9818
-1.0860 0.5347 -0.5938 0.9946
-1.1170 0.4308 -0.5872 0.9947
-1.1319 0.3240 -0.5775 0.9948
-1.1392 0.2185 -0.5690 0.9948
-1.1443 0.1150 -0.5641 0.9949
-1.1419 -0.1935 -0.5681 0.9949
-1.1329 -0.2980 -0.5746 0.9948
-3.5772 -2.0732 -2.0281 0.9817
-2.6366 -2.6784 -1.8436 0.9834
-1.8503 -2.7113 -1.6101 0.9855
-1.5200 -2.7207 -1.5287 0.9862
-0.9272 -2.6997 -1.4002 0.9874
-0.6598 -2.6789 -1.3534 0.9878
-0.4080 -2.6614 -1.3207 0.9881
-0.1666 -2.6501 -1.3025 0.9882
0.0711 -2.6791 -1.3147 0.9881
0.5449 -2.6176 -1.3115 0.9882
2.7173 -2.9684 -1.9741 0.9822
2.9681 -2.7112 -1.9719 0.9822
3.1950 -2.4331 -1.9699 0.9823
3.3963 -2.1365 -1.9682 0.9823
3.7167 -1.4967 -1.9654 0.9823
4.0004 -0.1019 -1.9629 0.9823
3.8865 0.9616 -1.9639 0.9823
3.7868 1.3051 -1.9647 0.9823
3.6573 1.6386 -1.9658 0.9823
3.4989 1.9597 -1.9672 0.9823
3.3128 2.2659 -1.9688 0.9823
2.6024 3.0718 -1.9748 0.9822
1.7027 3.6656 -1.9825 0.9822
1.0252 3.9140 -1.9847 0.9821
-0.0481 4.0587 -1.9910 0.9821
-0.4107 4.0448 -1.9943 0.9820
-0.7714 3.9995 -1.9980 0.9820
-1.1275 3.9230 -2.0022 0.9820
-1.4765 3.8157 -2.0069 0.9819
-2.4480 3.3070 -2.0182 0.9818
-2.7366 3.0791 -2.0207 0.9818
-3.0039 2.8259 -2.0230 0.9818
-3.2474 2.5493 -2.0251 0.9818
-1.1290 0.3594 -0.5812 0.9947
-1.1442 0.1490 -0.5660 0.9949
-1.1413 -0.0562 -0.5605 0.9949
-1.1439 -0.1595 -0.5665 0.9949
-1.1325 -0.2626 -0.5703 0.9948
-1.1052 -0.4758 -0.5902 0.9947
-3.4446 -2.2826 -2.0270 0.9818
-2.8002 -2.6823 -1.9021 0.9829
-1.9675 -2.7086 -1.6421 0.9852
-1.6249 -2.7177 -1.5532 0.9860
-0.7459 -2.6862 -1.3675 0.9877
-0.4891 -2.6648 -1.3290 0.9880
-0.2452 -2.6525 -1.3067 0.9882
-0.0076 -2.6809 -1.3151 0.9881
0.4654 -2.6195 -1.3051 0.9882
1.7356 -3.6500 -1.9825 0.9822
3.1231 -2.5267 -1.9706 0.9823
3.3330 -2.2359 -1.9687 0.9823
3.8949 -0.9265 -1.9639 0.9823
3.9958 -0.2194 -1.9630 0.9823
3.9126 0.8469 -1.9637 0.9823
3.8229 1.1931 -1.9644 0.9823
3.5541 1.8557 -1.9667 0.9823
3.3770 2.1671 -1.9682 0.9823
3.1730 2.4619 -1.9700 0.9823
1.8088 3.6123 -1.9816 0.9822
1.4806 3.7628 -1.9835 0.9821
1.1395 3.8814 -1.9843 0.9821
0.7892 3.9703 -1.9856 0.9821
0.0711 4.0565 -1.9901 0.9821
-1.0111 3.9516 -2.0008 0.9820
-1.3627 3.8544 -2.0053 0.9820
-1.7054 3.7267 -2.0103 0.9819
-2.0355 3.5673 -2.0147 0.9819
-2.6440 3.1569 -2.0199 0.9818
-3.1700 2.6427 -2.0244 0.9818
-3.5958 2.0409 -2.0281 0.9817
-1.1330 0.2871 -0.5733 0.9948
-1.1431 0.0796 -0.5621 0.9949
-1.1373 -0.0225 -0.5580 0.9949
-1.1442 -0.1254 -0.5646 0.9949
-1.1312 -0.3349 -0.5787 0.9948
-1.1145 -0.4415 -0.5880 0.9947
2.6514 -2.7309 -1.9746 0.9830
2.8816 -2.4809 -1.9726 0.9830
3.0887 -2.2119 -1.9708 0.9830
3.7305 -0.6587 -1.9653 0.9831
3.7737 -0.3232 -1.9649 0.9831
3.7873 0.0148 -1.9648 0.9831
3.7253 0.6878 -1.9653 0.9831
3.0713 2.2359 -1.9708 0.9830
2.6300 2.7515 -1.9746 0.9830
2.1039 3.1823 -1.9791 0.9830
1.8139 3.3616 -1.9816 0.9829
1.5087 3.5147 -1.9842 0.9829
0.8621 3.7359 -1.9890 0.9829
-0.8420 3.7671 -2.0025 0.9828
-1.1772 3.6846 -2.0067 0.9827
-2.1201 3.2554 -2.0154 0.9826
-2.4050 3.0569 -2.0179 0.9826
-2.6712 2.8334 -2.0202 0.9826
-2.9164 2.5865 -2.0223 0.9826
-3.1385 2.3181 -2.0242 0.9826
-1.0033 0.3870 -0.5579 0.9952
-1.0185 0.2916 -0.5496 0.9952
-1.0373 -0.0817 -0.5398 0.9953
-1.0332 -0.1751 -0.5437 0.9953
-1.0199 -0.2683 -0.5471 0.9953
-0.9815 -0.4572 -0.5617 0.9951
-0.9554 -0.5537 -0.5728 0.9950
-2.9725 -2.5238 -2.0229 0.9826
-2.2685 -2.7588 -1.8529 0.9840
-1.5212 -2.7227 -1.6180 0.9860
-1.2142 -2.7179 -1.5443 0.9867
-0.1670 -2.6550 -1.3801 0.9881
0.0707 -2.6646 -1.3828 0.9881
0.8073 -2.6608 -1.4425 0.9875
1.1538 -2.8563 -1.5981 0.9862
2.0356 -3.2283 -1.9799 0.9829
2.5710 -2.8085 -1.9753 0.9830
2.8084 -2.5653 -1.9733 0.9830
3.0232 -2.3023 -1.9714 0.9830
3.5174 -1.4164 -1.9671 0.9831
3.6279 -1.0964 -1.9662 0.9831
3.7099 -0.7681 -1.9654 0.9831
3.7628 -0.4339 -1.9650 0.9831
3.7861 -0.0965 -1.9648 0.9831
3.6781 0.9100 -1.9657 0.9831
3.5837 1.2351 -1.9665 0.9831
3.4611 1.5507 -1.9675 0.9831
2.9335 2.4174 -1.9720 0.9830
2.7088 2.6721 -1.9739 0.9830
2.4622 2.9062 -1.9760 0.9830
1.9110 3.3055 -1.9808 0.9829
1.6106 3.4673 -1.9833 0.9829
1.2965 3.6020 -1.9860 0.9829
-0.0456 3.8446 -1.9947 0.9828
-0.3890 3.8311 -1.9977 0.9828
-1.0677 3.7150 -2.0053 0.9827
-1.7167 3.4776 -2.0119 0.9827
-2.0227 3.3149 -2.0146 0.9827
-3.0682 2.4086 -2.0236 0.9826
-3.2737 2.1271 -2.0254 0.9826
-0.9593 0.5078 -0.5631 0.9951
-1.0152 0.3232 -0.5527 0.9952
-1.0256 0.2281 -0.5450 0.9953
-1.0348 0.0416 -0.5373 0.9953
-1.0356 -0.0510 -0.5379 0.9953
-1.0139 -0.3328 -0.5536 0.9952
-0.9920 -0.4271 -0.5603 0.9951
-0.9549 -0.5166 -0.5632 0.9951
-2.8140 -2.6956 -2.0216 0.9826
-1.9832 -2.7302 -1.7506 0.9849
-1.6261 -2.7197 -1.6439 0.9858
-1.3127 -2.7208 -1.5672 0.9865
-0.4903 -2.6712 -1.4089 0.9878
-0.2458 -2.6593 -1.3855 0.9880
0.2279 -2.6279 -1.3684 0.9882
0.4654 -2.6195 -1.3802 0.9881
0.7098 -2.6137 -1.4051 0.9879
1.0091 -2.7261 -1.5080 0.9870
1.6417 -3.4526 -1.9833 0.9829
2.4883 -2.8839 -1.9760 0.9830
2.7327 -2.6476 -1.9739 0.9830
2.9552 -2.3909 -1.9720 0.9830
3.1540 -2.1158 -1.9703 0.9830
3.3276 -1.8246 -1.9688 0.9830
3.4749 -1.5194 -1.9675 0.9831
3.5947 -1.2027 -1.9665 0.9831
3.7817 -0.2076 -1.9648 0.9831
3.7851 0.1306 -1.9648 0.9831
3.6179 1.1291 -1.9662 0.9831
3.3633 1.7561 -1.9683 0.9830
3.1956 2.0506 -1.9698 0.9830
2.7852 2.5906 -1.9733 0.9830
2.5456 2.8317 -1.9753 0.9830
2.2854 3.0509 -1.9776 0.9830
2.0065 3.2466 -1.9799 0.9829
1.7110 3.4170 -1.9825 0.9829
0.7477 3.7615 -1.9895 0.9829
0.4094 3.8167 -1.9914 0.9829
-0.2762 3.8388 -1.9967 0.9828
-0.6186 3.8053 -2.0000 0.9828
-1.2903 3.6497 -2.0082 0.9827
-2.2196 3.1904 -2.0163 0.9826
-2.4984 2.9832 -2.0187 0.9826
-2.7577 2.7514 -2.0209 0.9826
-2.9952 2.4969 -2.0229 0.9826
-3.2089 2.2217 -2.0248 0.9826
-0.9849 0.4480 -0.5613 0.9951
-1.0102 0.3546 -0.5554 0.9952
-1.0202 0.2586 -0.5460 0.9953
-1.0291 -0.2070 -0.5446 0.9953
-1.0009 -0.3965 -0.5585 0.9952
2.5129 -2.5882 -1.9758 0.9837
2.7312 -2.3514 -1.9739 0.9837
3.2490 -1.5407 -1.9694 0.9837
3.3717 -1.2440 -1.9684 0.9837
1.8841 -0.5095 -1.0690 0.9911
1.8853 -0.3329 -1.0486 0.9913
1.8884 -0.1617 -1.0381 0.9914
1.8730 0.0073 -1.0259 0.9915
1.8888 0.1766 -1.0390 0.9914
1.8841 0.3479 -1.0494 0.9913
1.8831 0.5250 -1.0707 0.9911
3.3619 1.2703 -1.9684 0.9837
3.0863 1.8498 -1.9707 0.9837
2.7128 2.3727 -1.9739 0.9837
2.4926 2.6077 -1.9758 0.9837
1.9938 3.0157 -1.9801 0.9836
0.4986 3.6043 -1.9929 0.9835
0.1752 3.6395 -1.9957 0.9835
-0.1504 3.6457 -1.9985 0.9835
-0.4757 3.6228 -2.0013 0.9835
-0.7982 3.5709 -2.0040 0.9835
-1.1151 3.4901 -2.0068 0.9834
-1.4239 3.3812 -2.0094 0.9834
-1.7221 3.2448 -2.0120 0.9834
-2.0072 3.0820 -2.0144 0.9834
-2.2768 2.8939 -2.0168 0.9833
-2.7606 2.4483 -2.0209 0.9833
-2.9707 2.1942 -2.0227 0.9833
-0.9099 0.3510 -0.5342 0.9956
-0.9238 0.2644 -0.5263 0.9956
-0.9400 0.1803 -0.5242 0.9956
-0.9473 0.0952 -0.5215 0.9957
-0.9422 0.0102 -0.5161 0.9957
-0.9472 -0.0746 -0.5204 0.9957
-0.9429 -0.1598 -0.5238 0.9956
-0.9261 -0.2436 -0.5245 0.9956
-0.8696 -0.5040 -0.5505 0.9954
-0.8801 -0.6212 -0.5900 0.9951
-2.8136 -2.3889 -2.0216 0.9833
-2.3395 -2.8452 -2.0175 0.9833
-0.1674 -2.6620 -1.4609 0.9879
0.5449 -2.6177 -1.4644 0.9879
1.6504 -3.2230 -1.9832 0.9836
2.1917 -2.8716 -1.9786 0.9837
2.4366 -2.6618 -1.9765 0.9837
2.6618 -2.4314 -1.9745 0.9837
3.2030 -1.6358 -1.9698 0.9837
1.8790 -0.0479 -1.0294 0.9915
1.8862 0.1206 -1.0352 0.9914
1.8909 0.6517 -1.0954 0.9909
3.1386 1.7579 -1.9703 0.9837
2.9714 2.0324 -1.9717 0.9837
2.7805 2.2913 -1.9733 0.9837
2.5673 2.5326 -1.9752 0.9837
2.3335 2.7543 -1.9772 0.9837
1.8109 3.1323 -1.9816 0.9836
1.5261 3.2854 -1.9841 0.9836
0.9203 3.5135 -1.9893 0.9836
-0.6926 3.5911 -2.0031 0.9835
-1.0116 3.5198 -2.0059 0.9834
-1.3234 3.4201 -2.0086 0.9834
-1.6254 3.2926 -2.0112 0.9834
-2.9041 2.2798 -2.0222 0.9833
-0.8821 0.4670 -0.5467 0.9955
-0.9045 0.3798 -0.5373 0.9955
-0.9203 0.2930 -0.5290 0.9956
-0.9452 0.0380 -0.5181 0.9957
-0.9330 -0.2163 -0.5246 0.9956
-0.9189 -0.3017 -0.5297 0.9956
-0.8793 -0.4757 -0.5476 0.9955
-0.8721 -0.5779 -0.5730 0.9952
-2.8834 -2.3059 -2.0222 0.9833
-2.4230 -2.7762 -2.0182 0.9833
-1.0223 -2.7144 -1.5886 0.9869
-0.7486 -2.6958 -1.5324 0.9873
-0.4916 -2.6784 -1.4915 0.9877
-0.2465 -2.6663 -1.4666 0.9879
-0.0075 -2.6536 -1.4534 0.9880
0.2277 -2.6252 -1.4432 0.9881
1.0093 -2.7267 -1.5925 0.9868
1.5556 -3.2715 -1.9840 0.9836
