ply
format ascii 1.0
element vertex 1586
property float32 x
property float32 y
property float32 z
property float32 I
end_header
7.5108 11.7980 2.4661 0.9448
4.9588 12.1119 2.3077 0.9482
3.7278 12.0748 2.2283 0.9500
2.5699 12.0400 2.1708 0.9512
-1.7554 11.9100 2.1227 0.9523
-2.8498 11.8772 2.1537 0.9516
-3.9858 11.8431 2.2033 0.9505
-5.1851 11.8071 2.2738 0.9490
6.7837 11.8461 2.4070 0.9461
5.5767 12.1305 2.3541 0.9472
4.3013 12.0921 2.2630 0.9492
3.1119 12.0563 2.1955 0.9507
-1.2449 11.9254 2.1142 0.9525
-3.4401 11.8594 2.1773 0.9511
-4.4353 7.2374 1.4967 0.9661
7.4392 11.8030 2.4601 0.9449
7.6869 12.0746 2.1928 0.9437
3.7278 12.0746 1.9359 0.9501
1.4615 12.0065 1.8529 0.9522
-1.7554 11.9099 1.8442 0.9525
-2.8498 11.8770 1.8711 0.9518
-3.9858 11.8429 1.9143 0.9507
-5.1851 11.8069 1.9755 0.9492
-4.6991 6.9864 1.2899 0.9665
6.9010 12.0509 2.1274 0.9454
4.3013 12.0919 1.9661 0.9494
3.1119 12.0561 1.9075 0.9509
0.8924 11.9894 1.8418 0.9525
-2.3264 11.8927 1.8564 0.9521
7.6088 12.0722 2.1861 0.9439
6.2680 12.1061 1.7752 0.9465
3.7685 12.2067 1.6636 0.9498
1.4775 12.1379 1.5923 0.9519
0.3872 12.1051 1.5771 0.9523
-5.1850 11.8067 1.6792 0.9493
-13.4155 13.8234 2.5084 0.9252
6.9703 12.1720 1.8265 0.9450
5.5765 12.1301 1.7385 0.9476
3.1459 12.1880 1.6392 0.9505
0.9021 12.1206 1.5827 0.9522
-0.1797 12.0881 1.5743 0.9524
-2.3518 12.0228 1.5953 0.9518
-3.4400 11.8591 1.6080 0.9514
6.1974 12.1035 1.7707 0.9466
-1.9429 -19.3698 2.0904 0.9247
7.8963 12.4036 1.5789 0.9426
3.7506 12.1486 1.3653 0.9501
2.5979 12.1714 1.3364 0.9512
0.3872 12.1049 1.3005 0.9524
-1.7745 12.0400 1.3068 0.9522
-2.8809 12.0068 1.3259 0.9515
-4.0293 11.9723 1.3565 0.9505
-4.6702 6.9433 0.8985 0.9669
-13.3873 13.7944 2.0641 0.9256
-2.7785 -19.3949 2.1039 0.9242
-1.0287 -19.3424 2.0800 0.9250
7.1182 12.4302 1.5381 0.9440
5.6948 12.3874 1.4640 0.9466
4.3925 12.3482 1.4074 0.9486
3.1459 12.1878 1.3516 0.9506
2.0044 12.1535 1.3227 0.9517
0.9021 12.1204 1.3051 0.9523
-3.4777 11.9888 1.3404 0.9510
-5.9131 11.9157 1.4284 0.9479
-3.6264 -19.4204 2.1214 0.9236
-1.8542 -19.3672 2.0892 0.9247
-1.9430 -19.3701 1.6480 0.9248
6.4157 12.3912 1.1812 0.9455
1.4775 12.1375 1.0351 0.9521
0.3936 12.3050 1.0422 0.9518
-13.3852 13.7922 1.6270 0.9257
-2.7785 -19.3952 1.6586 0.9244
-1.0287 -19.3426 1.6397 0.9252
4.7659 6.8302 0.7050 0.9671
5.6947 12.3872 1.1541 0.9467
4.3924 12.3480 1.1095 0.9487
3.1783 12.3133 1.0765 0.9502
2.0043 12.1534 1.0427 0.9518
-0.1826 12.2877 1.0403 0.9519
-1.2585 12.0553 1.0261 0.9525
-2.3906 12.2214 1.0542 0.9512
-4.7144 12.1016 1.0994 0.9492
-5.9130 11.9155 1.1261 0.9480
-3.6265 -19.4207 1.6724 0.9238
-1.8543 -19.3674 1.6470 0.9249
6.3436 12.3891 1.1783 0.9457
6.8226 13.1772 0.9201 0.9423
3.7587 12.1749 0.7901 0.9502
1.4775 12.1373 0.7582 0.9522
0.3936 12.3049 0.7634 0.9519
-0.2793 4.8786 0.3030 0.9806
-1.7745 12.0396 0.7546 0.9524
-2.8808 12.0064 0.7657 0.9517
-5.3066 12.0836 0.8184 0.9485
4.7636 6.8270 0.5162 0.9672
7.4854 13.0715 0.9341 0.9414
4.3923 12.3479 0.8127 0.9488
3.1832 12.3323 0.7898 0.9502
0.9021 12.1201 0.7536 0.9525
-0.1826 12.2876 0.7620 0.9519
-1.2585 12.0551 0.7516 0.9526
-3.4776 11.9885 0.7741 0.9512
-4.3795 7.1465 0.5198 0.9670
1.5580 -19.8477 0.7850 0.9234
6.7962 13.1262 0.5828 0.9425
5.3101 12.9698 0.5526 0.9454
3.7587 12.1747 0.5024 0.9503
2.6408 12.3722 0.4988 0.9506
-0.2793 4.8794 0.1927 0.9806
-2.8808 12.0062 0.4869 0.9518
-4.0291 11.9717 0.4981 0.9507
-13.3874 13.7945 0.7580 0.9259
7.4874 13.0750 0.5941 0.9415
6.0238 13.1029 0.5686 0.9439
3.1848 12.3386 0.5025 0.9503
2.0043 12.1530 0.4857 0.9519
0.9021 12.1199 0.4792 0.9525
-2.3906 12.2211 0.4910 0.9514
-3.4775 11.9883 0.4922 0.9513
-5.9128 11.9152 0.5245 0.9481
-4.3795 7.1465 0.3305 0.9670
7.9361 12.5915 0.5869 0.9422
7.9458 12.4814 0.2499 0.9425
6.8224 13.1767 0.2506 0.9424
2.6407 12.3721 0.2137 0.9506
-0.2793 4.8802 0.0826 0.9806
-1.7744 12.0393 0.2056 0.9525
-2.8808 12.0061 0.2086 0.9518
-4.0291 11.9716 0.2134 0.9507
-4.6125 6.8576 0.1396 0.9675
-13.4058 13.8135 0.3252 0.9259
3.9158 -17.9888 0.3110 0.9290
3.1847 12.3384 0.2152 0.9503
-3.4775 11.9881 0.2108 0.9513
-4.7335 12.1505 0.2203 0.9492
-5.9127 11.9150 0.2247 0.9482
-4.3883 7.1609 0.1419 0.9670
6.7458 13.1744 0.2500 0.9425
-1.8144 -18.0880 -0.1023 0.9299
3.0310 -17.9266 -0.1024 0.9299
6.4758 -17.9745 -0.1076 0.9264
5.3032 12.9529 -0.0788 0.9456
2.5977 12.1705 -0.0701 0.9514
1.4774 12.1368 -0.0688 0.9523
0.3672 11.4783 -0.0647 0.9551
-0.2794 4.8809 -0.0275 0.9806
-1.7744 12.0391 -0.0685 0.9525
-2.8807 12.0059 -0.0695 0.9518
-5.2976 12.0632 -0.0742 0.9487
-2.5834 -18.0336 -0.1026 0.9297
-0.9677 -18.1960 -0.1026 0.9297
2.2445 -17.8365 -0.1012 0.9306
4.0567 11.4042 -0.0681 0.9527
3.1457 12.1870 -0.0709 0.9509
-1.2584 12.0546 -0.0682 0.9527
-2.3808 12.1710 -0.0698 0.9516
-3.4774 11.9880 -0.0703 0.9513
-6.9373 -18.2689 -0.1100 0.9248
-5.0835 -18.1029 -0.1059 0.9275
-3.3713 -18.0541 -0.1034 0.9292
-1.7306 -18.0764 -0.1022 0.9299
-0.1125 -17.8761 -0.1006 0.9310
3.1119 -17.9115 -0.1024 0.9299
-1.8022 -17.9663 -0.5084 0.9303
-0.1939 -17.9273 -0.5048 0.9308
1.3911 -17.7216 -0.5005 0.9313
3.0033 -17.7630 -0.5073 0.9304
4.6463 -17.7044 -0.5154 0.9294
7.0064 -15.0793 -0.4682 0.9356
4.5567 7.1577 -0.2389 0.9666
6.8036 13.1405 -0.4167 0.9425
3.2773 10.6156 -0.3128 0.9565
2.4012 11.2498 -0.3239 0.9550
0.3625 11.3326 -0.3193 0.9556
-1.7744 12.0390 -0.3427 0.9525
-4.0289 11.9712 -0.3557 0.9507
-4.5982 6.8364 -0.2320 0.9676
-13.4597 13.8690 -0.5442 0.9256
-7.8594 -18.0950 -0.5555 0.9241
-4.2680 -18.1101 -0.5239 0.9282
-0.9504 -17.8705 -0.5039 0.9309
0.6457 -17.9164 -0.5048 0.9308
3.8676 -17.7676 -0.5120 0.9298
5.5310 -17.6620 -0.5211 0.9286
7.6027 -14.5395 -0.4620 0.9365
6.0468 13.1530 -0.4076 0.9437
3.7660 10.5871 -0.3164 0.9560
2.8071 10.8753 -0.3163 0.9561
1.8565 11.2569 -0.3213 0.9554
-2.3516 12.0216 -0.3449 0.9522
-4.3977 7.1761 -0.2370 0.9669
-0.1129 -17.9334 -0.5050 0.9308
3.0848 -17.7556 -0.5074 0.9304
4.7472 -17.7613 -0.5177 0.9291
6.5674 -17.9733 -0.5388 0.9263
6.7272 13.1382 -0.4156 0.9426
-1.8082 -18.0268 -0.9188 0.9300
1.3931 -17.7462 -0.9028 0.9312
2.9970 -17.7254 -0.9117 0.9305
4.6153 -17.5863 -0.9221 0.9298
5.9141 -16.4153 -0.8849 0.9325
9.5944 12.4633 -0.7977 0.9389
4.5391 7.1300 -0.4287 0.9667
6.8221 13.1761 -0.7525 0.9423
1.3241 10.8775 -0.5557 0.9571
-0.2795 4.8825 -0.2480 0.9806
-13.4804 13.8903 -0.9816 0.9254
-7.8708 -18.1213 -1.0019 0.9239
0.6456 -17.9138 -0.9091 0.9307
3.8689 -17.7737 -0.9225 0.9297
7.4477 -14.2432 -0.8151 0.9377
7.4955 13.0890 -0.7649 0.9414
6.0467 13.1528 -0.7341 0.9437
2.8050 10.8672 -0.5692 0.9560
1.7866 10.8333 -0.5568 0.9570
0.8784 11.8018 -0.6002 0.9537
-5.8044 11.6967 -0.6622 0.9490
-4.4020 7.1831 -0.4273 0.9668
3.0845 -17.7543 -0.9139 0.9304
5.9703 -16.3390 -0.8822 0.9327
9.4803 12.4310 -0.7928 0.9393
4.5842 7.2733 -0.4360 0.9662
6.7455 13.1738 -0.7506 0.9424
-0.1955 -18.0702 -1.3250 0.9301
2.9399 -17.3878 -1.2930 0.9317
8.5129 -14.7273 -1.2473 0.9341
4.5366 7.1260 -0.6194 0.9667
4.3004 10.5037 -0.8322 0.9555
3.2329 10.4717 -0.8036 0.9570
2.2570 10.5741 -0.7928 0.9576
-0.2795 4.8833 -0.3586 0.9806
-2.8279 11.7859 -0.8887 0.9526
-3.9552 11.7521 -0.9092 0.9515
-5.1453 11.7163 -0.9383 0.9500
-4.5872 6.8199 -0.6026 0.9676
-7.8935 -18.1737 -1.4528 0.9236
-4.2564 -18.0609 -1.3605 0.9283
-2.5872 -18.0599 -1.3377 0.9294
0.6384 -17.7134 -1.2996 0.9314
2.1905 -17.4078 -1.2864 0.9321
3.7800 -17.3654 -1.3031 0.9312
5.4800 -17.4991 -1.3445 0.9291
6.2725 -15.1456 -1.2020 0.9364
4.8121 6.8964 -0.6166 0.9668
3.7303 10.4866 -0.8161 0.9563
2.8094 10.8841 -0.8242 0.9559
1.7431 10.5694 -0.7854 0.9579
-0.1764 11.8656 -0.8701 0.9535
-4.5710 11.7336 -0.9233 0.9507
-5.8043 11.6965 -0.9574 0.9490
-6.9278 -18.2437 -1.4309 0.9247
-5.0583 -18.0130 -1.3718 0.9277
-3.3890 -18.1491 -1.3537 0.9286
-0.1147 -18.2241 -1.3363 0.9295
1.4495 -17.4538 -1.2842 0.9322
3.0205 -17.3856 -1.2938 0.9317
4.6353 -17.3426 -1.3162 0.9305
5.9654 -16.3257 -1.2744 0.9327
9.6568 12.6624 -1.1676 0.9381
4.5375 7.1991 -0.6240 0.9664
6.7194 13.1228 -1.0810 0.9426
-1.7567 -17.5133 -1.6898 0.9317
4.5519 -17.3450 -1.7216 0.9305
5.9458 -16.5034 -1.6841 0.9319
8.7540 -15.1444 -1.6794 0.9321
13.9221 -11.4919 -1.7331 0.9300
14.7541 -10.1135 -1.7173 0.9306
15.4721 -8.6901 -1.7037 0.9312
17.1963 -2.6893 -1.6710 0.9324
17.2808 1.9494 -1.6696 0.9325
17.0786 3.4885 -1.6735 0.9324
16.7612 5.0136 -1.6796 0.9321
16.3287 6.5181 -1.6879 0.9318
15.7811 7.9956 -1.6984 0.9314
15.1188 9.4390 -1.7111 0.9309
13.2499 10.0156 -1.5946 0.9354
11.5000 12.4633 -1.6281 0.9341
4.5188 7.0982 -0.8078 0.9668
4.3003 10.5036 -1.0896 0.9554
2.2699 10.6346 -1.0440 0.9572
-0.2796 4.8840 -0.4697 0.9805
-1.7419 11.8184 -1.1469 0.9531
-3.9551 11.7519 -1.1904 0.9514
-4.5614 6.7815 -0.7846 0.9677
-9.5749 11.8098 -1.4596 0.9407
-12.5587 10.8212 -1.5914 0.9356
-7.6753 -17.6712 -1.8496 0.9255
-4.1423 -17.5769 -1.7337 0.9300
2.1905 -17.4080 -1.6844 0.9319
6.2574 -15.1091 -1.5700 0.9364
7.4997 -14.3425 -1.5538 0.9370
9.7341 -15.1548 -1.7292 0.9302
11.3789 -14.6583 -1.7815 0.9281
13.4875 -12.1281 -1.7414 0.9297
14.3734 -10.7738 -1.7245 0.9304
15.1455 -9.3708 -1.7099 0.9309
15.8034 -7.9267 -1.6974 0.9314
16.3466 -6.4487 -1.6871 0.9318
17.0879 -3.4185 -1.6730 0.9324
17.2860 -1.8793 -1.6693 0.9325
17.3688 -0.3324 -1.6678 0.9326
17.1890 2.7594 -1.6714 0.9324
16.9263 4.2919 -1.6764 0.9322
16.0554 7.2982 -1.6932 0.9316
14.7249 10.1812 -1.7187 0.9306
12.8307 10.6785 -1.6026 0.9351
11.9529 11.9020 -1.6194 0.9345
10.9715 13.0687 -1.6382 0.9337
4.8307 6.9232 -0.8105 0.9666
7.4744 13.0521 -1.4440 0.9414
1.7513 10.6190 -1.0332 0.9577
-2.1578 11.0310 -1.0791 0.9558
-3.4137 11.7682 -1.1764 0.9520
-12.8840 14.4518 -1.8588 0.9251
-14.3552 13.4683 -1.8898 0.9239
-8.5932 -17.6957 -1.8886 0.9240
-6.7005 -17.6452 -1.8120 0.9270
-4.9418 -17.5982 -1.7549 0.9292
-3.2779 -17.5538 -1.7144 0.9308
-0.1100 -17.4693 -1.6772 0.9322
4.6353 -17.3428 -1.7234 0.9304
6.1789 -16.9100 -1.7284 0.9302
6.9867 -14.8606 -1.5765 0.9361
8.8162 -15.0940 -1.6782 0.9322
10.8055 -15.2066 -1.7909 0.9278
13.0275 -12.7516 -1.7501 0.9294
13.9671 -11.4232 -1.7323 0.9301
14.7933 -10.0423 -1.7166 0.9307
16.9537 -4.1446 -1.6756 0.9323
17.3438 -1.0672 -1.6682 0.9326
17.3662 0.4812 -1.6679 0.9326
16.7421 5.0904 -1.6800 0.9321
16.3037 6.5938 -1.6884 0.9318
15.7503 8.0697 -1.6990 0.9314
15.0821 9.5112 -1.7118 0.9309
11.4502 12.5225 -1.6290 0.9341
10.4148 13.6563 -1.6488 0.9333
4.5153 7.1640 -0.8130 0.9665
6.7193 13.1226 -1.4154 0.9425
-0.1684 -15.5700 -1.8496 0.9392
1.2013 -15.3039 -1.8235 0.9400
5.2739 -14.6382 -1.8482 0.9392
6.6333 -14.2763 -1.8699 0.9386
9.8490 -11.6358 -1.8108 0.9404
11.5469 -9.5313 -1.7785 0.9415
14.1277 -3.5215 -1.7295 0.9430
14.3502 -2.2442 -1.7253 0.9432
14.4228 1.6270 -1.7241 0.9432
14.2485 2.9104 -1.7275 0.9431
11.6097 7.2482 -1.6258 0.9464
8.6406 11.2242 -1.6826 0.9445
4.3003 10.5034 -1.3482 0.9553
2.2699 10.6344 -1.2917 0.9571
0.3383 10.5764 -1.2570 0.9583
-0.2796 4.8848 -0.5812 0.9805
-2.6405 11.0049 -1.3443 0.9554
-3.9551 11.7517 -1.4729 0.9513
-4.5719 6.7972 -0.9731 0.9675
-9.4762 11.6882 -1.7874 0.9412
-12.5563 10.8192 -1.9686 0.9354
-15.7353 11.2827 -2.3000 0.9250
-17.7832 8.4537 -2.3389 0.9237
-18.5857 6.8813 -2.3542 0.9233
-18.5475 -6.9526 -2.3529 0.9233
-17.7370 -8.5198 -2.3374 0.9238
-15.6755 -11.3361 -2.2979 0.9250
-14.4556 -12.5580 -2.2746 0.9258
-11.7236 -14.5802 -2.2224 0.9274
-6.6159 -15.2320 -1.9726 0.9353
-5.1596 -15.5384 -1.9448 0.9362
-3.7019 -15.7082 -1.9170 0.9371
-0.8326 -15.6554 -1.8623 0.9388
0.5566 -15.4444 -1.8358 0.9396
3.2033 -14.7164 -1.7890 0.9411
6.0430 -14.5915 -1.8760 0.9384
9.3928 -12.0998 -1.8195 0.9402
10.3305 -11.1054 -1.8017 0.9407
11.9312 -8.9432 -1.7712 0.9417
12.5904 -7.7899 -1.7587 0.9421
13.1535 -6.5976 -1.7480 0.9424
13.6195 -5.3729 -1.7391 0.9427
13.9875 -4.1223 -1.7322 0.9430
14.2569 -2.8521 -1.7271 0.9431
14.4988 -0.2775 -1.7226 0.9433
14.4708 1.0149 -1.7232 0.9432
14.3436 2.3026 -1.7256 0.9432
13.7922 4.8398 -1.7363 0.9428
13.3688 6.0769 -1.7444 0.9426
12.8478 7.2846 -1.7544 0.9422
11.2989 7.8124 -1.6317 0.9462
9.8944 9.8522 -1.6586 0.9453
9.0639 10.7965 -1.6745 0.9448
4.8346 6.9286 -1.0036 0.9665
7.1577 12.4992 -1.7109 0.9436
6.0231 13.1015 -1.7129 0.9436
1.7513 10.6189 -1.2784 0.9576
-0.1764 11.8653 -1.4096 0.9533
-2.1592 11.0384 -1.3361 0.9557
-3.1875 10.9884 -1.3591 0.9550
-4.5709 11.7332 -1.4958 0.9505
-5.8041 11.6961 -1.5510 0.9488
-7.5499 12.3198 -1.7164 0.9435
-10.2583 13.8082 -2.0433 0.9331
-11.5891 12.9994 -2.0687 0.9323
-12.8477 12.0540 -2.0927 0.9315
-18.2247 7.6391 -2.3473 0.9235
-18.1414 -7.7876 -2.3451 0.9236
-17.2494 -9.3036 -2.3280 0.9241
-16.2133 -10.7105 -2.3082 0.9247
-15.0486 -11.9947 -2.2859 0.9254
-13.7722 -13.1451 -2.2615 0.9262
-7.3025 -15.0378 -1.9858 0.9349
-2.9399 -15.7439 -1.9025 0.9375
-1.5044 -15.7136 -1.8751 0.9384
-0.0979 -15.5593 -1.8483 0.9392
1.2696 -15.2873 -1.8222 0.9401
2.5895 -14.9048 -1.7970 0.9409
5.3478 -14.6355 -1.8509 0.9392
7.8503 -13.4403 -1.8489 0.9392
8.9168 -12.5485 -1.8286 0.9399
10.7869 -10.5584 -1.7930 0.9410
11.5851 -9.4751 -1.7778 0.9415
12.8983 -7.1679 -1.7528 0.9423
13.4105 -5.9578 -1.7431 0.9426
14.3589 -2.1790 -1.7252 0.9432
14.4773 -0.8908 -1.7230 0.9432
14.4965 0.4017 -1.7226 0.9433
14.2370 2.9752 -1.7277 0.9431
13.9588 4.2442 -1.7331 0.9429
13.1072 6.7155 -1.7494 0.9424
9.4685 10.3553 -1.6668 0.9450
8.5943 11.2691 -1.6835 0.9445
4.5212 7.1733 -1.0072 0.9664
-0.1528 -14.1258 -2.0016 0.9445
1.0924 -13.9162 -1.9778 0.9452
2.3000 -13.6034 -1.9548 0.9458
4.5727 -12.6920 -1.9115 0.9470
6.6139 -11.4421 -1.8726 0.9480
7.5351 -10.7064 -1.8550 0.9485
9.1594 -9.0468 -1.8241 0.9493
11.4598 -5.1534 -1.7804 0.9505
11.8268 -4.0965 -1.7734 0.9507
12.1081 -3.0181 -1.7681 0.9508
12.4113 -0.8200 -1.7624 0.9510
12.2137 2.4948 -1.7663 0.9509
11.2381 5.6938 -1.7850 0.9504
9.9253 6.1965 -1.6579 0.9538
9.3916 7.0992 -1.6681 0.9536
4.5281 7.1128 -1.1947 0.9665
5.6455 10.9037 -1.7397 0.9516
2.2698 10.6343 -1.5407 0.9570
1.2909 10.6049 -1.5137 0.9578
0.3383 10.5763 -1.4993 0.9582
-0.2797 4.8859 -0.6934 0.9804
-2.6405 11.0047 -1.6035 0.9553
-3.9550 11.7515 -1.7568 0.9511
-10.0204 10.3252 -2.0386 0.9435
-10.9997 9.4779 -2.0573 0.9430
-11.8980 8.5312 -2.0744 0.9426
-14.5101 6.8978 -2.2764 0.9372
-15.6511 4.2549 -2.2981 0.9366
-16.2351 1.4182 -2.3091 0.9363
-15.6284 -4.3167 -2.2973 0.9366
-14.4742 -6.9526 -2.2752 0.9372
-12.8318 -9.2796 -2.2437 0.9380
-10.7915 -11.2100 -2.2047 0.9391
-1.8418 -3.3801 -0.5454 0.9846
-2.0393 -14.2353 -2.0376 0.9436
1.7320 -13.7643 -1.9656 0.9455
4.0526 -12.9409 -1.9214 0.9467
5.1331 -12.3944 -1.9008 0.9472
6.1527 -11.7666 -1.8814 0.9478
7.1066 -11.0641 -1.8632 0.9483
7.9906 -10.2935 -1.8464 0.9487
9.5353 -8.5743 -1.8169 0.9495
11.2560 -5.6458 -1.7842 0.9504
12.2213 -2.4449 -1.7659 0.9509
12.3708 -1.3449 -1.7631 0.9510
12.2971 1.9741 -1.7647 0.9509
12.0987 3.0678 -1.7685 0.9508
11.4436 5.2018 -1.7811 0.9505
9.6544 6.6753 -1.6631 0.9537
7.7153 9.1901 -1.7002 0.9527
4.8724 6.9828 -1.2064 0.9662
6.0731 10.6050 -1.7316 0.9518
5.1563 11.2160 -1.7491 0.9514
2.9107 11.2766 -1.6501 0.9540
0.7882 10.5898 -1.5046 0.9580
-1.2353 11.8333 -1.6858 0.9531
-2.1609 11.0469 -1.5949 0.9555
-4.5708 11.7330 -1.7841 0.9504
-7.3288 11.9591 -1.9874 0.9449
-9.5309 10.6907 -2.0293 0.9438
-11.4825 8.9925 -2.0665 0.9428
-12.3335 7.9966 -2.0827 0.9423
-14.1643 7.4837 -2.2698 0.9373
-14.8606 6.2290 -2.2831 0.9370
-15.8604 3.5235 -2.3020 0.9365
-16.2834 -0.7963 -2.3099 0.9363
-15.8227 -3.6576 -2.3010 0.9365
-14.0867 -7.5978 -2.2677 0.9374
-1.7009 -3.5025 -0.5517 0.9844
-1.4593 -3.8429 -0.5824 0.9835
-2.6549 -14.2178 -2.0493 0.9432
-0.0889 -14.1177 -2.0004 0.9446
5.6767 -12.0742 -1.8904 0.9475
6.6623 -11.4064 -1.8717 0.9480
8.4258 -9.8636 -1.8381 0.9489
9.1966 -9.0018 -1.8234 0.9493
9.8895 -8.0883 -1.8102 0.9497
11.0332 -6.1314 -1.7885 0.9503
11.4805 -5.1003 -1.7800 0.9505
12.4144 -0.7639 -1.7623 0.9510
12.4312 0.3445 -1.7620 0.9510
12.3609 1.4511 -1.7634 0.9510
11.9598 3.6364 -1.7712 0.9508
11.6300 4.7036 -1.7775 0.9506
11.2150 5.7460 -1.7855 0.9504
9.9000 6.2432 -1.6584 0.9538
9.3626 7.1439 -1.6686 0.9535
8.0652 8.8206 -1.6935 0.9529
7.3097 9.5847 -1.7079 0.9525
-1.2251 -12.2134 -2.0221 0.9515
-0.1314 -12.1474 -2.0013 0.9519
0.9410 -11.9870 -1.9808 0.9524
5.7394 -9.9291 -1.8893 0.9546
6.5469 -9.3023 -1.8739 0.9549
7.9756 -7.8776 -1.8467 0.9556
8.5905 -7.0909 -1.8350 0.9558
10.0098 -4.5013 -1.8081 0.9565
10.3353 -3.5799 -1.8019 0.9566
10.5852 -2.6385 -1.7972 0.9567
10.7585 -1.6825 -1.7939 0.9568
10.8547 -0.7172 -1.7921 0.9569
10.8735 0.2521 -1.7918 0.9569
10.8148 1.2200 -1.7929 0.9568
10.6789 2.1813 -1.7956 0.9568
10.4661 3.1306 -1.7997 0.9567
10.1771 4.0625 -1.8052 0.9565
8.6606 5.4070 -1.6820 0.9595
8.1886 6.1898 -1.6910 0.9592
7.0505 7.6411 -1.7128 0.9587
2.2856 10.7082 -1.8038 0.9566
1.2967 10.6527 -1.7679 0.9574
0.3383 10.5761 -1.7432 0.9580
-1.6633 11.2853 -1.8792 0.9548
-2.6405 11.0046 -1.8643 0.9552
-4.7295 10.7695 -1.9377 0.9534
-8.4951 8.7534 -2.0095 0.9518
-10.7288 6.3282 -2.0520 0.9508
-12.2424 5.8198 -2.2331 0.9465
-12.7689 4.7277 -2.2431 0.9463
-13.1854 3.5846 -2.2510 0.9461
-13.6672 1.1939 -2.2601 0.9459
-13.6609 -1.2490 -2.2599 0.9459
-13.1671 -3.6368 -2.2504 0.9461
-12.7449 -4.7775 -2.2423 0.9463
-10.8507 -7.8469 -2.2060 0.9472
-10.0377 -8.7200 -2.1904 0.9475
-9.1500 -9.5049 -2.1735 0.9479
-2.4404 -3.0350 -0.6416 0.9843
-2.0207 -3.0306 -0.6001 0.9853
-2.8590 -12.1317 -2.0533 0.9507
-0.6484 -12.1907 -2.0111 0.9517
3.5047 -11.1912 -1.9319 0.9536
5.3358 -10.2044 -1.8970 0.9544
6.9469 -8.9490 -1.8663 0.9551
7.6600 -8.2346 -1.8527 0.9554
9.3937 -5.8120 -1.8198 0.9562
9.8290 -4.9300 -1.8115 0.9564
10.1902 -4.0200 -1.8046 0.9566
10.4761 -3.0875 -1.7992 0.9567
10.6858 -2.1377 -1.7953 0.9568
10.8742 -0.2081 -1.7917 0.9569
10.8523 0.7611 -1.7922 0.9569
10.7530 1.7262 -1.7941 0.9568
10.5767 2.6819 -1.7975 0.9567
8.8613 5.0243 -1.6781 0.9595
7.9143 6.5868 -1.6963 0.9591
7.3434 7.3120 -1.7072 0.9589
6.7104 7.9931 -1.7193 0.9586
4.5095 7.8748 -1.4949 0.9639
4.4680 9.7188 -1.7622 0.9576
3.6180 10.1709 -1.7784 0.9572
2.7239 10.5530 -1.7955 0.9568
1.7610 10.6779 -1.7828 0.9571
0.7884 10.5926 -1.7498 0.9579
-3.1874 10.9881 -1.8848 0.9547
-4.2495 10.9082 -1.9286 0.9537
-6.2371 10.1776 -1.9664 0.9528
-5.0459 6.7921 -1.3939 0.9663
-8.0857 9.0696 -2.0017 0.9519
-9.7144 7.6078 -2.0327 0.9512
-10.4218 6.7571 -2.0462 0.9509
-12.5324 5.2531 -2.2386 0.9464
-13.3582 2.9676 -2.2543 0.9460
-13.5965 1.7699 -2.2588 0.9459
-13.7133 0.5529 -2.2609 0.9459
-13.7070 -0.6703 -2.2608 0.9459
-13.5777 -1.8860 -2.2583 0.9459
-13.3274 -3.0808 -2.2534 0.9461
-12.9594 -4.2418 -2.2464 0.9462
-12.4788 -5.3568 -2.2372 0.9464
-10.4335 -8.3162 -2.1980 0.9473
-9.5800 -9.1437 -2.1817 0.9477
-2.6578 -3.0331 -0.6644 0.9838
-1.2881 -3.3921 -0.5977 0.9854
-1.0918 -3.8879 -0.6653 0.9838
-1.1692 -12.2124 -2.0211 0.9515
-0.0764 -12.1415 -2.0002 0.9520
0.9947 -11.9764 -1.9798 0.9524
2.0364 -11.7215 -1.9599 0.9529
3.0419 -11.3812 -1.9407 0.9534
4.9199 -10.4645 -1.9049 0.9542
5.7818 -9.8988 -1.8885 0.9546
6.5863 -9.2689 -1.8732 0.9550
7.3297 -8.5803 -1.8590 0.9553
8.0084 -7.8388 -1.8461 0.9556
8.6198 -7.0499 -1.8345 0.9559
10.0281 -4.4551 -1.8077 0.9565
10.5958 -2.5903 -1.7969 0.9567
10.8724 0.3013 -1.7918 0.9569
10.8098 1.2690 -1.7930 0.9568
10.4533 3.1783 -1.7999 0.9567
9.7797 5.0106 -1.8102 0.9564
8.6383 5.4475 -1.6824 0.9594
7.0184 7.6757 -1.7134 0.9587
6.3539 8.3315 -1.7261 0.9584
4.5049 7.1475 -1.3918 0.9663
4.8547 9.4811 -1.7548 0.9577
4.2973 -9.2487 -1.9169 0.9593
6.4479 -7.6177 -1.8759 0.9602
7.6064 -6.2786 -1.8538 0.9607
8.5189 -4.7847 -1.8365 0.9610
9.1703 -3.1764 -1.8241 0.9613
9.6370 -0.6367 -1.8153 0.9615
9.6539 0.2238 -1.8150 0.9615
9.6011 1.0831 -1.8161 0.9614
8.6986 4.4072 -1.8329 0.9611
7.6754 4.7919 -1.7007 0.9638
6.2355 6.7578 -1.7283 0.9633
2.8150 9.1181 -1.7937 0.9619
2.0091 9.4126 -1.8091 0.9616
0.3132 9.7919 -1.8414 0.9609
-0.2799 4.8904 -0.9207 0.9803
-1.4547 9.8698 -1.8752 0.9602
-2.3489 9.7893 -1.8922 0.9599
-3.2400 9.6270 -1.9092 0.9595
-4.5839 6.8150 -1.5438 0.9671
-8.0658 6.9499 -2.0012 0.9576
-9.2761 5.4714 -2.0243 0.9571
-11.3794 3.0936 -2.2165 0.9531
-11.7886 1.0298 -2.2242 0.9530
-11.7834 -1.0774 -2.2241 0.9530
-11.0051 -4.1253 -2.2091 0.9533
-10.0119 -5.9601 -2.1901 0.9537
-9.3902 -6.7907 -2.1782 0.9539
-3.8098 -3.3097 -0.9486 0.9797
-2.8460 -2.9563 -0.7713 0.9834
-1.9798 -2.9693 -0.6708 0.9856
-1.6271 -2.9862 -0.6392 0.9863
0.3816 -10.5886 -1.9915 0.9578
1.3111 -10.4190 -1.9738 0.9582
2.2141 -10.1714 -1.9566 0.9585
3.0845 -9.8496 -1.9400 0.9589
5.4484 -8.4825 -1.8949 0.9598
7.3530 -6.6119 -1.8587 0.9606
7.8706 -5.8995 -1.8488 0.9608
8.3255 -5.1511 -1.8402 0.9609
8.7158 -4.3717 -1.8328 0.9611
9.2968 -2.7399 -1.8217 0.9613
9.6046 -1.0442 -1.8159 0.9614
9.6348 0.6757 -1.8154 0.9615
9.1597 3.2142 -1.8246 0.9613
8.8646 4.0295 -1.8303 0.9611
8.3184 4.7165 -1.7974 0.9618
6.4969 6.4692 -1.7233 0.9634
5.9320 7.0660 -1.7341 0.9631
4.1888 7.3148 -1.5844 0.9663
3.9383 8.5667 -1.7722 0.9624
3.1856 8.9554 -1.7866 0.9621
2.3956 9.2812 -1.8017 0.9617
1.5734 9.5401 -1.8174 0.9614
0.7241 9.7283 -1.8336 0.9611
-0.1463 9.8425 -1.8502 0.9607
-3.7043 9.5087 -1.9181 0.9593
-4.5755 9.2202 -1.9347 0.9590
-5.0065 6.7391 -1.5780 0.9664
-7.0142 7.8677 -1.9812 0.9580
-8.4098 6.5861 -2.0078 0.9575
-9.5463 5.0438 -2.0294 0.9570
-10.8239 4.5370 -2.2060 0.9534
-11.2234 3.5675 -2.2136 0.9532
-11.7286 1.5268 -2.2231 0.9530
-11.8278 0.4768 -2.2250 0.9530
-11.7128 -1.6269 -2.2227 0.9530
-11.5002 -2.6584 -2.2186 0.9531
-11.1874 -3.6619 -2.2126 0.9532
-10.2791 -5.5441 -2.1952 0.9536
-9.0336 -7.2003 -2.1713 0.9541
-3.3278 -3.1763 -0.8647 0.9815
-1.7882 -2.9749 -0.6524 0.9860
-1.9891 -10.6520 -2.0368 0.9569
-0.0670 -10.6408 -2.0001 0.9576
1.7892 -10.2984 -1.9647 0.9583
2.6758 -10.0113 -1.9478 0.9587
6.4802 -7.5860 -1.8753 0.9602
7.6326 -6.2424 -1.8533 0.9607
8.1175 -5.5105 -1.8441 0.9609
8.5387 -4.7452 -1.8361 0.9610
8.8944 -3.9515 -1.8294 0.9612
9.1833 -3.1344 -1.8239 0.9613
9.4043 -2.2990 -1.8197 0.9614
9.6395 -0.5931 -1.8153 0.9615
9.5966 1.1266 -1.8162 0.9614
9.2761 2.8204 -1.8224 0.9613
9.0131 3.6452 -1.8274 0.9612
8.6770 4.4457 -1.8325 0.9611
7.6554 4.8277 -1.7011 0.9638
6.7460 6.1714 -1.7185 0.9635
6.2068 6.7881 -1.7289 0.9633
5.1167 6.7092 -1.5860 0.9662
-0.9524 -9.4946 -2.0170 0.9617
0.7348 -9.3611 -1.9848 0.9623
1.5531 -9.1857 -1.9692 0.9626
2.3466 -8.9417 -1.9541 0.9629
3.8387 -8.2617 -1.9257 0.9634
4.5279 -7.8333 -1.9125 0.9637
6.8186 -5.6283 -1.8689 0.9645
7.2599 -4.9764 -1.8605 0.9647
7.6440 -4.2933 -1.8532 0.9648
7.9693 -3.5837 -1.8470 0.9649
8.2342 -2.8521 -1.8420 0.9650
8.6575 -0.5720 -1.8340 0.9651
8.6249 0.9730 -1.8347 0.9651
8.3405 2.4948 -1.8402 0.9650
6.5030 4.9156 -1.7231 0.9672
6.0686 5.5015 -1.7314 0.9671
5.5844 6.0522 -1.7407 0.9669
5.0527 6.5635 -1.7509 0.9667
4.2458 6.6693 -1.6712 0.9682
3.8581 7.4515 -1.7737 0.9663
3.2018 7.8203 -1.7862 0.9660
2.5112 8.1340 -1.7994 0.9658
1.7906 8.3889 -1.8132 0.9655
0.2786 8.7100 -1.8421 0.9650
-0.2801 4.8926 -1.0359 0.9802
-1.2913 8.7615 -1.8720 0.9644
-2.8703 8.5286 -1.9021 0.9639
-4.2846 6.3701 -1.6228 0.9691
-5.1554 6.3588 -1.7304 0.9671
-6.4946 6.6921 -1.9712 0.9626
-7.6642 5.4955 -1.9935 0.9622
-9.2842 4.4135 -2.1729 0.9588
-9.9983 2.7181 -2.1901 0.9585
-10.2201 1.8206 -2.1943 0.9584
-10.3966 -0.0210 -2.1976 0.9584
-10.2112 -1.8616 -2.1940 0.9585
-9.9851 -2.7580 -2.1897 0.9585
-9.6733 -3.6261 -2.1837 0.9586
-9.2799 -4.4575 -2.1761 0.9588
-8.2679 -5.9791 -2.1568 0.9591
-2.8036 -2.9124 -0.8545 0.9836
-2.3380 -2.9077 -0.7887 0.9849
-1.2885 -2.9667 -0.6837 0.9869
-1.0565 -3.1819 -0.7087 0.9864
-0.8356 -3.5455 -0.7700 0.9852
-1.3584 -9.4821 -2.0248 0.9616
-0.5046 -9.4884 -2.0085 0.9619
3.4975 -8.4451 -1.9322 0.9633
4.2060 -8.0436 -1.9187 0.9636
6.0679 -6.5231 -1.8832 0.9642
7.4689 -4.6211 -1.8565 0.9647
8.3489 -2.4606 -1.8398 0.9650
8.6282 -0.9380 -1.8346 0.9651
8.6735 -0.1660 -1.8337 0.9652
8.6556 0.6071 -1.8341 0.9651
8.5745 1.3765 -1.8357 0.9651
8.4306 2.1377 -1.8385 0.9651
8.2245 2.8860 -1.8424 0.9650
7.6125 4.3162 -1.8498 0.9649
6.6911 4.6264 -1.7195 0.9673
6.2811 5.2275 -1.7274 0.9671
4.1474 7.2423 -1.7641 0.9665
2.8430 7.9922 -1.7931 0.9659
2.1360 8.2754 -1.8066 0.9657
1.4015 8.4982 -1.8206 0.9654
0.6444 8.6574 -1.8351 0.9651
-0.1301 8.7504 -1.8499 0.9649
-1.7073 8.7283 -1.8800 0.9643
-2.4976 8.6101 -1.8950 0.9640
-4.1947 6.8448 -1.6969 0.9677
-4.7305 6.3675 -1.6767 0.9681
-6.1873 6.9402 -1.9654 0.9627
-7.9335 5.1438 -1.9986 0.9621
-9.5157 3.9886 -2.1810 0.9587
-9.8628 3.1350 -2.1876 0.9586
-10.3013 1.3410 -2.1959 0.9584
-10.3874 0.4188 -2.1975 0.9584
-10.3829 -0.5077 -2.1974 0.9584
-10.2878 -1.4290 -2.1955 0.9584
-10.1033 -2.3355 -2.1919 0.9585
-9.4765 -4.0680 -2.1799 0.9587
-9.0420 -4.8769 -2.1716 0.9589
-3.0479 -2.9092 -0.8906 0.9829
-2.5492 -2.9092 -0.8176 0.9843
-0.9398 -3.3467 -0.7348 0.9859
-0.0596 -9.4614 -2.0000 0.9621
0.7768 -9.3540 -1.9840 0.9624
1.5940 -9.1750 -1.9685 0.9626
2.3861 -8.9276 -1.9534 0.9629
3.1479 -8.6151 -1.9388 0.9632
3.8746 -8.2413 -1.9250 0.9635
5.2055 -7.3256 -1.8996 0.9639
6.3487 -6.2142 -1.8778 0.9643
7.2808 -4.9425 -1.8601 0.9647
7.6619 -4.2579 -1.8529 0.9648
7.9842 -3.5471 -1.8467 0.9649
8.6598 -0.5328 -1.8340 0.9651
8.6719 0.2403 -1.8338 0.9652
8.6208 1.0120 -1.8348 0.9651
8.5067 1.7777 -1.8370 0.9651
8.3300 2.5328 -1.8404 0.9650
7.0113 4.4215 -1.7521 0.9667
6.4822 4.9461 -1.7235 0.9672
6.0452 5.5303 -1.7319 0.9671
5.0245 6.5883 -1.7514 0.9667
3.8257 7.4715 -1.7743 0.9663
-0.4194 -4.1817 -0.9877 0.9829
-0.0921 -8.5121 -2.0007 0.9656
0.6614 -8.4255 -1.9863 0.9659
1.3990 -8.2742 -1.9722 0.9661
2.1154 -8.0605 -1.9586 0.9663
2.8057 -7.7875 -1.9454 0.9666
3.4654 -7.4582 -1.9328 0.9668
5.2213 -6.1685 -1.8994 0.9673
6.5754 -4.5073 -1.8736 0.9678
6.9259 -3.8900 -1.8669 0.9679
7.2229 -3.2481 -1.8613 0.9680
7.6509 -1.9071 -1.8532 0.9681
7.7801 -1.2167 -1.8507 0.9682
7.7206 1.5770 -1.8520 0.9681
7.5620 2.2619 -1.8550 0.9681
7.3469 2.9327 -1.8592 0.9680
6.7342 4.2043 -1.8658 0.9679
5.8885 4.4511 -1.7348 0.9701
5.4927 4.9794 -1.7424 0.9700
4.0447 6.3534 -1.7701 0.9695
1.6134 7.5589 -1.8165 0.9687
0.2507 7.8359 -1.8426 0.9683
-1.1598 7.8694 -1.8695 0.9678
-1.8694 7.7909 -1.8830 0.9676
-2.5738 7.6477 -1.8964 0.9674
-5.8020 5.9785 -1.9580 0.9663
-6.3446 5.4668 -1.9683 0.9662
-8.9069 2.4214 -2.1693 0.9628
-9.1026 1.6215 -2.1730 0.9627
-9.2202 0.8054 -2.1752 0.9627
-9.2163 -0.8427 -2.1751 0.9627
-7.8569 -4.6772 -2.1490 0.9631
-2.3007 -2.8613 -0.8629 0.9850
-1.5769 -2.8940 -0.7746 0.9865
-1.2612 -2.9036 -0.7440 0.9871
-0.7895 -3.3499 -0.8089 0.9860
-0.5592 -3.9034 -0.9267 0.9839
0.3054 -8.4748 -1.9931 0.9658
1.7783 -8.1695 -1.9650 0.9662
4.9682 -6.4001 -1.9042 0.9673
5.4896 -5.9014 -1.8943 0.9674
6.7662 -4.1863 -1.8700 0.9678
7.0887 -3.5556 -1.8638 0.9679
7.3570 -2.9023 -1.8587 0.9680
7.5697 -2.2309 -1.8547 0.9681
7.7260 -1.5456 -1.8518 0.9681
7.8664 -0.1506 -1.8491 0.9682
7.8500 0.5506 -1.8495 0.9682
7.2116 3.2781 -1.8618 0.9680
6.2677 4.3336 -1.7909 0.9692
5.6863 4.7325 -1.7387 0.9701
4.8030 5.7211 -1.7556 0.9698
1.2624 7.6543 -1.8232 0.9686
-0.1169 7.8689 -1.8496 0.9682
-0.8231 7.8842 -1.8630 0.9680
-2.2405 7.7237 -1.8901 0.9675
-2.9399 7.5464 -1.9034 0.9673
-5.5292 6.2021 -1.9528 0.9664
-8.0731 4.2654 -2.1459 0.9632
-8.4809 3.5549 -2.1612 0.9629
-9.0194 2.0037 -2.1714 0.9627
-9.2502 0.3729 -2.1758 0.9627
-9.2462 -0.4521 -2.1757 0.9627
-9.1623 -1.2727 -2.1740 0.9627
-8.9996 -2.0804 -2.1709 0.9628
-8.4464 -3.6258 -2.1603 0.9629
-7.6127 -5.0290 -2.1443 0.9632
-3.5891 -2.8607 -1.0787 0.9813
-3.0104 -2.8734 -0.9781 0.9830
-2.0957 -2.8720 -0.8356 0.9855
-0.8943 -3.1848 -0.7775 0.9865
-0.6668 -3.5708 -0.8537 0.9852
-0.4012 -4.1905 -0.9894 0.9829
2.1511 -8.0481 -1.9579 0.9663
2.8399 -7.7721 -1.9447 0.9666
3.4979 -7.4401 -1.9322 0.9668
4.1210 -7.0554 -1.9203 0.9670
5.7451 -5.6238 -1.8894 0.9675
7.8650 0.2179 -1.8492 0.9682
7.8183 0.9178 -1.8501 0.9682
7.5524 2.2963 -1.8552 0.9681
7.3345 2.9663 -1.8594 0.9680
7.0611 3.6177 -1.8647 0.9679
6.7145 4.2344 -1.8657 0.9679
5.4714 5.0053 -1.7428 0.9700
5.0283 5.4993 -1.7513 0.9698
4.5427 5.9565 -1.7606 0.9697
4.0171 6.3735 -1.7706 0.9695
-0.3743 -3.7313 -0.9710 0.9846
1.2714 -7.5199 -1.9747 0.9690
1.9237 -7.3304 -1.9622 0.9692
3.1552 -6.7907 -1.9388 0.9695
4.7614 -5.6252 -1.9082 0.9700
6.0034 -4.1152 -1.8845 0.9704
6.5983 -2.9672 -1.8732 0.9705
6.8209 -2.3626 -1.8690 0.9706
6.9920 -1.7429 -1.8658 0.9707
7.1109 -1.1120 -1.8635 0.9707
7.1898 0.1667 -1.8621 0.9707
6.9101 2.0669 -1.8675 0.9706
6.4635 3.2747 -1.8760 0.9705
6.1650 3.8489 -1.8818 0.9704
5.6810 4.2943 -1.8439 0.9710
4.6078 4.9938 -1.7593 0.9723
4.1648 5.4101 -1.7678 0.9722
3.6856 5.7893 -1.7769 0.9720
2.6298 6.4233 -1.7971 0.9717
-0.2749 4.8025 -1.2455 0.9803
-1.0516 7.1351 -1.8674 0.9706
-2.3306 6.9248 -1.8918 0.9703
-2.9564 6.7320 -1.9037 0.9701
-3.5657 6.4813 -1.9153 0.9699
-4.1527 6.1740 -1.9265 0.9697
-4.7118 5.8117 -1.9372 0.9696
-5.7244 4.9324 -1.9565 0.9693
-6.8830 4.0598 -2.0690 0.9675
-7.4715 3.5518 -2.1420 0.9664
-8.1968 1.4602 -2.1557 0.9662
-8.1899 -1.4931 -2.1555 0.9662
-7.4550 -3.5809 -2.1414 0.9664
-7.0829 -4.2164 -2.1342 0.9665
-6.6536 -4.8117 -2.1260 0.9666
-1.5546 -2.8530 -0.8412 0.9867
-0.9810 -2.9545 -0.8060 0.9872
-0.7515 -3.1887 -0.8482 0.9866
-0.5111 -3.5674 -0.9331 0.9852
-0.2015 -3.7886 -0.9823 0.9844
2.2575 -7.2088 -1.9559 0.9693
3.4593 -6.6157 -1.9330 0.9696
4.0126 -6.2472 -1.9224 0.9698
4.5296 -5.8350 -1.9126 0.9699
5.0072 -5.3828 -1.9035 0.9701
5.8339 -4.3729 -1.8877 0.9703
6.1786 -3.8228 -1.8812 0.9704
6.7216 -2.6517 -1.8709 0.9706
6.9173 -2.0386 -1.8672 0.9706
7.1522 -0.7776 -1.8627 0.9707
7.1903 -0.1376 -1.8620 0.9707
7.1752 0.5032 -1.8623 0.9707
7.1070 1.1409 -1.8637 0.9707
6.3127 3.5793 -1.8789 0.9705
5.9743 4.1308 -1.8806 0.9704
4.8046 4.7841 -1.7555 0.9724
4.3797 5.2169 -1.7637 0.9722
3.4202 5.9725 -1.7820 0.9720
2.8911 6.2888 -1.7921 0.9718
1.7509 6.7833 -1.8139 0.9715
0.5267 7.0763 -1.8373 0.9711
-1.3893 7.1025 -1.8738 0.9705
-2.0293 6.9959 -1.8860 0.9704
-3.2789 6.6075 -1.9099 0.9700
-3.8772 6.3268 -1.9213 0.9698
-4.4503 5.9903 -1.9322 0.9696
-4.9925 5.6001 -1.9425 0.9695
-5.4985 5.1588 -1.9522 0.9693
-6.3807 4.1370 -1.9689 0.9691
-7.2912 3.8523 -2.1351 0.9665
-7.6411 3.2028 -2.1452 0.9663
-7.9150 2.5159 -2.1504 0.9663
-8.1224 1.8044 -2.1543 0.9662
-8.2608 1.0754 -2.1569 0.9662
-8.3251 -0.4071 -2.1581 0.9661
-7.8907 -2.5828 -2.1497 0.9663
-7.2669 -3.9195 -2.1378 0.9665
-6.8642 -4.5345 -2.1300 0.9666
-3.5549 -2.8335 -1.1770 0.9814
-2.9730 -2.8376 -1.0641 0.9832
-1.7106 -2.8459 -0.8597 0.9864
-1.3894 -2.8612 -0.8235 0.9869
-0.8635 -3.0750 -0.8270 0.9869
-0.6303 -3.3752 -0.8890 0.9859
1.9563 -7.3193 -1.9616 0.9692
2.5843 -7.0726 -1.9496 0.9694
3.7543 -6.4277 -1.9273 0.9697
4.7856 -5.6022 -1.9077 0.9700
5.2415 -5.1304 -1.8990 0.9701
5.6540 -4.6242 -1.8912 0.9703
6.0209 -4.0873 -1.8842 0.9704
6.3404 -3.5235 -1.8781 0.9705
6.6108 -2.9369 -1.8730 0.9706
7.1155 -1.0798 -1.8634 0.9707
7.1788 -0.4417 -1.8622 0.9707
6.9013 2.0983 -1.8676 0.9706
6.4495 3.3044 -1.8763 0.9705
6.1476 3.8768 -1.8818 0.9704
5.6289 4.2950 -1.8332 0.9712
4.9924 4.5672 -1.7519 0.9724
4.1413 5.4303 -1.7682 0.9722
-0.3431 -3.4210 -0.9733 0.9858
0.6805 -4.0246 -1.1555 0.9832
1.7623 -6.7150 -1.9653 0.9716
3.9123 -5.5589 -1.9244 0.9721
4.7941 -4.7352 -1.9076 0.9724
5.1768 -4.2731 -1.9003 0.9725
6.0675 -2.7285 -1.8834 0.9727
6.2733 -2.1729 -1.8794 0.9728
6.4316 -1.6032 -1.8765 0.9728
6.6026 -0.4362 -1.8732 0.9729
6.4908 1.3258 -1.8754 0.9728
6.3558 1.9011 -1.8780 0.9728
5.6669 3.5380 -1.8913 0.9726
5.3373 4.0345 -1.8941 0.9726
4.2315 4.5859 -1.7665 0.9744
3.3818 5.3121 -1.7827 0.9742
2.4108 5.8884 -1.8013 0.9739
1.8874 6.1134 -1.8113 0.9738
1.3432 6.2930 -1.8216 0.9736
0.7821 6.4252 -1.8324 0.9735
-0.2743 4.7929 -1.3591 0.9802
-0.9609 6.5197 -1.8656 0.9730
-1.5468 6.4466 -1.8768 0.9728
-2.1271 6.3204 -1.8879 0.9727
-3.2509 5.9092 -1.9093 0.9724
-3.7842 5.6260 -1.9195 0.9722
-4.7682 4.9132 -1.9382 0.9719
-5.2092 4.4885 -1.9466 0.9718
-6.4447 3.8013 -2.1182 0.9694
-6.7921 3.2288 -2.1290 0.9692
-7.0701 2.6177 -2.1343 0.9691
-7.2892 1.9816 -2.1384 0.9691
-7.5726 -0.0153 -2.1437 0.9690
-7.5388 -0.6893 -2.1431 0.9690
-7.4409 -1.3566 -2.1412 0.9690
-7.2800 -2.0108 -2.1381 0.9691
-7.0579 -2.6457 -2.1338 0.9692
-6.0526 -4.3771 -2.1146 0.9694
-3.2039 -2.7833 -1.2014 0.9825
-2.7287 -2.8345 -1.1138 0.9838
-1.2280 -2.8272 -0.8726 0.9873
-0.9520 -2.8671 -0.8552 0.9875
-0.7258 -3.0798 -0.8958 0.9869
-0.4835 -3.3749 -0.9652 0.9859
0.4718 -3.7496 -1.0698 0.9844
2.0686 -6.6054 -1.9595 0.9716
3.6821 -5.7325 -1.9288 0.9721
4.5984 -4.9434 -1.9113 0.9723
5.0002 -4.4962 -1.9036 0.9724
5.6796 -3.5141 -1.8907 0.9726
5.9535 -2.9862 -1.8855 0.9727
6.1815 -2.4386 -1.8812 0.9728
6.3625 -1.8751 -1.8778 0.9728
6.6011 0.4630 -1.8733 0.9729
6.4259 1.6294 -1.8767 0.9728
6.0577 2.7536 -1.8838 0.9727
5.8035 3.2905 -1.8886 0.9726
5.5041 3.8057 -1.8944 0.9726
5.1337 4.2726 -1.8908 0.9726
3.5952 5.1525 -1.7786 0.9742
3.1376 5.4789 -1.7874 0.9741
2.6510 5.7664 -1.7967 0.9740
2.1386 6.0121 -1.8065 0.9738
1.0503 6.3685 -1.8272 0.9735
-1.2691 6.4879 -1.8715 0.9729
-4.0543 5.4573 -1.9246 0.9721
-5.4250 4.2486 -1.9507 0.9718
-6.9453 2.9112 -2.1319 0.9692
-7.5660 0.3050 -2.1436 0.9690
-7.5628 -0.3698 -2.1435 0.9690
-7.1708 -2.3471 -2.1360 0.9691
-3.5209 -2.8064 -1.2746 0.9815
-2.9360 -2.8023 -1.1490 0.9833
-2.4775 -2.8274 -1.0642 0.9845
-1.6861 -2.8051 -0.9265 0.9865
-1.3710 -2.8232 -0.8885 0.9870
-0.8351 -2.9741 -0.8745 0.9872
-0.0220 -3.5014 -0.9913 0.9855
1.7921 -6.7050 -1.9648 0.9716
4.3941 -5.1439 -1.9152 0.9723
5.5340 -3.7567 -1.8935 0.9726
6.0791 -2.7007 -1.8831 0.9727
6.6044 -0.4064 -1.8732 0.9729
6.6138 0.1833 -1.8730 0.9729
6.5740 0.7718 -1.8738 0.9729
6.4851 1.3552 -1.8756 0.9728
6.1622 2.4922 -1.8818 0.9727
5.6517 3.5641 -1.8915 0.9726
5.3188 4.0584 -1.8940 0.9726
4.2116 4.6060 -1.7668 0.9744
3.8015 4.9847 -1.7747 0.9743
3.3586 5.3287 -1.7831 0.9742
-0.3183 -3.1733 -0.9809 0.9867
-0.0351 -3.2438 -0.9978 0.9865
0.2581 -3.2876 -1.0143 0.9863
0.6040 -3.5721 -1.1143 0.9850
1.6242 -6.1888 -1.9680 0.9736
2.1575 -5.9885 -1.9578 0.9737
2.6688 -5.7439 -1.9481 0.9738
3.1546 -5.4574 -1.9388 0.9740
3.6117 -5.1317 -1.9301 0.9741
4.0372 -4.7696 -1.9220 0.9742
4.4286 -4.3742 -1.9146 0.9743
4.7835 -3.9485 -1.9078 0.9744
5.1000 -3.4959 -1.9018 0.9745
5.3761 -3.0195 -1.8965 0.9745
5.8016 -2.0095 -1.8885 0.9746
6.1187 0.1419 -1.8825 0.9747
6.0037 1.2263 -1.8847 0.9747
5.8782 1.7583 -1.8871 0.9747
5.7081 2.2786 -1.8904 0.9746
5.4945 2.7838 -1.8945 0.9746
4.9411 3.7350 -1.9051 0.9744
3.5299 4.5853 -1.7798 0.9761
2.6848 5.1853 -1.7960 0.9759
2.2233 5.4303 -1.8048 0.9757
1.7398 5.6354 -1.8140 0.9756
1.2376 5.7984 -1.8236 0.9755
0.7203 5.9174 -1.8335 0.9754
-0.2738 4.7831 -1.4736 0.9801
-0.8837 5.9959 -1.8641 0.9750
-3.4721 5.1621 -1.9135 0.9743
-5.5424 3.9741 -2.0977 0.9719
-5.9151 3.4889 -2.1123 0.9717
-6.2192 2.9565 -2.1180 0.9716
-6.4724 2.3964 -2.1229 0.9715
-6.8157 1.2141 -2.1294 0.9714
-6.9299 -0.0140 -2.1315 0.9714
-6.8991 -0.6308 -2.1309 0.9714
-6.8100 -1.2416 -2.1291 0.9714
-6.4615 -2.4221 -2.1224 0.9715
-5.8993 -3.5118 -2.1117 0.9717
-3.1558 -2.7415 -1.2858 0.9827
-2.7117 -2.8169 -1.2026 0.9838
-1.8361 -2.7537 -1.0180 0.9862
-0.9336 -2.8115 -0.9112 0.9877
-0.4503 -3.1436 -0.9768 0.9868
0.4303 -3.4194 -1.0600 0.9857
2.4291 -5.8654 -1.9527 0.9738
3.8393 -4.9458 -1.9258 0.9741
4.6198 -4.1541 -1.9109 0.9743
4.9547 -3.7137 -1.9045 0.9744
5.2502 -3.2484 -1.8989 0.9745
6.0864 -0.6617 -1.8831 0.9747
6.1192 -0.1171 -1.8825 0.9747
6.1062 0.4282 -1.8827 0.9747
6.0475 0.9708 -1.8839 0.9747
5.9433 1.5070 -1.8859 0.9747
5.6013 2.5461 -1.8925 0.9746
5.3651 3.0420 -1.8970 0.9745
5.0872 3.5174 -1.9023 0.9744
4.7629 3.9640 -1.9059 0.9744
4.2769 4.2586 -1.8564 0.9751
3.7134 4.4232 -1.7763 0.9761
2.4452 5.3189 -1.8006 0.9758
1.9718 5.5432 -1.8096 0.9757
1.4781 5.7264 -1.8190 0.9756
0.4437 5.9618 -1.8388 0.9753
-0.0711 4.7849 -1.4719 0.9802
-1.1669 5.9652 -1.8695 0.9749
-2.2303 5.7251 -1.8898 0.9746
-3.2432 5.2922 -1.9091 0.9744
-3.7191 5.0061 -1.9182 0.9742
-5.7446 3.7246 -2.1058 0.9718
-6.3588 2.6654 -2.1207 0.9716
-6.8682 0.8941 -2.1303 0.9714
-6.9239 0.2791 -2.1314 0.9714
-6.9210 -0.3384 -2.1313 0.9714
-6.3336 -2.7189 -2.1200 0.9716
-6.0509 -3.2636 -2.1146 0.9716
-5.7191 -3.7780 -2.1082 0.9717
-3.4871 -2.7795 -1.3716 0.9815
-2.8994 -2.7673 -1.2328 0.9834
-1.6628 -2.7662 -0.9927 0.9866
-1.3528 -2.7857 -0.9525 0.9871
-0.8095 -2.8826 -0.9209 0.9875
-0.3041 -3.1766 -0.9815 0.9867
1.6517 -6.1797 -1.9675 0.9736
2.6941 -5.7303 -1.9476 0.9738
3.1785 -5.4418 -1.9384 0.9740
4.0579 -4.7503 -1.9216 0.9742
4.4475 -4.3533 -1.9142 0.9743
4.8005 -3.9262 -1.9075 0.9744
5.3890 -2.9948 -1.8963 0.9745
5.6211 -2.4973 -1.8919 0.9746
5.9550 -1.4558 -1.8856 0.9747
6.0549 -0.9189 -1.8837 0.9747
6.1093 -0.3759 -1.8827 0.9747
6.0810 0.7139 -1.8832 0.9747
5.9984 1.2535 -1.8848 0.9747
5.8706 1.7850 -1.8873 0.9746
5.6983 2.3046 -1.8906 0.9746
5.4825 2.8090 -1.8947 0.9745
5.2242 3.2945 -1.8997 0.9745
4.9249 3.7579 -1.9054 0.9744
4.5717 4.1823 -1.9058 0.9744
2.6619 5.1987 -1.7964 0.9759
0.2416 -3.0775 -1.0261 0.9871
0.5543 -3.2786 -1.1053 0.9861
1.9995 -5.5498 -1.9609 0.9754
3.3506 -4.7607 -1.9351 0.9758
3.7465 -4.4262 -1.9276 0.9759
4.1108 -4.0603 -1.9206 0.9759
4.7363 -3.2466 -1.9087 0.9761
4.9937 -2.8048 -1.9038 0.9761
5.2122 -2.3439 -1.8997 0.9762
5.3906 -1.8672 -1.8963 0.9762
5.5278 -1.3779 -1.8937 0.9763
5.6762 -0.3750 -1.8909 0.9763
5.6541 0.6378 -1.8914 0.9763
5.4620 1.6338 -1.8951 0.9763
4.8652 3.0375 -1.9065 0.9761
3.2751 4.2544 -1.7847 0.9776
2.4894 4.8080 -1.7997 0.9774
1.6120 5.2214 -1.8165 0.9772
1.1463 5.3704 -1.8254 0.9771
0.6669 5.4785 -1.8345 0.9770
0.1773 5.5442 -1.8439 0.9769
-0.8171 5.5442 -1.8628 0.9767
-1.3142 5.4772 -1.8723 0.9765
-1.8056 5.3651 -1.8817 0.9764
-2.7548 5.0075 -1.8998 0.9762
-5.1218 3.6725 -2.0949 0.9738
-5.9615 2.2072 -2.1131 0.9736
-6.2761 1.1180 -2.1191 0.9735
-6.3808 -0.0129 -2.1210 0.9735
-6.3526 -0.5808 -2.1204 0.9735
-6.1368 -1.6950 -2.1163 0.9735
-5.9515 -2.2309 -2.1127 0.9736
-5.4359 -3.2360 -2.1028 0.9737
-5.1110 -3.6961 -2.0966 0.9738
-3.1083 -2.7002 -1.3686 0.9828
-2.6948 -2.7993 -1.2916 0.9838
-2.2072 -2.7450 -1.1709 0.9853
-1.8122 -2.7179 -1.0858 0.9863
-1.4922 -2.7385 -1.0367 0.9869
-1.1961 -2.7539 -0.9980 0.9874
-0.9228 -2.7791 -0.9734 0.9877
-0.4230 -2.9526 -0.9915 0.9875
0.1104 -3.0633 -1.0189 0.9872
0.3997 -3.1762 -1.0641 0.9866
0.7429 -3.4130 -1.1611 0.9854
1.7669 -5.6422 -1.9653 0.9754
2.2516 -5.4368 -1.9561 0.9755
2.7145 -5.1912 -1.9472 0.9756
3.1523 -4.9077 -1.9389 0.9757
3.9420 -4.2377 -1.9239 0.9759
4.2889 -3.8566 -1.9172 0.9760
5.1134 -2.5648 -1.9016 0.9762
5.5832 -1.1169 -1.8927 0.9763
5.6870 -0.1088 -1.8907 0.9763
5.6200 0.9022 -1.8920 0.9763
5.5228 1.4004 -1.8939 0.9763
5.3838 1.8892 -1.8966 0.9762
5.2037 2.3654 -1.9000 0.9762
4.9834 2.8256 -1.9043 0.9761
4.4279 3.6851 -1.9149 0.9760
3.0788 4.4124 -1.7884 0.9776
2.6850 4.6886 -1.7960 0.9775
1.8273 5.1369 -1.8124 0.9773
1.3692 5.3047 -1.8211 0.9772
0.8959 5.4324 -1.8301 0.9771
-2.5349 5.1083 -1.8956 0.9762
-3.4314 4.6189 -1.9127 0.9760
-4.9460 3.8735 -2.0883 0.9739
-5.6025 2.9601 -2.1063 0.9736
-6.2201 1.3818 -2.1180 0.9735
-6.3727 -0.3116 -2.1208 0.9735
-6.3163 -0.8773 -2.1197 0.9735
-6.2069 -1.4348 -2.1176 0.9735
-5.2704 -3.4817 -2.0997 0.9737
-3.4388 -2.7410 -1.4618 0.9816
-2.4305 -2.7737 -1.2259 0.9846
-1.9909 -2.7283 -1.1227 0.9859
-0.5454 -2.9209 -0.9877 0.9876
0.5717 -3.2904 -1.1101 0.9860
2.4977 -5.3126 -1.9514 0.9756
2.9478 -5.0468 -1.9428 0.9757
3.7657 -4.4083 -1.9272 0.9759
4.4573 -3.6454 -1.9140 0.9760
5.6859 0.1576 -1.8908 0.9763
5.6513 0.6634 -1.8914 0.9763
5.0929 2.6093 -1.9022 0.9762
4.8521 3.0598 -1.9068 0.9761
4.2543 3.8919 -1.9166 0.9760
3.2565 4.2700 -1.7850 0.9776
-0.2836 -2.8272 -1.0161 0.9880
0.2285 -2.9102 -1.0439 0.9877
0.5190 -3.0695 -1.1133 0.9869
1.8611 -5.1657 -1.9635 0.9769
2.3037 -4.9581 -1.9551 0.9770
3.1215 -4.4352 -1.9395 0.9772
3.8317 -3.7847 -1.9260 0.9774
4.1408 -3.4180 -1.9201 0.9774
4.4166 -3.0275 -1.9148 0.9775
4.6575 -2.6159 -1.9103 0.9776
5.2468 -0.8205 -1.8991 0.9777
5.3061 0.1230 -1.8980 0.9777
5.0958 1.5242 -1.9021 0.9777
4.7607 2.4120 -1.9085 0.9776
4.2780 3.2338 -1.9177 0.9775
3.9847 3.6124 -1.9234 0.9774
3.6536 3.9596 -1.9267 0.9774
3.2525 4.2250 -1.9067 0.9776
2.6979 4.2379 -1.7965 0.9789
1.9184 4.6856 -1.8106 0.9787
1.5001 4.8591 -1.8186 0.9786
-2.5556 4.6453 -1.8960 0.9777
-2.9714 4.4177 -1.9039 0.9776
-3.3662 4.1519 -1.9114 0.9775
-5.0477 2.9773 -2.0957 0.9754
-5.6879 1.5463 -2.1078 0.9753
-5.8822 0.5138 -2.1115 0.9752
-5.9057 -0.0119 -2.1119 0.9752
-5.6809 -1.5691 -2.1076 0.9753
-4.7346 -3.4239 -2.0895 0.9755
-3.1084 -2.7003 -1.4724 0.9827
-2.6758 -2.7796 -1.3797 0.9837
-2.1916 -2.7257 -1.2507 0.9853
-0.9121 -2.7470 -1.0351 0.9878
-0.1522 -2.8622 -1.0250 0.9879
0.1043 -2.8944 -1.0357 0.9878
0.3767 -2.9936 -1.0790 0.9873
0.6877 -3.1595 -1.1563 0.9864
1.6444 -5.2508 -1.9677 0.9769
2.0961 -5.0613 -1.9590 0.9770
3.6739 -3.9495 -1.9290 0.9773
3.9982 -3.5952 -1.9228 0.9774
4.7695 -2.3923 -1.9081 0.9776
5.1013 -1.5034 -1.9018 0.9777
5.2093 -1.0421 -1.8998 0.9777
5.2778 -0.5738 -1.8985 0.9777
5.3065 -0.1016 -1.8980 0.9777
5.2951 0.3714 -1.8982 0.9777
5.1528 1.3065 -1.9010 0.9777
5.0226 1.7625 -1.9035 0.9776
4.6478 2.6353 -1.9107 0.9776
4.4054 3.0460 -1.9153 0.9775
3.4654 4.1278 -1.9273 0.9774
2.9512 4.2295 -1.8443 0.9783
2.5006 4.3667 -1.7995 0.9789
0.8333 5.0528 -1.8313 0.9785
0.3819 5.1309 -1.8399 0.9784
-0.0706 4.7477 -1.6980 0.9800
-0.5393 5.1662 -1.8575 0.9782
-1.0019 5.1219 -1.8663 0.9781
-1.9121 4.9082 -1.8837 0.9779
-2.3519 4.7395 -1.8921 0.9778
-2.7764 4.5305 -1.9002 0.9777
-3.1817 4.2827 -1.9079 0.9776
-4.2281 3.9669 -2.0733 0.9757
-4.5933 3.5972 -2.0864 0.9755
-5.4231 2.2732 -2.1028 0.9753
-5.8537 0.7620 -2.1110 0.9752
-5.8983 -0.2884 -2.1118 0.9752
-5.1627 -2.7846 -2.0977 0.9754
-4.8817 -3.2249 -2.0923 0.9755
-3.3988 -2.7091 -1.5543 0.9817
-2.8787 -2.7476 -1.4231 0.9832
-2.4071 -2.7471 -1.3062 0.9846
-1.9923 -2.7303 -1.2087 0.9857
-1.6276 -2.7078 -1.1298 0.9867
-1.0384 -2.7347 -1.0461 0.9877
-0.7756 -2.7619 -1.0259 0.9879
-0.5153 -2.7596 -1.0039 0.9881
-0.2711 -2.8312 -1.0171 0.9880
0.2423 -2.9172 -1.0468 0.9876
0.5347 -3.0778 -1.1171 0.9868
1.4237 -5.3271 -1.9719 0.9768
2.7455 -4.7005 -1.9467 0.9771
4.1556 -3.3987 -1.9198 0.9775
4.4297 -3.0070 -1.9146 0.9775
5.1629 -1.2622 -1.9007 0.9777
5.2979 -0.3260 -1.8981 0.9777
5.2009 1.0869 -1.9000 0.9777
5.0892 1.5474 -1.9022 0.9777
4.9387 1.9974 -1.9051 0.9776
4.5249 2.8535 -1.9130 0.9775
3.6357 3.9762 -1.9267 0.9774
2.2983 4.4886 -1.8033 0.9788
-0.2749 -2.7410 -1.0557 0.9883
0.2166 -2.7594 -1.0607 0.9882
1.3076 -4.9826 -1.9741 0.9782
1.7388 -4.8262 -1.9659 0.9783
3.2652 -3.8576 -1.9368 0.9786
3.5845 -3.5404 -1.9307 0.9786
3.8744 -3.1980 -1.9252 0.9787
4.3592 -2.4484 -1.9160 0.9788
4.5512 -2.0466 -1.9123 0.9789
4.8287 -1.2036 -1.9071 0.9789
4.9592 -0.3277 -1.9046 0.9789
4.8738 0.9955 -1.9063 0.9789
4.6312 1.8487 -1.9109 0.9789
4.2462 2.6510 -1.9183 0.9788
4.0030 3.0259 -1.9230 0.9787
3.4225 3.7092 -1.9341 0.9786
3.0826 4.0043 -1.9366 0.9786
2.6804 4.2104 -1.9127 0.9788
2.1828 4.2159 -1.8193 0.9799
0.9958 4.6656 -1.8282 0.9798
-0.2718 4.7485 -1.8227 0.9798
-1.1379 4.7423 -1.8689 0.9793
-1.9778 4.5036 -1.8849 0.9792
-2.3806 4.3272 -1.8926 0.9791
-3.2859 4.0529 -1.9995 0.9779
-4.4188 3.1684 -2.0837 0.9770
-4.6952 2.7694 -2.0890 0.9769
-4.9338 2.3454 -2.0935 0.9769
-5.1323 1.9002 -2.0973 0.9768
-5.2885 1.4377 -2.1002 0.9768
-2.3041 0.2013 -0.8864 0.9901
-2.2873 -0.0046 -0.8765 0.9902
-2.3040 -0.2107 -0.8866 0.9901
-5.3967 -0.9839 -2.1022 0.9768
-5.2821 -1.4590 -2.1000 0.9768
-5.1238 -1.9207 -2.0969 0.9768
-4.9234 -2.3649 -2.0931 0.9769
-4.4049 -3.1855 -2.0832 0.9770
-2.1933 -2.7277 -1.3413 0.9851
-1.8186 -2.7275 -1.2563 0.9861
-1.4711 -2.6999 -1.1783 0.9869
-0.1457 -2.7395 -1.0513 0.9883
0.0988 -2.7413 -1.0512 0.9883
0.6472 -2.9733 -1.1661 0.9870
1.9587 -4.7294 -1.9617 0.9783
2.3627 -4.5184 -1.9540 0.9784
2.7453 -4.2741 -1.9467 0.9785
4.6380 -1.8297 -1.9107 0.9789
4.7759 -1.4075 -1.9081 0.9789
4.8774 -0.9757 -1.9061 0.9789
4.9687 -0.0951 -1.9044 0.9789
4.9580 0.3477 -1.9047 0.9789
4.9097 0.7882 -1.9056 0.9789
4.8242 1.2232 -1.9072 0.9789
4.7020 1.6500 -1.9096 0.9789
4.5436 2.0653 -1.9126 0.9788
4.1225 2.8504 -1.9207 0.9788
3.8623 3.2145 -1.9257 0.9787
2.8934 4.1466 -1.9377 0.9786
2.4130 4.2137 -1.8608 0.9794
1.9724 4.2903 -1.8096 0.9800
1.5890 4.4669 -1.8169 0.9799
1.1899 4.6099 -1.8245 0.9798
0.3565 4.7893 -1.8404 0.9796
-1.3618 4.6945 -1.8732 0.9793
-2.1912 4.4155 -1.8890 0.9791
-2.5859 4.2196 -1.8965 0.9790
-3.5779 4.0133 -2.0604 0.9772
-4.8254 2.5495 -2.0914 0.9769
-5.0432 2.1139 -2.0956 0.9768
-5.2197 1.6591 -2.0989 0.9768
-5.3532 1.1892 -2.1014 0.9768
-2.2994 0.0927 -0.8819 0.9902
-2.3011 -0.1125 -0.8829 0.9902
-5.4354 -0.7550 -2.1029 0.9768
-5.2043 -1.7035 -2.0985 0.9768
-5.0236 -2.1565 -2.0950 0.9769
-2.8201 -2.6917 -1.4940 0.9834
-1.9937 -2.7323 -1.2962 0.9856
-1.0264 -2.7030 -1.1080 0.9877
-0.2625 -2.7414 -1.0554 0.9883
0.5041 -2.9014 -1.1285 0.9875
1.3299 -4.9756 -1.9737 0.9782
2.9369 -4.1331 -1.9430 0.9785
3.2821 -3.8422 -1.9365 0.9786
4.3697 -2.4284 -1.9158 0.9788
4.9606 -0.3052 -1.9046 0.9789
4.9677 0.1377 -1.9045 0.9789
4.9373 0.5796 -1.9051 0.9789
4.8694 1.0176 -1.9064 0.9789
4.4462 2.2780 -1.9145 0.9788
3.4063 3.7253 -1.9344 0.9786
3.0646 4.0184 -1.9366 0.9786
2.6539 4.2107 -1.9074 0.9789
2.1588 4.2161 -1.8152 0.9799
-0.2727 -2.7184 -1.1182 0.9883
-0.0293 -2.7083 -1.1085 0.9884
1.2253 -4.6691 -1.9757 0.9794
2.0185 -4.3443 -1.9606 0.9795
2.3887 -4.1324 -1.9535 0.9796
2.7378 -3.8900 -1.9468 0.9797
3.8797 -2.6594 -1.9251 0.9799
4.0925 -2.2986 -1.9211 0.9799
4.2732 -1.9216 -1.9176 0.9800
4.4209 -1.5313 -1.9148 0.9800
4.5346 -1.1303 -1.9127 0.9800
4.6392 0.5233 -1.9107 0.9800
4.5770 0.9349 -1.9119 0.9800
4.3486 1.7359 -1.9163 0.9800
4.1837 2.1197 -1.9195 0.9799
3.9862 2.4886 -1.9233 0.9799
3.7573 2.8401 -1.9277 0.9798
1.7187 4.1980 -1.8566 0.9806
1.3133 4.2540 -1.8221 0.9809
0.5423 4.4552 -1.8369 0.9808
-0.6626 4.4957 -1.8598 0.9806
-1.0646 4.4370 -1.8675 0.9805
-1.8494 4.2113 -1.8825 0.9803
-2.2521 4.0936 -1.9122 0.9800
-3.5154 3.6223 -2.0659 0.9784
-3.8363 3.3056 -2.0726 0.9784
-4.1264 2.9588 -2.0781 0.9783
-4.6059 2.1895 -2.0872 0.9782
-4.9360 1.3419 -2.0935 0.9781
-2.0553 0.3661 -0.8544 0.9910
-2.0150 0.1760 -0.8278 0.9913
-4.9300 -1.3617 -2.0933 0.9781
-4.5962 -2.2077 -2.0869 0.9782
-3.1085 -2.7004 -1.6853 0.9824
-1.8200 -2.7296 -1.3427 0.9859
-0.8910 -2.6834 -1.1572 0.9879
-0.6450 -2.7370 -1.1509 0.9879
-0.3890 -2.7153 -1.1226 0.9882
-0.1442 -2.7110 -1.1111 0.9883
0.0975 -2.7046 -1.1076 0.9884
3.2244 -3.4663 -1.9376 0.9797
4.3550 -1.7181 -1.9161 0.9800
4.4849 -1.3218 -1.9136 0.9800
4.6411 -0.5046 -1.9107 0.9800
4.6664 -0.0893 -1.9102 0.9800
4.6109 0.7402 -1.9113 0.9800
4.4152 1.5493 -1.9151 0.9800
4.2661 1.9392 -1.9179 0.9799
4.0839 2.3155 -1.9214 0.9799
3.8698 2.6757 -1.9255 0.9799
3.0497 3.6326 -1.9412 0.9797
1.4941 4.2001 -1.8245 0.9809
-0.4709 4.5108 -1.8562 0.9806
-0.8743 4.4694 -1.8639 0.9805
-1.2739 4.3917 -1.8715 0.9804
-2.4998 4.0792 -1.9581 0.9795
-3.3502 3.7579 -2.0605 0.9785
-3.9926 3.1268 -2.0756 0.9783
-4.7077 1.9733 -2.0892 0.9782
-4.8720 1.5486 -2.0923 0.9781
-2.0204 0.2630 -0.8339 0.9912
-2.0042 -0.0980 -0.8213 0.9914
-2.0944 -0.4841 -0.8798 0.9908
-4.6895 -2.0131 -2.0887 0.9782
-4.2405 -2.8013 -2.0801 0.9783
-2.8201 -2.6917 -1.5956 0.9833
-1.9952 -2.7343 -1.3853 0.9855
-1.6338 -2.7180 -1.2979 0.9864
-0.7613 -2.7111 -1.1525 0.9879
0.4818 -2.7729 -1.1519 0.9879
1.6499 -4.5155 -1.9676 0.9794
2.0378 -4.3343 -1.9602 0.9795
2.4069 -4.1208 -1.9532 0.9796
2.7549 -3.8769 -1.9465 0.9797
3.3781 -3.3065 -1.9347 0.9798
3.6493 -2.9846 -1.9295 0.9798
4.1024 -2.2798 -1.9209 0.9799
4.2815 -1.9021 -1.9175 0.9800
4.4275 -1.5112 -1.9147 0.9800
4.5394 -1.1097 -1.9126 0.9800
4.6588 -0.2867 -1.9103 0.9800
4.6369 0.5443 -1.9108 0.9800
4.5729 0.9556 -1.9120 0.9800
4.4741 1.3604 -1.9139 0.9800
4.3410 1.7557 -1.9165 0.9800
3.7449 2.8575 -1.9279 0.9798
3.4846 3.1877 -1.9329 0.9798
3.1960 3.4953 -1.9384 0.9797
2.5358 4.0233 -1.9464 0.9797
-0.2704 -2.6959 -1.1808 0.9882
0.4660 -2.7560 -1.2182 0.9879
1.1516 -4.3879 -1.9771 0.9804
1.8978 -4.0845 -1.9629 0.9805
2.2463 -3.8861 -1.9562 0.9806
2.8820 -3.4049 -1.9441 0.9807
