ply
format ascii 1.0
element vertex 1594
property float32 x
property float32 y
property float32 z
property float32 I
end_header
-6.9758 3.2753 -1.9953 0.9687
-7.2399 2.6405 -1.9953 0.9687
-6.9272 -3.3769 -1.9953 0.9687
-2.2270 -2.8056 -0.9274 0.9853
-1.8532 -2.8182 -0.8733 0.9862
-0.9524 -2.9337 -0.7986 0.9873
-0.7237 -3.1670 -0.8411 0.9867
-0.4840 -3.5529 -0.9284 0.9853
1.0171 -7.6390 -1.9953 0.9687
2.3573 -7.3370 -1.9953 0.9687
3.0019 -7.0976 -1.9953 0.9687
3.6226 -6.8018 -1.9953 0.9687
4.7728 -6.0504 -1.9953 0.9687
5.7713 -5.1068 -1.9953 0.9687
6.5864 -4.0009 -1.9953 0.9687
7.5976 1.2898 -1.9953 0.9687
7.4524 1.9619 -1.9953 0.9687
7.2479 2.6184 -1.9953 0.9687
6.9856 3.2540 -1.9953 0.9687
6.6677 3.8638 -1.9953 0.9687
6.1185 4.3169 -1.9388 0.9695
5.4275 4.6060 -1.8431 0.9710
4.5234 5.4965 -1.8431 0.9710
4.0155 5.8779 -1.8431 0.9710
3.4756 6.2124 -1.8431 0.9710
2.3172 6.7308 -1.8431 0.9710
0.4538 7.1041 -1.8431 0.9710
-0.1221 4.7958 -1.2421 0.9804
-0.8148 7.0718 -1.8431 0.9710
-1.4419 6.9710 -1.8431 0.9710
-2.0575 6.8147 -1.8431 0.9710
-3.2349 6.3411 -1.8431 0.9710
-3.7873 6.0275 -1.8431 0.9710
-5.6550 4.3238 -1.8431 0.9710
-6.3348 4.0028 -1.9402 0.9695
-7.3718 2.2462 -1.9953 0.9687
-7.4860 -1.8301 -1.9953 0.9687
-7.2930 -2.4901 -1.9953 0.9687
-2.8761 -2.8187 -1.0427 0.9835
-2.4152 -2.8314 -0.9636 0.9847
-1.9928 -2.8094 -0.8918 0.9859
-1.3358 -2.8488 -0.8147 0.9871
-1.0402 -2.8567 -0.7872 0.9875
-0.8177 -3.0743 -0.8237 0.9869
-0.5838 -3.3867 -0.8898 0.9859
-0.3030 -3.7119 -0.9643 0.9847
0.4061 -4.1709 -1.0850 0.9828
2.0969 -7.4156 -1.9953 0.9687
3.3803 -6.9254 -1.9953 0.9687
3.9842 -6.5965 -1.9953 0.9687
4.5418 -6.1953 -1.9890 0.9688
5.0922 -5.7842 -1.9953 0.9687
5.5875 -5.3073 -1.9953 0.9687
6.7926 -3.6399 -1.9953 0.9687
7.5135 -1.7130 -1.9953 0.9687
7.6363 -1.0364 -1.9953 0.9687
7.6384 1.0209 -1.9953 0.9687
7.5170 1.6977 -1.9953 0.9687
6.7999 3.6261 -1.9953 0.9687
5.5867 4.4116 -1.8431 0.9710
3.6926 6.0859 -1.8431 0.9710
3.1355 6.3908 -1.8431 0.9710
2.5533 6.6448 -1.8431 0.9710
1.3329 6.9926 -1.8431 0.9710
0.7043 7.0836 -1.8431 0.9710
-0.5647 7.0961 -1.8431 0.9710
-1.1950 7.0175 -1.8431 0.9710
-1.8158 6.8831 -1.8431 0.9710
-2.4221 6.6938 -1.8431 0.9710
-3.0091 6.4513 -1.8431 0.9710
-3.5722 6.1574 -1.8431 0.9710
-4.6087 5.4253 -1.8431 0.9710
-5.0740 4.9929 -1.8431 0.9710
-6.7175 3.7537 -1.9924 0.9687
-7.0356 3.1446 -1.9953 0.9687
-7.4822 1.8453 -1.9953 0.9687
-7.6169 1.1710 -1.9953 0.9687
-7.6910 0.4874 -1.9953 0.9687
-7.7038 -0.2001 -1.9953 0.9687
-7.3764 -2.2312 -1.9953 0.9687
-7.1481 -2.8798 -1.9953 0.9687
-6.8630 -3.5055 -1.9953 0.9687
-2.6186 -2.8590 -1.0038 0.9841
-1.7814 -2.8225 -0.8642 0.9863
-1.1544 -2.8527 -0.7968 0.9874
-0.6761 -3.2353 -0.8558 0.9864
-0.4287 -3.6553 -0.9529 0.9849
1.1594 -7.6186 -1.9953 0.9687
1.8339 -7.4850 -1.9953 0.9687
2.4938 -7.2917 -1.9953 0.9687
3.1338 -7.0404 -1.9953 0.9687
3.7489 -6.7330 -1.9953 0.9687
4.3342 -6.3720 -1.9953 0.9687
4.8849 -5.9603 -1.9953 0.9687
5.8656 -4.9982 -1.9953 0.9687
6.2878 -4.4555 -1.9953 0.9687
6.6599 -3.8773 -1.9953 0.9687
7.2425 -2.6331 -1.9953 0.9687
7.4484 -1.9771 -1.9953 0.9687
7.5950 -1.3053 -1.9953 0.9687
7.6811 -0.6231 -1.9953 0.9687
7.7061 0.0641 -1.9953 0.9687
7.6697 0.7507 -1.9953 0.9687
7.5722 1.4314 -1.9953 0.9687
7.4145 2.1007 -1.9953 0.9687
6.9237 3.3838 -1.9953 0.9687
6.5894 3.9844 -1.9938 0.9687
5.3406 4.7064 -1.8431 0.9710
4.8999 5.1638 -1.8431 0.9710
4.4201 5.5800 -1.8431 0.9710
2.7862 6.5506 -1.8431 0.9710
1.5788 6.9412 -1.8431 0.9710
0.9538 7.0543 -1.8431 0.9710
-0.2122 4.8078 -1.2460 0.9803
-0.9466 7.0553 -1.8431 0.9710
-1.5717 6.9429 -1.8431 0.9710
-3.3527 6.2796 -1.8431 0.9710
-3.8991 5.9558 -1.8431 0.9710
-4.4144 5.5845 -1.8431 0.9710
-4.8946 5.1688 -1.8431 0.9710
-6.5673 3.9802 -1.9883 0.9688
-6.9203 3.3909 -1.9953 0.9687
-7.6690 0.7585 -1.9953 0.9687
-7.5964 -1.2975 -1.9953 0.9687
-7.2453 -2.6258 -1.9953 0.9687
-6.9824 -3.2612 -1.9953 0.9687
-6.6639 -3.8706 -1.9953 0.9687
-6.2924 -4.4492 -1.9953 0.9687
-2.7757 -2.8236 -1.0252 0.9838
-1.5818 -2.8342 -0.8404 0.9867
-0.7687 -3.1236 -0.8329 0.9868
-0.5324 -3.4746 -0.9101 0.9856
-0.2351 -3.7404 -0.9704 0.9846
1.5686 -7.5450 -1.9953 0.9687
2.8834 -7.1466 -1.9953 0.9687
4.6715 -6.1290 -1.9953 0.9687
5.1992 -5.6882 -1.9953 0.9687
5.6855 -5.2021 -1.9953 0.9687
6.1266 -4.6746 -1.9953 0.9687
6.8593 -3.5125 -1.9953 0.9687
7.1451 -2.8871 -1.9953 0.9687
7.3740 -2.2387 -1.9953 0.9687
7.5442 -1.5725 -1.9953 0.9687
7.6543 -0.8937 -1.9953 0.9687
7.6914 0.4796 -1.9953 0.9687
7.4840 1.8377 -1.9953 0.9687
7.0388 3.1374 -1.9953 0.9687
6.7311 3.7523 -1.9953 0.9687
6.3457 4.3209 -1.9878 0.9688
5.5034 4.5150 -1.8431 0.9710
5.0790 4.9876 -1.8431 0.9710
4.1127 5.8102 -1.8431 0.9710
-3.1615 5.6916 -1.8431 0.9733
-4.5547 4.6523 -1.8431 0.9733
-4.9513 4.2278 -1.8431 0.9733
-5.6173 3.9889 -1.9504 0.9718
-6.0871 3.5521 -1.9951 0.9711
-6.3800 2.9956 -1.9953 0.9711
-6.8106 1.8151 -1.9953 0.9711
-7.0481 -0.0515 -1.9953 0.9711
-7.0155 -0.6795 -1.9953 0.9711
-6.9270 -1.3022 -1.9953 0.9711
-6.7834 -1.9144 -1.9953 0.9711
-3.9273 -2.8760 -1.3780 0.9800
-2.2068 -2.7801 -1.0049 0.9854
-0.7002 -3.0642 -0.8898 0.9870
-0.1591 -3.4449 -0.9763 0.9858
0.5063 -3.8025 -1.0860 0.9842
1.5493 -6.8759 -1.9953 0.9711
4.3652 -5.5338 -1.9953 0.9711
5.2785 -4.6707 -1.9953 0.9711
5.6738 -4.1816 -1.9953 0.9711
6.0239 -3.6592 -1.9953 0.9711
6.5780 -2.5314 -1.9953 0.9711
7.0133 -0.7008 -1.9953 0.9711
7.0479 -0.0729 -1.9953 0.9711
7.0263 0.5556 -1.9953 0.9711
6.9488 1.1797 -1.9953 0.9711
6.8160 1.7944 -1.9953 0.9711
6.6289 2.3948 -1.9953 0.9711
5.7485 4.0559 -1.9916 0.9712
4.5688 4.6384 -1.8431 0.9733
4.1372 5.0271 -1.8431 0.9733
3.6726 5.3759 -1.8431 0.9733
3.1788 5.6819 -1.8431 0.9733
1.5622 6.3204 -1.8431 0.9733
0.9926 6.4345 -1.8431 0.9733
0.4151 6.4974 -1.8431 0.9733
-0.1218 4.7838 -1.3547 0.9803
-1.3188 6.3757 -1.8431 0.9733
-2.4299 6.0402 -1.8431 0.9733
-2.9587 5.7996 -1.8431 0.9733
-3.4638 5.5128 -1.8431 0.9733
-5.2464 4.0115 -1.8696 0.9729
-6.2704 3.2189 -1.9953 0.9711
-6.5323 2.6472 -1.9953 0.9711
-6.8986 1.4452 -1.9953 0.9711
-6.9999 0.8245 -1.9953 0.9711
-7.0456 0.1973 -1.9953 0.9711
-7.0351 -0.4315 -1.9953 0.9711
-6.9686 -1.0569 -1.9953 0.9711
-6.4407 -2.8630 -1.9953 0.9711
-6.1598 -3.4257 -1.9953 0.9711
-5.8300 -3.9611 -1.9953 0.9711
-2.8409 -2.7841 -1.1261 0.9836
-1.6268 -2.7911 -0.9146 0.9867
-1.3182 -2.8113 -0.8790 0.9872
-1.0282 -2.8238 -0.8508 0.9876
-0.7910 -2.9738 -0.8711 0.9873
0.0273 -3.4980 -0.9903 0.9856
1.3057 -6.9263 -1.9953 0.9711
2.5148 -6.5844 -1.9953 0.9711
4.1672 -5.6844 -1.9953 0.9711
4.6573 -5.2903 -1.9953 0.9711
5.1104 -4.8541 -1.9953 0.9711
6.2125 -3.3290 -1.9953 0.9711
6.4845 -2.7620 -1.9953 0.9711
6.7093 2.1594 -1.9953 0.9711
5.8982 3.8571 -1.9951 0.9711
5.4275 4.2858 -1.9578 0.9717
4.7296 4.4742 -1.8431 0.9733
4.3120 4.8780 -1.8431 0.9733
3.8600 5.2430 -1.8431 0.9733
2.8677 5.8450 -1.8431 0.9733
2.3353 6.0774 -1.8431 0.9733
-1.0930 6.4183 -1.8431 0.9733
-1.6607 6.2953 -1.8431 0.9733
-2.2152 6.1222 -1.8431 0.9733
-3.2671 5.6316 -1.8431 0.9733
-4.2152 4.9620 -1.8431 0.9733
-4.6407 4.5665 -1.8431 0.9733
-6.1529 3.4382 -1.9953 0.9711
-6.6656 2.2910 -1.9953 0.9711
-6.9665 1.0710 -1.9953 0.9711
-7.0460 -0.1830 -1.9953 0.9711
-7.0016 -0.8103 -1.9953 0.9711
-6.5377 -2.6339 -1.9953 0.9711
-3.6558 -2.7835 -1.3008 0.9811
-2.5929 -2.8310 -1.0868 0.9842
-2.1140 -2.7677 -0.9859 0.9856
-1.7556 -2.7816 -0.9312 0.9864
-1.4376 -2.8039 -0.8920 0.9870
-1.1393 -2.8155 -0.8598 0.9875
-0.8785 -2.8886 -0.8547 0.9875
-0.6500 -3.1109 -0.8997 0.9869
-0.3949 -3.3672 -0.9598 0.9860
-0.0952 -3.4633 -0.9808 0.9857
0.2203 -3.5626 -1.0105 0.9853
1.6773 -6.8458 -1.9953 0.9711
2.2808 -6.6690 -1.9953 0.9711
2.8662 -6.4392 -1.9953 0.9711
3.4288 -6.1580 -1.9953 0.9711
3.9640 -5.8279 -1.9953 0.9711
6.6240 -2.4083 -1.9953 0.9711
6.9464 -1.1938 -1.9953 0.9711
7.0147 0.6866 -1.9953 0.9711
6.9256 1.3091 -1.9953 0.9711
6.7813 1.9213 -1.9953 0.9711
6.5831 2.5181 -1.9953 0.9711
6.3324 3.0949 -1.9953 0.9711
5.6667 4.1587 -1.9899 0.9712
4.8846 4.3045 -1.8431 0.9733
3.0722 5.7402 -1.8431 0.9733
2.0041 6.1945 -1.8431 0.9733
0.8724 6.4519 -1.8431 0.9733
0.2938 6.5040 -1.8431 0.9733
-0.8658 6.4528 -1.8431 0.9733
-2.5422 5.9938 -1.8431 0.9733
-3.0664 5.7434 -1.8431 0.9733
-4.4767 4.7274 -1.8431 0.9733
-4.8802 4.3096 -1.8431 0.9733
-5.4371 3.9987 -1.9106 0.9723
-6.0221 3.6497 -1.9935 0.9712
-6.9243 1.3162 -1.9953 0.9711
-7.0141 0.6938 -1.9953 0.9711
-6.9477 -1.1867 -1.9953 0.9711
-6.6266 -2.4016 -1.9953 0.9711
-5.7550 -4.0692 -1.9953 0.9711
-3.2461 -2.7604 -1.2063 0.9824
-2.7589 -2.8066 -1.1141 0.9838
-2.2926 -2.7916 -1.0226 0.9851
-1.8896 -2.7721 -0.9497 0.9861
-1.2558 -2.8137 -0.8723 0.9873
-0.9711 -2.8302 -0.8471 0.9876
-0.2154 -3.4266 -0.9720 0.9858
1.4347 -6.9007 -1.9953 0.9711
3.2093 -6.2752 -1.9953 0.9711
3.7559 -5.9642 -1.9953 0.9711
4.7552 -5.2025 -1.9953 0.9711
5.6034 -4.2754 -1.9953 0.9711
6.2735 -3.2125 -1.9953 0.9711
7.0007 -0.8174 -1.9953 0.9711
7.0346 0.4386 -1.9953 0.9711
6.9675 1.0639 -1.9953 0.9711
5.8199 3.9629 -1.9932 0.9712
5.2273 4.2885 -1.9141 0.9723
4.6453 4.5617 -1.8431 0.9733
4.2202 4.9576 -1.8431 0.9733
3.7615 5.3141 -1.8431 0.9733
3.2729 5.6282 -1.8431 0.9733
-2.9098 5.2385 -1.8431 0.9752
-3.3652 4.9582 -1.8431 0.9752
-3.7937 4.6386 -1.8431 0.9752
-4.1921 4.2819 -1.8431 0.9752
-5.2798 3.7493 -1.9918 0.9733
-5.6030 3.2696 -1.9953 0.9732
-6.3924 1.1052 -1.9953 0.9732
-6.4654 0.5310 -1.9953 0.9732
-6.2433 -1.7620 -1.9953 0.9732
-5.8312 -2.8426 -1.9953 0.9732
-3.8830 -2.8436 -1.4803 0.9801
-3.1404 -2.7618 -1.2863 0.9827
-2.6756 -2.8140 -1.1943 0.9839
-2.1868 -2.7549 -1.0818 0.9854
-1.7999 -2.7372 -1.0076 0.9864
-1.1847 -2.7776 -0.9288 0.9874
-0.6777 -2.9656 -0.9357 0.9873
-0.1476 -3.1963 -0.9842 0.9867
0.1409 -3.2665 -1.0056 0.9864
1.4259 -6.3285 -1.9953 0.9732
1.9844 -6.1762 -1.9953 0.9732
3.5477 -5.4311 -1.9953 0.9732
4.0177 -5.0932 -1.9953 0.9732
4.8583 -4.2989 -1.9953 0.9732
5.5444 -3.3679 -1.9953 0.9732
6.0543 -2.3299 -1.9953 0.9732
6.2379 -1.7810 -1.9953 0.9732
6.4550 -0.6451 -1.9953 0.9732
6.3956 1.0858 -1.9953 0.9732
6.1012 2.2042 -1.9953 0.9732
5.6129 3.2525 -1.9953 0.9732
4.9307 4.1844 -1.9891 0.9733
3.8078 4.6269 -1.8431 0.9752
3.3802 4.9479 -1.8431 0.9752
2.9257 5.2296 -1.8431 0.9752
2.4479 5.4695 -1.8431 0.9752
1.9506 5.6660 -1.8431 0.9752
0.3820 5.9802 -1.8431 0.9752
-0.1215 4.7730 -1.4686 0.9802
-0.6859 5.9530 -1.8431 0.9752
-1.2138 5.8681 -1.8431 0.9752
-3.1881 5.0739 -1.8431 0.9752
-5.1366 3.9275 -1.9888 0.9733
-5.4841 3.4653 -1.9953 0.9732
-5.7712 2.9627 -1.9953 0.9732
-6.2055 1.8908 -1.9953 0.9732
-6.4427 0.7589 -1.9953 0.9732
-6.4139 -0.9728 -1.9953 0.9732
-6.3016 -1.5406 -1.9953 0.9732
-6.1392 -2.0962 -1.9953 0.9732
-5.6695 -3.1530 -1.9953 0.9732
-5.3658 -3.6458 -1.9953 0.9732
-3.3764 -2.7643 -1.3422 0.9819
-2.8179 -2.7616 -1.2135 0.9836
-2.3699 -2.7783 -1.1232 0.9848
-1.9336 -2.7259 -1.0279 0.9861
-1.6046 -2.7529 -0.9801 0.9868
-1.0165 -2.7916 -0.9138 0.9876
-0.7667 -2.8828 -0.9175 0.9876
-0.5315 -3.0831 -0.9623 0.9870
-0.2579 -3.1591 -0.9749 0.9868
0.0253 -3.2427 -0.9974 0.9865
1.7652 -6.2424 -1.9953 0.9732
2.3146 -6.0602 -1.9953 0.9732
2.8455 -5.8298 -1.9953 0.9732
3.3539 -5.5529 -1.9953 0.9732
4.7035 -4.4677 -1.9953 0.9732
5.4221 -3.5615 -1.9953 0.9732
6.3249 -1.4420 -1.9953 0.9732
6.4810 0.2828 -1.9953 0.9732
6.4300 0.8594 -1.9953 0.9732
6.3278 1.4291 -1.9953 0.9732
6.1752 1.9875 -1.9953 0.9732
5.9735 2.5300 -1.9953 0.9732
5.4293 3.5505 -1.9953 0.9732
3.1085 5.1231 -1.8431 0.9752
2.6394 5.3797 -1.8431 0.9752
1.1220 5.8864 -1.8431 0.9752
0.0590 5.9921 -1.8431 0.9752
-1.0059 5.9073 -1.8431 0.9752
-1.5285 5.7941 -1.8431 0.9752
-2.0389 5.6348 -1.8431 0.9752
-3.0070 5.1833 -1.8431 0.9752
-5.3531 3.6531 -1.9934 0.9732
-5.6630 3.1645 -1.9953 0.9732
-5.9226 2.6471 -1.9953 0.9732
-6.1350 2.1086 -1.9953 0.9732
-6.2985 1.5534 -1.9953 0.9732
-6.4119 0.9858 -1.9953 0.9732
-6.4742 0.4103 -1.9953 0.9732
-6.4850 -0.1684 -1.9953 0.9732
-6.2094 -1.8782 -1.9953 0.9732
-6.0172 -2.4242 -1.9953 0.9732
-5.7772 -2.9509 -1.9953 0.9732
-5.4912 -3.4542 -1.9953 0.9732
-3.6398 -2.7713 -1.4071 0.9810
-2.9917 -2.7318 -1.2461 0.9832
-2.5675 -2.8032 -1.1692 0.9842
-2.0951 -2.7430 -1.0616 0.9857
-1.7312 -2.7429 -0.9976 0.9865
-1.1256 -2.7817 -0.9230 0.9875
-0.8544 -2.8093 -0.9032 0.9878
0.2028 -3.2786 -1.0103 0.9863
1.5438 -6.3008 -1.9953 0.9732
3.1558 -5.6678 -1.9953 0.9732
3.6485 -5.3639 -1.9953 0.9732
4.1121 -5.0174 -1.9953 0.9732
5.2930 -3.7506 -1.9953 0.9732
5.8749 -2.7512 -1.9953 0.9732
6.2700 -1.6643 -1.9953 0.9732
6.4659 -0.5245 -1.9953 0.9732
6.4869 0.0539 -1.9953 0.9732
6.3743 1.2049 -1.9953 0.9732
5.8283 2.8485 -1.9953 0.9732
4.1247 4.3468 -1.8431 0.9752
3.7208 4.6972 -1.8431 0.9752
3.2873 5.0102 -1.8431 0.9752
2.8276 5.2832 -1.8431 0.9752
2.3454 5.5143 -1.8431 0.9752
1.3290 5.8431 -1.8431 0.9752
0.8029 5.9383 -1.8431 0.9752
0.2704 5.9862 -1.8431 0.9752
-0.7968 5.9391 -1.8431 0.9752
-1.3231 5.8445 -1.8431 0.9752
-2.3398 5.5167 -1.8431 0.9752
-4.1203 4.3511 -1.8431 0.9752
-4.5631 4.0295 -1.8724 0.9748
-5.2130 3.8339 -1.9904 0.9733
-5.5478 3.3624 -1.9953 0.9732
-6.4869 0.0605 -1.9953 0.9732
-6.2718 -1.6579 -1.9953 0.9732
-6.0990 -2.2104 -1.9953 0.9732
-5.8777 -2.7452 -1.9953 0.9732
-1.8622 -2.7319 -1.0169 0.9863
-1.5392 -2.7578 -0.9714 0.9869
-1.2392 -2.7764 -0.9352 0.9874
-0.7201 -2.9264 -0.9269 0.9875
-0.4752 -3.1013 -0.9650 0.9870
0.3935 -3.3850 -1.0482 0.9858
3.4569 -5.4894 -1.9953 0.9732
3.9325 -5.1594 -1.9953 0.9732
4.7861 -4.3791 -1.9953 0.9732
6.2074 -1.8845 -1.9953 0.9732
6.4848 -0.1750 -1.9953 0.9732
6.4746 0.4037 -1.9953 0.9732
6.4128 0.9792 -1.9953 0.9732
6.1370 2.1024 -1.9953 0.9732
5.6662 3.1587 -1.9953 0.9732
5.0031 4.1046 -1.9905 0.9733
4.3501 4.2718 -1.8752 0.9748
-3.1138 4.5879 -1.8431 0.9769
-4.5522 3.8870 -1.9898 0.9751
-4.8942 3.4755 -1.9953 0.9750
-5.1845 3.0254 -1.9953 0.9750
-5.4336 2.5512 -1.9953 0.9750
-5.6393 2.0567 -1.9953 0.9750
-5.8002 1.5459 -1.9953 0.9750
-5.9149 1.0227 -1.9953 0.9750
-6.0025 -0.0438 -1.9953 0.9750
-5.7770 -1.6304 -1.9953 0.9750
-5.1398 -3.1008 -1.9953 0.9750
-1.4619 -2.7249 -1.0279 0.9871
-1.1704 -2.7440 -0.9916 0.9875
-0.6502 -2.8455 -0.9702 0.9878
-0.1391 -3.0131 -1.0026 0.9874
0.1320 -3.0610 -1.0185 0.9872
0.7806 -3.4642 -1.1804 0.9851
1.8362 -5.7149 -1.9953 0.9750
3.2828 -5.0255 -1.9953 0.9750
3.7177 -4.7128 -1.9953 0.9750
4.8321 -3.5613 -1.9953 0.9750
5.3876 -2.6467 -1.9953 0.9750
5.7720 -1.6480 -1.9953 0.9750
5.9729 -0.5969 -1.9953 0.9750
6.0023 -0.0621 -1.9953 0.9750
5.9840 0.4732 -1.9953 0.9750
5.9180 1.0047 -1.9953 0.9750
5.8049 1.5282 -1.9953 0.9750
5.4413 2.5346 -1.9953 0.9750
4.5739 3.8815 -1.9941 0.9750
3.5234 4.2814 -1.8431 0.9769
2.7072 4.8390 -1.8431 0.9769
1.8050 5.2428 -1.8431 0.9769
0.3535 5.5335 -1.8431 0.9769
-0.1213 4.7622 -1.5835 0.9801
-1.1231 5.4299 -1.8431 0.9769
-2.0694 5.1441 -1.8431 0.9769
-2.9500 4.6949 -1.8431 0.9769
-3.3567 4.4133 -1.8431 0.9769
-4.3797 4.0155 -1.9751 0.9753
-4.7648 3.6432 -1.9938 0.9750
-5.5632 2.2545 -1.9953 0.9750
-5.7421 1.7496 -1.9953 0.9750
-6.0003 0.1680 -1.9953 0.9750
-5.9348 -0.9001 -1.9953 0.9750
-5.6807 -1.9396 -1.9953 0.9750
-4.9651 -3.3735 -1.9953 0.9750
-2.8005 -2.7445 -1.3034 0.9836
-2.3474 -2.7520 -1.2024 0.9849
-1.9357 -2.7288 -1.1121 0.9860
-1.2838 -2.7378 -1.0051 0.9873
-1.0049 -2.7597 -0.9763 0.9877
-0.7437 -2.7961 -0.9617 0.9879
-0.4997 -2.8987 -0.9777 0.9877
-0.2432 -2.9795 -0.9937 0.9875
0.6302 -3.3429 -1.1308 0.9858
1.6333 -5.7762 -1.9953 0.9750
2.1417 -5.6076 -1.9953 0.9750
2.6330 -5.3944 -1.9953 0.9750
3.1034 -5.1382 -1.9953 0.9750
3.5490 -4.8411 -1.9953 0.9750
4.3522 -4.1340 -1.9953 0.9750
5.2909 -2.8352 -1.9953 0.9750
5.7102 -1.8506 -1.9953 0.9750
5.8525 -1.3343 -1.9953 0.9750
5.9969 0.2617 -1.9953 0.9750
5.9497 0.7952 -1.9953 0.9750
5.5273 2.3410 -1.9953 0.9750
5.2966 2.8244 -1.9953 0.9750
4.7110 3.7200 -1.9953 0.9750
4.3490 4.1142 -1.9900 0.9751
3.7599 4.2535 -1.8871 0.9764
1.5196 5.3325 -1.8431 0.9769
1.0382 5.4467 -1.8431 0.9769
0.5486 5.5176 -1.8431 0.9769
0.0546 5.5445 -1.8431 0.9769
-0.3796 4.7699 -1.5905 0.9800
-2.7824 4.7961 -1.8431 0.9769
-3.5899 4.2258 -1.8431 0.9769
-4.6271 3.8040 -1.9911 0.9751
-4.9582 3.3835 -1.9953 0.9750
-5.2401 2.9281 -1.9953 0.9750
-5.4802 2.4494 -1.9953 0.9750
-5.6767 1.9511 -1.9953 0.9750
-5.8281 1.4374 -1.9953 0.9750
-6.0007 -0.1558 -1.9953 0.9750
-5.8776 -1.2189 -1.9953 0.9750
-5.5678 -2.2432 -1.9953 0.9750
-3.6388 -2.7706 -1.5203 0.9809
-2.5421 -2.7756 -1.2511 0.9843
-0.8447 -2.7772 -0.9649 0.9878
-0.5986 -2.8648 -0.9729 0.9877
-0.0832 -3.0251 -1.0059 0.9873
0.1899 -3.0701 -1.0225 0.9871
1.4285 -5.8302 -1.9953 0.9750
2.4410 -5.4839 -1.9953 0.9750
2.9201 -5.2445 -1.9953 0.9750
3.8049 -4.6426 -1.9953 0.9750
4.8977 -3.4705 -1.9953 0.9750
5.1876 -3.0201 -1.9953 0.9750
5.4361 -2.5457 -1.9953 0.9750
5.6414 -2.0510 -1.9953 0.9750
5.9159 -1.0167 -1.9953 0.9750
5.9830 -0.4853 -1.9953 0.9750
5.8982 1.1149 -1.9953 0.9750
5.7753 1.6363 -1.9953 0.9750
5.6065 2.1445 -1.9953 0.9750
5.3930 2.6357 -1.9953 0.9750
4.8393 3.5515 -1.9953 0.9750
3.4429 4.3464 -1.8431 0.9769
2.1703 5.1024 -1.8431 0.9769
1.2298 5.4067 -1.8431 0.9769
0.7429 5.4948 -1.8431 0.9769
-0.7373 5.4955 -1.8431 0.9769
-1.2243 5.4080 -1.8431 0.9769
-2.6115 4.8913 -1.8431 0.9769
-3.0371 4.6391 -1.8431 0.9769
-4.8355 3.5563 -1.9952 0.9750
-5.1335 3.1112 -1.9953 0.9750
-5.6043 2.1503 -1.9953 0.9750
-5.9735 0.5908 -1.9953 0.9750
-5.9170 -1.0107 -1.9953 0.9750
-5.6435 -2.0453 -1.9953 0.9750
-5.4387 -2.5402 -1.9953 0.9750
-5.1907 -3.0149 -1.9953 0.9750
-4.9013 -3.4655 -1.9953 0.9750
-3.1779 -2.7024 -1.3867 0.9826
-2.2503 -2.7400 -1.1786 0.9852
-1.8571 -2.7244 -1.0960 0.9862
-1.2228 -2.7396 -0.9973 0.9874
-0.6958 -2.8277 -0.9680 0.9878
-0.1885 -2.9984 -0.9986 0.9874
0.0808 -3.0523 -1.0149 0.9872
0.7085 -3.4080 -1.1571 0.9854
1.7408 -5.7447 -1.9953 0.9750
3.1987 -5.0794 -1.9953 0.9750
3.6387 -4.7740 -1.9953 0.9750
4.4286 -4.0521 -1.9953 0.9750
5.3429 -2.7359 -1.9953 0.9750
5.5655 -2.2488 -1.9953 0.9750
5.7438 -1.7438 -1.9953 0.9750
5.9621 -0.6962 -1.9953 0.9750
6.0004 -0.1619 -1.9953 0.9750
5.8295 1.4314 -1.9953 0.9750
5.6787 1.9453 -1.9953 0.9750
4.2686 4.1918 -1.9887 0.9751
3.2035 4.5257 -1.8431 0.9769
2.7873 4.7933 -1.8431 0.9769
-2.8944 4.2646 -1.8431 0.9783
-3.8902 3.9736 -1.9886 0.9767
-4.2413 3.6215 -1.9944 0.9766
-5.0506 2.3714 -1.9953 0.9766
-5.2419 1.9118 -1.9953 0.9766
-5.4981 0.9506 -1.9953 0.9766
-5.5609 0.4568 -1.9953 0.9766
-5.4836 -1.0308 -1.9953 0.9766
-4.7776 -2.8823 -1.9953 0.9766
-3.0691 -2.6992 -1.4616 0.9828
-1.7911 -2.7238 -1.1658 0.9862
-1.4463 -2.6957 -1.0940 0.9871
-0.3773 -2.7696 -0.9996 0.9882
0.1247 -2.8917 -1.0351 0.9878
0.4004 -3.0075 -1.0850 0.9872
0.7201 -3.1958 -1.1715 0.9862
1.7068 -5.3122 -1.9953 0.9766
2.6229 -4.9247 -1.9953 0.9766
3.4557 -4.3807 -1.9953 0.9766
3.8324 -4.0552 -1.9953 0.9766
4.1786 -3.6975 -1.9953 0.9766
5.0080 -2.4602 -1.9953 0.9766
5.3652 -1.5318 -1.9953 0.9766
5.5623 0.4398 -1.9953 0.9766
5.5009 0.9339 -1.9953 0.9766
5.3958 1.4205 -1.9953 0.9766
5.0578 2.3560 -1.9953 0.9766
4.5591 3.2167 -1.9953 0.9766
4.2542 3.6102 -1.9953 0.9766
3.9095 3.9690 -1.9923 0.9766
3.4831 4.2324 -1.9602 0.9770
2.1055 4.7044 -1.8431 0.9783
1.6778 4.8733 -1.8431 0.9783
0.3286 5.1435 -1.8431 0.9783
-1.4897 4.9341 -1.8431 0.9783
-1.9236 4.7816 -1.8431 0.9783
-2.3422 4.5911 -1.8431 0.9783
-2.7421 4.3641 -1.8431 0.9783
-3.1202 4.1023 -1.8431 0.9783
-3.6836 4.0382 -1.9547 0.9770
-5.5413 0.6527 -1.9953 0.9766
-5.5775 0.1562 -1.9953 0.9766
-5.5692 -0.3416 -1.9953 0.9766
-5.2803 -1.8029 -1.9953 0.9766
-5.0986 -2.2664 -1.9953 0.9766
-4.6152 -3.1358 -1.9953 0.9766
-3.3055 -2.7063 -1.5277 0.9820
-2.3251 -2.7257 -1.2812 0.9849
-1.9371 -2.7308 -1.1973 0.9859
-1.5774 -2.7063 -1.1202 0.9868
-0.9934 -2.7281 -1.0383 0.9877
-0.7347 -2.7622 -1.0221 0.9879
2.4475 -5.0142 -1.9953 0.9766
4.0455 -3.8426 -1.9953 0.9766
4.9180 -2.6352 -1.9953 0.9766
5.1334 -2.1865 -1.9953 0.9766
5.4400 -1.2402 -1.9953 0.9766
5.5289 -0.7504 -1.9953 0.9766
5.5738 -0.2546 -1.9953 0.9766
5.5743 0.2433 -1.9953 0.9766
5.5304 0.7392 -1.9953 0.9766
5.3113 1.7094 -1.9953 0.9766
4.0519 3.8331 -1.9946 0.9766
2.2702 4.6271 -1.8431 0.9783
0.0507 5.1538 -1.8431 0.9783
-0.3778 4.7479 -1.7033 0.9800
-1.3147 4.9835 -1.8431 0.9783
-2.5864 4.4581 -1.8431 0.9783
-3.4442 4.0544 -1.9024 0.9777
-3.9660 3.9026 -1.9898 0.9766
-4.6088 3.1451 -1.9953 0.9766
-4.8708 2.7218 -1.9953 0.9766
-5.4173 1.3361 -1.9953 0.9766
-5.5149 0.8479 -1.9953 0.9766
-5.5685 0.3529 -1.9953 0.9766
-5.4634 -1.1330 -1.9953 0.9766
-5.3407 -1.6155 -1.9953 0.9766
-5.1754 -2.0851 -1.9953 0.9766
-4.7229 -2.9709 -1.9953 0.9766
-2.9522 -2.6957 -1.4296 0.9832
-2.0843 -2.7289 -1.2280 0.9855
-1.7152 -2.7176 -1.1492 0.9864
-1.3808 -2.6931 -1.0823 0.9872
-1.0998 -2.7178 -1.0485 0.9876
-0.8350 -2.7455 -1.0262 0.9879
-0.3270 -2.7887 -1.0041 0.9881
0.4632 -3.0434 -1.1009 0.9870
2.2690 -5.0974 -1.9953 0.9766
2.7143 -4.8749 -1.9953 0.9766
3.1381 -4.6135 -1.9953 0.9766
3.5368 -4.3155 -1.9953 0.9766
4.5525 -3.2259 -1.9953 0.9766
4.8220 -2.8073 -1.9953 0.9766
5.3929 -1.4315 -1.9953 0.9766
5.4990 -0.9450 -1.9953 0.9766
5.5613 -0.4511 -1.9953 0.9766
5.5531 0.5435 -1.9953 0.9766
5.4825 1.0364 -1.9953 0.9766
5.2114 1.9934 -1.9953 0.9766
4.7746 2.8871 -1.9953 0.9766
4.1861 3.6890 -1.9953 0.9766
3.8324 4.0388 -1.9910 0.9766
2.8274 4.3093 -1.8431 0.9783
2.0173 4.7428 -1.8431 0.9783
0.2326 5.1488 -1.8431 0.9783
-1.5815 4.9054 -1.8431 0.9783
-4.4949 3.3058 -1.9953 0.9766
-4.7717 2.8920 -1.9953 0.9766
-5.0105 2.4551 -1.9953 0.9766
-5.2094 1.9987 -1.9953 0.9766
-5.3668 1.5264 -1.9953 0.9766
-5.4815 1.0420 -1.9953 0.9766
-5.5619 -0.4455 -1.9953 0.9766
-5.2458 -1.9011 -1.9953 0.9766
-5.0554 -2.3612 -1.9953 0.9766
-4.5559 -3.2213 -1.9953 0.9766
-3.1779 -2.7024 -1.4918 0.9824
-1.8596 -2.7281 -1.1807 0.9861
-1.5073 -2.7006 -1.1060 0.9869
-1.2081 -2.7068 -1.0600 0.9875
-0.9380 -2.7337 -1.0335 0.9878
-0.6811 -2.7678 -1.0193 0.9880
-0.4219 -2.7534 -0.9961 0.9882
-0.1785 -2.8400 -1.0176 0.9880
1.6182 -5.3398 -1.9953 0.9766
2.0877 -5.1743 -1.9953 0.9766
2.5406 -4.9677 -1.9953 0.9766
3.3823 -4.4376 -1.9953 0.9766
4.4359 -3.3846 -1.9953 0.9766
4.7199 -2.9757 -1.9953 0.9766
4.9663 -2.5431 -1.9953 0.9766
5.1733 -2.0903 -1.9953 0.9766
5.5776 -0.1505 -1.9953 0.9766
5.5688 0.3472 -1.9953 0.9766
5.0963 2.2716 -1.9953 0.9766
4.8735 2.7168 -1.9953 0.9766
4.6120 3.1404 -1.9953 0.9766
3.6014 4.2307 -1.9869 0.9767
-2.7661 4.0757 -1.8876 0.9791
-3.6384 3.7164 -1.9931 0.9780
-3.9596 3.3811 -1.9953 0.9779
-4.2453 3.0146 -1.9953 0.9779
-4.7131 2.2129 -1.9953 0.9779
-5.0311 1.3409 -1.9953 0.9779
-2.3042 0.1893 -0.8860 0.9901
-2.3038 -0.2231 -0.8870 0.9901
-5.1171 -0.9619 -1.9953 0.9779
-5.0110 -1.4142 -1.9953 0.9779
-4.8650 -1.8553 -1.9953 0.9779
-4.6803 -2.2815 -1.9953 0.9779
-4.2008 -3.0763 -1.9953 0.9779
-3.0691 -2.6992 -1.5663 0.9826
-1.7937 -2.7277 -1.2511 0.9861
-1.4488 -2.7005 -1.1744 0.9870
-1.1433 -2.6804 -1.1167 0.9876
-0.8791 -2.7077 -1.0910 0.9879
-0.1264 -2.7369 -1.0499 0.9883
0.6758 -2.9990 -1.1781 0.9869
1.5927 -4.9572 -1.9953 0.9779
2.0282 -4.7955 -1.9953 0.9779
2.4476 -4.5956 -1.9953 0.9779
2.8475 -4.3591 -1.9953 0.9779
3.2247 -4.0879 -1.9953 0.9779
3.8993 -3.4504 -1.9953 0.9779
4.1914 -3.0891 -1.9953 0.9779
4.6733 -2.2957 -1.9953 0.9779
5.0067 -1.4295 -1.9953 0.9779
5.1141 -0.9775 -1.9953 0.9779
5.1809 -0.5177 -1.9953 0.9779
5.2064 -0.0539 -1.9953 0.9779
5.1905 0.4104 -1.9953 0.9779
5.0352 1.3256 -1.9953 0.9779
4.5050 2.6105 -1.9953 0.9779
4.2544 3.0017 -1.9953 0.9779
3.3019 4.0122 -1.9913 0.9780
1.9648 4.3900 -1.8431 0.9796
1.5656 4.5476 -1.8431 0.9796
-0.1208 4.7440 -1.8186 0.9799
-0.5505 4.7780 -1.8431 0.9796
-0.9742 4.7099 -1.8431 0.9796
-1.3902 4.6043 -1.8431 0.9796
-1.7950 4.4621 -1.8431 0.9796
-2.5688 4.0883 -1.8503 0.9795
-3.0842 4.0550 -1.9524 0.9784
-3.5014 3.8386 -1.9911 0.9780
-4.1362 3.1626 -1.9953 0.9779
-4.4017 2.7813 -1.9953 0.9779
-4.9807 1.5176 -1.9953 0.9779
-2.3013 0.2711 -0.8880 0.9901
-4.5504 -2.5306 -1.9953 0.9779
-3.3055 -2.7063 -1.6371 0.9819
-1.9386 -2.7328 -1.2840 0.9857
-0.9820 -2.6967 -1.0998 0.9878
-0.7280 -2.7371 -1.0854 0.9879
-0.2236 -2.7400 -1.0535 0.9883
0.0214 -2.7343 -1.0479 0.9884
0.2708 -2.7814 -1.0709 0.9881
1.8577 -4.8640 -1.9953 0.9779
2.2839 -4.6791 -1.9953 0.9779
3.0784 -4.1992 -1.9953 0.9779
3.7752 -3.5858 -1.9953 0.9779
4.5893 -2.4592 -1.9953 0.9779
4.7903 -2.0404 -1.9953 0.9779
4.9531 -1.6052 -1.9953 0.9779
5.0765 -1.1574 -1.9953 0.9779
5.2018 0.2270 -1.9953 0.9779
4.9563 1.5952 -1.9953 0.9779
4.7944 2.0306 -1.9953 0.9779
4.5943 2.4499 -1.9953 0.9779
4.3577 2.8497 -1.9953 0.9779
4.0863 3.2268 -1.9953 0.9779
3.7824 3.5782 -1.9953 0.9779
3.4449 3.8971 -1.9933 0.9780
2.1184 4.3179 -1.8431 0.9796
0.4758 4.7860 -1.8431 0.9796
-0.8074 4.7413 -1.8431 0.9796
-1.2268 4.6505 -1.8431 0.9796
-1.6365 4.5226 -1.8431 0.9796
-3.7091 3.6498 -1.9942 0.9780
-4.0220 3.3066 -1.9953 0.9779
-4.5453 2.5399 -1.9953 0.9779
-4.7536 2.1246 -1.9953 0.9779
-4.9240 1.6924 -1.9953 0.9779
-5.1463 0.7912 -1.9953 0.9779
-2.3031 0.1460 -0.8844 0.9902
-2.2957 -0.0596 -0.8800 0.9902
-2.3016 -0.2664 -0.8879 0.9901
-5.0983 -1.0573 -1.9953 0.9779
-4.9838 -1.5075 -1.9953 0.9779
-2.9522 -2.6957 -1.5320 0.9830
-2.4931 -2.7220 -1.4145 0.9843
-2.0859 -2.7309 -1.3169 0.9854
-1.3818 -2.6950 -1.1606 0.9871
-0.3208 -2.7357 -1.0555 0.9883
1.6849 -4.9266 -1.9953 0.9779
2.5329 -4.5491 -1.9953 0.9779
2.9283 -4.3052 -1.9953 0.9779
3.6463 -3.7168 -1.9953 0.9779
3.9630 -3.3770 -1.9953 0.9779
4.2483 -3.0103 -1.9953 0.9779
4.7153 -2.2081 -1.9953 0.9779
4.8934 -1.7791 -1.9953 0.9779
5.0325 -1.3358 -1.9953 0.9779
5.1315 -0.8819 -1.9953 0.9779
4.8631 1.8602 -1.9953 0.9779
4.6779 2.2863 -1.9953 0.9779
4.4555 2.6941 -1.9953 0.9779
3.9063 3.4425 -1.9953 0.9779
3.5839 3.7770 -1.9953 0.9779
3.2248 4.0710 -1.9902 0.9780
-0.2097 4.7497 -1.8219 0.9798
-2.2701 4.2520 -1.8472 0.9796
-2.6721 4.0816 -1.8695 0.9793
-3.5743 3.7746 -1.9921 0.9780
-4.1945 3.0849 -1.9953 0.9779
-4.8612 1.8652 -1.9953 0.9779
-5.0081 1.4244 -1.9953 0.9779
-2.3036 0.2279 -0.8871 0.9901
-2.2901 0.0214 -0.8777 0.9902
-5.1324 -0.8767 -1.9953 0.9779
-4.8952 -1.7741 -1.9953 0.9779
-4.7176 -2.2034 -1.9953 0.9779
-4.5024 -2.6151 -1.9953 0.9779
-4.2514 -3.0060 -1.9953 0.9779
-3.1779 -2.7024 -1.5986 0.9823
-2.2400 -2.7275 -1.3525 0.9850
-1.8610 -2.7301 -1.2662 0.9859
-1.1958 -2.6790 -1.1243 0.9875
-0.9272 -2.7021 -1.0947 0.9878
-0.4191 -2.7351 -1.0604 0.9882
-0.1721 -2.7374 -1.0511 0.9883
0.0724 -2.7331 -1.0477 0.9884
0.6174 -2.9695 -1.1623 0.9871
1.9482 -4.8285 -1.9953 0.9779
2.7746 -4.4059 -1.9953 0.9779
3.5128 -3.8432 -1.9953 0.9779
3.8414 -3.5148 -1.9953 0.9779
4.4044 -2.7768 -1.9953 0.9779
4.8275 -1.9506 -1.9953 0.9779
4.9822 -1.5126 -1.9953 0.9779
5.0972 -1.0624 -1.9953 0.9779
5.1716 -0.6039 -1.9953 0.9779
5.2048 -0.1405 -1.9953 0.9779
5.1966 0.3240 -1.9953 0.9779
5.1471 0.7859 -1.9953 0.9779
4.7557 2.1198 -1.9953 0.9779
4.0254 3.3025 -1.9953 0.9779
3.7150 3.6481 -1.9953 0.9779
3.3697 3.9586 -1.9922 0.9780
2.9838 4.2153 -1.9791 0.9781
2.4545 4.2209 -1.8711 0.9793
-2.2689 4.0846 -1.9123 0.9800
-4.4130 2.0720 -1.9953 0.9791
-4.5802 1.6704 -1.9953 0.9791
-4.7108 1.2555 -1.9953 0.9791
-2.0498 0.3544 -0.8514 0.9910
-2.0138 0.1654 -0.8270 0.9913
-1.9920 -0.0145 -0.8153 0.9914
-2.0168 -0.1953 -0.8293 0.9913
-4.6920 -1.3242 -1.9953 0.9791
-4.5553 -1.7372 -1.9953 0.9791
-4.3823 -2.1363 -1.9953 0.9791
-3.0691 -2.6992 -1.6728 0.9825
-2.5883 -2.7222 -1.5374 0.9839
-1.4514 -2.7053 -1.2565 0.9868
-0.8692 -2.6773 -1.1521 0.9879
-0.6248 -2.7340 -1.1478 0.9880
0.6632 -2.9435 -1.2349 0.9870
2.2918 -4.3030 -1.9953 0.9791
2.6662 -4.0816 -1.9953 0.9791
3.0194 -3.8277 -1.9953 0.9791
3.3486 -3.5433 -1.9953 0.9791
3.9245 -2.8924 -1.9953 0.9791
4.1667 -2.5311 -1.9953 0.9791
4.3758 -2.1496 -1.9953 0.9791
4.5499 -1.7510 -1.9953 0.9791
4.6879 -1.3385 -1.9953 0.9791
4.7885 -0.9153 -1.9953 0.9791
4.8511 -0.4848 -1.9953 0.9791
4.8750 -0.0504 -1.9953 0.9791
4.8065 0.8160 -1.9953 0.9791
4.4193 2.0586 -1.9953 0.9791
4.2182 2.4443 -1.9953 0.9791
3.9835 2.8106 -1.9953 0.9791
3.7171 3.1545 -1.9953 0.9791
3.4212 3.4733 -1.9953 0.9791
3.0980 3.7644 -1.9953 0.9791
2.7440 4.0167 -1.9909 0.9792
2.3496 4.1998 -1.9696 0.9794
1.8810 4.2028 -1.8845 0.9803
1.0806 4.3718 -1.8431 0.9807
0.6866 4.4507 -1.8431 0.9807
-0.1146 4.5019 -1.8431 0.9807
-1.3017 4.3112 -1.8431 0.9807
-1.6808 4.1780 -1.8431 0.9807
-2.0892 4.0952 -1.8816 0.9803
-2.9446 3.8715 -1.9908 0.9792
-3.5935 3.2947 -1.9953 0.9791
-3.8729 2.9612 -1.9953 0.9791
-4.6636 1.4210 -1.9953 0.9791
-1.9971 0.0559 -0.8177 0.9914
-2.0083 -0.1232 -0.8235 0.9913
-2.0267 -0.3074 -0.8390 0.9912
-4.6137 -1.5753 -1.9953 0.9791
-4.0325 -2.7399 -1.9953 0.9791
-3.3055 -2.7063 -1.7484 0.9817
-2.7464 -2.6916 -1.5738 0.9835
-0.9706 -2.6655 -1.1610 0.9878
-0.7213 -2.7120 -1.1485 0.9879
-0.4700 -2.7264 -1.1323 0.9881
-0.2217 -2.7165 -1.1155 0.9883
0.0211 -2.7058 -1.1075 0.9884
0.2652 -2.7229 -1.1197 0.9882
1.7395 -4.5544 -1.9953 0.9791
2.1385 -4.3812 -1.9953 0.9791
2.5205 -4.1731 -1.9953 0.9791
3.2215 -3.6593 -1.9953 0.9791
3.8200 -3.0291 -1.9953 0.9791
4.2972 -2.3027 -1.9953 0.9791
4.4853 -1.9105 -1.9953 0.9791
4.8309 -0.6557 -1.9953 0.9791
4.7555 1.0740 -1.9953 0.9791
4.3018 2.2939 -1.9953 0.9791
3.2289 3.6527 -1.9953 0.9791
2.8865 3.9207 -1.9926 0.9792
1.6167 4.2077 -1.8449 0.9807
1.2342 4.3310 -1.8431 0.9807
-1.5323 4.2347 -1.8431 0.9807
-1.9148 4.1051 -1.8539 0.9806
-2.3662 4.0787 -1.9299 0.9798
-2.8039 3.9698 -1.9892 0.9792
-3.1533 3.7119 -1.9934 0.9792
-4.0270 2.7481 -1.9953 0.9791
-4.2559 2.3782 -1.9953 0.9791
-4.4509 1.9893 -1.9953 0.9791
-4.6105 1.5847 -1.9953 0.9791
-2.0290 0.3119 -0.8402 0.9912
-2.0089 0.1273 -0.8238 0.9913
-1.9967 -0.0519 -0.8175 0.9914
-2.0800 -0.4313 -0.8694 0.9909
-4.6665 -1.4115 -1.9953 0.9791
-4.5221 -1.8219 -1.9953 0.9791
-3.8789 -2.9534 -1.9953 0.9791
-2.4951 -2.7242 -1.5119 0.9842
0.7635 -3.1161 -1.3131 0.9862
1.9825 -4.4539 -1.9953 0.9791
2.3717 -4.2595 -1.9953 0.9791
2.7419 -4.0311 -1.9953 0.9791
3.7107 -3.1620 -1.9953 0.9791
4.4151 -2.0676 -1.9953 0.9791
4.5818 -1.6658 -1.9953 0.9791
4.8048 -0.8257 -1.9953 0.9791
4.8751 0.0405 -1.9953 0.9791
4.8520 0.4749 -1.9953 0.9791
4.7904 0.9055 -1.9953 0.9791
4.6906 1.3289 -1.9953 0.9791
4.5535 1.7417 -1.9953 0.9791
4.3801 2.1407 -1.9953 0.9791
4.1719 2.5226 -1.9953 0.9791
3.9304 2.8844 -1.9953 0.9791
2.6674 4.0654 -1.9901 0.9792
2.2482 4.2007 -1.9500 0.9796
1.7877 4.2031 -1.8694 0.9805
0.9988 4.3912 -1.8431 0.9807
0.6034 4.4628 -1.8431 0.9807
-0.1986 4.4990 -1.8431 0.9807
-0.9943 4.3922 -1.8431 0.9807
-2.1835 4.0897 -1.8974 0.9802
-3.3522 3.5399 -1.9953 0.9791
-3.9275 2.8885 -1.9953 0.9791
-4.1693 2.5269 -1.9953 0.9791
-4.3779 2.1452 -1.9953 0.9791
-4.5517 1.7464 -1.9953 0.9791
-2.0171 0.1995 -0.8296 0.9913
-2.0476 -0.3498 -0.8502 0.9911
-4.5835 -1.6611 -1.9953 0.9791
-4.4172 -2.0631 -1.9953 0.9791
-3.9807 -2.8146 -1.9953 0.9791
-3.1779 -2.7024 -1.7073 0.9821
-2.6755 -2.7218 -1.5621 0.9836
-1.1978 -2.6837 -1.2028 0.9874
-0.9164 -2.6708 -1.1556 0.9879
-0.4169 -2.7209 -1.1266 0.9882
0.0716 -2.7046 -1.1073 0.9884
0.3179 -2.7348 -1.1268 0.9882
0.5956 -2.8646 -1.1975 0.9874
1.4139 -4.6657 -1.9953 0.9791
3.8759 -2.9573 -1.9953 0.9791
4.3394 -2.2221 -1.9953 0.9791
4.6650 -1.4163 -1.9953 0.9791
4.8423 -0.5654 -1.9953 0.9791
4.8735 -0.1315 -1.9953 0.9791
4.8658 0.3034 -1.9953 0.9791
4.7346 1.1626 -1.9953 0.9791
4.6121 1.5800 -1.9953 0.9791
4.2583 2.3738 -1.9953 0.9791
4.0297 2.7439 -1.9953 0.9791
3.7691 3.0922 -1.9953 0.9791
2.8116 3.9721 -1.9917 0.9792
2.4414 4.1984 -1.9877 0.9792
-2.2162 3.9899 -1.9891 0.9803
-2.5674 3.7828 -1.9924 0.9802
-2.8985 3.5440 -1.9953 0.9802
-3.2029 3.2715 -1.9953 0.9802
-3.4818 2.9730 -1.9953 0.9802
-3.7329 2.6508 -1.9953 0.9802
-1.4927 0.3978 -0.6732 0.9933
-1.4715 0.2544 -0.6508 0.9935
-1.4647 0.1203 -0.6405 0.9936
-1.4686 -0.2761 -0.6513 0.9935
-1.4936 -0.4215 -0.6764 0.9933
-1.5294 -0.5833 -0.7134 0.9929
-4.1154 -2.0062 -1.9953 0.9802
-3.9202 -2.3650 -1.9953 0.9802
-3.6938 -2.7050 -1.9953 0.9802
-2.1697 -2.7334 -1.5209 0.9849
-1.1445 -2.6832 -1.2713 0.9874
-0.8634 -2.6594 -1.2186 0.9879
0.3628 -2.7245 -1.1979 0.9881
1.4005 -4.3589 -1.9953 0.9802
1.7834 -4.2167 -1.9953 0.9802
2.5038 -3.8330 -1.9953 0.9802
2.8355 -3.5946 -1.9953 0.9802
3.9130 -2.3769 -1.9953 0.9802
4.1093 -2.0187 -1.9953 0.9802
4.2729 -1.6443 -1.9953 0.9802
4.4024 -1.2569 -1.9953 0.9802
4.4969 -0.8595 -1.9953 0.9802
4.5556 -0.4553 -1.9953 0.9802
4.5641 0.3609 -1.9953 0.9802
4.5138 0.7663 -1.9953 0.9802
4.4275 1.1656 -1.9953 0.9802
4.3059 1.5556 -1.9953 0.9802
3.7409 2.6394 -1.9953 0.9802
3.4908 2.9624 -1.9953 0.9802
3.2128 3.2617 -1.9953 0.9802
2.9093 3.5351 -1.9953 0.9802
2.5820 3.7795 -1.9949 0.9802
1.0334 4.1811 -1.8770 0.9814
-0.1076 4.2277 -1.8431 0.9817
-2.0728 4.0632 -1.9879 0.9803
-2.4306 3.8683 -1.9911 0.9803
-2.7708 3.6430 -1.9947 0.9802
-3.0854 3.3825 -1.9953 0.9802
-3.3747 3.0940 -1.9953 0.9802
-3.6370 2.7809 -1.9953 0.9802
-4.2432 1.7195 -1.9953 0.9802
-1.4408 0.0403 -0.6282 0.9937
-1.4573 -0.0894 -0.6363 0.9936
-1.4736 -0.2235 -0.6496 0.9935
-1.4890 -0.3640 -0.6680 0.9933
-1.4912 -0.5092 -0.6868 0.9931
-4.1836 -1.8597 -1.9953 0.9802
-1.2634 -2.6943 -1.2969 0.9871
-0.9712 -2.6672 -1.2371 0.9877
-0.7146 -2.6869 -1.2117 0.9879
0.2631 -2.7024 -1.1833 0.9882
1.6335 -4.2770 -1.9953 0.9802
2.3670 -3.9190 -1.9953 0.9802
2.7069 -3.6924 -1.9953 0.9802
3.0253 -3.4364 -1.9953 0.9802
3.3195 -3.1531 -1.9953 0.9802
4.5736 -0.2089 -1.9953 0.9802
4.5740 0.1996 -1.9953 0.9802
4.0398 2.1542 -1.9953 0.9802
3.8317 2.5058 -1.9953 0.9802
3.3259 3.1463 -1.9953 0.9802
2.7144 3.6869 -1.9953 0.9802
2.3717 3.9088 -1.9926 0.9802
2.0104 4.0977 -1.9892 0.9803
0.7966 4.1789 -1.8540 0.9816
-0.3355 4.2158 -1.8431 0.9817
-1.0886 4.1265 -1.8599 0.9816
-1.4862 4.1075 -1.9037 0.9811
-1.9053 4.0849 -1.9644 0.9805
-3.2634 3.2112 -1.9953 0.9802
-3.7817 2.5807 -1.9953 0.9802
-3.9967 2.2333 -1.9953 0.9802
-1.4895 0.3674 -0.6686 0.9933
-1.4735 0.2265 -0.6497 0.9935
-1.4581 0.0924 -0.6367 0.9936
-1.4939 -0.4519 -0.6802 0.9932
-4.0773 -2.0826 -1.9953 0.9802
-3.8754 -2.4378 -1.9953 0.9802
-2.9522 -2.6957 -1.7423 0.9827
-2.4972 -2.7265 -1.6113 0.9840
-2.0891 -2.7351 -1.4999 0.9851
-0.5679 -2.7177 -1.2100 0.9880
-0.3156 -2.6907 -1.1807 0.9882
0.7587 -3.0965 -1.3894 0.9862
2.5749 -3.7856 -1.9953 0.9802
2.9021 -3.5410 -1.9953 0.9802
3.2062 -3.2683 -1.9953 0.9802
3.4847 -2.9695 -1.9953 0.9802
4.3028 -1.5643 -1.9953 0.9802
4.5122 -0.7754 -1.9953 0.9802
4.5633 -0.3702 -1.9953 0.9802
4.4987 0.8504 -1.9953 0.9802
4.4050 1.2480 -1.9953 0.9802
4.1134 2.0103 -1.9953 0.9802
3.9178 2.3690 -1.9953 0.9802
3.6910 2.7088 -1.9953 0.9802
3.4349 3.0270 -1.9953 0.9802
3.1514 3.3211 -1.9953 0.9802
2.5100 3.8255 -1.9941 0.9802
1.7789 4.1822 -1.9807 0.9804
0.9508 4.1804 -1.8684 0.9815
-0.5624 4.1916 -1.8431 0.9817
-0.9362 4.1353 -1.8478 0.9817
-1.3268 4.1154 -1.8845 0.9813
-1.7365 4.0943 -1.9382 0.9808
-2.5033 3.8237 -1.9918 0.9803
-2.8392 3.5917 -1.9953 0.9802
-3.4318 3.0305 -1.9953 0.9802
-3.6883 2.7125 -1.9953 0.9802
-1.5358 0.5892 -0.7169 0.9928
-1.4936 0.4248 -0.6768 0.9932
-1.4682 0.2791 -0.6513 0.9935
-1.4292 0.0133 -0.6229 0.9938
-1.4718 -0.2514 -0.6507 0.9935
-1.4868 -0.5388 -0.6892 0.9931
-4.1482 -1.9374 -1.9953 0.9802
-3.7383 -2.6432 -1.9953 0.9802
-3.1779 -2.7024 -1.8181 0.9820
-2.7402 -2.7876 -1.7035 0.9831
-2.2435 -2.7318 -1.5406 0.9847
-1.8638 -2.7342 -1.4421 0.9857
-1.5155 -2.7154 -1.3553 0.9865
-1.1999 -2.6884 -1.2831 0.9872
-0.9137 -2.6627 -1.2268 0.9878
-0.1690 -2.6875 -1.1736 0.9883
0.0709 -2.6772 -1.1672 0.9884
0.3155 -2.7141 -1.1908 0.9881
0.5911 -2.8431 -1.2656 0.9874
1.7130 -4.2458 -1.9953 0.9802
2.4397 -3.8741 -1.9953 0.9802
2.7753 -3.6412 -1.9953 0.9802
3.0889 -3.3794 -1.9953 0.9802
3.6398 -2.7772 -1.9953 0.9802
3.8729 -2.4417 -1.9953 0.9802
4.0751 -2.0868 -1.9953 0.9802
4.2449 -1.7152 -1.9953 0.9802
4.3809 -1.3300 -1.9953 0.9802
4.4820 -0.9342 -1.9953 0.9802
4.5474 -0.5310 -1.9953 0.9802
4.5767 -0.1235 -1.9953 0.9802
4.5259 0.6911 -1.9953 0.9802
4.4462 1.0918 -1.9953 0.9802
3.9989 2.2292 -1.9953 0.9802
3.5396 2.9039 -1.9953 0.9802
3.2666 3.2078 -1.9953 0.9802
-2.0907 3.7639 -1.9930 0.9812
-2.4207 3.5667 -1.9953 0.9812
-2.7290 3.3367 -1.9953 0.9812
-3.0156 3.0802 -1.9953 0.9812
-3.2781 2.7991 -1.9953 0.9812
-1.2706 0.3386 -0.6087 0.9942
-1.2728 0.2201 -0.5979 0.9943
-1.2710 -0.2389 -0.5986 0.9943
-1.2706 -0.3586 -0.6111 0.9942
-1.2579 -0.4797 -0.6232 0.9941
-3.8748 -1.8889 -1.9953 0.9812
-3.6910 -2.2267 -1.9953 0.9812
-3.4778 -2.5469 -1.9953 0.9812
-2.1714 -2.7356 -1.6167 0.9847
-1.7977 -2.7339 -1.5146 0.9857
-1.4568 -2.7154 -1.4264 0.9865
-1.1465 -2.6880 -1.3527 0.9872
-0.6132 -2.6834 -1.2741 0.9879
-0.1228 -2.6591 -1.2321 0.9883
0.3607 -2.7093 -1.2651 0.9880
0.6619 -2.9375 -1.3938 0.9868
2.6697 -3.3844 -1.9953 0.9812
4.1450 -1.1834 -1.9953 0.9812
4.2340 -0.8093 -1.9953 0.9812
4.2972 0.3398 -1.9953 0.9812
4.1686 1.0974 -1.9953 0.9812
4.0542 1.4646 -1.9953 0.9812
3.7297 2.1612 -1.9953 0.9812
3.0250 3.0710 -1.9953 0.9812
2.4316 3.5593 -1.9953 0.9812
1.7580 3.9279 -1.9920 0.9812
1.3991 4.0640 -1.9895 0.9812
1.0285 4.1611 -1.9841 0.9813
0.6413 4.1574 -1.9472 0.9816
-0.1055 4.1425 -1.9181 0.9819
-1.2378 4.0997 -1.9823 0.9813
-1.6041 3.9873 -1.9894 0.9812
-1.9555 3.8332 -1.9919 0.9812
-2.9050 3.1847 -1.9953 0.9812
-3.4243 2.6183 -1.9953 0.9812
-3.8348 1.9686 -1.9953 0.9812
-1.2519 0.5073 -0.6252 0.9941
-1.2751 0.1502 -0.5943 0.9944
-1.2644 0.0354 -0.5855 0.9944
-1.2699 -0.0779 -0.5889 0.9944
-1.2699 -0.3105 -0.6051 0.9943
-1.2655 -0.4321 -0.6190 0.9941
-1.2521 -0.5566 -0.6343 0.9940
-3.5655 -2.4226 -1.9953 0.9812
-2.3306 -2.7323 -1.6623 0.9843
-1.9431 -2.7392 -1.5545 0.9853
-1.5891 -2.7264 -1.4607 0.9862
-1.2657 -2.6992 -1.3800 0.9869
-0.4649 -2.6972 -1.2669 0.9880
-0.2177 -2.6671 -1.2386 0.9883
0.0207 -2.6528 -1.2280 0.9884
0.5202 -2.7595 -1.2998 0.9877
1.1729 -4.1480 -1.9953 0.9812
1.5380 -4.0269 -1.9953 0.9812
2.2286 -3.6898 -1.9953 0.9812
2.5486 -3.4765 -1.9953 0.9812
2.8484 -3.2355 -1.9953 0.9812
3.1254 -2.9687 -1.9953 0.9812
3.3776 -2.6783 -1.9953 0.9812
3.9658 -1.6892 -1.9953 0.9812
4.1006 -1.3290 -1.9953 0.9812
4.2028 -0.9582 -1.9953 0.9812
4.2714 -0.5797 -1.9953 0.9812
4.3061 -0.1967 -1.9953 0.9812
4.3065 0.1879 -1.9953 0.9812
4.2047 0.9496 -1.9953 0.9812
4.1033 1.3206 -1.9953 0.9812
3.9693 1.6811 -1.9953 0.9812
3.3830 2.6714 -1.9953 0.9812
3.1314 2.9623 -1.9953 0.9812
0.7928 4.1592 -1.9599 0.9815
0.4130 4.1540 -1.9323 0.9818
-0.3291 4.1359 -1.9205 0.9819
-1.0834 4.1070 -1.9661 0.9815
-2.1613 3.7254 -1.9936 0.9812
-2.4869 3.5209 -1.9953 0.9812
-3.0725 3.0234 -1.9953 0.9812
-3.5606 2.4298 -1.9953 0.9812
-1.2651 0.4348 -0.6192 0.9941
-1.2700 0.3132 -0.6055 0.9943
-1.2702 0.0805 -0.5892 0.9944
-1.2750 -0.1476 -0.5941 0.9944
-1.2697 -0.3841 -0.6140 0.9942
-1.2525 -0.5046 -0.6251 0.9941
-2.9522 -2.6957 -1.8505 0.9825
-2.5175 -2.7487 -1.7254 0.9837
-1.7238 -2.7312 -1.4950 0.9859
-1.3893 -2.7097 -1.4095 0.9867
-1.0854 -2.6823 -1.3394 0.9873
-0.5631 -2.6946 -1.2742 0.9879
-0.3134 -2.6722 -1.2454 0.9882
0.4149 -2.7264 -1.2765 0.9879
0.7489 -3.0566 -1.4567 0.9862
2.0970 -3.7662 -1.9953 0.9812
2.7324 -3.3340 -1.9953 0.9812
3.0187 -3.0771 -1.9953 0.9812
3.2810 -2.7958 -1.9953 0.9812
3.5171 -2.4922 -1.9953 0.9812
3.9038 -1.8281 -1.9953 0.9812
4.1663 -1.1059 -1.9953 0.9812
4.2483 -0.7301 -1.9953 0.9812
4.0261 1.5400 -1.9953 0.9812
3.6887 2.2304 -1.9953 0.9812
3.4752 2.5504 -1.9953 0.9812
3.2340 2.8500 -1.9953 0.9812
2.6766 3.3789 -1.9953 0.9812
2.3647 3.6041 -1.9953 0.9812
2.0330 3.7986 -1.9943 0.9812
0.9463 4.1606 -1.9751 0.9814
0.5620 4.1563 -1.9414 0.9817
-0.5539 4.1284 -1.9281 0.9818
-1.3178 4.0873 -1.9879 0.9812
-2.6731 3.3817 -1.9953 0.9812
-2.9639 3.1299 -1.9953 0.9812
-3.4726 2.5539 -1.9953 0.9812
-3.8709 1.8967 -1.9953 0.9812
-1.2573 0.4824 -0.6234 0.9941
-1.2705 0.3614 -0.6114 0.9942
-1.2742 0.1260 -0.5927 0.9944
-1.2730 -0.2174 -0.5978 0.9943
-1.2706 -0.3359 -0.6083 0.9942
-1.2619 -0.4573 -0.6213 0.9941
-1.2646 -0.5906 -0.6461 0.9939
-3.7275 -2.1650 -1.9953 0.9812
-2.2453 -2.7340 -1.6376 0.9845
-1.8653 -2.7363 -1.5329 0.9855
-1.5184 -2.7206 -1.4422 0.9864
-1.2021 -2.6932 -1.3652 0.9871
-0.4125 -2.6922 -1.2607 0.9881
0.0704 -2.6572 -1.2304 0.9884
0.3132 -2.6942 -1.2555 0.9881
0.5881 -2.8288 -1.3374 0.9873
3.1803 -2.9099 -1.9953 0.9812
3.4270 -2.6148 -1.9953 0.9812
3.6464 -2.2989 -1.9953 0.9812
3.8368 -1.9647 -1.9953 0.9812
3.9967 -1.6149 -1.9953 0.9812
4.2199 -0.8796 -1.9953 0.9812
4.2815 -0.4999 -1.9953 0.9812
4.3022 0.2683 -1.9953 0.9812
4.2612 0.6507 -1.9953 0.9812
4.1862 1.0279 -1.9953 0.9812
3.9372 1.7549 -1.9953 0.9812
3.7651 2.0989 -1.9953 0.9812
3.5630 2.4261 -1.9953 0.9812
3.3326 2.7341 -1.9953 0.9812
2.7942 3.2824 -1.9953 0.9812
2.1669 3.7264 -1.9953 0.9812
-1.9752 3.5560 -1.9953 0.9820
-2.5752 3.1487 -1.9953 0.9820
-2.8457 2.9067 -1.9953 0.9820
-3.0934 2.6414 -1.9953 0.9820
-3.5133 2.0502 -1.9953 0.9820
-1.1215 0.4090 -0.5856 0.9947
-1.1350 -0.0083 -0.5568 0.9950
-1.1442 -0.1108 -0.5639 0.9949
-1.1397 -0.2143 -0.5689 0.9948
-1.1322 -0.3195 -0.5771 0.9948
-1.0861 -0.5295 -0.5927 0.9946
-3.2818 -2.4034 -1.9953 0.9820
-3.0545 -2.6863 -1.9953 0.9820
-1.7991 -2.7360 -1.6063 0.9855
-1.1486 -2.6929 -1.4361 0.9870
-0.8679 -2.6733 -1.3787 0.9876
-0.6074 -2.6580 -1.3374 0.9879
0.1164 -2.6995 -1.3254 0.9880
0.3591 -2.6971 -1.3347 0.9880
0.6569 -2.9154 -1.4659 0.9868
2.5193 -3.1937 -1.9953 0.9820
2.7939 -2.9564 -1.9953 0.9820
3.0463 -2.6956 -1.9953 0.9820
3.4766 -2.1118 -1.9953 0.9820
3.9114 -1.1168 -1.9953 0.9820
3.9954 -0.7637 -1.9953 0.9820
4.0476 -0.4045 -1.9953 0.9820
4.0675 -0.0421 -1.9953 0.9820
3.9337 1.0356 -1.9953 0.9820
3.8257 1.3821 -1.9953 0.9820
3.6873 1.7176 -1.9953 0.9820
3.3237 2.3451 -1.9953 0.9820
2.5848 3.1409 -1.9953 0.9820
2.2946 3.3588 -1.9953 0.9820
1.6617 3.7128 -1.9953 0.9820
1.3227 3.8421 -1.9932 0.9821
0.9741 3.9411 -1.9914 0.9821
0.2586 4.0471 -1.9893 0.9821
-0.1032 4.0535 -1.9890 0.9821
-0.8217 3.9728 -1.9900 0.9821
-1.8485 3.6235 -1.9953 0.9820
-2.4625 3.2377 -1.9953 0.9820
-2.7413 3.0053 -1.9953 0.9820
-2.9983 2.7490 -1.9953 0.9820
-3.2314 2.4707 -1.9953 0.9820
-3.4388 2.1729 -1.9953 0.9820
-1.1364 0.2381 -0.5695 0.9948
-1.1425 -0.0701 -0.5615 0.9949
-1.1329 -0.2770 -0.5721 0.9948
-1.1009 -0.4894 -0.5910 0.9946
-1.1160 -0.6207 -0.6264 0.9943
-3.1474 -2.5769 -1.9953 0.9820
-1.9446 -2.7414 -1.6487 0.9851
-1.2680 -2.7042 -1.4651 0.9868
-0.4624 -2.6823 -1.3351 0.9879
-0.2194 -2.6878 -1.3228 0.9881
0.0206 -2.6323 -1.2913 0.9883
0.2596 -2.6656 -1.3137 0.9881
0.5178 -2.7468 -1.3711 0.9876
1.1068 -3.9142 -1.9953 0.9820
2.9493 -2.8014 -1.9953 0.9820
3.1873 -2.5274 -1.9953 0.9820
3.7424 -1.5940 -1.9953 0.9820
3.9660 -0.9042 -1.9953 0.9820
4.0635 -0.1856 -1.9953 0.9820
3.9678 0.8961 -1.9953 0.9820
3.7456 1.5864 -1.9953 0.9820
3.5893 1.9140 -1.9953 0.9820
3.4044 2.2263 -1.9953 0.9820
3.1924 2.5209 -1.9953 0.9820
2.9550 2.7954 -1.9953 0.9820
2.6941 3.0477 -1.9953 0.9820
2.4117 3.2757 -1.9953 0.9820
2.1101 3.4776 -1.9953 0.9820
1.1130 3.9056 -1.9921 0.9821
0.0399 4.0547 -1.9890 0.9821
-1.0352 3.9242 -1.9908 0.9821
-1.7188 3.6849 -1.9945 0.9820
-2.0412 3.5185 -1.9953 0.9820
-2.6336 3.1001 -1.9953 0.9820
-1.1329 0.2794 -0.5724 0.9948
-1.1383 -0.0296 -0.5585 0.9949
-1.1307 -0.3420 -0.5794 0.9948
-1.1128 -0.4483 -0.5885 0.9947
-3.4432 -2.1659 -1.9953 0.9820
-3.2364 -2.4642 -1.9953 0.9820
-2.9522 -2.6957 -1.9610 0.9823
-2.0924 -2.7395 -1.6909 0.9848
-1.7252 -2.7333 -1.5855 0.9857
-0.8119 -2.6694 -1.3686 0.9876
-0.5577 -2.6691 -1.3375 0.9879
-0.3117 -2.6579 -1.3127 0.9881
0.1716 -2.7751 -1.3638 0.9877
1.9788 -3.5540 -1.9953 0.9820
2.5784 -3.1461 -1.9953 0.9820
2.8486 -2.9038 -1.9953 0.9820
3.0961 -2.6383 -1.9953 0.9820
3.6838 -1.7251 -1.9953 0.9820
3.9316 -1.0436 -1.9953 0.9820
4.0676 0.0338 -1.9953 0.9820
4.0484 0.3963 -1.9953 0.9820
3.9137 1.1088 -1.9953 0.9820
3.7993 1.4533 -1.9953 0.9820
3.4809 2.1048 -1.9953 0.9820
2.7999 2.9507 -1.9953 0.9820
0.5435 4.0200 -1.9899 0.9821
-0.1788 4.0509 -1.9890 0.9821
-0.5393 4.0196 -1.9894 0.9821
-1.2459 3.8644 -1.9917 0.9821
-1.5869 3.7416 -1.9936 0.9821
-1.9158 3.5883 -1.9953 0.9820
-2.5225 3.1911 -1.9953 0.9820
-2.7969 2.9536 -1.9953 0.9820
-3.0491 2.6925 -1.9953 0.9820
-3.2769 2.4100 -1.9953 0.9820
-3.4787 2.1083 -1.9953 0.9820
-1.1174 0.4287 -0.5871 0.9947
-1.1320 0.3220 -0.5773 0.9948
-1.1354 0.0106 -0.5570 0.9950
-3.5175 -2.0430 -1.9953 0.9820
-3.0988 -2.6351 -1.9953 0.9820
-2.8516 -2.9009 -1.9953 0.9820
-2.2530 -2.7434 -1.7414 0.9843
-1.2043 -2.6982 -1.4494 0.9869
-0.9185 -2.6769 -1.3882 0.9875
-0.6542 -2.6584 -1.3429 0.9879
-0.4103 -2.6777 -1.3288 0.9880
0.0706 -2.6678 -1.3091 0.9882
0.5877 -2.8266 -1.4161 0.9872
1.1797 -3.8929 -1.9953 0.9820
1.5220 -3.7723 -1.9953 0.9820
1.8522 -3.6216 -1.9953 0.9820
2.1676 -3.4421 -1.9953 0.9820
2.4658 -3.2351 -1.9953 0.9820
2.7444 -3.0025 -1.9953 0.9820
3.0011 -2.7459 -1.9953 0.9820
3.7715 -1.5239 -1.9953 0.9820
4.0403 -0.4718 -1.9953 0.9820
4.0598 0.2532 -1.9953 0.9820
4.0211 0.6140 -1.9953 0.9820
3.9504 0.9700 -1.9953 0.9820
3.8482 1.3183 -1.9953 0.9820
3.7154 1.6560 -1.9953 0.9820
3.1448 2.5800 -1.9953 0.9820
2.6367 3.0974 -1.9953 0.9820
2.0448 3.5164 -1.9953 0.9820
-2.6907 2.7483 -1.9953 0.9828
-3.1359 2.2269 -1.9953 0.9828
-0.9567 0.5583 -0.5747 0.9950
-0.9803 0.4603 -0.5618 0.9951
-1.0077 0.3675 -0.5565 0.9952
-1.0377 -0.1005 -0.5408 0.9953
-1.0309 -0.1938 -0.5442 0.9953
-1.0188 -0.2875 -0.5492 0.9952
-1.0043 -0.3830 -0.5576 0.9952
-0.9631 -0.5811 -0.5836 0.9949
-3.1031 -2.2725 -1.9953 0.9828
-2.8882 -2.5400 -1.9953 0.9828
-2.6503 -2.7873 -1.9953 0.9828
-2.3912 -3.0125 -1.9953 0.9828
-1.8006 -2.7382 -1.7001 0.9853
-1.4624 -2.7258 -1.6048 0.9862
-0.4021 -2.9517 -1.5454 0.9867
0.1130 -2.6185 -1.3597 0.9883
0.6480 -2.8761 -1.5295 0.9868
1.1765 -3.6618 -1.9953 0.9828
1.4982 -3.5424 -1.9953 0.9828
1.8080 -3.3947 -1.9953 0.9828
2.3821 -3.0197 -1.9953 0.9828
2.6418 -2.7954 -1.9953 0.9828
3.0961 -2.2819 -1.9953 0.9828
3.2872 -1.9968 -1.9953 0.9828
3.7778 -0.7221 -1.9953 0.9828
3.8271 -0.3825 -1.9953 0.9828
3.8342 0.3032 -1.9953 0.9828
3.7194 0.9792 -1.9953 0.9828
3.6174 1.3068 -1.9953 0.9828
3.3278 1.9284 -1.9953 0.9828
3.1427 2.2173 -1.9953 0.9828
2.9325 2.4886 -1.9953 0.9828
2.6990 2.7401 -1.9953 0.9828
2.1696 3.1758 -1.9953 0.9828
1.5712 3.5106 -1.9953 0.9828
0.9227 3.7330 -1.9949 0.9828
0.2449 3.8336 -1.9929 0.9828
-0.0978 3.8397 -1.9926 0.9828
-0.4397 3.8162 -1.9929 0.9828
-1.1114 3.6811 -1.9948 0.9828
-2.3284 3.0613 -1.9953 0.9828
-2.5920 2.8416 -1.9953 0.9828
-2.8350 2.5992 -1.9953 0.9828
-0.9716 0.6139 -0.5962 0.9948
-0.9652 0.4955 -0.5629 0.9951
-1.0168 0.3098 -0.5514 0.9952
-1.0373 0.1222 -0.5419 0.9953
-1.0334 0.0289 -0.5363 0.9954
-0.9880 -0.4392 -0.5609 0.9951
-0.9492 -0.5279 -0.5635 0.9951
-2.7470 -2.6921 -1.9953 0.9828
-2.4961 -2.9262 -1.9953 0.9828
-1.2704 -2.7094 -1.5524 0.9866
-0.9785 -2.6872 -1.4836 0.9872
-0.7099 -2.6692 -1.4329 0.9876
-0.4592 -2.6639 -1.4024 0.9879
-0.2145 -2.6283 -1.3680 0.9882
0.0205 -2.6212 -1.3599 0.9883
0.2588 -2.6574 -1.3851 0.9880
1.0466 -3.7010 -1.9953 0.9828
1.3723 -3.5930 -1.9953 0.9828
1.6871 -3.4564 -1.9953 0.9828
2.2740 -3.1019 -1.9953 0.9828
2.7887 -2.6488 -1.9953 0.9828
3.2147 -2.1116 -1.9953 0.9828
3.6588 -1.1858 -1.9953 0.9828
3.7500 -0.8549 -1.9953 0.9828
3.8112 -0.5173 -1.9953 0.9828
3.8422 -0.1755 -1.9953 0.9828
3.8425 0.1677 -1.9953 0.9828
3.8123 0.5095 -1.9953 0.9828
3.6612 1.1784 -1.9953 0.9828
3.3938 1.8097 -1.9953 0.9828
3.2190 2.1050 -1.9953 0.9828
3.0185 2.3836 -1.9953 0.9828
2.7941 2.6432 -1.9953 0.9828
2.2803 3.0973 -1.9953 0.9828
1.6941 3.4530 -1.9953 0.9828
1.3796 3.5902 -1.9953 0.9828
0.3801 3.8231 -1.9931 0.9828
-0.6450 3.7877 -1.9932 0.9828
-0.9806 3.7170 -1.9943 0.9828
-1.3087 3.6167 -1.9953 0.9828
-1.6258 3.4857 -1.9953 0.9828
-2.2189 3.1416 -1.9953 0.9828
-2.4901 2.9313 -1.9953 0.9828
-2.9711 2.4425 -1.9953 0.9828
-3.1769 2.1680 -1.9953 0.9828
-0.9494 0.5305 -0.5642 0.9951
-1.0115 0.3477 -0.5549 0.9952
-1.0350 0.1591 -0.5432 0.9953
-1.0366 0.0657 -0.5389 0.9953
-1.0332 -0.0268 -0.5362 0.9954
-1.0374 -0.1201 -0.5418 0.9953
-1.0170 -0.3076 -0.5512 0.9952
-1.7265 -2.7355 -1.6781 0.9855
-1.3946 -2.7201 -1.5858 0.9863
-0.8141 -2.6766 -1.4513 0.9875
-0.5555 -2.6586 -1.4090 0.9878
0.4116 -2.7049 -1.4194 0.9877
0.7186 -2.9329 -1.5665 0.9865
1.5641 -3.5138 -1.9953 0.9828
2.4380 -2.9748 -1.9953 0.9828
2.6935 -2.7456 -1.9953 0.9828
