ply
format ascii 1.0
element vertex 1596
property float32 x
property float32 y
property float32 z
property float32 I
end_header
-7.9456 5.7473 -1.8432 0.9609
-9.9412 3.7248 -1.9954 0.9577
-10.4446 1.9008 -1.9954 0.9577
-10.6161 0.0163 -1.9954 0.9577
-10.5753 -0.9298 -1.9954 0.9577
-10.4504 -1.8686 -1.9954 0.9577
-9.5838 -4.5665 -1.9954 0.9577
-8.6208 -6.1954 -1.9954 0.9577
-2.8333 -2.9268 -0.7657 0.9836
-2.3679 -2.9284 -0.7079 0.9848
-1.9760 -2.9467 -0.6669 0.9857
-1.6227 -2.9601 -0.6345 0.9864
-0.8837 -3.7114 -0.7171 0.9846
4.5275 -8.2828 -1.9953 0.9621
5.2477 -7.8463 -1.9953 0.9621
5.9261 -7.3474 -1.9953 0.9621
6.5573 -6.7900 -1.9953 0.9621
7.1363 -6.1786 -1.9953 0.9621
7.6585 -5.5180 -1.9953 0.9621
8.1198 -4.8135 -1.9953 0.9621
8.5165 -4.0707 -1.9953 0.9621
8.8454 -3.2955 -1.9953 0.9621
9.1039 -2.4941 -1.9953 0.9621
9.2899 -1.6728 -1.9953 0.9621
9.4020 -0.8382 -1.9953 0.9621
9.4393 0.0030 -1.9953 0.9621
9.4015 0.8442 -1.9953 0.9621
9.2888 1.6788 -1.9953 0.9621
8.8432 3.3012 -1.9953 0.9621
5.3652 6.6607 -1.8079 0.9656
1.2396 8.6310 -1.8431 0.9650
0.4655 8.7071 -1.8431 0.9650
-2.6064 8.3210 -1.8432 0.9650
-4.1885 6.5165 -1.6375 0.9688
-6.4872 5.8267 -1.8432 0.9650
-6.9807 5.2254 -1.8432 0.9650
-8.7844 3.4563 -1.9954 0.9621
-9.0575 2.6597 -1.9954 0.9621
-9.3858 1.0095 -1.9954 0.9621
-9.4384 0.1690 -1.9954 0.9621
-9.4159 -0.6729 -1.9954 0.9621
-9.3185 -1.5094 -1.9954 0.9621
-8.9025 -3.1397 -1.9954 0.9621
-8.5872 -3.9206 -1.9954 0.9621
-8.2036 -4.6703 -1.9954 0.9621
-2.8909 -2.8901 -0.8641 0.9834
-2.4053 -2.8772 -0.7927 0.9848
-1.6607 -2.9151 -0.7092 0.9864
-1.0875 -3.0807 -0.6906 0.9867
-0.8642 -3.3828 -0.7380 0.9858
-0.6756 -9.4154 -1.9953 0.9621
0.1662 -9.4381 -1.9953 0.9621
1.8392 -9.2586 -1.9953 0.9621
3.4536 -8.7850 -1.9953 0.9621
4.2228 -8.4422 -1.9953 0.9621
4.9584 -8.0323 -1.9953 0.9621
6.3056 -7.0244 -1.9953 0.9621
7.9391 -5.1061 -1.9953 0.9621
8.3625 -4.3783 -1.9953 0.9621
8.7194 -3.6156 -1.9953 0.9621
9.0070 -2.8241 -1.9953 0.9621
9.4331 -0.3409 -1.9953 0.9621
8.9576 2.9768 -1.9953 0.9621
7.2523 4.8406 -1.8431 0.9650
6.2777 6.0513 -1.8431 0.9650
4.1970 7.0649 -1.7370 0.9670
3.7676 7.8635 -1.8431 0.9650
3.0518 8.1680 -1.8431 0.9650
2.3117 8.4075 -1.8431 0.9650
1.5532 8.5801 -1.8431 0.9650
0.7824 8.6844 -1.8431 0.9650
0.0053 8.7196 -1.8431 0.9650
-0.7718 8.6854 -1.8431 0.9650
-1.5428 8.5821 -1.8432 0.9650
-2.3015 8.4104 -1.8432 0.9650
-3.7581 7.8683 -1.8432 0.9650
-4.1807 7.0571 -1.7338 0.9670
-5.4500 6.2985 -1.7606 0.9665
-6.7857 5.4763 -1.8432 0.9650
-8.9546 2.9879 -1.9954 0.9621
-9.1852 2.1780 -1.9954 0.9621
-9.4260 0.5127 -1.9954 0.9621
-9.3673 -1.1689 -1.9954 0.9621
-9.2258 -1.9990 -1.9954 0.9621
-8.3683 -4.3683 -1.9954 0.9621
-3.6897 -2.8610 -0.9869 0.9811
-3.1008 -2.8818 -0.8948 0.9828
-2.6168 -2.9080 -0.8269 0.9841
-2.1681 -2.8907 -0.7638 0.9853
-1.8007 -2.9091 -0.7232 0.9861
-1.1802 -2.9914 -0.6798 0.9869
-0.9531 -3.2347 -0.7128 0.9863
0.6641 -9.4162 -1.9953 0.9621
1.5006 -9.3195 -1.9953 0.9621
3.1313 -8.9050 -1.9953 0.9621
3.9124 -8.5905 -1.9953 0.9621
6.0455 -7.2495 -1.9953 0.9621
6.6675 -6.6818 -1.9953 0.9621
7.2364 -6.0610 -1.9953 0.9621
8.1975 -4.6800 -1.9953 0.9621
8.8981 -3.1503 -1.9953 0.9621
9.1434 -2.3448 -1.9953 0.9621
9.4145 -0.6843 -1.9953 0.9621
9.4380 0.1574 -1.9953 0.9621
9.3864 0.9979 -1.9953 0.9621
7.4238 4.5732 -1.8431 0.9650
6.4940 5.8185 -1.8431 0.9650
5.1832 6.6548 -1.7830 0.9661
4.3071 6.6830 -1.6806 0.9680
4.0515 7.7210 -1.8431 0.9650
3.3473 8.0514 -1.8431 0.9650
2.6165 8.3177 -1.8431 0.9650
1.8648 8.5178 -1.8431 0.9650
1.0983 8.6501 -1.8431 0.9650
0.3230 8.7136 -1.8431 0.9650
-0.2549 4.8791 -1.0328 0.9802
-1.2291 8.6326 -1.8432 0.9650
-1.9936 8.4887 -1.8432 0.9650
-4.1459 7.6182 -1.8334 0.9652
-4.2482 6.3774 -1.6198 0.9692
-6.0457 6.2836 -1.8432 0.9650
-6.5817 5.7198 -1.8432 0.9650
-7.0652 5.1105 -1.8432 0.9650
-9.2874 1.6902 -1.9954 0.9621
-9.4010 0.8557 -1.9954 0.9621
-9.4399 0.0145 -1.9954 0.9621
-9.4036 -0.8268 -1.9954 0.9621
-9.1075 -2.4831 -1.9954 0.9621
-8.8499 -3.2849 -1.9954 0.9621
-8.5219 -4.0605 -1.9954 0.9621
-8.1261 -4.8039 -1.9954 0.9621
-7.6657 -5.5089 -1.9954 0.9621
-3.3358 -2.8810 -0.9317 0.9821
-2.7993 -2.8916 -0.8507 0.9837
-2.3300 -2.8816 -0.7833 0.9850
-1.9462 -2.9022 -0.7386 0.9858
-1.0456 -3.1240 -0.6964 0.9866
4.0721 -7.4496 -1.9953 0.9657
4.7198 -7.0570 -1.9953 0.9657
6.4184 -5.5570 -1.9953 0.9657
7.3030 -4.3293 -1.9953 0.9657
7.6597 -3.6612 -1.9953 0.9657
7.9555 -2.9640 -1.9953 0.9657
8.1880 -2.2432 -1.9953 0.9657
8.3554 -1.5045 -1.9953 0.9657
8.4562 -0.7539 -1.9953 0.9657
8.4557 0.7593 -1.9953 0.9657
8.3544 1.5099 -1.9953 0.9657
7.6574 3.6661 -1.9953 0.9657
7.2801 4.3220 -1.9898 0.9658
5.9255 5.1370 -1.8431 0.9683
4.9195 6.1074 -1.8431 0.9683
3.1287 7.1912 -1.8431 0.9683
2.4753 7.4414 -1.8431 0.9683
1.8023 7.6324 -1.8431 0.9683
1.1149 7.7627 -1.8431 0.9683
-0.9783 7.7812 -1.8432 0.9683
-1.6679 7.6630 -1.8432 0.9683
-3.0018 7.2452 -1.8432 0.9683
-3.6356 6.9489 -1.8432 0.9683
-4.1212 6.4117 -1.7913 0.9692
-4.8115 6.1931 -1.8432 0.9683
-5.3443 5.7397 -1.8432 0.9683
-6.2784 4.6997 -1.8432 0.9683
-6.6723 4.1215 -1.8432 0.9683
-7.5862 3.7973 -1.9938 0.9657
-7.9007 3.1086 -1.9954 0.9657
-8.4416 0.9079 -1.9954 0.9657
-8.3810 -1.3575 -1.9954 0.9657
-8.2267 -2.0990 -1.9954 0.9657
-7.3783 -4.2004 -1.9954 0.9657
-6.9746 -4.8413 -1.9954 0.9657
-2.8558 -2.8550 -0.9490 0.9835
-2.3829 -2.8504 -0.8732 0.9848
-1.9829 -2.8550 -0.8170 0.9858
-1.0476 -2.9677 -0.7397 0.9872
-0.2996 -4.1753 -0.9838 0.9829
0.1495 -8.4887 -1.9953 0.9657
0.9054 -8.4415 -1.9953 0.9657
1.6541 -8.3272 -1.9953 0.9657
2.3897 -8.1467 -1.9953 0.9657
3.1062 -7.9013 -1.9953 0.9657
4.4596 -7.2243 -1.9953 0.9657
5.6712 -6.3178 -1.9953 0.9657
6.7027 -5.2106 -1.9953 0.9657
7.5213 -3.9378 -1.9953 0.9657
8.2950 -1.8079 -1.9953 0.9657
6.5426 4.3670 -1.8487 0.9682
4.5903 6.3585 -1.8431 0.9683
4.0054 6.7423 -1.8431 0.9683
3.3886 7.0724 -1.8431 0.9683
2.7448 7.3463 -1.8431 0.9683
-0.6942 7.8116 -1.8431 0.9683
-1.3876 7.7187 -1.8432 0.9683
-2.7359 7.3498 -1.8432 0.9683
-3.3800 7.0767 -1.8432 0.9683
-5.6398 5.4496 -1.8432 0.9683
-6.1030 4.9253 -1.8432 0.9683
-6.5177 4.3618 -1.8432 0.9683
-7.4245 4.0612 -1.9889 0.9658
-7.7822 3.3944 -1.9954 0.9657
-8.0537 2.6873 -1.9954 0.9657
-8.2612 1.9589 -1.9954 0.9657
-8.4777 0.4611 -1.9954 0.9657
-8.4249 -1.0513 -1.9954 0.9657
-8.2977 -1.7979 -1.9954 0.9657
-7.5265 -3.9289 -1.9954 0.9657
-3.0579 -2.8420 -0.9811 0.9830
-2.5915 -2.8799 -0.9105 0.9842
-1.4460 -2.8820 -0.7578 0.9868
-1.1414 -2.8930 -0.7309 0.9873
-0.9149 -3.1051 -0.7608 0.9868
-0.6900 -3.4516 -0.8273 0.9856
1.3497 -8.3820 -1.9953 0.9657
2.0913 -8.2283 -1.9953 0.9657
2.8163 -8.0092 -1.9953 0.9657
3.5188 -7.7263 -1.9953 0.9657
5.9967 -6.0093 -1.9953 0.9657
6.5085 -5.4513 -1.9953 0.9657
7.3728 -4.2092 -1.9953 0.9657
8.2236 -2.1089 -1.9953 0.9657
8.3789 -1.3676 -1.9953 0.9657
8.4886 0.1416 -1.9953 0.9657
8.3286 1.6463 -1.9953 0.9657
4.8189 6.1870 -1.8431 0.9683
3.6440 6.9443 -1.8431 0.9683
2.3533 7.4809 -1.8431 0.9683
1.6772 7.6609 -1.8431 0.9683
0.9878 7.7799 -1.8431 0.9683
0.2905 7.8370 -1.8431 0.9683
-1.7930 7.6347 -1.8432 0.9683
-4.2125 6.3239 -1.7858 0.9693
-4.9122 6.1136 -1.8432 0.9683
-6.8295 4.0658 -1.8680 0.9679
-8.1843 2.2585 -1.9954 0.9657
-8.4553 0.7697 -1.9954 0.9657
-8.1912 -2.2333 -1.9954 0.9657
-7.9596 -2.9544 -1.9954 0.9657
-7.3086 -4.3206 -1.9954 0.9657
-3.2917 -2.8429 -1.0222 0.9823
-2.7658 -2.8570 -0.9346 0.9838
-2.2946 -2.8379 -0.8577 0.9851
-1.5766 -2.8759 -0.7708 0.9866
-1.2637 -2.8900 -0.7413 0.9871
-0.7822 -3.2852 -0.7937 0.9862
3.6963 -6.7621 -1.9953 0.9687
4.2842 -6.4057 -1.9953 0.9687
5.3534 -5.5434 -1.9953 0.9687
5.8261 -5.0442 -1.9953 0.9687
6.2524 -4.5049 -1.9953 0.9687
7.4324 -2.0362 -1.9953 0.9687
7.6754 0.6892 -1.9953 0.9687
7.4311 2.0409 -1.9953 0.9687
7.2196 2.6951 -1.9953 0.9687
6.6244 3.9327 -1.9947 0.9687
5.9766 4.3120 -1.9082 0.9700
5.3787 4.6629 -1.8431 0.9710
4.4655 5.5437 -1.8431 0.9710
3.9536 5.9196 -1.8431 0.9710
3.4104 6.2485 -1.8431 0.9710
1.0120 7.0463 -1.8431 0.9710
-0.1724 4.8090 -1.2459 0.9803
-0.8880 7.0631 -1.8431 0.9710
-2.1278 6.7932 -1.8432 0.9710
-2.7248 6.5766 -1.8432 0.9710
-4.3675 5.6216 -1.8432 0.9710
-5.6990 4.2660 -1.8432 0.9710
-6.4926 4.0105 -1.9759 0.9690
-6.8915 3.4496 -1.9954 0.9687
-7.1715 2.8217 -1.9954 0.9687
-7.3945 2.1714 -1.9954 0.9687
-7.6075 -1.2322 -1.9954 0.9687
-7.4674 -1.9053 -1.9954 0.9687
-6.3309 -4.3945 -1.9954 0.9687
-1.9531 -2.8120 -0.8864 0.9860
-1.6134 -2.8322 -0.8439 0.9866
-1.3024 -2.8506 -0.8115 0.9871
-1.0153 -2.8762 -0.7897 0.9875
-0.7921 -3.1008 -0.8286 0.9869
2.1692 -7.3948 -1.9953 0.9687
2.8195 -7.1721 -1.9953 0.9687
3.4475 -6.8922 -1.9953 0.9687
5.1479 -5.7348 -1.9953 0.9687
6.4815 -4.1687 -1.9953 0.9687
7.3533 -2.3056 -1.9953 0.9687
7.7012 -0.2783 -1.9953 0.9687
7.6954 0.4092 -1.9953 0.9687
7.5005 1.7689 -1.9953 0.9687
7.0674 3.0723 -1.9953 0.9687
6.3887 4.2642 -1.9888 0.9688
4.6645 5.3774 -1.8431 0.9710
2.4915 6.6683 -1.8431 0.9710
1.8873 6.8639 -1.8431 0.9710
1.2680 7.0048 -1.8431 0.9710
0.6387 7.0899 -1.8431 0.9710
0.0043 7.1186 -1.8431 0.9710
-0.6301 7.0907 -1.8431 0.9710
-1.2595 7.0064 -1.8432 0.9710
-1.8789 6.8663 -1.8432 0.9710
-2.4834 6.6715 -1.8432 0.9710
-3.6284 6.1247 -1.8432 0.9710
-5.1193 4.9467 -1.8432 0.9710
-5.5398 4.4708 -1.8432 0.9710
-7.0640 3.0811 -1.9954 0.9687
-7.4987 1.7781 -1.9954 0.9687
-7.6953 0.4186 -1.9954 0.9687
-7.7020 -0.2689 -1.9954 0.9687
-7.3565 -2.2967 -1.9954 0.9687
-6.8319 -3.5663 -1.9954 0.9687
-3.0203 -2.8070 -1.0676 0.9831
-2.5664 -2.8520 -0.9934 0.9843
-2.1015 -2.8021 -0.9069 0.9856
-1.7483 -2.8244 -0.8600 0.9864
-1.4267 -2.8436 -0.8237 0.9869
-1.1256 -2.8530 -0.7941 0.9874
0.2771 -3.9293 -1.0199 0.9839
1.2251 -7.6084 -1.9953 0.9687
1.8983 -7.4690 -1.9953 0.9687
3.8064 -6.7007 -1.9953 0.9687
6.3253 -4.4020 -1.9953 0.9687
7.0063 -3.2091 -1.9953 0.9687
7.6056 -1.2414 -1.9953 0.9687
6.8954 3.4410 -1.9953 0.9687
6.5531 4.0368 -1.9928 0.9687
3.8563 5.9835 -1.8431 0.9710
2.1361 6.7905 -1.8431 0.9710
1.5224 6.9539 -1.8431 0.9710
0.2637 7.1137 -1.8431 0.9710
-1.0034 7.0476 -1.8432 0.9710
-1.6275 6.9301 -1.8432 0.9710
-2.2387 6.7575 -1.8432 0.9710
-2.8320 6.5311 -1.8432 0.9710
-3.9465 5.9246 -1.8432 0.9710
-4.4588 5.5494 -1.8432 0.9710
-4.9357 5.1299 -1.8432 0.9710
-5.7680 4.1722 -1.8432 0.9710
-6.9470 3.3364 -1.9954 0.9687
-7.2167 2.7040 -1.9954 0.9687
-7.4290 2.0501 -1.9954 0.9687
-7.5821 1.3799 -1.9954 0.9687
-7.6750 0.6986 -1.9954 0.9687
-7.6771 -0.6750 -1.9954 0.9687
-7.5864 -1.3565 -1.9954 0.9687
-7.4353 -2.0272 -1.9954 0.9687
-7.2250 -2.6818 -1.9954 0.9687
-6.2582 -4.4975 -1.9954 0.9687
-1.8884 -2.8160 -0.8779 0.9861
-0.9750 -2.9131 -0.7954 0.9874
-0.7484 -3.1432 -0.8366 0.9867
3.3806 -6.1846 -1.9953 0.9711
3.9184 -5.8587 -1.9953 0.9711
4.8962 -5.0700 -1.9953 0.9711
5.3286 -4.6135 -1.9953 0.9711
5.7185 -4.1202 -1.9953 0.9711
6.3591 -3.0395 -1.9953 0.9711
6.7977 -1.8623 -1.9953 0.9711
6.9366 -1.2491 -1.9953 0.9711
7.0482 0.0023 -1.9953 0.9711
7.0200 0.6304 -1.9953 0.9711
6.9358 1.2535 -1.9953 0.9711
6.7965 1.8667 -1.9953 0.9711
6.0606 3.5981 -1.9953 0.9711
5.7025 4.1142 -1.9906 0.9712
4.9508 4.2919 -1.8549 0.9731
4.5197 4.6862 -1.8431 0.9733
3.6160 5.4141 -1.8431 0.9733
3.1191 5.7149 -1.8431 0.9733
1.4963 6.3364 -1.8431 0.9733
0.3476 6.5014 -1.8431 0.9733
-0.8122 6.4599 -1.8431 0.9733
-1.9461 6.2131 -1.8432 0.9733
-2.4921 6.0150 -1.8432 0.9733
-3.0183 5.7690 -1.8432 0.9733
-3.5204 5.4770 -1.8432 0.9733
-4.4368 4.7650 -1.8432 0.9733
-5.3497 4.0046 -1.8918 0.9726
-5.9886 3.6991 -1.9927 0.9712
-6.3030 3.1550 -1.9954 0.9711
-6.5591 2.5807 -1.9954 0.9711
-6.7630 1.9859 -1.9954 0.9711
-6.9131 1.3753 -1.9954 0.9711
-7.0474 0.1262 -1.9954 0.9711
-7.0306 -0.5024 -1.9954 0.9711
-6.9579 -1.1270 -1.9954 0.9711
-6.6472 -2.3443 -1.9954 0.9711
-6.4119 -2.9274 -1.9954 0.9711
-6.1255 -3.4872 -1.9954 0.9711
1.9839 -6.7633 -1.9953 0.9711
2.5788 -6.5596 -1.9953 0.9711
3.1531 -6.3037 -1.9953 0.9711
3.7023 -5.9976 -1.9953 0.9711
4.2221 -5.6437 -1.9953 0.9711
5.1570 -4.8045 -1.9953 0.9711
5.5646 -4.3258 -1.9953 0.9711
6.2442 -3.2692 -1.9953 0.9711
6.5107 -2.6997 -1.9953 0.9711
6.7254 -2.1087 -1.9953 0.9711
6.8865 -1.5009 -1.9953 0.9711
6.9929 -0.8812 -1.9953 0.9711
7.0436 -0.2545 -1.9953 0.9711
6.9769 1.0000 -1.9953 0.9711
6.6885 2.2227 -1.9953 0.9711
6.4638 2.8100 -1.9953 0.9711
5.8589 3.9106 -1.9941 0.9711
5.3256 4.2872 -1.9354 0.9720
4.6875 4.5184 -1.8431 0.9733
3.3253 5.5974 -1.8431 0.9733
2.8132 5.8715 -1.8431 0.9733
2.2787 6.0989 -1.8431 0.9733
1.7261 6.2777 -1.8431 0.9733
1.1598 6.4066 -1.8431 0.9733
-0.5763 6.4852 -1.8431 0.9733
-1.1520 6.4080 -1.8432 0.9733
-1.7185 6.2799 -1.8432 0.9733
-2.2713 6.1018 -1.8432 0.9733
-4.6821 4.5243 -1.8432 0.9733
-6.1838 3.3825 -1.9954 0.9711
-6.4607 2.8180 -1.9954 0.9711
-6.6861 2.2310 -1.9954 0.9711
-6.8584 1.6262 -1.9954 0.9711
-6.9760 1.0086 -1.9954 0.9711
-7.0381 0.3828 -1.9954 0.9711
-6.8887 -1.4926 -1.9954 0.9711
-6.2484 -3.2617 -1.9954 0.9711
-3.5828 -2.7782 -1.2835 0.9813
-1.7233 -2.7840 -0.9269 0.9865
-1.1112 -2.8166 -0.8572 0.9875
-0.8573 -2.9094 -0.8586 0.9875
-0.6263 -3.1328 -0.9044 0.9868
0.2519 -3.5714 -1.0136 0.9852
1.7362 -6.8311 -1.9953 0.9711
2.3381 -6.6492 -1.9953 0.9711
3.4814 -6.1285 -1.9953 0.9711
4.0137 -5.7938 -1.9953 0.9711
4.9785 -4.9892 -1.9953 0.9711
5.7851 -4.0261 -1.9953 0.9711
7.0472 0.1176 -1.9953 0.9711
6.9144 1.3668 -1.9953 0.9711
6.5619 2.5726 -1.9953 0.9711
6.3065 3.1472 -1.9953 0.9711
4.8490 4.3446 -1.8431 0.9733
4.4425 4.7595 -1.8431 0.9733
3.5270 5.4726 -1.8431 0.9733
1.9537 6.2107 -1.8431 0.9733
0.8200 6.4589 -1.8431 0.9733
-0.9178 6.4457 -1.8431 0.9733
-2.5902 5.9734 -1.8432 0.9733
-5.5204 3.9931 -1.9288 0.9721
-6.0532 3.6036 -1.9943 0.9711
-6.3537 3.0515 -1.9954 0.9711
-6.6004 2.4731 -1.9954 0.9711
-6.7946 1.8750 -1.9954 0.9711
-6.9346 1.2620 -1.9954 0.9711
-7.0195 0.6390 -1.9954 0.9711
-7.0485 0.0108 -1.9954 0.9711
-7.0214 -0.6174 -1.9954 0.9711
-6.3631 -3.0319 -1.9954 0.9711
-6.0676 -3.5869 -1.9954 0.9711
-5.7238 -4.1134 -1.9954 0.9711
-3.1941 -2.7586 -1.1948 0.9826
-1.5336 -2.7976 -0.9032 0.9868
3.1115 -5.6923 -1.9953 0.9732
3.6064 -5.3923 -1.9953 0.9732
4.0727 -5.0495 -1.9953 0.9732
5.5803 -3.3081 -1.9953 0.9732
5.8529 -2.7976 -1.9953 0.9732
6.4615 -0.5761 -1.9953 0.9732
6.4871 0.0021 -1.9953 0.9732
6.2555 1.7181 -1.9953 0.9732
6.0775 2.2687 -1.9953 0.9732
5.2609 3.7956 -1.9953 0.9732
4.8842 4.2342 -1.9882 0.9733
4.1599 4.3131 -1.8431 0.9752
3.7590 4.6667 -1.8431 0.9752
3.3282 4.9831 -1.8431 0.9752
2.8708 5.2599 -1.8431 0.9752
2.3906 5.4949 -1.8431 0.9752
0.3199 5.9839 -1.8431 0.9752
-0.1716 4.7861 -1.4730 0.9802
-0.7475 5.9456 -1.8431 0.9752
-1.7912 5.7185 -1.8432 0.9752
-2.2937 5.5361 -1.8432 0.9752
-3.2401 5.0410 -1.8432 0.9752
-3.6765 4.7322 -1.8432 0.9752
-4.4916 4.0343 -1.8570 0.9751
-5.1788 3.8766 -1.9897 0.9733
-5.5193 3.4093 -1.9954 0.9732
-5.8012 2.9039 -1.9954 0.9732
-6.0369 2.3753 -1.9954 0.9732
-6.2246 1.8278 -1.9954 0.9732
-6.3627 1.2658 -1.9954 0.9732
-6.4864 0.1161 -1.9954 0.9732
-6.4709 -0.4624 -1.9954 0.9732
-6.2860 -1.6039 -1.9954 0.9732
-5.9014 -2.6944 -1.9954 0.9732
-5.6378 -3.2096 -1.9954 0.9732
-5.3293 -3.6992 -1.9954 0.9732
-3.3860 -2.8290 -1.3571 0.9817
-1.5698 -2.7556 -0.9754 0.9868
-1.2683 -2.7757 -0.9387 0.9873
-0.5019 -3.0928 -0.9637 0.9870
-0.2273 -3.1674 -0.9767 0.9868
0.0572 -3.2496 -0.9997 0.9865
1.8260 -6.2249 -1.9953 0.9732
2.3735 -6.0374 -1.9953 0.9732
3.4076 -5.5201 -1.9953 0.9732
4.7464 -4.4220 -1.9953 0.9732
5.1216 -3.9814 -1.9953 0.9732
5.4561 -3.5092 -1.9953 0.9732
5.9924 -2.4848 -1.9953 0.9732
6.4362 -0.8111 -1.9953 0.9732
6.4829 -0.2343 -1.9953 0.9732
6.4215 0.9204 -1.9953 0.9732
6.3139 1.4890 -1.9953 0.9732
6.1561 2.0458 -1.9953 0.9732
5.6951 3.1062 -1.9953 0.9732
5.0429 4.0597 -1.9912 0.9733
3.9265 4.5267 -1.8431 0.9752
3.5075 4.8586 -1.8431 0.9752
3.0605 5.1518 -1.8431 0.9752
2.5892 5.4041 -1.8431 0.9752
2.0973 5.6134 -1.8431 0.9752
1.5887 5.7780 -1.8431 0.9752
1.0674 5.8966 -1.8431 0.9752
-1.5817 5.7800 -1.8432 0.9752
-3.0543 5.1557 -1.8432 0.9752
-3.5017 4.8630 -1.8432 0.9752
-3.9211 4.5316 -1.8432 0.9752
-4.3094 4.1641 -1.8432 0.9752
-4.9595 4.0025 -1.9602 0.9737
-5.3882 3.6060 -1.9942 0.9732
-5.9464 2.5936 -1.9954 0.9732
-6.1539 2.0534 -1.9954 0.9732
-6.4207 0.9283 -1.9954 0.9732
-6.4835 -0.2264 -1.9954 0.9732
-6.4375 -0.8033 -1.9954 0.9732
-6.3403 -1.3738 -1.9954 0.9732
-6.1926 -1.9334 -1.9954 0.9732
-5.4606 -3.5026 -1.9954 0.9732
-3.5537 -2.7557 -1.3832 0.9814
-1.6994 -2.7455 -0.9931 0.9866
-1.3890 -2.7685 -0.9527 0.9871
-0.8318 -2.8231 -0.9052 0.9878
0.5728 -3.5576 -1.1083 0.9850
2.1520 -6.1199 -1.9953 0.9732
2.6888 -5.9037 -1.9953 0.9732
3.6942 -5.3326 -1.9953 0.9732
4.1547 -4.9822 -1.9953 0.9732
5.3246 -3.7056 -1.9953 0.9732
5.6337 -3.2163 -1.9953 0.9732
6.4862 0.1082 -1.9953 0.9732
6.3640 1.2580 -1.9953 0.9732
6.2265 1.8202 -1.9953 0.9732
6.0396 2.3678 -1.9953 0.9732
5.8045 2.8967 -1.9953 0.9732
4.7613 4.2661 -1.9663 0.9736
4.0888 4.3806 -1.8431 0.9752
3.6822 4.7276 -1.8431 0.9752
2.7844 5.3062 -1.8431 0.9752
2.3004 5.5332 -1.8431 0.9752
1.7981 5.7162 -1.8431 0.9752
1.2816 5.8538 -1.8431 0.9752
-0.2499 4.7837 -1.4734 0.9802
-1.3700 5.8337 -1.8432 0.9752
-4.6314 4.0249 -1.8873 0.9746
-6.0750 2.2762 -1.9954 0.9732
-6.2537 1.7257 -1.9954 0.9732
-6.3826 1.1615 -1.9954 0.9732
-5.8566 -2.7905 -1.9954 0.9732
-3.1814 -2.7477 -1.2930 0.9826
-1.8336 -2.7343 -1.0126 0.9863
-1.5129 -2.7598 -0.9680 0.9869
-0.9373 -2.8003 -0.9083 0.9877
-0.7010 -2.9441 -0.9309 0.9874
2.8791 -5.2671 -1.9953 0.9750
3.3371 -4.9896 -1.9953 0.9750
3.7685 -4.6723 -1.9953 0.9750
4.8702 -3.5090 -1.9953 0.9750
5.1635 -3.0610 -1.9953 0.9750
5.6249 -2.0957 -1.9953 0.9750
5.9076 -1.0638 -1.9953 0.9750
5.9069 1.0675 -1.9953 0.9750
5.7883 1.5899 -1.9953 0.9750
5.6236 2.0993 -1.9953 0.9750
5.4141 2.5921 -1.9953 0.9750
5.1616 3.0643 -1.9953 0.9750
4.8679 3.5121 -1.9953 0.9750
4.5309 3.9279 -1.9932 0.9750
4.0979 4.2488 -1.9622 0.9754
3.4783 4.3181 -1.8431 0.9769
2.6564 4.8671 -1.8431 0.9769
2.2121 5.0845 -1.8431 0.9769
-0.1711 4.7745 -1.5881 0.9801
-1.1792 5.4180 -1.8432 0.9769
-1.6574 5.2914 -1.8432 0.9769
-2.1224 5.1226 -1.8432 0.9769
-2.5705 4.9131 -1.8432 0.9769
-2.9981 4.6645 -1.8432 0.9769
-4.4494 3.9964 -1.9880 0.9751
-5.7597 1.6913 -1.9954 0.9750
-5.9684 0.6419 -1.9954 0.9750
-6.0019 0.1074 -1.9954 0.9750
-5.9876 -0.4279 -1.9954 0.9750
-5.9256 -0.9598 -1.9954 0.9750
-5.8165 -1.4841 -1.9954 0.9750
-5.6611 -1.9965 -1.9954 0.9750
-5.4606 -2.4931 -1.9954 0.9750
-4.9313 -3.4229 -1.9954 0.9750
-3.2366 -2.7042 -1.4020 0.9824
-2.7603 -2.7595 -1.2974 0.9837
-2.2953 -2.7456 -1.1896 0.9850
-1.2514 -2.7388 -1.0009 0.9874
-0.9752 -2.7626 -0.9738 0.9877
-0.7198 -2.8178 -0.9667 0.9878
0.0537 -3.0477 -1.0132 0.9872
0.3359 -3.1313 -1.0468 0.9868
1.6896 -5.7600 -1.9953 0.9750
2.1962 -5.5865 -1.9953 0.9750
3.1531 -5.1078 -1.9953 0.9750
5.3179 -2.7842 -1.9953 0.9750
5.5448 -2.2992 -1.9953 0.9750
5.7277 -1.7959 -1.9953 0.9750
5.9555 -0.7505 -1.9953 0.9750
5.9987 -0.2168 -1.9953 0.9750
5.9941 0.3187 -1.9953 0.9750
5.9419 0.8517 -1.9953 0.9750
5.5050 2.3931 -1.9953 0.9750
5.2698 2.8742 -1.9953 0.9750
4.9926 3.3324 -1.9953 0.9750
4.6758 3.7641 -1.9953 0.9750
4.3088 4.1534 -1.9893 0.9751
2.8320 4.7671 -1.8431 0.9769
0.9877 5.4562 -1.8431 0.9769
-0.4908 5.5231 -1.8431 0.9769
-0.9811 5.4574 -1.8432 0.9769
-1.4635 5.3483 -1.8432 0.9769
-2.8262 4.7706 -1.8432 0.9769
-3.6282 4.1931 -1.8432 0.9769
-4.1706 4.0300 -1.9278 0.9759
-4.9888 3.3386 -1.9954 0.9750
-5.2665 2.8807 -1.9954 0.9750
-5.5022 2.3999 -1.9954 0.9750
-5.6942 1.9000 -1.9954 0.9750
-5.8409 1.3850 -1.9954 0.9750
-5.9411 0.8589 -1.9954 0.9750
-5.9992 -0.2095 -1.9954 0.9750
-5.9567 -0.7433 -1.9954 0.9750
-2.9243 -2.7178 -1.3271 0.9833
-2.0458 -2.7277 -1.1334 0.9857
-1.0858 -2.7522 -0.9835 0.9876
-0.8191 -2.7800 -0.9634 0.9879
-0.5744 -2.8736 -0.9741 0.9877
-0.0571 -3.0298 -1.0073 0.9873
0.2168 -3.0741 -1.0244 0.9871
1.4786 -5.8177 -1.9953 0.9750
2.4880 -5.4628 -1.9953 0.9750
2.9649 -5.2193 -1.9953 0.9750
3.4183 -4.9343 -1.9953 0.9750
3.8444 -4.6100 -1.9953 0.9750
4.2399 -4.2491 -1.9953 0.9750
4.6017 -3.8543 -1.9953 0.9750
4.9269 -3.4288 -1.9953 0.9750
5.4574 -2.4997 -1.9953 0.9750
5.6584 -2.0034 -1.9953 0.9750
5.8145 -1.4911 -1.9953 0.9750
5.9242 -0.9670 -1.9953 0.9750
5.9868 -0.4352 -1.9953 0.9750
5.7615 1.6842 -1.9953 0.9750
5.1107 3.1483 -1.9953 0.9750
4.8098 3.5913 -1.9953 0.9750
4.4632 3.9990 -1.9920 0.9751
3.9676 4.2507 -1.9328 0.9758
3.0037 4.6607 -1.8431 0.9769
2.5764 4.9099 -1.8431 0.9769
1.6638 5.2893 -1.8431 0.9769
0.6984 5.5007 -1.8431 0.9769
0.2054 5.5410 -1.8431 0.9769
-0.7816 5.4895 -1.8431 0.9769
-1.2677 5.3980 -1.8432 0.9769
-1.7437 5.2636 -1.8432 0.9769
-2.6505 4.8704 -1.8432 0.9769
-3.4731 4.3225 -1.8432 0.9769
-3.8953 4.0486 -1.8675 0.9766
-4.8638 3.5182 -1.9954 0.9750
-5.6212 2.1062 -1.9954 0.9750
-5.7866 1.5968 -1.9954 0.9750
-5.9059 1.0748 -1.9954 0.9750
-5.9782 0.5442 -1.9954 0.9750
-6.0029 0.0092 -1.9954 0.9750
-5.9798 -0.5258 -1.9954 0.9750
-5.9091 -1.0566 -1.9954 0.9750
-5.6277 -2.0889 -1.9954 0.9750
-5.4191 -2.5821 -1.9954 0.9750
-5.1674 -3.0548 -1.9954 0.9750
-3.1273 -2.7009 -1.3735 0.9827
-2.6949 -2.7838 -1.2879 0.9838
-2.2117 -2.7353 -1.1693 0.9853
-1.4925 -2.7225 -1.0320 0.9870
-1.1987 -2.7412 -0.9945 0.9875
-0.9265 -2.7681 -0.9703 0.9878
-0.6752 -2.8358 -0.9690 0.9878
3.1019 -4.6379 -1.9953 0.9766
3.5029 -4.3430 -1.9953 0.9766
3.8760 -4.0136 -1.9953 0.9766
4.5270 -3.2617 -1.9953 0.9766
5.0341 -2.4062 -1.9953 0.9766
5.4913 -0.9888 -1.9953 0.9766
5.5575 -0.4955 -1.9953 0.9766
5.5796 0.0018 -1.9953 0.9766
5.2273 1.9513 -1.9953 0.9766
5.0326 2.4094 -1.9953 0.9766
4.7978 2.8483 -1.9953 0.9766
4.2159 3.6549 -1.9953 0.9766
2.8626 4.2860 -1.8431 0.9783
2.0562 4.7261 -1.8431 0.9783
0.2751 5.1467 -1.8431 0.9783
-0.6429 5.1139 -1.8431 0.9783
-1.9728 4.7616 -1.8432 0.9783
-2.7868 4.3358 -1.8432 0.9783
-4.1457 3.7236 -1.9928 0.9766
-4.4669 3.3437 -1.9954 0.9766
-5.3538 1.5721 -1.9954 0.9766
-5.5478 0.5967 -1.9954 0.9766
-5.5656 -0.3977 -1.9954 0.9766
-5.5080 -0.8922 -1.9954 0.9766
-5.0758 -2.3174 -1.9954 0.9766
-4.8491 -2.7606 -1.9954 0.9766
-4.5838 -3.1817 -1.9954 0.9766
-2.7432 -2.7424 -1.3871 0.9837
-2.2777 -2.7245 -1.2699 0.9850
-1.8957 -2.7294 -1.1884 0.9860
-1.2355 -2.7039 -1.0631 0.9875
-0.9640 -2.7308 -1.0356 0.9878
-0.7072 -2.7685 -1.0218 0.9879
-0.2032 -2.8320 -1.0154 0.9880
0.3174 -2.9590 -1.0642 0.9874
1.5705 -5.3541 -1.9953 0.9766
2.9309 -4.7479 -1.9953 0.9766
3.7272 -4.1521 -1.9953 0.9766
4.4051 -3.4245 -1.9953 0.9766
5.3240 -1.6693 -1.9953 0.9766
5.4516 -1.1882 -1.9953 0.9766
5.5717 0.2962 -1.9953 0.9766
5.5232 0.7916 -1.9953 0.9766
5.4306 1.2807 -1.9953 0.9766
5.1170 2.2245 -1.9953 0.9766
4.8984 2.6717 -1.9953 0.9766
4.6408 3.0976 -1.9953 0.9766
4.0145 3.8697 -1.9940 0.9766
3.0593 4.2378 -1.8691 0.9780
2.6324 4.4311 -1.8431 0.9783
2.2270 4.6481 -1.8431 0.9783
1.8039 4.8281 -1.8431 0.9783
0.0031 5.1541 -1.8431 0.9783
-0.4562 5.1339 -1.8431 0.9783
-1.7980 4.8303 -1.8432 0.9783
-2.2214 4.6509 -1.8432 0.9783
-2.6270 4.4344 -1.8432 0.9783
-3.5048 4.0504 -1.9154 0.9775
-4.0025 3.8676 -1.9904 0.9766
-4.6372 3.1033 -1.9954 0.9766
-5.1145 2.2308 -1.9954 0.9766
-5.2929 1.7661 -1.9954 0.9766
-5.5224 0.7984 -1.9954 0.9766
-5.5716 0.3030 -1.9954 0.9766
-5.3263 -1.6629 -1.9954 0.9766
-5.1569 -2.1310 -1.9954 0.9766
-4.9464 -2.5821 -1.9954 0.9766
-4.6966 -3.0126 -1.9954 0.9766
-2.8987 -2.6940 -1.4152 0.9833
-2.0473 -2.7297 -1.2202 0.9856
-1.3523 -2.6953 -1.0784 0.9873
-1.0733 -2.7204 -1.0458 0.9877
-0.8098 -2.7482 -1.0246 0.9879
-0.5518 -2.7600 -1.0065 0.9881
-0.0540 -2.8653 -1.0248 0.9879
1.3744 -5.4077 -1.9953 0.9766
2.7560 -4.8515 -1.9953 0.9766
3.5735 -4.2852 -1.9953 0.9766
3.9412 -3.9496 -1.9953 0.9766
4.2775 -3.5827 -1.9953 0.9766
4.5797 -3.1872 -1.9953 0.9766
5.0728 -2.3235 -1.9953 0.9766
5.5067 -0.8988 -1.9953 0.9766
5.5649 -0.4045 -1.9953 0.9766
5.5788 0.0931 -1.9953 0.9766
4.9925 2.4914 -1.9953 0.9766
4.4709 3.3382 -1.9953 0.9766
3.7981 4.0691 -1.9905 0.9766
1.9786 4.7591 -1.8431 0.9783
1.1023 5.0348 -1.8431 0.9783
0.1909 5.1506 -1.8431 0.9783
-0.2487 4.7604 -1.7047 0.9800
-0.7265 5.1026 -1.8431 0.9783
-1.1784 5.0176 -1.8432 0.9783
-2.8574 4.2896 -1.8432 0.9783
-3.2671 4.0661 -1.8653 0.9781
-4.5210 3.2702 -1.9954 0.9766
-4.7945 2.8543 -1.9954 0.9766
-5.0298 2.4156 -1.9954 0.9766
-5.2251 1.9578 -1.9954 0.9766
-5.3788 1.4843 -1.9954 0.9766
-5.5584 -0.4887 -1.9954 0.9766
-5.4927 -0.9822 -1.9954 0.9766
-5.3833 -1.4678 -1.9954 0.9766
-5.0372 -2.4001 -1.9954 0.9766
-4.5311 -3.2563 -1.9954 0.9766
-2.6782 -2.7665 -1.3770 0.9838
-2.2043 -2.7262 -1.2537 0.9852
-1.8286 -2.7269 -1.1741 0.9861
-0.9158 -2.7363 -1.0319 0.9878
-0.6587 -2.7664 -1.0170 0.9880
3.2688 -4.0528 -1.9953 0.9779
3.6170 -3.7453 -1.9953 0.9779
4.4789 -2.6551 -1.9953 0.9779
5.0217 -1.3757 -1.9953 0.9779
5.1243 -0.9227 -1.9953 0.9779
5.1237 0.9260 -1.9953 0.9779
4.8779 1.8209 -1.9953 0.9779
4.6962 2.2484 -1.9953 0.9779
4.4772 2.6580 -1.9953 0.9779
2.8167 4.2174 -1.9435 0.9785
2.3066 4.2263 -1.8451 0.9796
1.1053 4.6809 -1.8431 0.9796
0.2568 4.8028 -1.8431 0.9796
-0.6000 4.7721 -1.8431 0.9796
-1.0229 4.6996 -1.8432 0.9796
-1.4376 4.5898 -1.8432 0.9796
-1.8410 4.4434 -1.8432 0.9796
-2.6253 4.0845 -1.8607 0.9794
-3.8737 3.4793 -1.9954 0.9779
-4.4299 2.7364 -1.9954 0.9779
-4.6561 2.3307 -1.9954 0.9779
-4.9960 1.4670 -1.9954 0.9779
-5.1068 1.0160 -1.9954 0.9779
-2.2932 0.0411 -0.8789 0.9902
-2.3038 -0.1646 -0.8851 0.9902
-4.7366 -2.1625 -1.9954 0.9779
-4.2774 -2.9691 -1.9954 0.9779
-2.7260 -2.7252 -1.4771 0.9836
-2.2794 -2.7266 -1.3619 0.9849
-1.8971 -2.7314 -1.2744 0.9859
-0.9529 -2.6995 -1.0970 0.9878
-0.7008 -2.7433 -1.0851 0.9879
0.0481 -2.7337 -1.0477 0.9884
0.2998 -2.7955 -1.0774 0.9880
0.5868 -2.9542 -1.1542 0.9872
1.9050 -4.8458 -1.9953 0.9779
2.3293 -4.6567 -1.9953 0.9779
2.7350 -4.4306 -1.9953 0.9779
3.1190 -4.1692 -1.9953 0.9779
3.4781 -3.8746 -1.9953 0.9779
3.8096 -3.5492 -1.9953 0.9779
4.3792 -2.8165 -1.9953 0.9779
4.8096 -1.9943 -1.9953 0.9779
5.0873 -1.1088 -1.9953 0.9779
5.2033 -0.1880 -1.9953 0.9779
5.1540 0.7387 -1.9953 0.9779
4.9410 1.6420 -1.9953 0.9779
4.5710 2.4931 -1.9953 0.9779
4.3307 2.8906 -1.9953 0.9779
4.0558 3.2650 -1.9953 0.9779
3.0363 4.2058 -1.9879 0.9780
2.5072 4.2205 -1.8812 0.9792
1.2751 4.6375 -1.8431 0.9796
0.8568 4.7327 -1.8431 0.9796
-0.8510 4.7338 -1.8431 0.9796
-1.6779 4.5075 -1.8432 0.9796
-3.3973 3.9262 -1.9897 0.9780
-3.7432 3.6170 -1.9948 0.9779
-4.3273 2.8959 -1.9954 0.9779
-4.7727 2.0817 -1.9954 0.9779
-5.0664 1.2013 -1.9954 0.9779
-2.3020 0.1252 -0.8835 0.9902
-5.0888 -1.1026 -1.9954 0.9779
-4.9703 -1.5518 -1.9954 0.9779
-4.8122 -1.9885 -1.9954 0.9779
-2.8987 -2.6940 -1.5165 0.9832
-2.4503 -2.7229 -1.4037 0.9844
-1.6835 -2.7197 -1.2258 0.9864
-1.0609 -2.6889 -1.1077 0.9877
-0.0515 -2.7357 -1.0486 0.9883
0.1937 -2.7468 -1.0552 0.9883
0.4643 -2.8838 -1.1193 0.9876
1.2826 -5.0463 -1.9953 0.9779
2.1581 -4.7385 -1.9953 0.9779
2.5718 -4.5273 -1.9953 0.9779
3.3347 -3.9988 -1.9953 0.9779
3.6778 -3.6857 -1.9953 0.9779
3.9916 -3.3432 -1.9953 0.9779
4.5217 -2.5815 -1.9953 0.9779
4.7338 -2.1682 -1.9953 0.9779
5.0435 -1.2934 -1.9953 0.9779
4.9976 1.4609 -1.9953 0.9779
4.8475 1.9005 -1.9953 0.9779
4.6588 2.3249 -1.9953 0.9779
4.1721 3.1151 -1.9953 0.9779
3.8779 3.4745 -1.9953 0.9779
3.5520 3.8055 -1.9949 0.9779
2.2348 4.2589 -1.8431 0.9796
0.1782 4.8063 -1.8431 0.9796
-0.2481 4.7485 -1.8222 0.9798
-0.6780 4.7616 -1.8431 0.9796
-1.5125 4.5657 -1.8432 0.9796
-1.9134 4.4127 -1.8432 0.9796
-3.9301 3.4155 -1.9954 0.9779
-4.2189 3.0517 -1.9954 0.9779
-5.0193 1.3851 -1.9954 0.9779
-5.1228 0.9323 -1.9954 0.9779
-2.2871 0.0035 -0.8765 0.9903
-5.1256 -0.9165 -1.9954 0.9779
-4.8815 -1.8119 -1.9954 0.9779
-4.7006 -2.2397 -1.9954 0.9779
-4.2283 -3.0387 -1.9954 0.9779
-3.1273 -2.7009 -1.5835 0.9825
-2.2060 -2.7283 -1.3445 0.9851
-1.8300 -2.7290 -1.2592 0.9860
-1.1708 -2.6775 -1.1199 0.9876
-0.9053 -2.7047 -1.0930 0.9879
3.0607 -3.7948 -1.9953 0.9791
3.3867 -3.5069 -1.9953 0.9791
3.6858 -3.1911 -1.9953 0.9791
4.3986 -2.1024 -1.9953 0.9791
4.5685 -1.7021 -1.9953 0.9791
4.7981 -0.8640 -1.9953 0.9791
4.8752 0.0016 -1.9953 0.9791
4.7975 0.8671 -1.9953 0.9791
4.7011 1.2912 -1.9953 0.9791
4.5674 1.7050 -1.9953 0.9791
4.3972 2.1053 -1.9953 0.9791
3.9537 2.8525 -1.9953 0.9791
2.2925 4.2003 -1.9585 0.9795
1.8286 4.2030 -1.8759 0.9804
1.4214 4.2732 -1.8431 0.9807
0.2404 4.4970 -1.8431 0.9807
-0.9578 4.4004 -1.8432 0.9807
-1.3461 4.2976 -1.8432 0.9807
-1.7238 4.1605 -1.8432 0.9807
-2.1410 4.0922 -1.8902 0.9802
-2.6117 4.0633 -1.9769 0.9793
-2.9850 3.8421 -1.9913 0.9792
-3.3223 3.5681 -1.9954 0.9791
-3.6271 3.2578 -1.9954 0.9791
-3.9030 2.9216 -1.9954 0.9791
-4.1479 2.5621 -1.9954 0.9791
-4.5368 1.7851 -1.9954 0.9791
-2.0184 0.2171 -0.8308 0.9913
-1.9949 0.0357 -0.8166 0.9914
-2.0381 -0.3301 -0.8450 0.9911
-2.1291 -0.5432 -0.8993 0.9905
-4.5978 -1.6216 -1.9954 0.9791
-4.4350 -2.0249 -1.9954 0.9791
-4.0051 -2.7800 -1.9954 0.9791
-2.2812 -2.7288 -1.4557 0.9847
-1.8985 -2.7334 -1.3621 0.9857
-1.2275 -2.6864 -1.2088 0.9873
0.0476 -2.7052 -1.1073 0.9884
0.2927 -2.7292 -1.1234 0.9882
0.5625 -2.8320 -1.1817 0.9876
2.5609 -4.1485 -1.9953 0.9791
2.9204 -3.9038 -1.9953 0.9791
3.2567 -3.6280 -1.9953 0.9791
3.5671 -3.3233 -1.9953 0.9791
4.8370 -0.6096 -1.9953 0.9791
4.8721 -0.1760 -1.9953 0.9791
4.6265 1.5375 -1.9953 0.9791
4.4710 1.9437 -1.9953 0.9791
4.2800 2.3344 -1.9953 0.9791
3.7976 3.0572 -1.9953 0.9791
3.5100 3.3834 -1.9953 0.9791
3.1946 3.6828 -1.9953 0.9791
2.8491 3.9466 -1.9922 0.9792
2.0134 4.2022 -1.9071 0.9801
1.5762 4.2186 -1.8431 0.9807
1.1955 4.3480 -1.8456 0.9807
0.8022 4.4314 -1.8431 0.9807
0.4041 4.4853 -1.8431 0.9807
0.0027 4.5034 -1.8431 0.9807
-0.3986 4.4858 -1.8431 0.9807
-1.1887 4.3438 -1.8432 0.9807
-1.5710 4.2205 -1.8432 0.9807
-1.9595 4.1026 -1.8608 0.9805
-2.4145 4.0757 -1.9388 0.9797
-4.0518 2.7116 -1.9954 0.9791
-4.2773 2.3397 -1.9954 0.9791
-4.4688 1.9492 -1.9954 0.9791
-4.6247 1.5431 -1.9954 0.9791
-2.0207 0.2921 -0.8356 0.9912
-2.0201 -0.2521 -0.8332 0.9912
-2.0859 -0.4520 -0.8735 0.9908
-4.6539 -1.4530 -1.9954 0.9791
-4.3220 -2.2561 -1.9954 0.9791
-4.1037 -2.6323 -1.9954 0.9791
-3.8528 -2.9875 -1.9954 0.9791
-2.4522 -2.7251 -1.5004 0.9843
-1.6866 -2.7248 -1.3116 0.9862
-0.2945 -2.7143 -1.1174 0.9883
-0.0510 -2.7072 -1.1082 0.9884
1.2009 -4.7251 -1.9953 0.9791
1.6172 -4.5992 -1.9953 0.9791
2.0207 -4.4368 -1.9953 0.9791
2.4080 -4.2390 -1.9953 0.9791
2.7763 -4.0076 -1.9953 0.9791
4.2338 -2.4171 -1.9953 0.9791
4.5957 -1.6271 -1.9953 0.9791
4.7224 -1.2111 -1.9953 0.9791
4.8746 0.0813 -1.9953 0.9791
4.6794 1.3679 -1.9953 0.9791
4.5389 1.7795 -1.9953 0.9791
4.1509 2.5570 -1.9953 0.9791
3.9065 2.9168 -1.9953 0.9791
2.9937 3.8437 -1.9940 0.9792
2.6336 4.0864 -1.9897 0.9792
2.2044 4.2010 -1.9417 0.9797
-0.6348 4.4585 -1.8431 0.9807
-1.7916 4.1318 -1.8432 0.9807
-3.0486 3.7943 -1.9921 0.9792
-3.3803 3.5133 -1.9954 0.9791
-3.9503 2.8574 -1.9954 0.9791
-4.1892 2.4939 -1.9954 0.9791
-4.6997 1.2969 -1.9954 0.9791
-2.0594 0.3748 -0.8567 0.9910
-4.7037 -1.2825 -1.9954 0.9791
-4.5707 -1.6965 -1.9954 0.9791
-4.4013 -2.0971 -1.9954 0.9791
-2.6344 -2.7213 -1.5501 0.9838
-2.2077 -2.7304 -1.4371 0.9849
-1.4846 -2.7081 -1.2640 0.9867
2.5453 -3.8056 -1.9953 0.9802
3.7146 -2.6764 -1.9953 0.9802
3.9383 -2.3347 -1.9953 0.9802
4.2902 -1.5984 -1.9953 0.9802
4.5602 -0.4066 -1.9953 0.9802
4.5783 0.0015 -1.9953 0.9802
4.4148 1.2125 -1.9953 0.9802
4.2892 1.6012 -1.9953 0.9802
3.9368 2.3372 -1.9953 0.9802
3.7129 2.6788 -1.9953 0.9802
3.1783 3.2954 -1.9953 0.9802
2.5417 3.8056 -1.9944 0.9802
1.8195 4.1820 -1.9876 0.9803
1.3913 4.1827 -1.9211 0.9809
0.9872 4.1807 -1.8722 0.9814
0.6012 4.1862 -1.8431 0.9817
0.2258 4.2231 -1.8431 0.9817
-0.5276 4.1961 -1.8431 0.9817
-2.1149 4.0424 -1.9883 0.9803
-2.4707 3.8440 -1.9915 0.9803
-2.8087 3.6152 -1.9952 0.9802
-3.1200 3.3508 -1.9954 0.9802
-3.4062 3.0594 -1.9954 0.9802
-3.6653 2.7437 -1.9954 0.9802
-3.8952 2.4061 -1.9954 0.9802
-4.0942 2.0494 -1.9954 0.9802
-1.4934 0.4385 -0.6783 0.9932
-1.4727 0.2930 -0.6544 0.9935
-1.4612 -0.1044 -0.6384 0.9936
-1.4729 -0.2386 -0.6503 0.9935
-4.1649 -1.9015 -1.9954 0.9802
-3.9789 -2.2651 -1.9954 0.9802
-3.7612 -2.6107 -1.9954 0.9802
-3.2366 -2.7042 -1.8381 0.9818
-2.7389 -2.7381 -1.6878 0.9832
-2.2831 -2.7310 -1.5513 0.9846
-0.4398 -2.7102 -1.1966 0.9881
0.5584 -2.8110 -1.2490 0.9876
1.2887 -4.3933 -1.9953 0.9802
2.0482 -4.0947 -1.9953 0.9802
2.4049 -3.8959 -1.9953 0.9802
2.7426 -3.6660 -1.9953 0.9802
3.3498 -3.1209 -1.9953 0.9802
3.6146 -2.8099 -1.9953 0.9802
3.8507 -2.4766 -1.9953 0.9802
4.2292 -1.7536 -1.9953 0.9802
4.3686 -1.3698 -1.9953 0.9802
4.4733 -0.9750 -1.9953 0.9802
4.5424 -0.5724 -1.9953 0.9802
4.5753 -0.1653 -1.9953 0.9802
4.5719 0.2431 -1.9953 0.9802
4.3447 1.4438 -1.9953 0.9802
3.2963 3.1774 -1.9953 0.9802
2.6798 3.7121 -1.9953 0.9802
2.3347 3.9300 -1.9922 0.9803
1.5628 4.1827 -1.9460 0.9807
1.1498 4.1818 -1.8902 0.9813
0.0026 4.2292 -1.8431 0.9817
-0.7483 4.1625 -1.8431 0.9817
-1.1287 4.1247 -1.8637 0.9815
-2.3275 3.9287 -1.9901 0.9803
-2.6730 3.7122 -1.9936 0.9802
-3.2925 3.1815 -1.9954 0.9802
-3.5629 2.8754 -1.9954 0.9802
-4.0168 2.1972 -1.9954 0.9802
-1.4872 0.3526 -0.6661 0.9934
-1.4728 -0.1838 -0.6469 0.9935
-1.4805 -0.3208 -0.6602 0.9934
-4.2314 -1.7485 -1.9954 0.9802
-3.8538 -2.4720 -1.9954 0.9802
-2.8988 -2.6940 -1.7247 0.9829
-2.0520 -2.7359 -1.4905 0.9852
-1.6886 -2.7279 -1.3982 0.9861
-1.3557 -2.7021 -1.3175 0.9869
-0.5430 -2.7163 -1.2072 0.9880
-0.2920 -2.6918 -1.1800 0.9883
-0.0504 -2.6788 -1.1677 0.9884
0.1895 -2.6872 -1.1741 0.9883
0.4423 -2.7467 -1.2125 0.9879
1.1278 -4.4373 -1.9953 0.9802
1.5187 -4.3191 -1.9953 0.9802
2.2614 -3.9809 -1.9953 0.9802
2.6072 -3.7635 -1.9953 0.9802
2.9322 -3.5162 -1.9953 0.9802
3.2339 -3.2409 -1.9953 0.9802
3.7579 -2.6152 -1.9953 0.9802
3.9760 -2.2699 -1.9953 0.9802
4.1625 -1.9066 -1.9953 0.9802
4.3158 -1.5280 -1.9953 0.9802
4.4348 -1.1373 -1.9953 0.9802
4.5185 -0.7375 -1.9953 0.9802
4.5663 -0.3319 -1.9953 0.9802
4.5777 0.0764 -1.9953 0.9802
4.5527 0.4840 -1.9953 0.9802
3.4099 3.0552 -1.9953 0.9802
2.8133 3.6120 -1.9953 0.9802
2.4782 3.8453 -1.9937 0.9802
1.7388 4.1824 -1.9740 0.9804
0.9152 4.1801 -1.8649 0.9815
0.5327 4.1955 -1.8431 0.9817
0.1566 4.2263 -1.8431 0.9817
-0.2206 4.2234 -1.8431 0.9817
-0.5961 4.1870 -1.8431 0.9817
-0.9705 4.1323 -1.8499 0.9816
-1.3628 4.1137 -1.8886 0.9813
-1.7745 4.0922 -1.9439 0.9807
-2.1814 4.0083 -1.9888 0.9803
-3.7097 2.6833 -1.9954 0.9802
-3.9341 2.3421 -1.9954 0.9802
-4.1272 1.9821 -1.9954 0.9802
-1.5114 0.5663 -0.7034 0.9930
-1.4934 0.4121 -0.6752 0.9933
-1.4699 0.2675 -0.6511 0.9935
-1.4705 -0.2629 -0.6510 0.9935
-1.5019 -0.5575 -0.6982 0.9930
-4.1332 -1.9694 -1.9954 0.9802
-3.7179 -2.6719 -1.9954 0.9802
-3.1273 -2.7009 -1.8009 0.9821
-2.6533 -2.7407 -1.6625 0.9835
-1.4873 -2.7130 -1.3484 0.9866
-1.1745 -2.6860 -1.2776 0.9873
-0.8908 -2.6613 -1.2231 0.9878
2.0676 -3.7824 -1.9953 0.9812
3.2589 -2.8215 -1.9953 0.9812
3.4974 -2.5199 -1.9953 0.9812
3.8892 -1.8589 -1.9953 0.9812
4.0394 -1.5049 -1.9953 0.9812
4.1574 -1.1390 -1.9953 0.9812
4.2936 -0.3828 -1.9953 0.9812
4.3106 0.0014 -1.9953 0.9812
4.2419 0.7666 -1.9953 0.9812
4.0384 1.5075 -1.9953 0.9812
3.8880 1.8614 -1.9953 0.9812
3.7066 2.2005 -1.9953 0.9812
3.4958 2.5221 -1.9953 0.9812
2.9925 3.1027 -1.9953 0.9812
2.3941 3.5846 -1.9953 0.9812
1.7166 3.9455 -1.9917 0.9812
-0.1484 4.1413 -1.9182 0.9819
-0.8957 4.1151 -1.9494 0.9816
-1.6453 3.9711 -1.9897 0.9812
-1.9952 3.8135 -1.9922 0.9812
-2.3306 3.6260 -1.9952 0.9812
-2.9375 3.1548 -1.9954 0.9812
-3.4510 2.5832 -1.9954 0.9812
-3.6675 2.2654 -1.9954 0.9812
-3.8548 1.9295 -1.9954 0.9812
-1.2550 0.4938 -0.6243 0.9941
-1.2747 0.1371 -0.5934 0.9944
-3.7462 -2.1327 -1.9954 0.9812
-2.7788 -2.7780 -1.8188 0.9828
-2.2849 -2.7332 -1.6490 0.9844
-1.5514 -2.7233 -1.4508 0.9863
-0.6815 -2.6679 -1.2746 0.9879
-0.4374 -2.6955 -1.2640 0.9880
-0.1912 -2.6649 -1.2367 0.9883
0.2883 -2.6877 -1.2512 0.9882
1.5771 -4.0118 -1.9953 0.9812
2.2643 -3.6680 -1.9953 0.9812
2.5822 -3.4516 -1.9953 0.9812
3.6255 -2.3318 -1.9953 0.9812
4.2768 -0.5390 -1.9953 0.9812
4.3045 0.2289 -1.9953 0.9812
4.1955 0.9894 -1.9953 0.9812
4.0906 1.3594 -1.9953 0.9812
3.7843 2.0640 -1.9953 0.9812
3.5853 2.3931 -1.9953 0.9812
3.3578 2.7031 -1.9953 0.9812
2.5231 3.4950 -1.9953 0.9812
2.2016 3.7060 -1.9953 0.9812
1.8602 3.8825 -1.9928 0.9812
1.5048 4.0276 -1.9902 0.9812
0.7529 4.1588 -1.9563 0.9815
-0.3674 4.1347 -1.9214 0.9819
-0.7409 4.1214 -1.9383 0.9817
-1.1234 4.1051 -1.9701 0.9814
-1.4989 4.0267 -1.9888 0.9812
-2.1956 3.7061 -1.9939 0.9812
-2.5189 3.4982 -1.9954 0.9812
-3.3546 2.7072 -1.9954 0.9812
-3.5825 2.3975 -1.9954 0.9812
-1.2666 0.4226 -0.6181 0.9941
-1.2695 0.3010 -0.6039 0.9943
-1.2688 0.0690 -0.5882 0.9944
-1.2752 -0.1591 -0.5948 0.9944
-1.2675 -0.2746 -0.6003 0.9943
-1.2689 -0.3962 -0.6153 0.9942
-1.2496 -0.5164 -0.6259 0.9941
-3.4066 -2.6415 -1.9954 0.9812
-2.8988 -2.6940 -1.8318 0.9827
-2.0536 -2.7381 -1.5843 0.9850
-1.3582 -2.7071 -1.4020 0.9867
-0.2896 -2.6692 -1.2428 0.9882
-0.0500 -2.6526 -1.2280 0.9884
0.1881 -2.6670 -1.2376 0.9883
1.0618 -4.1778 -1.9953 0.9812
1.7867 -3.9229 -1.9953 0.9812
3.0448 -3.0513 -1.9953 0.9812
3.7435 -2.1372 -1.9953 0.9812
4.2543 -0.6944 -1.9953 0.9812
4.3100 0.0719 -1.9953 0.9812
4.2864 0.4557 -1.9953 0.9812
3.6701 2.2609 -1.9953 0.9812
3.4540 2.5790 -1.9953 0.9812
3.2105 2.8765 -1.9953 0.9812
2.9413 3.1512 -1.9953 0.9812
1.6514 3.9721 -1.9912 0.9812
1.2893 4.0987 -1.9889 0.9812
0.9108 4.1603 -1.9713 0.9814
0.1538 4.1489 -1.9218 0.9819
-0.2162 4.1394 -1.9187 0.9819
-0.9657 4.1122 -1.9552 0.9816
-1.3507 4.0770 -1.9880 0.9812
-1.7104 3.9445 -1.9901 0.9812
-2.0578 3.7814 -1.9927 0.9812
-2.7000 3.3604 -1.9954 0.9812
-3.2537 2.8277 -1.9954 0.9812
-3.4928 2.5264 -1.9954 0.9812
-1.2726 0.6112 -0.6535 0.9938
-1.2594 0.4719 -0.6225 0.9941
-1.2706 0.3506 -0.6102 0.9942
-1.2718 0.2314 -0.5984 0.9943
-1.2586 0.0019 -0.5826 0.9945
-1.2733 -0.1120 -0.5917 0.9944
-1.2601 -0.4677 -0.6222 0.9941
-1.2695 -0.6049 -0.6509 0.9938
-3.7108 -2.1937 -1.9954 0.9812
-1.1766 -2.6908 -1.3594 0.9871
-0.6376 -2.6779 -1.2742 0.9879
2.2614 -3.3812 -1.9953 0.9820
2.5537 -3.1662 -1.9953 0.9820
2.8258 -2.9260 -1.9953 0.9820
3.0753 -2.6626 -1.9953 0.9820
3.6700 -1.7542 -1.9953 0.9820
4.0514 0.3638 -1.9953 0.9820
4.0029 0.7234 -1.9953 0.9820
3.4978 2.0765 -1.9953 0.9820
3.2988 2.3800 -1.9953 0.9820
3.0736 2.6645 -1.9953 0.9820
2.8239 2.9278 -1.9953 0.9820
2.5517 3.1679 -1.9953 0.9820
2.2592 3.3827 -1.9953 0.9820
1.9488 3.5706 -1.9953 0.9820
1.6228 3.7299 -1.9953 0.9820
-1.2136 3.8744 -1.9915 0.9821
-1.5555 3.7544 -1.9934 0.9821
-2.1995 3.4219 -1.9954 0.9820
-2.4957 3.2123 -1.9954 0.9820
-3.0263 2.7182 -1.9954 0.9820
-3.2565 2.4377 -1.9954 0.9820
-3.4608 2.1378 -1.9954 0.9820
-1.1152 0.4388 -0.5878 0.9947
-1.1425 -0.1851 -0.5678 0.9949
-1.1330 -0.2891 -0.5736 0.9948
-1.0970 -0.5008 -0.5915 0.9946
-3.1217 -2.6081 -1.9954 0.9820
-1.9030 -2.7399 -1.6363 0.9852
-1.5536 -2.7271 -1.5395 0.9861
-1.2341 -2.7010 -1.4566 0.9869
-0.9454 -2.6782 -1.3932 0.9874
-0.6796 -2.6602 -1.3468 0.9878
-0.4350 -2.6808 -1.3322 0.9880
-0.1915 -2.6687 -1.3124 0.9882
0.0467 -2.6509 -1.3005 0.9883
0.5505 -2.7715 -1.3860 0.9875
1.8197 -3.6380 -1.9953 0.9820
2.7173 -3.0270 -1.9953 0.9820
2.9762 -2.7728 -1.9953 0.9820
3.6037 -1.8867 -1.9953 0.9820
3.7575 -1.5581 -1.9953 0.9820
3.8814 -1.2170 -1.9953 0.9820
3.9744 -0.8662 -1.9953 0.9820
4.0266 0.5771 -1.9953 0.9820
3.1686 2.5508 -1.9953 0.9820
2.3810 3.2981 -1.9953 0.9820
2.0776 3.4972 -1.9953 0.9820
1.7576 3.6684 -1.9953 0.9820
0.7228 3.9928 -1.9904 0.9821
0.0025 4.0549 -1.9890 0.9821
-2.9253 2.8267 -1.9954 0.9820
-3.3806 2.2624 -1.9954 0.9820
-1.1035 0.4813 -0.5905 0.9947
-1.1327 0.2686 -0.5710 0.9948
-1.1419 0.0621 -0.5609 0.9949
-1.1396 -0.0398 -0.5593 0.9949
-1.1351 -0.2460 -0.5697 0.9948
-1.0947 -0.5714 -0.6057 0.9945
-3.2146 -2.4927 -1.9954 0.9820
-2.8988 -2.6940 -1.9412 0.9825
-2.7210 -3.0238 -1.9954 0.9820
-2.0552 -2.7403 -1.6802 0.9849
-1.6911 -2.7321 -1.5761 0.9858
-1.3608 -2.7122 -1.4885 0.9866
-1.0591 -2.6844 -1.4156 0.9872
-0.7860 -2.6675 -1.3641 0.9877
0.4383 -2.7220 -1.3524 0.9878
1.3494 -3.8374 -1.9953 0.9820
2.0092 -3.5369 -1.9953 0.9820
2.3164 -3.3438 -1.9953 0.9820
3.1184 -2.6119 -1.9953 0.9820
3.5326 -2.0168 -1.9953 0.9820
3.6982 -1.6939 -1.9953 0.9820
3.8345 -1.3576 -1.9953 0.9820
4.0449 0.4300 -1.9953 0.9820
3.4633 2.1335 -1.9953 0.9820
3.0296 2.7145 -1.9953 0.9820
1.2190 3.8751 -1.9926 0.9821
-0.2115 4.0494 -1.9890 0.9821
-1.2770 3.8546 -1.9918 0.9821
-2.2551 3.3855 -1.9954 0.9820
-2.5479 3.1710 -1.9954 0.9820
-3.0704 2.6683 -1.9954 0.9820
-3.4953 2.0809 -1.9954 0.9820
-1.0888 0.5229 -0.5925 0.9946
-1.1194 0.4194 -0.5864 0.9947
-1.1325 0.3125 -0.5763 0.9948
-1.1441 0.1041 -0.5635 0.9949
-1.1339 0.0017 -0.5562 0.9950
-1.1440 -0.1006 -0.5633 0.9949
-1.1409 -0.2040 -0.5685 0.9948
-1.1201 -0.4158 -0.5861 0.9947
-1.0901 -0.5194 -0.5923 0.9946
-1.8356 -2.7374 -1.6167 0.9854
-1.4930 -2.7234 -1.5235 0.9863
-1.1788 -2.6957 -1.4432 0.9870
-0.6326 -2.6569 -1.3397 0.9879
2.4146 -2.9938 -1.9953 0.9828
2.9078 -2.5175 -1.9953 0.9828
3.1206 -2.2484 -1.9953 0.9828
3.4702 -1.6587 -1.9953 0.9828
3.6042 -1.3428 -1.9953 0.9828
3.7853 -0.6816 -1.9953 0.9828
3.8310 -0.3415 -1.9953 0.9828
3.8308 0.3440 -1.9953 0.9828
3.6033 1.3451 -1.9953 0.9828
3.1191 2.2504 -1.9953 0.9828
2.9062 2.5194 -1.9953 0.9828
2.6701 2.7684 -1.9953 0.9828
2.1362 3.1984 -1.9953 0.9828
1.5344 3.5269 -1.9953 0.9828
1.2140 3.6496 -1.9953 0.9828
0.5463 3.8037 -1.9935 0.9828
-0.1376 3.8386 -1.9926 0.9828
-0.8173 3.7552 -1.9937 0.9828
-1.1495 3.6698 -1.9950 0.9828
-1.4722 3.5533 -1.9954 0.9828
-2.0797 3.2355 -1.9954 0.9828
-2.6210 2.8149 -1.9954 0.9828
-2.8615 2.5701 -1.9954 0.9828
-0.9698 0.4854 -0.5626 0.9951
-1.0015 0.3941 -0.5583 0.9952
-1.0179 0.2989 -0.5504 0.9952
-1.0376 0.1116 -0.5414 0.9953
-1.0321 0.0185 -0.5355 0.9954
-1.0371 -0.0741 -0.5394 0.9953
-1.0100 -0.3562 -0.5556 0.9952
-0.9844 -0.4494 -0.5614 0.9951
-3.1597 -2.1932 -1.9954 0.9828
-2.9516 -2.4661 -1.9954 0.9828
-2.4669 -2.9509 -1.9954 0.9828
-1.5548 -2.7292 -1.6295 0.9859
-0.6814 -2.6672 -1.4281 0.9877
0.2859 -2.6658 -1.3909 0.9880
1.4072 -3.5795 -1.9953 0.9828
1.7206 -3.4399 -1.9953 0.9828
2.3040 -3.0798 -1.9953 0.9828
3.2349 -2.0806 -1.9953 0.9828
3.4074 -1.7840 -1.9953 0.9828
3.5529 -1.4732 -1.9953 0.9828
3.8160 -0.4809 -1.9953 0.9828
3.8437 -0.1389 -1.9953 0.9828
3.8407 0.2042 -1.9953 0.9828
3.8073 0.5457 -1.9953 0.9828
3.6499 1.2129 -1.9953 0.9828
3.5273 1.5334 -1.9953 0.9828
3.1990 2.1352 -1.9953 0.9828
2.9960 2.4119 -1.9953 0.9828
1.9644 3.3067 -1.9953 0.9828
1.6619 3.4686 -1.9953 0.9828
1.0197 3.7086 -1.9953 0.9828
0.6847 3.7821 -1.9940 0.9828
0.3447 3.8263 -1.9931 0.9828
0.0023 3.8411 -1.9927 0.9828
-0.3400 3.8262 -1.9928 0.9828
-0.6799 3.7818 -1.9934 0.9828
-1.3418 3.6046 -1.9954 0.9828
-2.5167 2.9086 -1.9954 0.9828
-2.9931 2.4156 -1.9954 0.9828
-3.1965 2.1392 -1.9954 0.9828
-0.9526 0.5211 -0.5633 0.9951
-1.0227 0.2425 -0.5453 0.9953
-1.0360 0.0564 -0.5383 0.9953
-1.0266 -0.2224 -0.5449 0.9953
-1.0160 -0.3172 -0.5522 0.9952
-3.2375 -2.0767 -1.9954 0.9828
-2.8174 -2.6184 -1.9954 0.9828
-2.5728 -2.8591 -1.9954 0.9828
-2.0586 -2.7447 -1.7799 0.9847
-0.7881 -2.6747 -1.4466 0.9875
-0.0494 -2.6233 -1.3612 0.9882
0.1871 -2.6533 -1.3799 0.9881
0.4368 -2.7127 -1.4254 0.9877
1.5942 -3.5003 -1.9953 0.9828
1.8998 -3.3443 -1.9953 0.9828
2.1902 -3.1617 -1.9953 0.9828
2.4633 -2.9539 -1.9953 0.9828
2.7167 -2.7226 -1.9953 0.9828
2.9486 -2.4696 -1.9953 0.9828
3.3402 -1.9069 -1.9953 0.9828
3.4968 -1.6017 -1.9953 0.9828
3.7256 -0.9554 -1.9953 0.9828
3.7959 -0.6196 -1.9953 0.9828
3.8360 -0.2788 -1.9953 0.9828
3.8456 0.0642 -1.9953 0.9828
3.7732 0.7459 -1.9953 0.9828
3.5808 1.4039 -1.9953 0.9828
3.2747 2.0173 -1.9953 0.9828
2.6244 2.8117 -1.9953 0.9828
2.0836 3.2330 -1.9953 0.9828
1.1541 3.6690 -1.9953 0.9828
0.1423 3.8386 -1.9928 0.9828
-0.2004 3.8358 -1.9927 0.9828
-0.8787 3.7417 -1.9939 0.9828
-1.5301 3.5288 -1.9954 0.9828
-2.1323 3.2011 -1.9954 0.9828
-2.6667 2.7717 -1.9954 0.9828
-2.9031 2.5230 -1.9954 0.9828
-3.1164 2.2542 -1.9954 0.9828
-1.0057 0.3768 -0.5572 0.9952
-1.0192 0.2813 -0.5485 0.9952
-1.0376 0.0945 -0.5405 0.9953
-1.0296 0.0016 -0.5341 0.9954
-1.0064 -0.3736 -0.5569 0.9952
-0.9780 -0.4660 -0.5620 0.9951
-3.1234 -2.2446 -1.9954 0.9828
-2.6753 -2.7635 -1.9954 0.9828
-1.8371 -2.7396 -1.7112 0.9852
-1.1810 -2.7008 -1.5292 0.9868
-0.8979 -2.6826 -1.4676 0.9873
2.7542 -2.3846 -1.9953 0.9835
2.9558 -2.1296 -1.9953 0.9835
3.1338 -1.8577 -1.9953 0.9835
3.2869 -1.5711 -1.9953 0.9835
1.8837 -0.5160 -1.0697 0.9911
1.8848 -0.3394 -1.0489 0.9913
1.8886 -0.1684 -1.0385 0.9914
1.8886 0.1696 -1.0386 0.9914
1.8836 0.5173 -1.0699 0.9911
3.4130 1.2741 -1.9953 0.9835
3.2859 1.5732 -1.9953 0.9835
3.1326 1.8598 -1.9953 0.9835
2.9544 2.1315 -1.9953 0.9835
2.7527 2.3864 -1.9953 0.9835
2.5291 2.6222 -1.9953 0.9835
2.2853 2.8371 -1.9953 0.9835
2.0234 3.0295 -1.9953 0.9835
1.7453 3.1978 -1.9953 0.9835
1.4534 3.3406 -1.9953 0.9835
0.5179 3.6061 -1.9953 0.9835
0.1945 3.6379 -1.9953 0.9835
-0.4545 3.6147 -1.9953 0.9835
-0.7748 3.5598 -1.9953 0.9835
-1.0890 3.4766 -1.9954 0.9835
-1.9698 3.0647 -1.9954 0.9835
-2.2351 2.8769 -1.9954 0.9835
-2.7104 2.4344 -1.9954 0.9835
-2.9165 2.1832 -1.9954 0.9835
-0.8630 0.5331 -0.5556 0.9954
-0.8887 0.4449 -0.5443 0.9955
-0.9088 0.3576 -0.5349 0.9956
-0.9389 0.1868 -0.5243 0.9956
-0.9470 -0.0677 -0.5200 0.9957
-0.9279 -0.2368 -0.5245 0.9956
-0.9151 -0.3227 -0.5314 0.9956
-0.8723 -0.4966 -0.5497 0.9954
-0.8778 -0.6093 -0.5852 0.9951
-2.5765 -2.5757 -1.9954 0.9835
-2.3367 -2.7951 -1.9954 0.9835
-2.0783 -2.9922 -1.9954 0.9835
-1.5560 -2.7314 -1.7217 0.9858
-1.2388 -2.7113 -1.6327 0.9865
-0.9507 -2.6933 -1.5643 0.9871
1.0254 -3.4958 -1.9953 0.9835
2.1823 -2.9171 -1.9953 0.9835
2.4336 -2.7110 -1.9953 0.9835
2.8762 -2.2359 -1.9953 0.9835
3.2275 -1.6898 -1.9953 0.9835
3.3652 -1.3954 -1.9953 0.9835
1.8760 -0.5882 -1.0768 0.9911
1.8863 -0.4111 -1.0574 0.9912
1.8814 -0.0680 -1.0311 0.9915
1.8884 0.2707 -1.0448 0.9913
1.8864 0.4449 -1.0615 0.9912
1.8705 0.6216 -1.0796 0.9911
3.1983 1.7444 -1.9953 0.9835
2.6229 2.5283 -1.9953 0.9835
2.3872 2.7520 -1.9953 0.9835
1.5741 3.2855 -1.9953 0.9835
1.2751 3.4127 -1.9953 0.9835
-0.3225 3.6288 -1.9953 0.9835
-0.9616 3.5139 -1.9954 0.9835
-1.8569 3.1344 -1.9954 0.9835
-2.1288 2.9564 -1.9954 0.9835
-2.8351 2.2880 -1.9954 0.9835
-0.8734 0.5845 -0.5756 0.9952
-0.9463 0.0515 -0.5190 0.9957
-0.9466 -0.1181 -0.5225 0.9957
-0.9210 -0.2876 -0.5285 0.9956
-0.8680 -0.5568 -0.5648 0.9953
-2.8790 -2.2324 -1.9954 0.9835
-2.4369 -2.7081 -1.9954 0.9835
-1.3661 -2.7228 -1.6685 0.9862
-1.0649 -2.6992 -1.5893 0.9869
-0.7903 -2.6821 -1.5314 0.9873
-0.2854 -2.6304 -1.4491 0.9880
-0.0494 -2.6233 -1.4371 0.9881
0.1845 -2.6163 -1.4365 0.9881
0.4358 -2.7067 -1.5015 0.9876
0.8974 -3.5308 -1.9953 0.9835
2.3332 -2.7979 -1.9953 0.9835
2.5733 -2.5788 -1.9953 0.9835
2.7929 -2.3392 -1.9953 0.9835
1.9285 -0.6828 -1.1205 0.9907
1.8854 -0.4835 -1.0661 0.9912
1.8869 -0.3080 -1.0471 0.9913
1.8892 0.2008 -1.0405 0.9914
3.3917 1.3297 -1.9953 0.9835
3.2597 1.6267 -1.9953 0.9835
2.9191 2.1796 -1.9953 0.9835
2.7133 2.4311 -1.9953 0.9835
2.4858 2.6632 -1.9953 0.9835
2.2386 2.8742 -1.9953 0.9835
1.9735 3.0622 -1.9953 0.9835
1.6928 3.2259 -1.9953 0.9835
1.0932 3.4752 -1.9953 0.9835
0.7791 3.5588 -1.9953 0.9835
0.4589 3.6141 -1.9953 0.9835
0.1349 3.6406 -1.9953 0.9835
-0.1900 3.6381 -1.9953 0.9835
-0.5135 3.6067 -1.9953 0.9835
-1.4493 3.3424 -1.9954 0.9835
-2.0197 3.0320 -1.9954 0.9835
-2.2819 2.8400 -1.9954 0.9835
-2.9519 2.1352 -1.9954 0.9835
-0.8931 0.4289 -0.5426 0.9955
-0.9115 0.3415 -0.5331 0.9956
-0.9246 0.2551 -0.5253 0.9956
-0.9474 0.0862 -0.5210 0.9957
-0.9248 -0.2522 -0.5250 0.9956
-0.9119 -0.3385 -0.5328 0.9956
-2.7572 -2.3813 -1.9954 0.9835
-1.4961 -2.7292 -1.7046 0.9859
-1.1833 -2.7060 -1.6176 0.9866
-0.9004 -2.6901 -1.5537 0.9871
2.1697 -2.6901 -1.9953 0.9842
2.4008 -2.4860 -1.9953 0.9842
2.6128 -2.2621 -1.9953 0.9842
2.8040 -2.0203 -1.9953 0.9842
3.1181 -1.4904 -1.9953 0.9842
1.7285 -0.4735 -1.0347 0.9918
1.7373 -0.3128 -1.0192 0.9919
1.7372 0.3140 -1.0192 0.9919
1.7283 0.4747 -1.0348 0.9918
1.6996 0.6345 -1.0474 0.9917
3.1172 1.4924 -1.9953 0.9842
2.9718 1.7643 -1.9953 0.9842
2.8027 2.0221 -1.9953 0.9842
2.3992 2.4875 -1.9953 0.9842
