ply
format ascii 1.0
element vertex 1592
property float32 x
property float32 y
property float32 z
property float32 I
end_header
-12.7869 13.7753 -1.8044 0.9273
-12.4823 11.2450 -1.6129 0.9347
14.1977 -8.9616 -1.9944 0.9346
16.4337 -3.4316 -1.9942 0.9346
16.7817 -0.4576 -1.9942 0.9346
16.7557 1.0408 -1.9942 0.9346
16.5962 2.5309 -1.9942 0.9346
16.3045 4.0009 -1.9942 0.9346
14.6648 8.1744 -1.9943 0.9346
11.9901 9.8378 -1.8423 0.9394
11.0654 10.8683 -1.8424 0.9394
6.1246 13.1048 -1.7183 0.9434
3.8036 10.4884 -1.3253 0.9561
2.8298 10.6976 -1.3144 0.9564
-2.1007 11.0489 -1.3360 0.9557
-3.1268 10.9902 -1.3573 0.9550
-4.5042 11.7352 -1.4931 0.9506
-5.7344 11.6982 -1.5476 0.9489
-7.2921 12.0262 -1.6706 0.9449
-9.1995 12.5021 -1.8438 0.9394
-12.9920 8.4978 -1.8441 0.9394
-14.8295 7.9087 -1.9964 0.9345
-15.4761 6.5549 -1.9964 0.9345
-16.3949 3.7015 -1.9965 0.9345
-16.6599 2.2247 -1.9965 0.9345
-16.7919 0.7301 -1.9965 0.9345
-15.9869 -5.1870 -1.9965 0.9345
-13.1630 -10.4483 -1.9963 0.9345
-12.1784 -11.5801 -1.9962 0.9345
-2.2660 -3.7574 -0.5212 0.9825
-4.2110 -14.9368 -1.8434 0.9394
-2.8621 -15.2521 -1.8434 0.9394
-0.1071 -15.5163 -1.8432 0.9394
1.2770 -15.4632 -1.8431 0.9394
2.6508 -15.2869 -1.8430 0.9394
4.0033 -14.9888 -1.8429 0.9394
5.3535 -14.6529 -1.8531 0.9391
6.8715 -14.6116 -1.9180 0.9370
8.4618 -14.4790 -1.9921 0.9347
9.7319 -13.6845 -1.9947 0.9346
16.7581 -1.0007 -1.9942 0.9346
16.7806 0.4977 -1.9942 0.9346
16.6694 1.9922 -1.9942 0.9346
16.4254 3.4709 -1.9942 0.9346
15.5481 6.3338 -1.9943 0.9346
14.9216 7.6953 -1.9943 0.9346
12.3021 9.4444 -1.8423 0.9394
10.4294 11.4804 -1.8424 0.9394
9.3645 12.3652 -1.8425 0.9394
4.5534 7.2810 -1.0201 0.9660
1.1966 10.6021 -1.2674 0.9579
0.2442 10.5735 -1.2563 0.9583
-0.7350 11.0847 -1.3196 0.9562
-2.7483 11.0015 -1.3470 0.9554
-4.0778 11.7480 -1.4772 0.9511
-6.7782 12.0417 -1.6414 0.9459
-10.9235 11.0292 -1.8439 0.9394
-14.5656 8.3846 -1.9964 0.9345
-15.2556 7.0525 -1.9964 0.9345
-15.8241 5.6640 -1.9965 0.9345
-16.2664 4.2303 -1.9965 0.9345
-16.5791 2.7629 -1.9965 0.9345
-16.7595 1.2734 -1.9965 0.9345
-16.4986 -3.2082 -1.9965 0.9345
-16.1466 -4.6667 -1.9965 0.9345
-15.6658 -6.0879 -1.9965 0.9345
-13.4946 -10.0167 -1.9963 0.9345
-12.5470 -11.1799 -1.9962 0.9345
-11.4996 -12.2538 -1.9962 0.9345
-2.4713 -3.8130 -0.5397 0.9819
-1.9302 -3.6559 -0.4911 0.9835
-3.3544 -15.1517 -1.8434 0.9394
-1.9898 -15.3897 -1.8433 0.9394
-0.6094 -15.5050 -1.8432 0.9394
4.8493 -14.7363 -1.8428 0.9394
6.3057 -14.6198 -1.8913 0.9379
7.9574 -14.6879 -1.9843 0.9349
11.6210 -12.1198 -1.9945 0.9346
13.5883 -9.8619 -1.9944 0.9346
14.4132 -8.6106 -1.9943 0.9346
15.1233 -7.2907 -1.9943 0.9346
15.7129 -5.9129 -1.9942 0.9346
16.7170 -1.5428 -1.9942 0.9346
16.7879 -0.0458 -1.9942 0.9346
16.5291 2.9372 -1.9942 0.9346
14.4599 8.5318 -1.9943 0.9346
12.6013 9.0410 -1.8423 0.9394
11.7452 10.1291 -1.8423 0.9394
9.7598 12.0554 -1.8425 0.9394
4.6649 6.9483 -0.9941 0.9669
7.2105 13.1374 -1.7801 0.9414
5.7321 13.0930 -1.6978 0.9441
2.5376 10.6424 -1.2996 0.9569
1.5472 10.6126 -1.2740 0.9577
0.5877 10.5838 -1.2591 0.9582
-0.1657 4.8979 -0.5821 0.9805
-1.4111 11.4030 -1.3649 0.9548
-3.6601 11.7605 -1.4631 0.9516
-6.0892 11.6875 -1.5654 0.9483
-9.3430 12.0656 -1.8127 0.9404
-10.5605 11.3769 -1.8439 0.9394
-11.5334 10.3902 -1.8440 0.9394
-12.4145 9.3205 -1.8440 0.9394
-13.1966 8.1765 -1.8441 0.9394
-16.1209 4.7547 -1.9965 0.9345
11.9037 -7.5136 -1.9945 0.9447
12.5261 -6.4220 -1.9945 0.9447
13.9802 -1.6369 -1.9944 0.9447
13.6703 3.3545 -1.9944 0.9447
13.3168 4.5602 -1.9944 0.9447
12.8572 5.7298 -1.9944 0.9447
10.0527 8.2482 -1.8424 0.9488
4.9694 7.0232 -1.2190 0.9658
1.8155 10.6207 -1.5267 0.9574
0.8492 10.5916 -1.5055 0.9580
-0.1103 11.8672 -1.6815 0.9532
-2.1007 11.0491 -1.5936 0.9556
-3.1268 10.9902 -1.6190 0.9549
-5.7270 11.6831 -1.8436 0.9488
-5.0006 6.7958 -1.1955 0.9665
-8.6162 9.7515 -1.8438 0.9488
-9.4518 8.9445 -1.8438 0.9488
-10.8910 7.1236 -1.8439 0.9488
-14.0763 0.6120 -1.9963 0.9447
-14.0748 -0.6457 -1.9963 0.9447
-13.7360 -3.1357 -1.9963 0.9447
-12.9602 -5.5259 -1.9963 0.9447
-12.4155 -6.6595 -1.9962 0.9447
-11.7719 -7.7400 -1.9962 0.9447
-9.3024 -10.5790 -1.9960 0.9447
-1.3790 -3.6186 -0.5487 0.9845
-3.8218 -13.5561 -1.9956 0.9447
-2.5975 -13.8423 -1.9955 0.9447
3.6334 -13.6039 -1.9951 0.9447
4.8319 -13.2252 -1.9950 0.9447
8.1593 -11.4731 -1.9948 0.9447
11.6543 -7.8952 -1.9945 0.9447
13.9198 -2.0887 -1.9944 0.9447
14.0506 -0.8390 -1.9944 0.9447
14.0694 0.4173 -1.9944 0.9447
13.9762 1.6704 -1.9944 0.9447
13.7716 2.9101 -1.9944 0.9447
13.4574 4.1267 -1.9944 0.9447
13.0360 5.3104 -1.9944 0.9447
10.9791 6.9668 -1.8424 0.9488
10.3143 7.9183 -1.8424 0.9488
7.8512 10.3671 -1.8426 0.9488
5.8851 11.5978 -1.8427 0.9488
1.1966 10.6021 -1.5117 0.9578
0.2442 10.5735 -1.4985 0.9582
-0.7197 10.8549 -1.5414 0.9570
-1.8522 11.8149 -1.6945 0.9528
-2.7483 11.0015 -1.6067 0.9552
-4.0778 11.7480 -1.7620 0.9510
-6.3825 11.3386 -1.8436 0.9488
-4.6481 6.7651 -1.1630 0.9674
-8.2958 10.0252 -1.8437 0.9488
-9.1571 9.2457 -1.8438 0.9488
-10.6546 7.4724 -1.8439 0.9488
-11.2788 6.4926 -1.8439 0.9488
-12.7885 5.9120 -1.9963 0.9447
-13.6358 3.5462 -1.9963 0.9447
-13.8978 2.3161 -1.9963 0.9447
-14.0491 1.0675 -1.9963 0.9447
-14.0883 -0.1897 -1.9963 0.9447
-14.0152 -1.4453 -1.9963 0.9447
-13.8304 -2.6894 -1.9963 0.9447
-13.1323 -5.1034 -1.9963 0.9447
-10.5181 -9.3720 -1.9961 0.9447
-1.7387 -3.2933 -0.5277 0.9851
-1.4721 -3.5164 -0.5401 0.9847
-1.2598 -3.9716 -0.5904 0.9833
-1.8059 -13.9672 -1.9955 0.9447
-0.5531 -14.0720 -1.9954 0.9447
0.7040 -14.0646 -1.9953 0.9447
1.9554 -13.9452 -1.9952 0.9447
3.1911 -13.7147 -1.9951 0.9447
4.4013 -13.3749 -1.9950 0.9447
5.5762 -12.9285 -1.9950 0.9447
6.7067 -12.3793 -1.9949 0.9447
8.7985 -10.9901 -1.9947 0.9447
11.3927 -8.2684 -1.9946 0.9447
13.1741 -4.9575 -1.9944 0.9447
13.8450 -2.5383 -1.9944 0.9447
14.0161 -1.2935 -1.9944 0.9447
14.0756 -0.0384 -1.9944 0.9447
13.2010 4.8856 -1.9944 0.9447
12.7129 6.0434 -1.9945 0.9447
9.0512 9.3369 -1.8425 0.9488
8.1826 10.1073 -1.8426 0.9488
6.2574 11.4010 -1.8427 0.9488
5.2160 11.9141 -1.8428 0.9488
4.0660 12.1328 -1.8131 0.9496
1.5472 10.6126 -1.5196 0.9576
0.5877 10.5838 -1.5019 0.9581
-4.5173 7.0537 -1.1868 0.9667
-7.9668 10.2884 -1.8437 0.9488
-9.6684 8.7100 -1.8438 0.9488
-10.4070 7.8133 -1.8439 0.9488
-12.5903 6.3229 -1.9962 0.9447
-13.1043 5.1750 -1.9963 0.9447
-13.5137 3.9858 -1.9963 0.9447
11.2236 -4.5409 -1.9946 0.9521
11.5837 -3.5218 -1.9945 0.9521
11.8515 -2.4748 -1.9945 0.9521
11.7583 2.8853 -1.9945 0.9521
11.4543 3.9224 -1.9945 0.9521
11.0590 4.9284 -1.9946 0.9521
9.7689 5.4454 -1.8425 0.9557
8.6466 7.0945 -1.8425 0.9557
5.6210 9.6710 -1.8428 0.9557
3.8136 10.5165 -1.8429 0.9557
2.8609 10.8151 -1.8430 0.9557
1.8233 10.6660 -1.7826 0.9571
-0.1040 11.1879 -1.8432 0.9557
-3.0620 10.7625 -1.8434 0.9557
-4.0097 10.4469 -1.8434 0.9557
-4.9256 10.0481 -1.8435 0.9556
-4.9580 6.7380 -1.3781 0.9667
-8.1289 7.6926 -1.8437 0.9556
-8.7828 6.9372 -1.8438 0.9556
-11.1574 4.7257 -1.9961 0.9521
-11.5345 3.7119 -1.9962 0.9521
-12.0107 1.6039 -1.9962 0.9521
-12.1046 -0.5553 -1.9962 0.9521
-12.0068 -1.6326 -1.9962 0.9521
-11.8133 -2.6968 -1.9962 0.9521
-11.5256 -3.7395 -1.9962 0.9521
-10.6777 -5.7273 -1.9961 0.9521
-9.4900 -7.5328 -1.9960 0.9521
-2.1875 -2.9878 -0.6100 0.9851
-1.5288 -3.1376 -0.5750 0.9860
-1.0529 -3.7348 -0.6393 0.9844
-2.2341 -11.9053 -1.9955 0.9521
3.1251 -11.7007 -1.9951 0.9521
4.1559 -11.3750 -1.9951 0.9521
6.1101 -10.4551 -1.9949 0.9521
7.0179 -9.8682 -1.9949 0.9521
7.8698 -9.2028 -1.9948 0.9521
8.6589 -8.4640 -1.9947 0.9521
11.7652 -2.8572 -1.9945 0.9521
11.9730 -1.7966 -1.9945 0.9521
12.0855 -0.7217 -1.9945 0.9521
12.0215 1.4367 -1.9945 0.9521
11.2127 4.5677 -1.9946 0.9521
10.7525 5.5452 -1.9930 0.9521
9.4435 5.9923 -1.8425 0.9557
8.8717 6.8108 -1.8425 0.9557
4.1522 10.3874 -1.8429 0.9557
3.2094 10.7167 -1.8429 0.9557
1.1966 10.6022 -1.7577 0.9577
0.2442 10.5735 -1.7423 0.9580
-0.7212 10.8775 -1.7959 0.9568
-5.4893 9.7518 -1.8435 0.9556
-7.8755 7.9517 -1.8437 0.9556
-8.5535 7.2179 -1.8438 0.9556
-9.7001 5.5838 -1.8438 0.9556
-11.4083 4.0834 -1.9962 0.9521
-11.7271 3.0498 -1.9962 0.9521
-11.9525 1.9919 -1.9962 0.9521
-12.0825 0.9180 -1.9962 0.9521
-12.1163 -0.1631 -1.9962 0.9521
-11.2942 -4.3890 -1.9961 0.9521
-10.3345 -6.3254 -1.9961 0.9521
-9.7290 -7.2217 -1.9960 0.9521
-1.9408 -2.9945 -0.5879 0.9856
-1.6268 -3.0812 -0.5740 0.9860
-1.5532 -12.0129 -1.9955 0.9521
1.6818 -11.9941 -1.9952 0.9521
3.7855 -11.5037 -1.9951 0.9521
4.7961 -11.1199 -1.9950 0.9521
7.5678 -9.4528 -1.9948 0.9521
8.3804 -8.7400 -1.9948 0.9521
9.1262 -7.9577 -1.9947 0.9521
9.7992 -7.1119 -1.9947 0.9521
11.9086 -2.1833 -1.9945 0.9521
12.1070 -0.0330 -1.9945 0.9521
12.0617 1.0468 -1.9945 0.9521
9.6325 5.6834 -1.8425 0.9557
9.0875 6.5199 -1.8425 0.9557
8.4700 7.3045 -1.8426 0.9557
7.7851 8.0310 -1.8426 0.9557
4.6864 6.9802 -1.3850 0.9665
5.3821 9.8061 -1.8428 0.9557
4.4863 10.2474 -1.8428 0.9557
-0.1657 4.8960 -0.8070 0.9803
-1.3741 11.1042 -1.8432 0.9557
-5.1706 9.9243 -1.8435 0.9556
-4.5442 7.0957 -1.3881 0.9664
-8.3152 7.4910 -1.8437 0.9556
-9.5141 5.8949 -1.8438 0.9556
-11.6222 3.4279 -1.9962 0.9521
8.9742 -5.6645 -1.9947 0.9577
10.1531 -3.0869 -1.9946 0.9577
10.5398 -1.2341 -1.9946 0.9577
10.5914 0.6579 -1.9946 0.9577
10.4906 1.5998 -1.9946 0.9577
10.0397 3.4380 -1.9946 0.9577
9.6932 4.3197 -1.9947 0.9577
8.1028 5.5175 -1.8426 0.9609
6.9941 6.8695 -1.8427 0.9609
4.1512 8.8823 -1.8429 0.9609
3.3427 9.2174 -1.8429 0.9609
1.6522 9.6652 -1.8430 0.9609
-0.0911 9.8056 -1.8432 0.9609
-0.9652 9.7588 -1.8432 0.9609
-2.6837 9.4327 -1.8433 0.9609
-3.5143 9.1561 -1.8434 0.9609
-4.3169 8.8065 -1.8435 0.9609
-4.6861 6.3685 -1.4862 0.9683
-7.6974 6.0799 -1.8437 0.9609
-8.2091 5.3694 -1.8437 0.9609
-8.6796 4.6289 -1.8489 0.9608
-10.1090 3.2532 -1.9961 0.9577
-10.6097 0.4613 -1.9961 0.9577
-10.5229 -1.4308 -1.9961 0.9577
-10.3533 -2.3635 -1.9961 0.9577
-9.7686 -4.1650 -1.9960 0.9577
-8.8730 -5.8340 -1.9960 0.9577
-2.5729 -2.9260 -0.7324 0.9843
-2.1518 -2.9390 -0.6846 0.9853
-1.7818 -2.9545 -0.6485 0.9861
-1.4515 -2.9790 -0.6229 0.9866
-1.1962 -3.1391 -0.6314 0.9864
-0.9777 -3.4681 -0.6773 0.9854
-1.0197 -10.5671 -1.9954 0.9577
1.8136 -10.4590 -1.9952 0.9577
2.7390 -10.2553 -1.9952 0.9577
3.6426 -9.9698 -1.9951 0.9577
4.5170 -9.6050 -1.9950 0.9577
5.3554 -9.1636 -1.9950 0.9577
6.1511 -8.6493 -1.9949 0.9577
9.2818 -5.1448 -1.9947 0.9577
10.0479 -3.4140 -1.9946 0.9577
10.3122 -2.5043 -1.9946 0.9577
10.4944 -1.5747 -1.9946 0.9577
10.5369 1.2593 -1.9946 0.9577
10.1457 3.1112 -1.9946 0.9577
9.8279 4.0036 -1.9947 0.9577
8.2772 5.2522 -1.8426 0.9609
7.7759 5.9696 -1.8426 0.9609
6.5921 7.2563 -1.8427 0.9609
4.1972 6.7113 -1.4878 0.9683
4.4366 8.7431 -1.8428 0.9609
2.8130 9.3928 -1.8430 0.9609
1.9642 9.6066 -1.8430 0.9609
-0.6488 9.7848 -1.8432 0.9609
-2.3768 9.5145 -1.8433 0.9609
-3.2160 9.2650 -1.8434 0.9609
-4.2081 7.4759 -1.6125 0.9657
-4.3798 6.3747 -1.4538 0.9690
-5.2602 6.3567 -1.5508 0.9670
-6.9023 6.9691 -1.8436 0.9609
-7.4964 6.3259 -1.8437 0.9609
-8.5013 4.8938 -1.8438 0.9609
-10.2777 2.6729 -1.9961 0.9577
-10.4752 1.7457 -1.9961 0.9577
-10.5892 0.8046 -1.9961 0.9577
-10.6188 -0.1430 -1.9961 0.9577
-9.8983 -3.8466 -1.9960 0.9577
-9.5157 -4.7140 -1.9960 0.9577
-9.0573 -5.5437 -1.9960 0.9577
-3.3519 -2.9866 -0.8438 0.9819
-2.2962 -2.9321 -0.7000 0.9850
-1.5639 -2.9621 -0.6296 0.9865
-1.2790 -3.0551 -0.6225 0.9866
-1.0541 -3.3231 -0.6553 0.9859
-0.4169 -10.6077 -1.9954 0.9577
3.3179 -10.0827 -1.9951 0.9577
4.2037 -9.7463 -1.9951 0.9577
6.6330 -8.2852 -1.9949 0.9577
7.3453 -7.6605 -1.9948 0.9577
7.9990 -6.9748 -1.9948 0.9577
8.5889 -6.2335 -1.9947 0.9577
9.1104 -5.4427 -1.9947 0.9577
9.5594 -4.6085 -1.9947 0.9577
10.5721 0.9175 -1.9946 0.9577
10.2411 2.7810 -1.9946 0.9577
9.9524 3.6833 -1.9947 0.9577
9.5844 4.5562 -1.9947 0.9577
8.4428 4.9815 -1.8426 0.9609
7.4239 6.4023 -1.8426 0.9609
6.8235 7.0390 -1.8427 0.9609
6.1687 7.6197 -1.8427 0.9609
4.4908 6.6890 -1.5143 0.9677
3.9321 8.9815 -1.8429 0.9609
1.4146 9.7029 -1.8431 0.9609
0.5437 9.7908 -1.8431 0.9609
-3.7379 9.0672 -1.8434 0.9609
-4.5317 8.6980 -1.8435 0.9609
-6.6730 7.1888 -1.8436 0.9609
-7.8442 5.8893 -1.8437 0.9609
-8.3383 5.1664 -1.8437 0.9609
-9.3535 4.6973 -1.9673 0.9583
8.3975 -4.3053 -1.9948 0.9622
8.7479 -3.5392 -1.9947 0.9622
9.0286 -2.7450 -1.9947 0.9622
9.3725 -1.0974 -1.9947 0.9622
9.4184 0.5850 -1.9947 0.9622
9.3287 1.4226 -1.9947 0.9622
8.9277 3.0572 -1.9947 0.9622
8.2180 4.5808 -1.9888 0.9623
6.7392 5.5295 -1.8427 0.9650
5.6500 6.6390 -1.8428 0.9650
4.7386 6.6970 -1.7342 0.9670
4.1560 7.1506 -1.7482 0.9668
3.6914 7.8984 -1.8429 0.9650
2.2297 8.4290 -1.8430 0.9650
1.4691 8.5945 -1.8430 0.9650
0.6969 8.6915 -1.8431 0.9650
-0.0810 8.7193 -1.8432 0.9650
-0.8583 8.6776 -1.8432 0.9650
-1.6288 8.5667 -1.8433 0.9650
-2.3863 8.3876 -1.8433 0.9650
-4.6861 6.3685 -1.6713 0.9682
-6.3348 5.9949 -1.8436 0.9650
-7.2993 4.7743 -1.8437 0.9650
-7.9761 4.2537 -1.9108 0.9637
-9.3597 1.2498 -1.9960 0.9621
-9.4339 0.4102 -1.9960 0.9621
-9.2059 -2.1016 -1.9960 0.9621
-8.6860 -3.7035 -1.9960 0.9621
-8.3210 -4.4632 -1.9959 0.9621
-3.6138 -2.8685 -0.9753 0.9813
-3.0340 -2.8850 -0.8850 0.9830
-2.5484 -2.8981 -0.8157 0.9843
-1.4248 -2.9241 -0.6876 0.9868
-0.7109 -3.7886 -0.8148 0.9844
-0.0651 -9.4394 -1.9954 0.9621
0.7769 -9.4074 -1.9953 0.9621
1.6127 -9.3003 -1.9952 0.9621
2.4356 -9.1192 -1.9952 0.9621
4.0166 -8.5410 -1.9951 0.9621
4.7622 -8.1486 -1.9950 0.9621
6.7487 -6.5969 -1.9949 0.9622
7.3100 -5.9687 -1.9948 0.9622
7.8130 -5.2929 -1.9948 0.9622
8.9350 -3.0359 -1.9947 0.9622
9.3321 -1.4003 -1.9947 0.9622
9.4197 -0.5625 -1.9947 0.9622
9.4324 0.2798 -1.9947 0.9622
9.3699 1.1198 -1.9947 0.9622
7.3604 4.6705 -1.8426 0.9650
6.9147 5.3084 -1.8427 0.9650
5.8619 6.4526 -1.8427 0.9650
5.0362 6.6500 -1.7633 0.9665
4.2080 6.7286 -1.6775 0.9681
3.9451 7.7746 -1.8429 0.9650
0.2013 8.7172 -1.8431 0.9650
-0.5769 8.7007 -1.8432 0.9650
-2.1135 8.4603 -1.8433 0.9650
-4.3798 6.3747 -1.6349 0.9689
-5.2304 6.3207 -1.7342 0.9670
-6.6657 5.6249 -1.8436 0.9650
-7.1409 5.0081 -1.8437 0.9650
-7.5592 4.3514 -1.8437 0.9650
-8.5696 3.9616 -1.9956 0.9621
-9.1387 2.3767 -1.9960 0.9621
-9.4156 0.7154 -1.9960 0.9621
-9.4419 -0.1271 -1.9960 0.9621
-9.2691 -1.8024 -1.9960 0.9621
-9.0714 -2.6218 -1.9960 0.9621
-8.4612 -4.1915 -1.9959 0.9621
-8.0535 -4.9293 -1.9959 0.9621
-3.8353 -2.8468 -1.0096 0.9807
-3.2336 -2.8812 -0.9155 0.9824
-2.7150 -2.8930 -0.8386 0.9839
-1.2351 -2.9504 -0.6761 0.9870
-1.2105 -9.3621 -1.9954 0.9621
-0.3707 -9.4325 -1.9954 0.9621
0.4719 -9.4277 -1.9953 0.9621
1.3108 -9.3478 -1.9953 0.9621
2.1391 -9.1934 -1.9952 0.9621
5.2179 -7.8643 -1.9950 0.9621
5.8983 -7.3675 -1.9949 0.9621
6.5317 -6.8120 -1.9949 0.9622
7.1130 -6.2023 -1.9949 0.9622
8.5006 -4.0980 -1.9948 0.9622
9.3966 -0.8672 -1.9947 0.9622
9.2910 1.6510 -1.9947 0.9622
9.1068 2.4730 -1.9947 0.9622
8.8501 3.2753 -1.9947 0.9622
7.0829 5.0817 -1.8427 0.9650
6.0677 6.2594 -1.8427 0.9650
4.1346 7.5331 -1.8164 0.9655
3.4965 7.9866 -1.8429 0.9650
2.7704 8.2668 -1.8430 0.9650
0.4835 8.7060 -1.8431 0.9650
-1.0709 8.6540 -1.8432 0.9650
-3.3237 8.0625 -1.8434 0.9650
-4.0295 7.7342 -1.8434 0.9650
-4.9276 6.3635 -1.7013 0.9676
-5.9335 6.3922 -1.8436 0.9650
-6.4800 5.8377 -1.8436 0.9650
-8.4155 4.2262 -1.9906 0.9622
7.1776 -4.5305 -1.9948 0.9657
7.5530 -3.8723 -1.9948 0.9657
7.8681 -3.1833 -1.9948 0.9657
8.1206 -2.4689 -1.9948 0.9657
8.3083 -1.7349 -1.9948 0.9657
8.4712 0.5262 -1.9948 0.9657
8.3905 1.2795 -1.9948 0.9657
8.2430 2.0227 -1.9948 0.9657
8.0299 2.7498 -1.9948 0.9657
7.4067 4.1286 -1.9929 0.9658
6.4807 4.4129 -1.8427 0.9683
6.0614 4.9734 -1.8427 0.9683
4.5290 6.4008 -1.8428 0.9683
3.3201 7.1039 -1.8429 0.9683
2.0054 7.5811 -1.8430 0.9683
1.3214 7.7299 -1.8431 0.9683
0.6268 7.8172 -1.8431 0.9683
-3.4524 7.0428 -1.8434 0.9683
-4.6467 6.3150 -1.8427 0.9683
-5.1938 5.8781 -1.8435 0.9683
-6.1556 4.8622 -1.8436 0.9683
-7.4742 3.9861 -1.9908 0.9658
-8.4178 1.1241 -1.9959 0.9657
-8.4845 0.3689 -1.9959 0.9657
-8.4836 -0.3892 -1.9959 0.9657
-8.2795 -1.8901 -1.9959 0.9657
-8.0779 -2.6209 -1.9959 0.9657
-7.8119 -3.3308 -1.9959 0.9657
-7.4837 -4.0141 -1.9959 0.9657
-7.0958 -4.6655 -1.9959 0.9657
-2.9970 -2.8498 -0.9720 0.9832
-1.7300 -2.8687 -0.7873 0.9863
-1.1116 -2.9171 -0.7337 0.9873
-0.8849 -3.1387 -0.7664 0.9867
-0.3977 -4.1213 -0.9731 0.9831
0.6988 -8.4610 -1.9953 0.9657
1.4505 -8.3648 -1.9953 0.9657
2.9132 -7.9736 -1.9951 0.9657
3.6126 -7.6819 -1.9951 0.9657
4.2832 -7.3289 -1.9951 0.9657
4.9196 -6.9176 -1.9950 0.9657
5.5168 -6.4512 -1.9950 0.9657
7.4237 -4.1149 -1.9948 0.9657
8.2478 -2.0030 -1.9948 0.9657
8.4724 -0.5059 -1.9948 0.9657
8.4838 0.2516 -1.9948 0.9657
8.1146 2.4883 -1.9948 0.9657
7.8605 3.2021 -1.9948 0.9657
7.5437 3.8904 -1.9948 0.9657
5.2723 5.8036 -1.8428 0.9683
2.2498 7.5121 -1.8430 0.9683
0.1811 7.8403 -1.8431 0.9683
-0.3206 4.8353 -1.1389 0.9803
-1.2147 7.7482 -1.8432 0.9683
-1.9008 7.6092 -1.8433 0.9683
-2.5719 7.4095 -1.8433 0.9683
-5.0007 6.0432 -1.8435 0.9683
-6.4223 4.5042 -1.8436 0.9683
-7.7085 3.5635 -1.9959 0.9657
-8.3770 1.3960 -1.9959 0.9657
-8.4681 0.6434 -1.9959 0.9657
-8.4918 -0.1143 -1.9959 0.9657
-8.4478 -0.8712 -1.9959 0.9657
-8.1585 -2.3580 -1.9959 0.9657
-7.9157 -3.0761 -1.9959 0.9657
-7.6097 -3.7698 -1.9959 0.9657
-7.2431 -4.4333 -1.9959 0.9657
-3.8342 -2.8461 -1.1223 0.9806
-2.6979 -2.8748 -0.9266 0.9839
-2.2244 -2.8404 -0.8479 0.9853
-1.2100 -2.8904 -0.7364 0.9872
-0.7423 -3.3529 -0.8071 0.9860
-0.5100 -3.9445 -0.9348 0.9838
-0.1696 -4.3158 -1.0151 0.9824
0.4245 -8.4793 -1.9953 0.9657
3.3620 -7.7949 -1.9951 0.9657
4.0437 -7.4638 -1.9951 0.9657
4.6931 -7.0733 -1.9950 0.9657
5.3050 -6.6265 -1.9950 0.9657
6.3976 -5.5784 -1.9949 0.9657
7.9438 -2.9893 -1.9948 0.9657
8.1787 -2.2690 -1.9948 0.9657
8.4516 -0.7800 -1.9948 0.9657
8.4875 -0.0232 -1.9948 0.9657
8.1909 2.2243 -1.9948 0.9657
7.9600 2.9459 -1.9948 0.9657
7.6657 3.6441 -1.9948 0.9657
4.3707 6.5100 -1.8428 0.9683
2.4918 7.4353 -1.8430 0.9683
1.8188 7.6280 -1.8430 0.9683
-0.1645 4.8606 -1.1430 0.9802
-0.9632 7.7833 -1.8432 0.9683
-1.6535 7.6666 -1.8433 0.9683
-3.6241 6.9560 -1.8434 0.9683
-4.1216 6.4359 -1.7962 0.9691
-4.8024 6.2019 -1.8435 0.9683
-5.3365 5.7490 -1.8435 0.9683
-7.8988 3.1193 -1.9959 0.9657
6.5154 -4.1125 -1.9949 0.9687
6.8561 -3.5151 -1.9949 0.9687
7.1422 -2.8896 -1.9949 0.9687
7.6522 -0.8960 -1.9948 0.9687
7.7016 -0.2100 -1.9948 0.9687
7.6896 0.4776 -1.9948 0.9687
7.6164 1.1615 -1.9948 0.9687
5.5021 4.5145 -1.8428 0.9710
5.0777 4.9873 -1.8428 0.9710
4.1111 5.8102 -1.8429 0.9710
3.5767 6.1538 -1.8429 0.9710
1.8203 6.8815 -1.8430 0.9710
1.1994 7.0166 -1.8431 0.9710
-1.3297 6.9938 -1.8432 0.9710
-1.9481 6.8475 -1.8433 0.9710
-2.5511 6.6466 -1.8433 0.9710
-4.2197 5.7346 -1.8434 0.9710
-7.3379 2.3614 -1.9959 0.9687
-7.5193 1.6976 -1.9959 0.9687
-7.7005 -0.3533 -1.9959 0.9687
-7.0908 -3.0233 -1.9959 0.9687
-6.4408 -4.2348 -1.9958 0.9687
-3.5449 -2.8138 -1.1719 0.9815
-2.9605 -2.8150 -1.0577 0.9833
-2.5000 -2.8430 -0.9802 0.9845
-2.0540 -2.8054 -0.9002 0.9857
-1.0873 -2.8533 -0.7906 0.9875
-0.6232 -3.3209 -0.8749 0.9861
-0.3559 -3.6889 -0.9596 0.9848
-0.0264 -3.8216 -0.9895 0.9843
1.3166 -7.5928 -1.9953 0.9687
3.2792 -6.9730 -1.9951 0.9687
5.5099 -5.3859 -1.9950 0.9687
6.7387 -3.7352 -1.9949 0.9687
7.0449 -3.1193 -1.9949 0.9687
7.2949 -2.4786 -1.9948 0.9687
7.4869 -1.8182 -1.9948 0.9687
7.5380 1.5929 -1.9948 0.9687
7.3660 2.2588 -1.9948 0.9687
7.1352 2.9067 -1.9949 0.9687
6.4926 4.1199 -1.9909 0.9687
4.2971 5.6740 -1.8429 0.9710
3.2209 6.3474 -1.8429 0.9710
0.7983 7.0735 -1.8431 0.9710
-1.1026 7.0331 -1.8432 0.9710
-2.9251 6.4908 -1.8434 0.9710
-3.4923 6.2042 -1.8434 0.9710
-5.4416 4.5919 -1.8435 0.9710
-5.8295 4.0884 -1.8436 0.9710
-7.4604 1.9402 -1.9959 0.9687
-7.7079 -0.1038 -1.9959 0.9687
-7.5668 -1.4714 -1.9959 0.9687
-7.4054 -2.1403 -1.9959 0.9687
-7.1850 -2.7922 -1.9959 0.9687
-6.5746 -4.0241 -1.9958 0.9687
-3.1395 -2.7974 -1.0887 0.9828
-2.6819 -2.8578 -1.0147 0.9839
-1.1941 -2.8524 -0.8006 0.9873
-0.7063 -3.1902 -0.8460 0.9866
-0.4643 -3.5912 -0.9376 0.9851
1.7464 -7.5055 -1.9952 0.9687
2.4087 -7.3197 -1.9952 0.9687
3.0518 -7.0756 -1.9951 0.9687
4.2600 -6.4206 -1.9951 0.9687
5.3327 -5.5615 -1.9950 0.9687
5.8073 -5.0637 -1.9949 0.9687
6.2356 -4.5256 -1.9949 0.9687
6.9402 -3.3458 -1.9949 0.9687
7.6718 -0.7080 -1.9948 0.9687
7.7044 -0.0210 -1.9948 0.9687
7.6756 0.6661 -1.9948 0.9687
7.5856 1.3480 -1.9948 0.9687
7.4352 2.0191 -1.9948 0.9687
6.9584 3.3079 -1.9949 0.9687
4.4785 5.5319 -1.8428 0.9710
3.9674 5.9093 -1.8429 0.9710
3.4247 6.2397 -1.8429 0.9710
2.8546 6.5204 -1.8430 0.9710
1.0269 7.0439 -1.8431 0.9710
-0.1626 4.8063 -1.2451 0.9803
-1.5009 6.9591 -1.8433 0.9710
-2.7134 6.5821 -1.8433 0.9710
-3.8397 5.9956 -1.8434 0.9710
-4.8439 5.2183 -1.8435 0.9710
-5.6941 4.2750 -1.8436 0.9710
-6.4707 4.0092 -1.9709 0.9690
5.9591 -3.7614 -1.9949 0.9711
6.2707 -3.2149 -1.9949 0.9711
6.5324 -2.6429 -1.9949 0.9711
6.7420 -2.0498 -1.9949 0.9711
6.9989 -0.8195 -1.9949 0.9711
7.0440 -0.1921 -1.9949 0.9711
7.0331 0.4369 -1.9949 0.9711
6.8437 1.6793 -1.9949 0.9711
6.4366 2.8684 -1.9949 0.9711
5.8188 3.9622 -1.9929 0.9712
4.6442 4.5614 -1.8428 0.9733
3.7601 5.3141 -1.8429 0.9733
3.2713 5.6283 -1.8429 0.9733
2.2195 6.1202 -1.8430 0.9733
1.0970 6.4174 -1.8431 0.9733
-0.0605 6.5105 -1.8432 0.9733
-0.6409 6.4793 -1.8432 0.9733
-1.2162 6.3965 -1.8432 0.9733
-1.7818 6.2627 -1.8433 0.9733
-3.3761 5.5680 -1.8434 0.9733
-3.8593 5.2448 -1.8434 0.9733
-4.7298 4.4760 -1.8435 0.9733
-6.4917 2.7496 -1.9958 0.9711
-6.7111 2.1597 -1.9958 0.9711
-6.8770 1.5526 -1.9958 0.9711
-6.9881 0.9332 -1.9958 0.9711
-6.9859 -0.9499 -1.9958 0.9711
-6.8733 -1.5691 -1.9958 0.9711
-6.7059 -2.1758 -1.9958 0.9711
-5.8906 -3.8731 -1.9958 0.9711
-1.6809 -2.7872 -0.9214 0.9866
-0.8283 -2.9379 -0.8641 0.9874
-0.5935 -3.1629 -0.9110 0.9867
-0.0240 -3.4842 -0.9864 0.9856
0.2959 -3.5834 -1.0179 0.9852
1.2042 -6.9445 -1.9953 0.9711
2.4186 -6.6198 -1.9952 0.9711
3.5560 -6.0846 -1.9951 0.9711
4.0843 -5.7431 -1.9951 0.9711
4.5801 -5.3560 -1.9950 0.9711
5.0394 -4.9261 -1.9950 0.9711
5.4586 -4.4570 -1.9950 0.9711
6.4434 -2.8530 -1.9949 0.9711
6.6721 -2.2670 -1.9949 0.9711
6.8477 -1.6630 -1.9949 0.9711
6.9687 -1.0457 -1.9949 0.9711
7.0436 0.2089 -1.9949 0.9711
5.5688 4.2752 -1.9875 0.9712
4.7894 4.4087 -1.8428 0.9733
3.9302 5.1895 -1.8429 0.9733
2.4164 6.0451 -1.8430 0.9733
-0.3167 4.7774 -1.3554 0.9803
-1.5781 6.3170 -1.8433 0.9733
-2.1352 6.1513 -1.8433 0.9733
-4.1515 5.0169 -1.8434 0.9733
-5.6853 3.9873 -1.9658 0.9715
-6.1099 3.5172 -1.9958 0.9711
-6.3993 2.9583 -1.9958 0.9711
-6.8231 1.7745 -1.9958 0.9711
-6.9542 1.1589 -1.9958 0.9711
-7.0299 0.5341 -1.9958 0.9711
-7.0129 -0.7232 -1.9958 0.9711
-6.9205 -1.3457 -1.9958 0.9711
-6.5713 -2.5537 -1.9958 0.9711
-6.3173 -3.1295 -1.9958 0.9711
-6.0130 -3.6804 -1.9958 0.9711
-3.0941 -2.7570 -1.1732 0.9829
-2.6657 -2.8405 -1.1028 0.9839
0.1776 -3.5487 -1.0059 0.9853
2.2030 -6.6947 -1.9952 0.9711
2.7912 -6.4714 -1.9952 0.9711
4.8774 -5.0867 -1.9950 0.9711
5.3115 -4.6314 -1.9950 0.9711
6.0496 -3.6141 -1.9949 0.9711
6.3477 -3.0601 -1.9949 0.9711
6.7902 -1.8838 -1.9949 0.9711
6.9312 -1.2707 -1.9949 0.9711
7.0168 -0.6476 -1.9949 0.9711
7.0466 -0.0192 -1.9949 0.9711
7.0203 0.6093 -1.9949 0.9711
6.8004 1.8467 -1.9949 0.9711
4.5309 4.6740 -1.8428 0.9733
4.0961 5.0595 -1.8429 0.9733
3.6286 5.4048 -1.8429 0.9733
3.1323 5.7069 -1.8429 0.9733
2.0687 6.1728 -1.8430 0.9733
0.9392 6.4424 -1.8431 0.9733
0.3610 6.5007 -1.8431 0.9733
-1.3727 6.3648 -1.8432 0.9733
-1.9349 6.2171 -1.8433 0.9733
-3.0087 5.7747 -1.8434 0.9733
-3.9868 5.1486 -1.8434 0.9733
-4.8382 4.3586 -1.8435 0.9733
-5.9842 3.7078 -1.9929 0.9712
-6.3001 3.1639 -1.9958 0.9711
5.4848 -3.4620 -1.9950 0.9732
5.7716 -2.9591 -1.9949 0.9732
6.0125 -2.4326 -1.9949 0.9732
6.4733 0.4021 -1.9949 0.9732
6.1361 2.1013 -1.9949 0.9732
5.9243 2.6401 -1.9949 0.9732
5.0022 4.1043 -1.9902 0.9733
4.3492 4.2717 -1.8750 0.9748
3.4608 4.8911 -1.8429 0.9752
3.0109 5.1803 -1.8429 0.9752
2.5370 5.4283 -1.8430 0.9752
-0.5898 5.9635 -1.8432 0.9752
-1.1193 5.8873 -1.8432 0.9752
-3.5520 4.8272 -1.8434 0.9752
-3.9684 4.4913 -1.8434 0.9752
-4.3532 4.1196 -1.8435 0.9752
-5.4294 3.5512 -1.9955 0.9732
-5.9748 2.5306 -1.9958 0.9732
-6.1767 1.9877 -1.9958 0.9732
-6.3294 1.4290 -1.9958 0.9732
-6.4317 0.8589 -1.9958 0.9732
-6.4826 0.2819 -1.9958 0.9732
-6.4820 -0.2974 -1.9958 0.9732
-6.4296 -0.8742 -1.9958 0.9732
-6.1720 -2.0025 -1.9958 0.9732
-5.7180 -3.0670 -1.9958 0.9732
-2.8885 -2.7466 -1.2260 0.9835
-2.4523 -2.7888 -1.1422 0.9846
-0.3038 -3.1481 -0.9728 0.9869
2.7605 -5.8700 -1.9952 0.9732
4.2156 -4.9296 -1.9951 0.9732
4.6383 -4.5340 -1.9950 0.9732
5.9306 -2.6259 -1.9949 0.9732
6.1411 -2.0866 -1.9949 0.9732
6.3027 -1.5306 -1.9949 0.9732
6.4743 -0.3866 -1.9949 0.9732
6.4400 0.7697 -1.9949 0.9732
6.3457 1.3409 -1.9949 0.9732
5.4765 3.4751 -1.9950 0.9732
5.1395 3.9456 -1.9929 0.9732
4.0288 4.4348 -1.8429 0.9752
3.1770 5.0801 -1.8429 0.9752
0.6721 5.9545 -1.8431 0.9752
0.1384 5.9908 -1.8431 0.9752
-0.3159 4.7645 -1.4687 0.9802
-0.9281 5.9204 -1.8432 0.9752
-1.4524 5.8141 -1.8433 0.9752
-1.9652 5.6615 -1.8433 0.9752
-2.4623 5.4638 -1.8433 0.9752
-3.3939 4.9397 -1.8434 0.9752
-5.3041 3.7199 -1.9926 0.9733
-5.6234 3.2371 -1.9957 0.9732
-6.1091 2.1867 -1.9958 0.9732
-6.4005 1.0666 -1.9958 0.9732
-6.4882 -0.0873 -1.9958 0.9732
-6.3694 -1.2386 -1.9958 0.9732
-6.2336 -1.8016 -1.9958 0.9732
-5.5342 -3.3873 -1.9957 0.9732
-3.7639 -2.7939 -1.4418 0.9806
-2.6391 -2.8122 -1.1862 0.9840
-1.7755 -2.7393 -1.0041 0.9864
-1.4591 -2.7637 -0.9613 0.9870
-0.8899 -2.8055 -0.9053 0.9878
-0.6602 -2.9818 -0.9394 0.9873
-0.1259 -3.2042 -0.9863 0.9867
0.1637 -3.2711 -1.0074 0.9864
0.4880 -3.4800 -1.0808 0.9854
1.4701 -6.3182 -1.9952 0.9732
2.5690 -5.9563 -1.9952 0.9732
3.0899 -5.7034 -1.9951 0.9732
3.5861 -5.4050 -1.9951 0.9732
4.0538 -5.0636 -1.9951 0.9732
5.5681 -3.3264 -1.9950 0.9732
5.8425 -2.8166 -1.9949 0.9732
6.0703 -2.2843 -1.9949 0.9732
6.4584 -0.5960 -1.9949 0.9732
6.4858 -0.0177 -1.9949 0.9732
6.4615 0.5608 -1.9949 0.9732
6.3858 1.1348 -1.9949 0.9732
6.2592 1.6997 -1.9949 0.9732
6.0827 2.2511 -1.9949 0.9732
5.8578 2.7846 -1.9949 0.9732
5.5861 3.2960 -1.9950 0.9732
4.1703 4.3020 -1.8429 0.9752
3.7701 4.6568 -1.8429 0.9752
2.4030 5.4889 -1.8430 0.9752
1.9040 5.6815 -1.8430 0.9752
-0.7359 5.9473 -1.8432 0.9752
-1.2634 5.8581 -1.8432 0.9752
-3.2321 5.0469 -1.8434 0.9752
-4.0774 4.3926 -1.8434 0.9752
-4.4792 4.0352 -1.8543 0.9751
-5.1737 3.8843 -1.9899 0.9733
-6.0351 2.3833 -1.9958 0.9732
5.7420 -1.7458 -1.9949 0.9750
5.8286 1.4302 -1.9949 0.9750
5.6779 1.9443 -1.9950 0.9750
5.2422 2.9221 -1.9950 0.9750
4.9608 3.3780 -1.9950 0.9750
4.2676 4.1916 -1.9884 0.9751
3.2024 4.5258 -1.8429 0.9769
2.7860 4.7935 -1.8430 0.9769
1.8902 5.2123 -1.8430 0.9769
1.4179 5.3602 -1.8431 0.9769
-0.5458 5.5181 -1.8432 0.9769
-1.5174 5.3335 -1.8433 0.9769
-1.9871 5.1771 -1.8433 0.9769
-4.2526 4.0244 -1.9462 0.9756
-4.7049 3.7162 -1.9929 0.9750
-5.8566 1.3222 -1.9958 0.9750
-5.9512 0.7947 -1.9958 0.9750
-5.9984 0.2608 -1.9958 0.9750
-5.2908 -2.8379 -1.9957 0.9750
-3.4727 -2.7565 -1.4738 0.9815
-2.9096 -2.7667 -1.3346 0.9832
-1.9979 -2.7288 -1.1242 0.9858
-1.6349 -2.7110 -1.0523 0.9867
-1.3323 -2.7345 -1.0111 0.9873
-0.5414 -2.8854 -0.9759 0.9877
-0.2860 -2.9643 -0.9899 0.9875
0.2543 -3.0793 -1.0271 0.9871
0.5724 -3.3008 -1.1136 0.9860
2.0598 -5.6378 -1.9952 0.9750
2.5543 -5.4316 -1.9952 0.9750
3.0285 -5.1821 -1.9951 0.9750
4.2920 -4.1954 -1.9951 0.9750
4.6489 -3.7959 -1.9950 0.9750
5.9351 -0.8906 -1.9949 0.9750
5.9908 -0.3577 -1.9949 0.9750
5.7378 1.7595 -1.9949 0.9750
5.5581 2.2642 -1.9950 0.9750
5.0676 3.2156 -1.9950 0.9750
4.7607 3.6547 -1.9950 0.9750
3.8629 4.2521 -1.9096 0.9761
3.3472 4.4198 -1.8429 0.9769
2.5089 4.9442 -1.8430 0.9769
2.0580 5.1484 -1.8430 0.9769
1.1107 5.4323 -1.8431 0.9769
0.6219 5.5098 -1.8431 0.9769
0.1280 5.5434 -1.8431 0.9769
-1.8184 5.2387 -1.8433 0.9769
-2.7202 4.8325 -1.8433 0.9769
-3.1404 4.5707 -1.8434 0.9769
-4.0027 4.0414 -1.8908 0.9763
-4.5765 3.8619 -1.9905 0.9751
-4.9154 3.4473 -1.9957 0.9750
-5.2033 2.9953 -1.9957 0.9750
-5.4498 2.5193 -1.9957 0.9750
-5.6528 2.0233 -1.9957 0.9750
-5.8107 1.5112 -1.9958 0.9750
-5.9723 -0.6159 -1.9958 0.9750
-5.8936 -1.1460 -1.9958 0.9750
-5.7679 -1.6671 -1.9958 0.9750
-3.7854 -2.8098 -1.5670 0.9803
-3.0279 -2.6979 -1.3481 0.9831
-2.6127 -2.7841 -1.2691 0.9840
-1.7607 -2.7166 -1.0761 0.9864
-0.8798 -2.7734 -0.9672 0.9878
-0.3794 -2.9342 -0.9835 0.9876
1.8762 -5.7016 -1.9952 0.9750
2.3772 -5.5115 -1.9952 0.9750
3.3183 -5.0013 -1.9951 0.9750
5.9761 -0.5515 -1.9949 0.9750
5.9790 0.5189 -1.9949 0.9750
5.1690 3.0498 -1.9950 0.9750
4.5409 3.9160 -1.9932 0.9750
4.1183 4.2484 -1.9668 0.9754
3.4885 4.3090 -1.8429 0.9769
3.0904 4.6031 -1.8429 0.9769
2.6676 4.8604 -1.8430 0.9769
2.2236 5.0790 -1.8430 0.9769
1.7618 5.2572 -1.8430 0.9769
0.7999 5.4867 -1.8431 0.9769
0.3074 5.5363 -1.8431 0.9769
-0.1616 4.7748 -1.5881 0.9801
-1.1690 5.4205 -1.8432 0.9769
-1.6478 5.2947 -1.8433 0.9769
-3.3953 4.3847 -1.8434 0.9769
-3.7729 4.0645 -1.8434 0.9769
-4.7991 3.6031 -1.9948 0.9750
-5.1036 3.1622 -1.9957 0.9750
-5.3653 2.6945 -1.9957 0.9750
-5.7587 1.6985 -1.9958 0.9750
4.9643 -2.5452 -1.9950 0.9766
5.1715 -2.0923 -1.9950 0.9766
5.3374 -1.6228 -1.9950 0.9766
5.4609 -1.1403 -1.9950 0.9766
5.5408 -0.6488 -1.9950 0.9766
5.5766 -0.1521 -1.9950 0.9766
5.5679 0.3458 -1.9950 0.9766
4.8729 2.7162 -1.9950 0.9766
4.3129 3.5387 -1.9950 0.9766
3.6004 4.2307 -1.9866 0.9767
2.9989 4.2384 -1.8567 0.9782
2.5897 4.4557 -1.8430 0.9783
2.1821 4.6690 -1.8430 0.9783
1.3180 4.9825 -1.8431 0.9783
0.8684 5.0803 -1.8431 0.9783
0.4119 5.1376 -1.8431 0.9783
-0.9627 5.0636 -1.8432 0.9783
-1.4105 4.9577 -1.8433 0.9783
-1.8470 4.8122 -1.8433 0.9783
-2.2688 4.6284 -1.8433 0.9783
-2.6726 4.4077 -1.8433 0.9783
-3.5747 4.0457 -1.9306 0.9773
-4.0445 3.8275 -1.9913 0.9766
-4.3793 3.4590 -1.9957 0.9766
-4.6703 3.0548 -1.9957 0.9766
-5.4438 1.2290 -1.9957 0.9766
-5.5299 -0.7519 -1.9957 0.9766
-5.4408 -1.2421 -1.9957 0.9766
-5.3083 -1.7223 -1.9957 0.9766
-4.9179 -2.6379 -1.9957 0.9766
-0.0198 -2.8715 -1.0269 0.9879
0.5349 -3.0848 -1.1196 0.9868
1.9147 -5.2405 -1.9952 0.9766
2.8151 -4.8169 -1.9952 0.9766
3.6259 -4.2401 -1.9951 0.9766
3.9895 -3.8998 -1.9951 0.9766
4.3214 -3.5284 -1.9950 0.9766
4.6188 -3.1290 -1.9950 0.9766
5.2821 -1.7947 -1.9950 0.9766
5.5392 0.6620 -1.9950 0.9766
5.4581 1.1534 -1.9950 0.9766
5.3335 1.6355 -1.9950 0.9766
4.9582 2.5570 -1.9950 0.9766
4.7105 2.9890 -1.9950 0.9766
4.4252 3.3972 -1.9950 0.9766
2.7326 4.3695 -1.8430 0.9783
1.0324 5.0495 -1.8431 0.9783
0.5780 5.1215 -1.8431 0.9783
0.1190 5.1527 -1.8431 0.9783
-0.7983 5.0921 -1.8432 0.9783
-1.6902 4.8694 -1.8433 0.9783
-2.1178 4.6994 -1.8433 0.9783
-2.5285 4.4919 -1.8433 0.9783
-3.3597 4.0601 -1.8846 0.9779
-4.2638 3.5980 -1.9951 0.9766
-4.5690 3.2044 -1.9957 0.9766
-4.8366 2.7842 -1.9957 0.9766
-5.2543 1.8807 -1.9957 0.9766
-5.4011 1.4047 -1.9957 0.9766
-5.5049 0.9174 -1.9957 0.9766
-5.5648 0.4228 -1.9957 0.9766
-5.5514 -0.5725 -1.9957 0.9766
-4.7599 -2.9133 -1.9957 0.9766
-4.4810 -3.3262 -1.9957 0.9766
-1.7640 -2.7216 -1.1598 0.9863
-1.4222 -2.6938 -1.0893 0.9871
-1.1363 -2.7142 -1.0523 0.9876
-0.8697 -2.7416 -1.0286 0.9879
-0.6119 -2.7637 -1.0122 0.9880
-0.3590 -2.7768 -1.0013 0.9882
0.1449 -2.8941 -1.0362 0.9878
0.4236 -3.0208 -1.0908 0.9871
0.7477 -3.2134 -1.1798 0.9861
1.7440 -5.2998 -1.9952 0.9766
2.6577 -4.9056 -1.9952 0.9766
3.0845 -4.6489 -1.9951 0.9766
4.7892 -2.8611 -1.9950 0.9766
5.0253 -2.4226 -1.9950 0.9766
5.4872 -1.0060 -1.9950 0.9766
5.5577 0.4823 -1.9950 0.9766
5.4926 0.9760 -1.9950 0.9766
5.3837 1.4620 -1.9950 0.9766
5.0384 2.3952 -1.9950 0.9766
4.8048 2.8349 -1.9950 0.9766
4.5329 3.2522 -1.9950 0.9766
2.8726 4.2787 -1.8429 0.9783
2.4796 4.5179 -1.8430 0.9783
-0.1612 4.7630 -1.7043 0.9800
-0.6330 5.1152 -1.8432 0.9783
-1.5317 4.9216 -1.8433 0.9783
-1.9645 4.7655 -1.8433 0.9783
-2.7799 4.3408 -1.8433 0.9783
-3.7446 4.0341 -1.9683 0.9769
-4.4628 3.3506 -1.9957 0.9766
-5.1907 2.0498 -1.9957 0.9766
-5.3528 1.5788 -1.9957 0.9766
4.4024 -2.7788 -1.9950 0.9779
4.6326 -2.3751 -1.9950 0.9779
4.9808 -1.5143 -1.9950 0.9779
5.0960 -1.0641 -1.9950 0.9779
5.1959 0.3227 -1.9950 0.9779
5.1464 0.7848 -1.9950 0.9779
4.9252 1.6866 -1.9950 0.9779
4.5473 2.5347 -1.9950 0.9779
4.3031 2.9302 -1.9950 0.9779
4.0247 3.3023 -1.9951 0.9779
3.7142 3.6481 -1.9951 0.9779
3.3689 3.9586 -1.9920 0.9780
2.9826 4.2153 -1.9789 0.9781
2.4532 4.2209 -1.8709 0.9793
1.6396 4.5212 -1.8430 0.9796
1.2299 4.6495 -1.8431 0.9796
0.3844 4.7942 -1.8431 0.9796
-0.0440 4.7395 -1.8163 0.9799
-0.4734 4.7864 -1.8432 0.9796
-0.8984 4.7252 -1.8432 0.9796
-2.4940 4.1131 -1.8433 0.9796
-2.9885 4.0613 -1.9323 0.9786
-3.7824 3.5794 -1.9956 0.9779
-4.5950 2.4506 -1.9957 0.9779
-4.7953 2.0310 -1.9957 0.9779
-4.9574 1.5953 -1.9957 0.9779
-2.3000 0.1000 -0.8822 0.9902
-2.3005 -0.1055 -0.8825 0.9902
-2.3141 -0.3147 -0.8950 0.9900
-4.9535 -1.6072 -1.9957 0.9779
-4.7904 -2.0425 -1.9957 0.9779
-2.3954 -2.7241 -1.3901 0.9846
-2.0008 -2.7328 -1.2980 0.9856
0.2279 -2.7600 -1.0613 0.9882
1.7867 -4.8903 -1.9952 0.9779
2.2157 -4.7114 -1.9952 0.9779
2.6270 -4.4950 -1.9952 0.9779
3.3836 -3.9567 -1.9951 0.9779
3.7229 -3.6392 -1.9951 0.9779
4.0326 -3.2926 -1.9951 0.9779
4.3101 -2.9199 -1.9950 0.9779
4.7602 -2.1077 -1.9950 0.9779
4.9292 -1.6748 -1.9950 0.9779
5.0589 -1.2286 -1.9950 0.9779
5.1483 -0.7725 -1.9950 0.9779
5.1966 -0.3103 -1.9950 0.9779
5.0934 1.0763 -1.9950 0.9779
4.9772 1.5262 -1.9950 0.9779
4.8213 1.9640 -1.9950 0.9779
4.6269 2.3862 -1.9950 0.9779
4.1295 3.1702 -1.9951 0.9779
3.8304 3.5259 -1.9951 0.9779
3.4986 3.8511 -1.9939 0.9780
3.1333 4.1374 -1.9889 0.9780
2.6386 4.2192 -1.9070 0.9789
2.1762 4.2887 -1.8430 0.9796
1.7851 4.4658 -1.8430 0.9796
0.9634 4.7120 -1.8431 0.9796
-0.7449 4.7518 -1.8432 0.9796
-1.1657 4.6665 -1.8432 0.9796
-2.7988 4.0736 -1.8940 0.9791
-3.3085 3.9981 -1.9887 0.9780
-3.6610 3.6964 -1.9937 0.9780
-4.5133 2.5981 -1.9957 0.9779
-4.7270 2.1852 -1.9957 0.9779
-5.0401 1.3108 -1.9957 0.9779
-2.2917 -0.0309 -0.8783 0.9902
-5.1120 -0.9941 -1.9957 0.9779
-4.6665 -2.3117 -1.9957 0.9779
-4.4417 -2.7186 -1.9957 0.9779
-4.1815 -3.1039 -1.9956 0.9779
-2.5603 -2.7282 -1.4338 0.9841
-1.4247 -2.6985 -1.1694 0.9870
-1.1230 -2.6826 -1.1145 0.9876
0.1372 -2.7408 -1.0516 0.9883
0.3987 -2.8430 -1.1001 0.9878
0.7031 -3.0216 -1.1889 0.9868
2.0620 -4.7807 -1.9952 0.9779
2.4801 -4.5777 -1.9952 0.9779
2.8784 -4.3383 -1.9951 0.9779
3.6032 -3.7578 -1.9951 0.9779
4.6895 -2.2608 -1.9950 0.9779
5.1205 -0.9388 -1.9950 0.9779
5.1864 0.4501 -1.9950 0.9779
5.1256 0.9108 -1.9950 0.9779
5.0240 1.3643 -1.9950 0.9779
4.7017 2.2351 -1.9950 0.9779
4.4837 2.6455 -1.9950 0.9779
3.9425 3.4000 -1.9951 0.9779
2.8313 4.2172 -1.9465 0.9785
1.9288 4.4056 -1.8430 0.9796
1.5282 4.5601 -1.8430 0.9796
1.1155 4.6783 -1.8431 0.9796
0.6939 4.7592 -1.8431 0.9796
0.2667 4.8022 -1.8431 0.9796
-0.1608 4.7512 -1.8218 0.9798
-1.0140 4.7017 -1.8432 0.9796
-1.8332 4.4470 -1.8433 0.9796
-2.6161 4.0851 -1.8590 0.9794
-3.1373 4.0515 -1.9637 0.9783
-3.5361 3.8094 -1.9918 0.9780
-4.4268 2.7428 -1.9957 0.9779
-4.6538 2.3371 -1.9957 0.9779
-4.8437 1.9128 -1.9957 0.9779
4.5187 -1.8282 -1.9950 0.9792
4.7716 -0.9964 -1.9950 0.9792
4.8414 -0.5669 -1.9950 0.9792
4.8727 -0.1329 -1.9950 0.9792
4.8651 0.3022 -1.9950 0.9792
4.7341 1.1617 -1.9950 0.9792
4.6117 1.5792 -1.9950 0.9792
4.0292 2.7436 -1.9951 0.9792
3.7685 3.0921 -1.9951 0.9792
3.1594 3.7124 -1.9951 0.9792
1.9641 4.2024 -1.8985 0.9802
1.1516 4.3535 -1.8431 0.9807
0.7588 4.4389 -1.8431 0.9807
0.3599 4.4890 -1.8431 0.9807
-0.0418 4.5033 -1.8432 0.9807
-0.8412 4.4243 -1.8432 0.9807
-1.2324 4.3318 -1.8432 0.9807
-1.6138 4.2047 -1.8433 0.9807
-2.0097 4.0998 -1.8687 0.9805
-2.8821 3.9168 -1.9903 0.9792
-3.2269 3.6521 -1.9946 0.9792
-3.8263 3.0223 -1.9956 0.9791
-4.3024 2.2945 -1.9957 0.9791
-4.4900 1.9017 -1.9957 0.9791
-4.6417 1.4937 -1.9957 0.9791
-2.0913 0.4722 -0.8775 0.9908
-2.0206 0.2698 -0.8343 0.9912
-2.0031 -0.0919 -0.8207 0.9914
-2.0928 -0.4778 -0.8786 0.9908
-4.6381 -1.5048 -1.9957 0.9791
-3.4135 -2.7095 -1.7837 0.9813
-2.8311 -2.6920 -1.5989 0.9833
-1.6410 -2.7210 -1.3005 0.9864
-1.0163 -2.6669 -1.1681 0.9877
-0.5121 -2.7290 -1.1364 0.9881
-0.2621 -2.7158 -1.1167 0.9883
-0.0187 -2.7066 -1.1078 0.9884
0.2241 -2.7136 -1.1144 0.9883
0.4805 -2.7709 -1.1510 0.9879
1.2580 -4.7100 -1.9953 0.9791
2.0746 -4.4115 -1.9952 0.9792
2.4597 -4.2089 -1.9952 0.9792
3.1682 -3.7049 -1.9951 0.9792
3.4860 -3.4075 -1.9951 0.9792
3.7759 -3.0830 -1.9951 0.9792
4.0358 -2.7340 -1.9951 0.9792
4.4572 -1.9735 -1.9950 0.9792
4.6154 -1.5682 -1.9950 0.9792
4.7368 -1.1503 -1.9950 0.9792
4.8205 -0.7233 -1.9950 0.9792
4.8658 -0.2906 -1.9950 0.9792
4.8724 0.1445 -1.9950 0.9792
4.8401 0.5785 -1.9950 0.9792
4.7692 1.0078 -1.9950 0.9792
4.6603 1.4291 -1.9950 0.9792
4.5144 1.8390 -1.9950 0.9792
2.9401 3.8822 -1.9931 0.9792
2.5768 4.1203 -1.9889 0.9792
1.2920 4.3139 -1.8431 0.9807
0.9021 4.4120 -1.8431 0.9807
0.5051 4.4750 -1.8431 0.9807
-0.2979 4.4936 -1.8432 0.9807
-1.8532 4.1122 -1.8460 0.9807
-2.7518 4.0051 -1.9888 0.9792
-3.1044 3.7516 -1.9930 0.9792
-3.4312 3.4644 -1.9956 0.9791
-4.2259 2.4326 -1.9956 0.9791
-2.0432 0.3405 -0.8477 0.9911
-2.0124 0.1529 -0.8260 0.9913
-1.9937 -0.0268 -0.8161 0.9914
-2.0712 -0.4027 -0.8636 0.9909
-4.6844 -1.3539 -1.9957 0.9791
-4.5450 -1.7662 -1.9957 0.9791
-4.3693 -2.1645 -1.9957 0.9791
-4.1589 -2.5455 -1.9956 0.9791
-3.0279 -2.6979 -1.6598 0.9826
-1.1205 -2.6765 -1.1875 0.9875
-0.8507 -2.6818 -1.1515 0.9879
-0.6054 -2.7344 -1.1462 0.9880
-0.3506 -2.7117 -1.1191 0.9883
0.1353 -2.7029 -1.1076 0.9884
1.5239 -4.6308 -1.9952 0.9792
1.9307 -4.4764 -1.9952 0.9792
2.6951 -4.0621 -1.9952 0.9792
3.3738 -3.5186 -1.9951 0.9792
3.6741 -3.2037 -1.9951 0.9792
3.9452 -2.8632 -1.9951 0.9792
4.6971 -1.3031 -1.9950 0.9792
4.7946 -0.8790 -1.9950 0.9792
4.8745 -0.0133 -1.9950 0.9792
4.8562 0.4214 -1.9950 0.9792
4.7042 1.2774 -1.9950 0.9792
4.1983 2.4771 -1.9951 0.9792
3.6915 3.1836 -1.9951 0.9792
3.3930 3.5001 -1.9951 0.9792
3.0668 3.7881 -1.9948 0.9792
1.4309 4.2698 -1.8431 0.9807
0.6497 4.4562 -1.8431 0.9807
-0.9495 4.4024 -1.8432 0.9807
-1.3383 4.3002 -1.8432 0.9807
-1.7165 4.1638 -1.8433 0.9807
-2.1323 4.0927 -1.8888 0.9803
-2.6026 4.0639 -1.9751 0.9794
-3.3172 3.5736 -1.9956 0.9791
-3.8993 2.9275 -1.9956 0.9791
-4.5353 1.7910 -1.9957 0.9791
3.8711 -2.4435 -1.9951 0.9802
4.0736 -2.0885 -1.9951 0.9802
4.2436 -1.7169 -1.9951 0.9802
4.4810 -0.9357 -1.9950 0.9802
4.5466 -0.5324 -1.9950 0.9802
4.5760 -0.1248 -1.9950 0.9802
4.5689 0.2838 -1.9950 0.9802
4.5254 0.6901 -1.9950 0.9802
4.1813 1.8634 -1.9951 0.9802
3.7839 2.5766 -1.9951 0.9802
2.6443 3.7371 -1.9952 0.9802
1.9318 4.1335 -1.9885 0.9803
0.3380 4.2156 -1.8431 0.9817
-0.0393 4.2290 -1.8432 0.9817
-0.7900 4.1549 -1.8432 0.9817
-1.5748 4.1030 -1.9153 0.9810
-1.9997 4.0794 -1.9800 0.9804
-3.0319 3.4313 -1.9956 0.9802
-3.5933 2.8382 -1.9956 0.9802
-3.8321 2.5065 -1.9956 0.9802
-4.2165 1.7859 -1.9956 0.9802
-1.4935 0.4806 -0.6838 0.9932
-1.4837 0.3350 -0.6629 0.9934
-1.4491 0.0630 -0.6322 0.9937
-1.4503 -0.0665 -0.6327 0.9937
-1.4846 -0.3389 -0.6636 0.9934
-1.4933 -0.4845 -0.6842 0.9932
-3.8261 -2.5157 -1.9956 0.9802
-2.3993 -2.7285 -1.5835 0.9843
-1.3150 -2.6988 -1.3084 0.9870
-1.0181 -2.6715 -1.2460 0.9876
-0.7549 -2.6776 -1.2124 0.9879
-0.2599 -2.6933 -1.1792 0.9883
-0.0185 -2.6782 -1.1672 0.9884
0.2224 -2.6932 -1.1777 0.9883
1.9483 -4.1429 -1.9952 0.9802
2.6532 -3.7308 -1.9952 0.9802
2.9753 -3.4793 -1.9951 0.9802
3.5460 -2.8953 -1.9951 0.9802
4.0038 -2.2193 -1.9951 0.9802
4.3344 -1.4727 -1.9950 0.9802
4.5270 -0.6793 -1.9950 0.9802
4.5757 0.1357 -1.9950 0.9802
4.5454 0.5432 -1.9950 0.9802
4.4788 0.9464 -1.9950 0.9802
4.3766 1.3421 -1.9950 0.9802
4.0686 2.0982 -1.9951 0.9802
3.8653 2.4527 -1.9951 0.9802
3.3682 3.1004 -1.9951 0.9802
2.7639 3.6495 -1.9952 0.9802
2.0658 4.0710 -1.9896 0.9803
1.6719 4.1825 -1.9631 0.9805
1.2525 4.1823 -1.9027 0.9811
0.8546 4.1795 -1.8592 0.9816
0.0976 4.2280 -1.8431 0.9817
-0.2798 4.2200 -1.8432 0.9817
-0.6550 4.1783 -1.8432 0.9817
-1.0315 4.1290 -1.8548 0.9816
-1.4268 4.1105 -1.8963 0.9812
-1.8425 4.0885 -1.9544 0.9806
-2.9192 3.5277 -1.9956 0.9802
-3.7489 2.6292 -1.9956 0.9802
-3.9685 2.2845 -1.9956 0.9802
-4.1564 1.9215 -1.9956 0.9802
-1.4919 0.3880 -0.6718 0.9933
-1.4628 0.1111 -0.6393 0.9936
-1.4319 -0.0193 -0.6241 0.9938
-1.4699 -0.1516 -0.6440 0.9936
-1.4705 -0.2859 -0.6529 0.9935
-1.5492 -0.6020 -0.7243 0.9928
-4.1032 -2.0327 -1.9956 0.9802
-3.9055 -2.3905 -1.9956 0.9802
-3.6768 -2.7292 -1.9956 0.9802
-3.0279 -2.6979 -1.7674 0.9825
-2.1410 -2.7340 -1.5134 0.9850
-0.8431 -2.6580 -1.2153 0.9879
-0.3482 -2.6931 -1.1835 0.9882
0.3827 -2.7289 -1.2009 0.9880
0.6999 -3.0082 -1.3460 0.9866
1.4311 -4.3488 -1.9953 0.9802
1.8131 -4.2038 -1.9952 0.9802
2.1808 -4.0253 -1.9952 0.9802
2.8611 -3.5738 -1.9952 0.9802
3.7049 -2.6889 -1.9951 0.9802
3.9299 -2.3478 -1.9951 0.9802
4.1236 -1.9879 -1.9951 0.9802
4.2844 -1.6123 -1.9951 0.9802
4.4111 -1.2238 -1.9950 0.9802
4.5026 -0.8255 -1.9950 0.9802
4.5605 0.3958 -1.9950 0.9802
4.4177 1.1997 -1.9950 0.9802
4.2931 1.5889 -1.9951 0.9802
3.4668 2.9897 -1.9951 0.9802
3.1864 3.2870 -1.9951 0.9802
2.1978 4.0044 -1.9908 0.9803
1.4017 4.1827 -1.9225 0.9809
0.9969 4.1808 -1.8731 0.9814
0.6101 4.1848 -1.8431 0.9817
-0.5194 4.1973 -1.8432 0.9817
-0.8927 4.1390 -1.8453 0.9817
-1.2815 4.1176 -1.8794 0.9814
-1.6889 4.0969 -1.9313 0.9808
-2.4645 3.8483 -1.9916 0.9803
-2.8031 3.6199 -1.9953 0.9802
-3.4020 3.0648 -1.9956 0.9802
-3.8924 2.4117 -1.9956 0.9802
3.9955 -1.6165 -1.9951 0.9812
4.1237 -1.2537 -1.9951 0.9812
4.2191 -0.8810 -1.9951 0.9812
4.3084 -0.1175 -1.9950 0.9812
4.3018 0.2672 -1.9950 0.9812
4.1859 1.0271 -1.9951 0.9812
2.1660 3.7266 -1.9952 0.9812
1.4656 4.0413 -1.9898 0.9812
0.3329 4.1525 -1.9283 0.9818
-0.7833 4.1198 -1.9411 0.9817
-1.1674 4.1031 -1.9746 0.9814
-1.8938 3.8633 -1.9916 0.9812
-2.5551 3.4723 -1.9955 0.9812
-3.1313 2.9633 -1.9956 0.9812
-3.8041 2.0288 -1.9956 0.9812
-1.2685 0.2864 -0.6019 0.9943
-1.2751 0.1703 -0.5955 0.9943
-1.2687 -0.2896 -0.6024 0.9943
-1.2677 -0.4113 -0.6169 0.9941
-3.7992 -2.0378 -1.9956 0.9812
-3.6023 -2.3685 -1.9956 0.9812
-2.8311 -2.6920 -1.8083 0.9829
-2.4074 -2.7378 -1.6875 0.9841
-1.0198 -2.6762 -1.3257 0.9875
-0.2577 -2.6703 -1.2418 0.9882
-0.0183 -2.6499 -1.2266 0.9884
0.2207 -2.6727 -1.2414 0.9882
0.4761 -2.7457 -1.2899 0.9878
1.1123 -4.1645 -1.9953 0.9812
3.0823 -3.0129 -1.9951 0.9812
3.3386 -2.7260 -1.9951 0.9812
4.0809 -1.3866 -1.9951 0.9812
4.2623 -0.6396 -1.9951 0.9812
4.1207 1.2636 -1.9951 0.9812
3.8307 1.9755 -1.9951 0.9812
3.6393 2.3093 -1.9951 0.9812
3.4189 2.6247 -1.9951 0.9812
2.8983 3.1903 -1.9951 0.9812
2.6023 3.4361 -1.9952 0.9812
2.2855 3.6545 -1.9952 0.9812
1.9488 3.8404 -1.9934 0.9812
0.4689 4.1549 -1.9355 0.9817
0.0958 4.1475 -1.9203 0.9819
-0.2743 4.1376 -1.9195 0.9819
-0.6467 4.1250 -1.9327 0.9818
-1.7669 3.9207 -1.9906 0.9812
-3.0337 3.0631 -1.9956 0.9812
-1.2627 0.4520 -0.6208 0.9941
-1.2734 0.2122 -0.5976 0.9943
-1.2720 0.0966 -0.5905 0.9944
-1.2614 -0.0170 -0.5840 0.9945
-1.2562 -0.4882 -0.6238 0.9941
-3.6771 -2.2507 -1.9956 0.9812
-2.5859 -2.7555 -1.7492 0.9835
-2.1428 -2.7362 -1.6087 0.9848
-1.7713 -2.7329 -1.5075 0.9857
-0.5950 -2.6875 -1.2741 0.9879
-0.3464 -2.6789 -1.2503 0.9882
0.6957 -2.9899 -1.4210 0.9866
1.7071 -3.9580 -1.9952 0.9812
2.0533 -3.7899 -1.9952 0.9812
2.3830 -3.5917 -1.9952 0.9812
2.6938 -3.3648 -1.9952 0.9812
2.9831 -3.1111 -1.9951 0.9812
3.7001 -2.2105 -1.9951 0.9812
3.8825 -1.8717 -1.9951 0.9812
4.0339 -1.5180 -1.9951 0.9812
4.2394 -0.7772 -1.9951 0.9812
4.3100 -0.0118 -1.9950 0.9812
4.2939 0.3726 -1.9951 0.9812
4.2436 0.7541 -1.9951 0.9812
4.1594 1.1295 -1.9951 0.9812
3.8926 1.8505 -1.9951 0.9812
3.7121 2.1903 -1.9951 0.9812
3.2641 2.8149 -1.9951 0.9812
2.7121 3.3500 -1.9952 0.9812
1.7256 3.9415 -1.9916 0.9812
1.3656 4.0748 -1.9892 0.9812
0.9921 4.1609 -1.9800 0.9813
-0.1401 4.1415 -1.9181 0.9819
-0.8876 4.1155 -1.9488 0.9816
-1.6383 3.9742 -1.9898 0.9812
-1.9887 3.8171 -1.9923 0.9812
-2.3247 3.6301 -1.9953 0.9812
-2.6395 3.4086 -1.9955 0.9812
-3.4477 2.5884 -1.9956 0.9812
-3.8527 1.9348 -1.9956 0.9812
-1.2546 0.4954 -0.6244 0.9941
3.6193 -1.8556 -1.9951 0.9820
3.7704 -1.5254 -1.9951 0.9820
3.8914 -1.1831 -1.9951 0.9820
3.9814 -0.8314 -1.9951 0.9820
4.0594 0.2521 -1.9951 0.9820
4.0207 0.6132 -1.9951 0.9820
3.9501 0.9693 -1.9951 0.9820
3.7151 1.6556 -1.9951 0.9820
3.5526 1.9803 -1.9951 0.9820
3.3619 2.2892 -1.9951 0.9820
3.1444 2.5800 -1.9951 0.9820
2.9018 2.8501 -1.9951 0.9820
2.6361 3.0976 -1.9952 0.9820
2.0440 3.5167 -1.9952 0.9820
1.7222 3.6850 -1.9952 0.9820
1.0383 3.9252 -1.9916 0.9821
0.3241 4.0427 -1.9894 0.9821
-0.3992 4.0356 -1.9892 0.9821
-1.4558 3.7930 -1.9929 0.9821
-1.7903 3.6522 -1.9952 0.9820
-2.6937 3.0486 -1.9955 0.9820
-2.9549 2.7963 -1.9956 0.9820
-3.4047 2.2269 -1.9956 0.9820
-1.1019 0.5877 -0.6126 0.9945
-1.1072 0.4690 -0.5898 0.9947
-1.1285 0.3632 -0.5815 0.9947
-1.1441 0.1528 -0.5662 0.9949
-1.1407 0.0496 -0.5601 0.9949
-1.1410 -0.0523 -0.5603 0.9949
-1.1440 -0.1556 -0.5663 0.9949
-1.1064 -0.4717 -0.5900 0.9947
-3.1865 -2.5293 -1.9956 0.9820
-2.9482 -2.8033 -1.9956 0.9820
-1.6467 -2.7305 -1.5641 0.9859
-1.3198 -2.7088 -1.4780 0.9867
-1.0221 -2.6820 -1.4079 0.9873
-0.5031 -2.6812 -1.3381 0.9879
-0.2650 -2.7459 -1.3532 0.9878
-0.0181 -2.6224 -1.2864 0.9884
0.2191 -2.6527 -1.3057 0.9882
1.0496 -3.9299 -1.9953 0.9820
1.7310 -3.6808 -1.9952 0.9820
2.0523 -3.5118 -1.9952 0.9820
2.3573 -3.3147 -1.9952 0.9820
2.6435 -3.0913 -1.9952 0.9820
3.1506 -2.5724 -1.9951 0.9820
3.3674 -2.2812 -1.9951 0.9820
3.5574 -1.9718 -1.9951 0.9820
4.0385 0.4827 -1.9951 0.9820
3.9794 0.8409 -1.9951 0.9820
3.8885 1.1924 -1.9951 0.9820
3.7667 1.5344 -1.9951 0.9820
2.9926 2.7547 -1.9951 0.9820
2.7350 3.0106 -1.9952 0.9820
1.1652 3.8908 -1.9923 0.9821
0.8130 3.9761 -1.9907 0.9821
0.0936 4.0540 -1.9891 0.9821
-0.2683 4.0461 -1.9891 0.9821
-0.6282 4.0072 -1.9896 0.9821
-1.3318 3.8368 -1.9922 0.9821
-1.9955 3.5450 -1.9955 0.9820
-2.3037 3.3530 -1.9955 0.9820
-2.5936 3.1342 -1.9955 0.9820
-2.8628 2.8905 -1.9956 0.9820
-3.1092 2.6237 -1.9956 0.9820
-3.3308 2.3360 -1.9956 0.9820
-3.5258 2.0297 -1.9956 0.9820
-1.0951 0.5062 -0.5918 0.9946
-1.1329 0.2946 -0.5742 0.9948
-1.1435 0.0869 -0.5625 0.9949
-1.1362 -0.0153 -0.5574 0.9950
-1.1317 -0.3271 -0.5779 0.9948
-1.0869 -0.5384 -0.5950 0.9946
-3.0279 -2.6979 -1.9893 0.9821
-1.7727 -2.7351 -1.5988 0.9856
-1.1265 -2.6908 -1.4309 0.9871
-0.5894 -2.6621 -1.3374 0.9879
-0.1032 -2.6250 -1.2886 0.9884
0.1361 -2.7191 -1.3355 0.9879
0.3791 -2.7034 -1.3391 0.9879
0.6832 -2.9362 -1.4788 0.9867
1.6109 -3.7350 -1.9952 0.9820
1.9376 -3.5764 -1.9952 0.9820
4.0006 -0.7335 -1.9951 0.9820
4.0500 -0.3738 -1.9951 0.9820
4.0672 -0.0111 -1.9951 0.9820
4.0520 0.3516 -1.9951 0.9820
4.0045 0.7116 -1.9951 0.9820
3.9251 1.0659 -1.9951 0.9820
3.8144 1.4117 -1.9951 0.9820
3.5030 2.0669 -1.9951 0.9820
3.3048 2.3710 -1.9951 0.9820
2.8310 2.9204 -1.9952 0.9820
2.5593 3.1613 -1.9952 0.9820
1.6313 3.7261 -1.9952 0.9820
0.9415 3.9487 -1.9912 0.9821
0.2249 4.0491 -1.9892 0.9821
-0.1371 4.0526 -1.9890 0.9821
-0.4981 4.0249 -1.9894 0.9821
-1.2065 3.8767 -1.9916 0.9821
-1.5489 3.7573 -1.9935 0.9821
-1.8797 3.6078 -1.9955 0.9820
-2.7677 2.9816 -1.9955 0.9820
-1.0887 0.5468 -0.5976 0.9946
3.2521 -2.0528 -1.9951 0.9828
3.5650 -1.4423 -1.9951 0.9828
3.6794 -1.1187 -1.9951 0.9828
3.7645 -0.7861 -1.9951 0.9828
3.8383 0.2384 -1.9951 0.9828
3.8018 0.5798 -1.9951 0.9828
3.6383 1.2459 -1.9951 0.9828
3.5127 1.5654 -1.9951 0.9828
3.3592 1.8724 -1.9951 0.9828
3.1788 2.1646 -1.9951 0.9828
2.4925 2.9289 -1.9952 0.9828
2.2214 3.1395 -1.9952 0.9828
1.9326 3.3251 -1.9952 0.9828
1.6284 3.4843 -1.9952 0.9828
1.3112 3.6157 -1.9953 0.9828
0.6476 3.7883 -1.9938 0.9828
0.3070 3.8294 -1.9930 0.9828
-0.0357 3.8409 -1.9927 0.9828
-0.7177 3.7751 -1.9935 0.9828
-1.3783 3.5910 -1.9954 0.9828
-1.6931 3.4538 -1.9955 0.9828
-1.9943 3.2891 -1.9955 0.9828
-2.2797 3.0982 -1.9955 0.9828
-0.9578 0.5108 -0.5632 0.9951
-0.9939 0.4210 -0.5600 0.9951
-1.0250 0.2314 -0.5451 0.9953
-1.0245 -0.2339 -0.5451 0.9953
-2.7876 -2.6506 -1.9955 0.9828
-2.0087 -2.7435 -1.7640 0.9848
-1.6480 -2.7326 -1.6555 0.9857
-1.0249 -2.6895 -1.4932 0.9871
