ply
format ascii 1.0
element vertex 1377
property float32 x
property float32 y
property float32 z
property float32 I
end_header
4.8395 6.9168 1.4885 0.9663
6.7152 11.6921 2.3775 0.9467
1.9977 12.0206 2.1486 0.9517
0.9071 11.9878 2.1198 0.9523
-3.4242 11.8576 2.1763 0.9511
-4.5896 11.8226 2.2362 0.9498
-5.8310 11.7853 2.3185 0.9480
-4.3658 7.1428 1.4761 0.9666
1.4142 12.0030 2.1311 0.9521
0.3366 11.9707 2.1116 0.9525
-0.7297 11.9386 2.1090 0.9526
-4.0359 11.8393 2.2055 0.9505
-5.2384 11.8031 2.2770 0.9489
-13.4813 13.7824 3.3995 0.9247
5.5944 12.1287 2.0462 0.9474
1.9977 12.0206 1.8667 0.9519
0.9071 11.9878 1.8417 0.9525
-0.1631 11.9556 1.8317 0.9528
-1.2301 11.9236 1.8363 0.9527
-2.3112 11.8911 1.8557 0.9522
-3.4242 11.8576 1.8908 0.9513
-4.3543 7.1241 1.2791 0.9668
6.1688 12.0268 2.0707 0.9468
3.6759 12.0710 1.9331 0.9502
1.4142 12.0030 1.8515 0.9523
0.3366 11.9707 1.8346 0.9527
-0.7297 11.9386 1.8323 0.9528
-1.8020 11.9064 1.8448 0.9524
-2.8978 11.8735 1.8723 0.9517
-4.0359 11.8393 1.9162 0.9506
4.8167 6.8843 1.0941 0.9667
5.5944 12.1287 1.7393 0.9475
3.1618 12.1866 1.6395 0.9505
-0.1649 12.0866 1.5741 0.9524
-4.5979 11.8439 1.6545 0.9500
-4.3430 7.1055 1.0844 0.9670
7.6963 12.1919 1.8775 0.9435
6.2309 12.1478 1.7779 0.9464
2.5483 12.1682 1.6189 0.9511
0.3403 12.1018 1.5765 0.9523
-2.9295 12.0035 1.6090 0.9514
-4.0801 11.9690 1.6467 0.9503
-5.2384 11.8031 1.6816 0.9492
-9.5378 11.6701 1.9627 0.9410
4.8060 6.8690 0.9002 0.9668
6.9901 12.1706 1.5071 0.9451
-0.1649 12.0866 1.2980 0.9525
-2.3365 12.0214 1.3150 0.9519
-4.6398 11.9521 1.3768 0.9497
-3.6462 -19.4232 2.1221 0.9236
-1.8731 -19.3699 2.0897 0.9247
3.7162 12.2033 1.3698 0.9500
2.5483 12.1682 1.3350 0.9512
1.4297 12.1345 1.3120 0.9520
-0.7377 12.0694 1.2985 0.9525
-1.8218 12.0368 1.3073 0.9522
-4.0801 11.9690 1.3579 0.9504
-4.7507 7.0037 0.9088 0.9665
4.7948 6.8530 0.7080 0.9670
7.1385 12.4290 1.2133 0.9441
4.4095 12.3470 1.1099 0.9487
2.0196 12.1523 1.0428 0.9518
-0.1676 12.2866 1.0402 0.9519
-2.3752 12.2203 1.0538 0.9513
-3.4618 11.9875 1.0562 0.9511
-4.7166 12.1499 1.1033 0.9490
-4.3392 7.0994 0.7043 0.9672
-3.6462 -19.4232 1.6730 0.9237
-1.8731 -19.3699 1.6474 0.9249
6.3540 12.3878 1.1786 0.9456
4.9867 12.3143 1.1247 0.9481
2.5905 12.3695 1.0698 0.9505
1.4297 12.1345 1.0343 0.9521
-1.8519 12.2360 1.0476 0.9515
-5.2958 11.9324 1.1051 0.9489
-4.7242 6.9645 0.7124 0.9668
-13.4123 13.7118 1.6237 0.9259
6.0435 13.1023 0.8947 0.9438
4.4095 12.3470 0.8130 0.9488
2.0196 12.1523 0.7639 0.9518
0.9170 12.1191 0.7537 0.9525
-0.1676 12.2866 0.7620 0.9519
-3.4618 11.9875 0.7737 0.9512
-4.7166 12.1499 0.8082 0.9491
5.1968 12.8330 0.8586 0.9460
3.7162 12.2033 0.7910 0.9502
2.5905 12.3695 0.7837 0.9506
-2.9295 12.0035 0.7662 0.9517
-4.0801 11.9690 0.7841 0.9506
-5.2958 11.9324 0.8095 0.9490
-13.4221 13.7219 1.1903 0.9260
4.7839 6.8373 0.3290 0.9671
7.5154 13.0852 0.5950 0.9414
4.4095 12.3470 0.5170 0.9489
0.9170 12.1191 0.4792 0.9525
-1.2436 12.0542 0.4778 0.9526
-2.3752 12.2203 0.4909 0.9514
-4.7166 12.1499 0.5139 0.9492
6.7571 13.1738 0.5838 0.9425
5.1968 12.8330 0.5459 0.9461
1.4297 12.1345 0.4818 0.9523
-2.9295 12.0035 0.4872 0.9517
-5.2958 11.9324 0.5148 0.9491
-4.6633 6.8747 0.3276 0.9673
-13.4388 13.7389 0.7578 0.9260
4.7805 6.8326 0.1409 0.9672
7.5154 13.0852 0.2549 0.9414
6.0504 13.1173 0.2440 0.9438
4.4095 12.3470 0.2215 0.9489
2.0196 12.1523 0.2081 0.9519
0.8811 11.6442 0.1973 0.9544
-0.1676 12.2866 0.2076 0.9520
-1.2436 12.0542 0.2047 0.9527
-2.3752 12.2203 0.2103 0.9514
-3.4618 11.9875 0.2108 0.9513
-4.7166 12.1499 0.2202 0.9492
-4.3634 7.1389 0.1413 0.9671
1.5026 -18.3000 0.3102 0.9292
6.7571 13.1738 0.2501 0.9425
5.1968 12.8330 0.2339 0.9461
3.7162 12.2033 0.2155 0.9502
1.4297 12.1345 0.2064 0.9523
-0.7377 12.0694 0.2043 0.9528
-1.8519 12.2360 0.2090 0.9517
-4.0801 11.9690 0.2136 0.9507
-4.6320 6.8286 0.1394 0.9675
-13.4613 13.7619 0.3252 0.9259
7.5154 13.0852 -0.0850 0.9414
6.0504 13.1173 -0.0813 0.9439
0.8697 11.4941 -0.0649 0.9549
-1.2436 12.0542 -0.0682 0.9527
-5.1496 -18.2705 -0.1069 0.9269
-3.3864 -18.0390 -0.1033 0.9292
-1.7517 -18.1146 -0.1025 0.9298
-0.1307 -18.0561 -0.1017 0.9303
3.1218 -18.0678 -0.1032 0.9293
4.7683 -17.9064 -0.1043 0.9286
7.9756 12.6342 -0.0841 0.9420
3.7162 12.2033 -0.0718 0.9503
2.5483 12.1682 -0.0700 0.9515
1.4297 12.1345 -0.0688 0.9523
0.3228 11.4778 -0.0646 0.9551
-0.7377 12.0694 -0.0681 0.9528
-2.9295 12.0035 -0.0696 0.9518
-4.6222 6.8142 -0.0464 0.9676
-13.4833 13.7844 -0.1086 0.9258
6.0669 13.1530 -0.4079 0.9437
2.8588 11.0187 -0.3205 0.9555
-0.1649 12.0866 -0.3404 0.9528
-3.4046 11.7895 -0.3455 0.9521
-4.5550 11.7336 -0.3544 0.9509
-5.7872 11.6966 -0.3675 0.9491
-4.3769 7.1611 -0.2363 0.9670
-6.8232 -17.9158 -0.5398 0.9262
-5.0905 -18.0609 -0.5284 0.9277
-0.1295 -17.8971 -0.5040 0.9309
1.4606 -17.7886 -0.5026 0.9311
3.0691 -17.7630 -0.5076 0.9304
6.5414 -17.9528 -0.5380 0.9264
7.0751 -15.0841 -0.4691 0.9355
6.7388 13.1380 -0.4158 0.9426
4.3706 10.7929 -0.3279 0.9545
3.2872 10.7943 -0.3177 0.9559
1.3497 11.4555 -0.3248 0.9549
-1.8218 12.0368 -0.3428 0.9525
-2.9095 11.9214 -0.3455 0.9521
-4.0056 11.7502 -0.3496 0.9515
-5.1990 11.7143 -0.3609 0.9500
-13.5426 13.8450 -0.5453 0.9254
6.0669 13.1530 -0.7346 0.9436
3.7451 10.4867 -0.5647 0.9564
1.8086 10.8826 -0.5595 0.9568
0.8922 11.7911 -0.5997 0.9537
-0.1619 11.8657 -0.6018 0.9536
-1.2209 11.8338 -0.6033 0.9535
-2.2938 11.8016 -0.6097 0.9530
-3.3985 11.7684 -0.6212 0.9521
-4.5550 11.7336 -0.6383 0.9508
-5.7872 11.6966 -0.6618 0.9491
-5.0646 -17.9691 -0.9468 0.9280
4.7202 -17.7257 -0.9303 0.9292
6.7571 13.1738 -0.7509 0.9424
4.2528 10.5020 -0.5746 0.9556
3.1884 10.4700 -0.5550 0.9571
-0.7242 11.8488 -0.6020 0.9536
-1.7885 11.8168 -0.6061 0.9533
-2.8760 11.7841 -0.6152 0.9526
-5.1990 11.7143 -0.6500 0.9500
-4.6224 6.8145 -0.4176 0.9676
-13.5702 13.8732 -0.9842 0.9252
-12.6524 10.8154 -0.8441 0.9355
4.8144 6.8810 -0.6158 0.9669
6.0669 13.1530 -1.0621 0.9436
3.7451 10.4867 -0.8165 0.9563
1.7622 10.6033 -0.7881 0.9578
0.8980 11.8685 -0.8727 0.9534
-2.1460 11.0412 -0.8247 0.9559
-3.3985 11.7684 -0.8981 0.9521
-4.5550 11.7336 -0.9229 0.9508
-5.7872 11.6966 -0.9569 0.9490
-12.8871 14.4890 -1.4218 0.9252
-6.7203 -17.6456 -1.3845 0.9271
-1.7180 -17.7662 -1.3087 0.9309
-0.1305 -18.0276 -1.3219 0.9302
1.4702 -17.9049 -1.3172 0.9305
3.0390 -17.5885 -1.3087 0.9309
5.9565 -16.3476 -1.2757 0.9326
6.7571 13.1738 -1.0856 0.9423
1.3549 11.4994 -0.8490 0.9546
-1.7885 11.8168 -0.8763 0.9532
-2.8760 11.7841 -0.8894 0.9525
-4.0056 11.7502 -0.9102 0.9514
-12.6525 10.8155 -1.2205 0.9354
12.3629 14.6878 -1.8431 0.9258
7.4902 13.0414 -1.4439 0.9414
6.0435 13.1023 -1.3853 0.9437
1.7648 10.6192 -1.0335 0.9577
0.8013 10.5902 -1.0196 0.9582
-0.1619 11.8657 -1.1393 0.9534
-2.1444 11.0330 -1.0790 0.9558
-4.5550 11.7336 -1.2084 0.9507
-7.5513 12.3546 -1.3901 0.9435
-11.4310 15.4243 -1.8431 0.9258
-12.7591 14.3452 -1.8431 0.9258
-11.3320 -15.4972 -1.8431 0.9258
-9.9071 -16.4447 -1.8431 0.9258
-8.4034 -17.2615 -1.8431 0.9258
-6.7203 -17.6456 -1.8128 0.9269
-3.2953 -17.5542 -1.7147 0.9307
-1.6934 -17.5115 -1.6890 0.9317
1.4310 -17.4281 -1.6788 0.9321
3.0040 -17.3861 -1.6939 0.9316
5.9609 -16.3595 -1.6716 0.9324
13.3251 10.1519 -1.6082 0.9349
4.5332 7.1811 -0.8153 0.9665
-0.6762 11.0630 -1.0641 0.9564
-1.7885 11.8168 -1.1474 0.9531
-5.1990 11.7143 -1.2304 0.9498
-12.1491 14.8653 -1.8431 0.9258
16.1058 -4.7710 -1.9953 0.9346
16.4667 -3.3179 -1.9953 0.9346
16.6967 -1.8384 -1.9953 0.9346
16.7580 1.1524 -1.9953 0.9346
16.5889 2.6401 -1.9953 0.9346
14.6232 8.2658 -1.9953 0.9346
12.7742 8.8077 -1.8431 0.9394
11.0093 10.9340 -1.8431 0.9394
4.8419 6.9203 -1.0033 0.9666
7.4902 13.0414 -1.7865 0.9412
6.0435 13.1023 -1.7140 0.9435
2.8241 10.8852 -1.3358 0.9557
1.7648 10.6192 -1.2787 0.9576
0.8013 10.5902 -1.2616 0.9581
-0.1619 11.8657 -1.4096 0.9533
-2.1460 11.0412 -1.3361 0.9557
-3.1733 10.9888 -1.3586 0.9550
-5.7872 11.6966 -1.5502 0.9488
-7.5762 12.3954 -1.7256 0.9432
-12.2052 9.5809 -1.8431 0.9394
-13.0098 8.4561 -1.8431 0.9394
-16.3940 3.6610 -1.9953 0.9346
-16.6549 2.1866 -1.9953 0.9346
-16.7786 -0.8023 -1.9953 0.9346
-16.6405 -2.2932 -1.9953 0.9346
-16.3702 -3.7659 -1.9953 0.9346
-15.9699 -5.2086 -1.9953 0.9346
-15.4426 -6.6100 -1.9953 0.9346
-14.0252 -9.2444 -1.9953 0.9346
-13.1464 -10.4565 -1.9953 0.9346
-9.9150 -13.5594 -1.9953 0.9346
-5.6919 -14.9451 -1.8997 0.9376
-4.2094 -14.9346 -1.8431 0.9394
-2.8628 -15.2500 -1.8431 0.9394
1.2698 -15.4644 -1.8431 0.9394
5.3392 -14.6534 -1.8526 0.9391
8.4466 -14.4910 -1.9924 0.9347
9.7177 -13.7014 -1.9953 0.9346
10.8991 -12.7816 -1.9953 0.9346
11.9940 -11.7604 -1.9953 0.9346
12.9935 -10.6456 -1.9953 0.9346
13.8898 -9.4463 -1.9953 0.9346
14.6758 -8.1720 -1.9953 0.9346
15.8926 -5.4392 -1.9953 0.9346
16.3138 -4.0024 -1.9953 0.9346
16.6054 -2.5338 -1.9953 0.9346
16.7651 -1.0451 -1.9953 0.9346
16.7915 0.4519 -1.9953 0.9346
16.6846 1.9453 -1.9953 0.9346
16.4451 3.4233 -1.9953 0.9346
16.0750 4.8740 -1.9953 0.9346
11.4561 10.4649 -1.8431 0.9394
10.4787 11.4435 -1.8431 0.9394
4.5313 7.1780 -1.0083 0.9664
6.7311 13.1230 -1.7519 0.9423
4.2528 10.5020 -1.3459 0.9554
3.1884 10.4700 -1.3001 0.9569
2.2268 10.6331 -1.2905 0.9572
0.2974 10.5751 -1.2567 0.9583
-0.6775 11.0842 -1.3191 0.9563
-4.0056 11.7502 -1.4746 0.9512
-5.1990 11.7143 -1.5224 0.9497
-4.5979 6.7782 -0.9729 0.9675
-9.5975 11.7432 -1.8015 0.9407
-11.7946 10.0821 -1.8431 0.9394
-16.2269 4.3421 -1.9953 0.9346
-16.5491 2.8799 -1.9953 0.9346
-16.7398 1.3949 -1.9953 0.9346
13.0926 -5.1862 -1.9953 0.9447
13.5024 -3.9998 -1.9953 0.9447
14.0492 0.9662 -1.9953 0.9447
13.9074 2.2133 -1.9953 0.9447
13.6551 3.4429 -1.9953 0.9447
12.8278 5.8105 -1.9953 0.9447
10.7093 7.3840 -1.8431 0.9488
10.0093 8.3083 -1.8431 0.9488
9.2297 9.1666 -1.8431 0.9488
8.3768 9.9520 -1.8431 0.9488
4.8699 6.9603 -1.2036 0.9663
5.4485 11.8122 -1.8431 0.9488
1.7648 10.6192 -1.5253 0.9574
0.8013 10.5902 -1.5048 0.9580
-1.2209 11.8338 -1.6856 0.9531
-2.1477 11.0502 -1.5950 0.9555
-3.1733 10.9888 -1.6206 0.9548
-4.5550 11.7336 -1.7834 0.9504
-6.7840 11.0993 -1.8431 0.9488
-8.6452 9.7199 -1.8431 0.9488
-10.2322 8.0322 -1.8431 0.9488
-10.9068 7.0892 -1.8431 0.9488
-11.4948 6.0898 -1.8431 0.9488
-13.4161 4.2808 -1.9953 0.9447
-13.7440 3.0692 -1.9953 0.9447
-13.9627 1.8331 -1.9953 0.9447
-14.0664 -0.6727 -1.9953 0.9447
-13.7240 -3.1571 -1.9953 0.9447
-13.3884 -4.3667 -1.9953 0.9447
-12.9464 -5.5415 -1.9953 0.9447
-1.9067 -3.1650 -0.5235 0.9852
-1.6381 -3.3649 -0.5303 0.9850
-1.3782 -3.6187 -0.5487 0.9845
-3.8203 -13.5544 -1.9953 0.9447
-2.5982 -13.8407 -1.9953 0.9447
-0.1019 -14.0821 -1.9953 0.9447
4.8211 -13.2315 -1.9953 0.9447
5.9801 -12.7496 -1.9953 0.9447
7.0917 -12.1664 -1.9953 0.9447
8.1469 -11.4866 -1.9953 0.9447
11.6446 -7.9194 -1.9953 0.9447
13.3237 -4.5599 -1.9953 0.9447
14.0551 -0.8762 -1.9953 0.9447
14.0773 0.3788 -1.9953 0.9447
13.9876 1.6309 -1.9953 0.9447
13.7868 2.8699 -1.9953 0.9447
13.0591 5.2700 -1.9953 0.9447
10.3474 7.8832 -1.8431 0.9488
8.7849 9.5937 -1.8431 0.9488
7.8958 10.3378 -1.8431 0.9488
4.5273 7.1717 -1.2017 0.9663
5.9368 11.5745 -1.8431 0.9488
4.2632 10.5277 -1.6093 0.9552
3.6483 11.9802 -1.7744 0.9507
2.2268 10.6331 -1.5393 0.9571
-1.7885 11.8168 -1.6934 0.9529
-5.1990 11.7143 -1.8159 0.9495
-4.5950 6.7740 -1.1598 0.9675
-8.2319 10.0723 -1.8431 0.9488
-9.0961 9.2993 -1.8431 0.9488
-9.8880 8.4524 -1.8431 0.9488
-10.6014 7.5383 -1.8431 0.9488
-11.2305 6.5644 -1.8431 0.9488
-13.2257 4.8371 -1.9953 0.9447
11.2608 -4.4606 -1.9953 0.9521
11.8734 -2.3924 -1.9953 0.9521
12.1095 -0.2483 -1.9953 0.9521
11.9615 1.9036 -1.9953 0.9521
11.4341 3.9952 -1.9953 0.9521
9.2109 6.3509 -1.8431 0.9557
7.9383 7.8840 -1.8431 0.9557
7.2047 8.5596 -1.8431 0.9557
4.5136 7.8588 -1.4930 0.9639
4.6861 10.1595 -1.8431 0.9557
1.7680 10.6382 -1.7766 0.9572
-0.1526 11.1871 -1.8431 0.9557
-1.1482 11.1291 -1.8431 0.9557
-3.1041 10.7490 -1.8431 0.9557
-4.9615 10.0279 -1.8431 0.9557
-5.0084 6.7581 -1.3857 0.9665
-8.1505 7.6646 -1.8431 0.9557
-8.8006 6.9084 -1.8431 0.9557
-9.8865 5.2377 -1.8431 0.9557
-11.8210 2.6397 -1.9953 0.9521
-12.0090 1.5767 -1.9953 0.9521
-11.8038 -2.7154 -1.9953 0.9521
-11.5151 -3.7557 -1.9953 0.9521
-11.1350 -4.7661 -1.9953 0.9521
-10.6663 -5.7387 -1.9953 0.9521
-9.4792 -7.5397 -1.9953 0.9521
-3.7790 -3.5997 -0.8598 0.9791
-2.6119 -2.9748 -0.6522 0.9841
-2.1847 -2.9877 -0.6097 0.9851
-1.5276 -3.1379 -0.5749 0.9860
-1.2589 -3.3054 -0.5827 0.9858
-1.0527 -3.7349 -0.6393 0.9844
-2.2347 -11.9041 -1.9953 0.9521
-1.1658 -12.0558 -1.9953 0.9521
-0.0877 -12.1117 -1.9953 0.9521
0.9912 -12.0714 -1.9953 0.9521
5.1434 -10.9657 -1.9953 0.9521
7.8589 -9.2163 -1.9953 0.9521
8.6483 -8.4799 -1.9953 0.9521
9.3690 -7.6761 -1.9953 0.9521
10.5821 -5.8925 -1.9953 0.9521
11.0647 -4.9268 -1.9953 0.9521
11.4595 -3.9219 -1.9953 0.9521
11.9734 -1.8270 -1.9953 0.9521
12.1076 0.3258 -1.9953 0.9521
12.0305 1.4027 -1.9953 0.9521
11.8578 2.4684 -1.9953 0.9521
11.5909 3.5144 -1.9953 0.9521
10.7792 5.5124 -1.9945 0.9521
8.8996 6.7802 -1.8431 0.9557
8.2605 7.5458 -1.8431 0.9557
6.7910 8.8914 -1.8431 0.9557
5.1061 9.9550 -1.8431 0.9557
3.2593 10.7029 -1.8431 0.9557
2.2379 10.6860 -1.7986 0.9567
-0.6605 10.8065 -1.7836 0.9571
-1.6743 11.0622 -1.8431 0.9557
-2.6527 10.8692 -1.8431 0.9557
-3.6100 10.5898 -1.8431 0.9557
-5.4312 9.7815 -1.8431 0.9557
-5.5378 6.7758 -1.4416 0.9651
-8.5045 7.2697 -1.8431 0.9557
-9.1181 6.4836 -1.8431 0.9557
-11.7005 3.1309 -1.9953 0.9521
-11.9328 2.0766 -1.9953 0.9521
-12.0703 1.0058 -1.9953 0.9521
-12.1119 -0.0730 -1.9953 0.9521
9.8695 -3.9095 -1.9953 0.9577
10.1784 -3.0151 -1.9953 0.9577
10.5519 -1.1618 -1.9953 0.9577
10.5906 0.7283 -1.9953 0.9577
9.6699 4.3801 -1.9953 0.9577
8.5429 4.8289 -1.8445 0.9608
6.9576 6.9100 -1.8431 0.9609
6.3146 7.5021 -1.8431 0.9609
4.1806 7.2789 -1.5778 0.9664
3.2980 9.2347 -1.8431 0.9609
2.4626 9.4917 -1.8431 0.9609
0.7399 9.7780 -1.8431 0.9609
-0.1338 9.8050 -1.8431 0.9609
-1.0063 9.7542 -1.8431 0.9609
-1.8709 9.6258 -1.8431 0.9609
-3.5487 9.1413 -1.8431 0.9609
-4.1956 6.8645 -1.5122 0.9678
-7.7133 6.0549 -1.8431 0.9609
-8.2218 5.3440 -1.8431 0.9609
-9.7858 4.1147 -1.9953 0.9577
-10.5254 1.3819 -1.9953 0.9577
-10.0925 -3.2917 -1.9953 0.9577
-9.7593 -4.1773 -1.9953 0.9577
-9.3485 -5.0297 -1.9953 0.9577
-8.8635 -5.8422 -1.9953 0.9577
-3.0696 -2.9238 -0.7968 0.9829
-2.5685 -2.9253 -0.7317 0.9843
-2.1491 -2.9390 -0.6843 0.9853
-1.4504 -2.9792 -0.6228 0.9866
-0.9775 -3.4681 -0.6773 0.9854
0.8687 -10.5801 -1.9953 0.9577
1.8074 -10.4607 -1.9953 0.9577
2.7317 -10.2582 -1.9953 0.9577
3.6343 -9.9742 -1.9953 0.9577
4.5080 -9.6110 -1.9953 0.9577
5.3459 -9.1714 -1.9953 0.9577
7.5798 -7.4322 -1.9953 0.9577
9.6977 -4.3181 -1.9953 0.9577
10.0437 -3.4374 -1.9953 0.9577
10.3099 -2.5294 -1.9953 0.9577
10.4942 -1.6013 -1.9953 0.9577
10.3929 2.1634 -1.9953 0.9577
10.1589 3.0802 -1.9953 0.9577
7.8001 5.9426 -1.8431 0.9609
7.2399 6.6135 -1.8431 0.9609
6.6223 7.2319 -1.8431 0.9609
5.1172 6.6999 -1.5846 0.9663
3.6806 9.0890 -1.8431 0.9609
2.8566 9.3806 -1.8431 0.9609
2.0100 9.5977 -1.8431 0.9609
-1.4674 9.6955 -1.8431 0.9609
-2.3249 9.5263 -1.8431 0.9609
-9.5899 4.5123 -1.9921 0.9578
-10.2549 2.7441 -1.9953 0.9577
-10.5791 0.8815 -1.9953 0.9577
-10.6155 -0.0640 -1.9953 0.9577
9.0508 -2.6811 -1.9953 0.9621
9.3828 -1.0331 -1.9953 0.9621
9.4173 0.6476 -1.9953 0.9621
9.3222 1.4836 -1.9953 0.9621
8.5985 3.8948 -1.9953 0.9621
8.1890 4.6289 -1.9884 0.9623
4.1448 7.2167 -1.7592 0.9665
3.6521 7.9178 -1.8431 0.9650
-1.6636 8.5593 -1.8431 0.9650
-3.1555 8.1285 -1.8431 0.9650
-4.7192 6.3678 -1.6754 0.9681
-5.7949 6.5153 -1.8431 0.9650
-6.3521 5.9734 -1.8431 0.9650
-7.3109 4.7519 -1.8431 0.9650
-8.9929 2.8695 -1.9953 0.9621
-9.4315 0.3905 -1.9953 0.9621
-9.3512 -1.2887 -1.9953 0.9621
-9.1993 -2.1162 -1.9953 0.9621
-8.6780 -3.7145 -1.9953 0.9621
-7.8815 -5.1949 -1.9953 0.9621
-3.6071 -2.8691 -0.9743 0.9813
-3.0293 -2.8855 -0.8843 0.9830
-2.1158 -2.8935 -0.7577 0.9855
-1.7538 -2.9112 -0.7184 0.9862
-1.1498 -3.0191 -0.6829 0.9869
-0.7110 -3.7876 -0.8146 0.9844
-0.9086 -9.3957 -1.9953 0.9621
0.7725 -9.4079 -1.9953 0.9621
1.6071 -9.3017 -1.9953 0.9621
2.4290 -9.1217 -1.9953 0.9621
3.2316 -8.8691 -1.9953 0.9621
4.0085 -8.5461 -1.9953 0.9621
5.4609 -7.6996 -1.9953 0.9621
7.8055 -5.3084 -1.9953 0.9621
8.2472 -4.5923 -1.9953 0.9621
9.1677 -2.2492 -1.9953 0.9621
9.3315 -1.4239 -1.9953 0.9621
9.3760 1.0932 -1.9953 0.9621
9.0334 2.7390 -1.9953 0.9621
8.4021 4.2968 -1.9948 0.9622
6.9359 5.2842 -1.8431 0.9650
6.4378 5.8808 -1.8431 0.9650
5.8886 6.4307 -1.8431 0.9650
4.2078 6.6656 -1.6662 0.9683
1.7873 8.5344 -1.8431 0.9650
1.0203 8.6596 -1.8431 0.9650
-1.3048 8.6213 -1.8431 0.9650
-2.8134 8.2532 -1.8431 0.9650
-4.1427 7.4609 -1.8039 0.9657
-8.8653 3.2423 -1.9953 0.9621
-9.1188 2.4401 -1.9953 0.9621
-9.4070 0.7839 -1.9953 0.9621
-9.4394 -0.0569 -1.9953 0.9621
7.8932 -3.1266 -1.9953 0.9657
8.3227 -1.6769 -1.9953 0.9657
8.4389 -0.9292 -1.9953 0.9657
8.4881 -0.1740 -1.9953 0.9657
8.3844 1.3344 -1.9953 0.9657
8.2323 2.0756 -1.9953 0.9657
8.0148 2.8005 -1.9953 0.9657
6.0343 5.0089 -1.8431 0.9683
4.4958 6.4257 -1.8431 0.9683
3.2847 7.1213 -1.8431 0.9683
2.6376 7.3855 -1.8431 0.9683
-0.1070 7.8416 -1.8431 0.9683
-0.8048 7.8009 -1.8431 0.9683
-3.4778 7.0290 -1.8431 0.9683
-4.6695 6.3007 -1.8431 0.9683
-5.7131 5.3725 -1.8431 0.9683
-8.0882 2.5808 -1.9953 0.9657
-8.2859 1.8503 -1.9953 0.9657
-8.4177 1.1052 -1.9953 0.9657
-8.4827 0.3512 -1.9953 0.9657
-8.4803 -0.4055 -1.9953 0.9657
-8.4105 -1.1591 -1.9953 0.9657
-8.2738 -1.9034 -1.9953 0.9657
-3.5723 -2.8414 -1.0728 0.9814
-2.0833 -2.8491 -0.8295 0.9856
-1.4041 -2.8842 -0.7539 0.9869
-1.1111 -2.9173 -0.7337 0.9873
2.1847 -8.2040 -1.9953 0.9657
3.6053 -7.6864 -1.9953 0.9657
6.0620 -5.9440 -1.9953 0.9657
6.5672 -5.3806 -1.9953 0.9657
7.7558 -3.4534 -1.9953 0.9657
8.2454 -2.0229 -1.9953 0.9657
8.4735 -0.5282 -1.9953 0.9657
8.4328 0.9832 -1.9953 0.9657
8.3117 1.7302 -1.9953 0.9657
7.8730 3.1771 -1.9953 0.9657
7.0031 4.4090 -1.9449 0.9666
5.2962 5.7838 -1.8431 0.9683
4.1804 6.6222 -1.8405 0.9683
3.5791 6.9780 -1.8431 0.9683
2.2846 7.5022 -1.8431 0.9683
1.6075 7.6758 -1.8431 0.9683
-1.1736 7.7540 -1.8431 0.9683
-1.8594 7.6187 -1.8431 0.9683
-3.1813 7.1681 -1.8431 0.9683
-6.3913 4.5446 -1.8431 0.9683
-6.9718 4.0751 -1.8979 0.9674
-7.9734 2.9162 -1.9953 0.9657
-8.2014 2.1946 -1.9953 0.9657
-8.3643 1.4556 -1.9953 0.9657
-8.4898 -0.0512 -1.9953 0.9657
7.6601 -0.8434 -1.9953 0.9687
7.6882 0.5287 -1.9953 0.9687
7.4725 1.8841 -1.9953 0.9687
7.0198 3.1797 -1.9953 0.9687
5.4775 4.5467 -1.8431 0.9710
4.5841 5.4461 -1.8431 0.9710
4.0809 5.8327 -1.8431 0.9710
2.9816 6.4641 -1.8431 0.9710
1.1670 7.0223 -1.8431 0.9710
0.5371 7.0983 -1.8431 0.9710
-1.9750 6.8391 -1.8431 0.9710
-2.5761 6.6361 -1.8431 0.9710
-3.1568 6.3804 -1.8431 0.9710
-5.1858 4.8767 -1.8431 0.9710
-5.5995 4.3955 -1.8431 0.9710
-6.1644 4.0067 -1.9036 0.9701
-7.1040 2.9871 -1.9953 0.9687
-7.3418 2.3426 -1.9953 0.9687
-7.5212 1.6796 -1.9953 0.9687
-7.6409 1.0032 -1.9953 0.9687
-7.6999 0.3188 -1.9953 0.9687
-7.6343 -1.0521 -1.9953 0.9687
-7.3266 -2.3896 -1.9953 0.9687
-3.5385 -2.8145 -1.1707 0.9815
-2.9559 -2.8156 -1.0570 0.9833
-1.7031 -2.8270 -0.8545 0.9865
-1.3855 -2.8460 -0.8196 0.9870
-0.8552 -3.0341 -0.8162 0.9871
-0.3567 -3.6884 -0.9594 0.9848
0.3278 -3.9927 -1.0373 0.9836
1.3121 -7.5939 -1.9953 0.9687
1.9831 -7.4469 -1.9953 0.9687
2.6383 -7.2407 -1.9953 0.9687
3.8808 -6.6579 -1.9953 0.9687
4.4583 -6.2859 -1.9953 0.9687
5.5026 -5.3954 -1.9953 0.9687
5.9612 -4.8840 -1.9953 0.9687
6.3724 -4.3338 -1.9953 0.9687
7.2912 -2.4954 -1.9953 0.9687
7.4845 -1.8362 -1.9953 0.9687
7.6182 -1.1625 -1.9953 0.9687
7.7036 0.2073 -1.9953 0.9687
7.1464 2.8839 -1.9953 0.9687
5.2558 4.8011 -1.8431 0.9710
4.8074 5.2500 -1.8431 0.9710
3.7999 6.0195 -1.8431 0.9710
3.2488 6.3340 -1.8431 0.9710
2.0738 6.8098 -1.8431 0.9710
-1.0653 7.0384 -1.8431 0.9710
-1.6878 6.9156 -1.8431 0.9710
-2.2969 6.7379 -1.8431 0.9710
-3.4556 6.2236 -1.8431 0.9710
-4.5048 5.5119 -1.8431 0.9710
-4.9777 5.0889 -1.8431 0.9710
-5.4111 4.6254 -1.8431 0.9710
-6.6360 3.8788 -1.9902 0.9687
-6.9731 3.2810 -1.9953 0.9687
-7.7063 -0.0465 -1.9953 0.9687
6.5529 -2.5957 -1.9953 0.9711
6.7580 -2.0019 -1.9953 0.9711
6.9095 -1.3922 -1.9953 0.9711
7.0468 -0.1445 -1.9953 0.9711
7.0317 0.4836 -1.9953 0.9711
6.9607 1.1078 -1.9953 0.9711
6.4204 2.9082 -1.9953 0.9711
6.1359 3.4683 -1.9953 0.9711
5.7950 3.9956 -1.9927 0.9712
5.1674 4.2892 -1.9011 0.9725
4.6195 4.5879 -1.8431 0.9733
4.1926 4.9810 -1.8431 0.9733
3.7324 5.3346 -1.8431 0.9733
1.0674 6.4226 -1.8431 0.9733
0.4912 6.4921 -1.8431 0.9733
-0.0656 4.8115 -1.3622 0.9802
-0.6681 6.4763 -1.8431 0.9733
-2.3562 6.0694 -1.8431 0.9733
-2.8873 5.8355 -1.8431 0.9733
-3.3954 5.5552 -1.8431 0.9733
-3.8766 5.2308 -1.8431 0.9733
-4.3270 4.8648 -1.8431 0.9733
-5.8949 3.8316 -1.9903 0.9712
-6.2282 3.2997 -1.9953 0.9711
-7.0403 -0.3367 -1.9953 0.9711
-6.9823 -0.9622 -1.9953 0.9711
-6.8689 -1.5802 -1.9953 0.9711
-6.7009 -2.1855 -1.9953 0.9711
-5.8850 -3.8790 -1.9953 0.9711
-3.5050 -2.7879 -1.2678 0.9816
-2.0202 -2.7627 -0.9689 0.9859
-1.6792 -2.7873 -0.9212 0.9866
-0.5937 -3.1627 -0.9110 0.9867
-0.3279 -3.3908 -0.9644 0.9859
-0.0252 -3.4838 -0.9863 0.9856
1.8137 -6.8110 -1.9953 0.9711
2.4130 -6.6224 -1.9953 0.9711
3.5494 -6.0894 -1.9953 0.9711
6.1580 -3.4290 -1.9953 0.9711
6.4389 -2.8670 -1.9953 0.9711
6.9677 -1.0632 -1.9953 0.9711
7.0458 0.1896 -1.9953 0.9711
6.9004 1.4364 -1.9953 0.9711
5.5865 4.2561 -1.9882 0.9712
4.3969 4.8017 -1.8431 0.9733
3.4754 5.5055 -1.8431 0.9733
1.8967 6.2283 -1.8431 0.9733
1.3345 6.3724 -1.8431 0.9733
0.1830 6.5081 -1.8431 0.9733
-0.2923 4.7814 -1.3561 0.9803
-2.1007 6.1625 -1.8431 0.9733
-2.6411 5.9509 -1.8431 0.9733
-3.6548 5.3881 -1.8431 0.9733
-4.5527 4.6543 -1.8431 0.9733
-4.9490 4.2305 -1.8431 0.9733
-6.0843 3.5563 -1.9951 0.9711
-6.6195 2.4210 -1.9953 0.9711
-6.8088 1.8219 -1.9953 0.9711
-7.0240 0.5853 -1.9953 0.9711
6.2200 -1.8426 -1.9953 0.9732
6.3594 -1.2814 -1.9953 0.9732
6.4482 -0.7100 -1.9953 0.9732
6.4858 -0.1330 -1.9953 0.9732
6.4719 0.4451 -1.9953 0.9732
6.4066 1.0196 -1.9953 0.9732
6.2903 1.5860 -1.9953 0.9732
5.9093 2.6767 -1.9953 0.9732
5.6474 3.1922 -1.9953 0.9732
4.9783 4.1323 -1.9900 0.9733
4.3018 4.2724 -1.8648 0.9749
3.4353 4.9099 -1.8431 0.9752
2.5099 5.4414 -1.8431 0.9752
2.0154 5.6433 -1.8431 0.9752
1.5049 5.8003 -1.8431 0.9752
0.9824 5.9113 -1.8431 0.9752
-0.0653 4.7860 -1.4722 0.9802
-2.6574 5.3709 -1.8431 0.9752
-3.1251 5.1130 -1.8431 0.9752
-3.9825 4.4776 -1.8431 0.9752
-4.3654 4.1051 -1.8431 0.9752
-5.7324 3.0370 -1.9953 0.9732
-6.3313 1.4138 -1.9953 0.9732
-6.4321 0.8445 -1.9953 0.9732
-6.4817 0.2684 -1.9953 0.9732
-6.4798 -0.3099 -1.9953 0.9732
-6.1675 -2.0116 -1.9953 0.9732
-5.9639 -2.5527 -1.9953 0.9732
-5.7129 -3.0737 -1.9953 0.9732
-3.4704 -2.7604 -1.3639 0.9816
-2.8836 -2.7467 -1.2249 0.9835
-2.4481 -2.7882 -1.1413 0.9846
-1.9963 -2.7301 -1.0403 0.9859
-1.6561 -2.7489 -0.9871 0.9867
-0.8029 -2.8487 -0.9103 0.9877
-0.5744 -3.0597 -0.9575 0.9871
-0.3044 -3.1479 -0.9727 0.9869
-0.0234 -3.2316 -0.9940 0.9866
0.2702 -3.2906 -1.0155 0.9863
0.6229 -3.6052 -1.1253 0.9848
2.7548 -5.8733 -1.9953 0.9732
4.6320 -4.5418 -1.9953 0.9732
5.9263 -2.6388 -1.9953 0.9732
6.1377 -2.1006 -1.9953 0.9732
6.3004 -1.5457 -1.9953 0.9732
6.4130 -0.9786 -1.9953 0.9732
6.4849 0.1745 -1.9953 0.9732
6.4436 0.7513 -1.9953 0.9732
6.3511 1.3221 -1.9953 0.9732
5.7758 2.9537 -1.9953 0.9732
5.1557 3.9279 -1.9936 0.9732
2.7348 5.3319 -1.8431 0.9752
2.2492 5.5543 -1.8431 0.9752
-0.2917 4.7716 -1.4704 0.9802
-1.4208 5.8215 -1.8431 0.9752
-4.1902 4.2838 -1.8431 0.9752
-4.7029 4.0201 -1.9030 0.9744
-5.2773 3.7525 -1.9917 0.9733
-5.8699 2.7619 -1.9953 0.9732
5.5808 -2.2107 -1.9953 0.9750
5.8844 -1.1857 -1.9953 0.9750
5.9666 -0.6570 -1.9953 0.9750
5.9281 0.9434 -1.9953 0.9750
5.8205 1.4676 -1.9953 0.9750
5.6667 1.9800 -1.9953 0.9750
5.2256 2.9538 -1.9953 0.9750
3.1787 4.5432 -1.8431 0.9769
1.3925 5.3671 -1.8431 0.9769
-0.5690 5.5155 -1.8431 0.9769
-1.0579 5.4430 -1.8431 0.9769
-2.4589 4.9698 -1.8431 0.9769
-2.8917 4.7311 -1.8431 0.9769
-3.3015 4.4548 -1.8431 0.9769
-4.7158 3.7018 -1.9928 0.9750
-5.3043 2.8102 -1.9953 0.9750
-5.8584 1.3082 -1.9953 0.9750
-5.9516 0.7814 -1.9953 0.9750
-5.9976 0.2483 -1.9953 0.9750
-5.8499 -1.3457 -1.9953 0.9750
-5.7069 -1.8613 -1.9953 0.9750
-5.5184 -2.3621 -1.9953 0.9750
-5.2862 -2.8441 -1.9953 0.9750
-5.0119 -3.3035 -1.9953 0.9750
-2.9085 -2.7704 -1.3352 0.9832
-2.4246 -2.7614 -1.2215 0.9846
-1.0495 -2.7556 -0.9802 0.9876
-0.7846 -2.7837 -0.9614 0.9879
0.2528 -3.0791 -1.0270 0.9871
2.0550 -5.6400 -1.9953 0.9750
3.0228 -5.1860 -1.9953 0.9750
3.4726 -4.8962 -1.9953 0.9750
3.8948 -4.5676 -1.9953 0.9750
4.2861 -4.2026 -1.9953 0.9750
4.9636 -3.3757 -1.9953 0.9750
5.4837 -2.4417 -1.9953 0.9750
5.9911 -0.3735 -1.9953 0.9750
6.0005 0.1615 -1.9953 0.9750
5.9623 0.6952 -1.9953 0.9750
5.8767 1.2233 -1.9953 0.9750
5.5665 2.2463 -1.9953 0.9750
5.3444 2.7331 -1.9953 0.9750
3.3656 4.4066 -1.8431 0.9769
2.9599 4.6887 -1.8431 0.9769
1.6153 5.3043 -1.8431 0.9769
1.1366 5.4271 -1.8431 0.9769
0.1559 5.5426 -1.8431 0.9769
-0.2911 4.7629 -1.5862 0.9801
-1.3147 5.3867 -1.8431 0.9769
-1.7891 5.2483 -1.8431 0.9769
-2.6917 4.8477 -1.8431 0.9769
-3.5089 4.2934 -1.8431 0.9769
-3.9562 4.0445 -1.8807 0.9764
-4.5500 3.8894 -1.9897 0.9751
-5.4315 2.5556 -1.9953 0.9750
-5.9820 0.4985 -1.9953 0.9750
5.4697 -1.1021 -1.9953 0.9766
4.8574 2.7456 -1.9953 0.9766
4.5936 3.1673 -1.9953 0.9766
3.5615 4.2313 -1.9778 0.9768
1.7334 4.8538 -1.8431 0.9783
0.3889 5.1394 -1.8431 0.9783
-1.4300 4.9517 -1.8431 0.9783
-3.5970 4.0441 -1.9355 0.9773
-4.0564 3.8145 -1.9912 0.9766
-4.3889 3.4453 -1.9953 0.9766
-4.6783 3.0408 -1.9953 0.9766
-5.4456 1.2160 -1.9953 0.9766
-5.5733 -0.2665 -1.9953 0.9766
-5.4377 -1.2509 -1.9953 0.9766
-5.3047 -1.7301 -1.9953 0.9766
-5.1295 -2.1956 -1.9953 0.9766
-4.6587 -3.0707 -1.9953 0.9766
-3.4062 -2.7093 -1.5564 0.9817
-2.4011 -2.7346 -1.3014 0.9847
-1.3136 -2.6983 -1.0732 0.9873
-1.0374 -2.7239 -1.0423 0.9877
-0.0208 -2.8713 -1.0268 0.9879
0.2390 -2.9107 -1.0444 0.9877
1.4358 -5.3918 -1.9953 0.9766
2.3694 -5.0516 -1.9953 0.9766
2.8098 -4.8205 -1.9953 0.9766
3.2279 -4.5512 -1.9953 0.9766
3.9840 -3.9064 -1.9953 0.9766
4.6138 -3.1378 -1.9953 0.9766
5.0972 -2.2696 -1.9953 0.9766
5.4190 -1.3295 -1.9953 0.9766
5.5776 0.1501 -1.9953 0.9766
5.3396 1.6190 -1.9953 0.9766
4.7218 2.9727 -1.9953 0.9766
4.4383 3.3814 -1.9953 0.9766
4.1196 3.7632 -1.9953 0.9766
3.7579 4.1039 -1.9899 0.9766
2.3523 4.5860 -1.8431 0.9783
1.9345 4.7772 -1.8431 0.9783
1.5015 4.9305 -1.8431 0.9783
1.0565 5.0446 -1.8431 0.9783
-0.2906 4.7542 -1.7033 0.9800
-0.7713 5.0960 -1.8431 0.9783
-2.0908 4.7109 -1.8431 0.9783
-2.8933 4.2654 -1.8431 0.9783
-3.3203 4.0626 -1.8763 0.9780
-3.8884 3.9753 -1.9886 0.9767
-4.5473 3.2334 -1.9953 0.9766
-4.8172 2.8157 -1.9953 0.9766
-5.0487 2.3755 -1.9953 0.9766
4.8408 -1.9175 -1.9953 0.9779
5.2057 -0.1067 -1.9953 0.9779
5.1945 0.3572 -1.9953 0.9779
4.9153 1.7175 -1.9953 0.9779
4.0064 3.3255 -1.9953 0.9779
3.6944 3.6691 -1.9953 0.9779
3.3472 3.9766 -1.9919 0.9780
2.9496 4.2157 -1.9717 0.9782
2.4244 4.2211 -1.8654 0.9794
2.0163 4.3712 -1.8447 0.9796
1.6176 4.5294 -1.8431 0.9796
0.7885 4.7445 -1.8431 0.9796
0.3629 4.7959 -1.8431 0.9796
-0.0646 4.7334 -1.8141 0.9799
-1.3344 4.6208 -1.8431 0.9796
-1.7406 4.4836 -1.8431 0.9796
-3.0089 4.0600 -1.9365 0.9786
-3.4518 3.8809 -1.9904 0.9780
-4.6010 2.4376 -1.9953 0.9779
-4.9604 1.5828 -1.9953 0.9779
-2.3066 0.3028 -0.8915 0.9901
-2.3009 -0.1100 -0.8827 0.9902
-2.3171 -0.3193 -0.8963 0.9900
-5.0743 -1.1673 -1.9953 0.9779
-4.9502 -1.6145 -1.9953 0.9779
-4.7867 -2.0489 -1.9953 0.9779
-4.5853 -2.4670 -1.9953 0.9779
-4.3474 -2.8655 -1.9953 0.9779
-3.4062 -2.7093 -1.6679 0.9815
-2.8260 -2.6919 -1.4957 0.9834
-2.3919 -2.7242 -1.3893 0.9846
-1.9984 -2.7329 -1.2974 0.9856
-1.6361 -2.7158 -1.2150 0.9865
-1.3092 -2.6892 -1.1462 0.9873
-0.7688 -2.7277 -1.0860 0.9879
-0.2648 -2.7382 -1.0542 0.9883
0.5022 -2.9069 -1.1305 0.9874
1.7825 -4.8921 -1.9953 0.9779
2.2111 -4.7140 -1.9953 0.9779
2.6220 -4.4984 -1.9953 0.9779
3.0122 -4.2470 -1.9953 0.9779
4.0276 -3.2998 -1.9953 0.9779
4.3054 -2.9281 -1.9953 0.9779
4.5491 -2.5331 -1.9953 0.9779
5.1472 -0.7854 -1.9953 0.9779
5.1967 -0.3240 -1.9953 0.9779
5.1717 0.6030 -1.9953 0.9779
4.9828 1.5108 -1.9953 0.9779
4.8284 1.9485 -1.9953 0.9779
4.1417 3.1554 -1.9953 0.9779
3.8443 3.5117 -1.9953 0.9779
2.6633 4.2190 -1.9120 0.9789
2.1951 4.2795 -1.8431 0.9796
1.8053 4.4580 -1.8431 0.9796
1.4011 4.6010 -1.8431 0.9796
0.9859 4.7075 -1.8431 0.9796
0.5628 4.7766 -1.8431 0.9796
0.1352 4.8077 -1.8431 0.9796
-0.2901 4.7453 -1.8219 0.9798
-0.7197 4.7554 -1.8431 0.9796
-1.1403 4.6725 -1.8431 0.9796
-1.5519 4.5524 -1.8431 0.9796
-1.9511 4.3961 -1.8431 0.9796
-3.2831 4.0171 -1.9882 0.9780
-3.9578 3.3832 -1.9953 0.9779
-4.4952 2.6275 -1.9953 0.9779
-4.7113 2.2168 -1.9953 0.9779
-5.1297 0.8927 -1.9953 0.9779
-2.3042 0.1920 -0.8861 0.9901
-2.2889 -0.0138 -0.8772 0.9902
4.7792 -0.9630 -1.9953 0.9791
4.8743 -0.1000 -1.9953 0.9791
4.8638 0.3345 -1.9953 0.9791
4.8147 0.7662 -1.9953 0.9791
4.4409 2.0116 -1.9953 0.9791
4.2442 2.3990 -1.9953 0.9791
4.0137 2.7674 -1.9953 0.9791
3.4591 3.4355 -1.9953 0.9791
3.1395 3.7299 -1.9953 0.9791
1.5146 4.2411 -1.8431 0.9807
1.1309 4.3591 -1.8431 0.9807
0.7383 4.4425 -1.8431 0.9807
-0.0614 4.5030 -1.8431 0.9807
-0.4622 4.4796 -1.8431 0.9807
-1.6298 4.1982 -1.8431 0.9807
-2.0279 4.0987 -1.8716 0.9804
-2.8954 3.9068 -1.9902 0.9792
-3.2388 3.6414 -1.9945 0.9792
-4.0877 2.6569 -1.9953 0.9791
-4.3080 2.2824 -1.9953 0.9791
-4.4942 1.8897 -1.9953 0.9791
-4.6446 1.4820 -1.9953 0.9791
-2.0899 0.4667 -0.8764 0.9908
-2.0205 0.2653 -0.8340 0.9912
-2.0015 0.0829 -0.8199 0.9914
-2.0938 -0.4817 -0.8793 0.9908
-4.4820 -1.9184 -1.9953 0.9791
-4.0706 -2.6830 -1.9953 0.9791
-1.6392 -2.7209 -1.3001 0.9864
-1.3114 -2.6939 -1.2262 0.9871
-1.0157 -2.6669 -1.1680 0.9877
-0.7618 -2.7026 -1.1492 0.9879
-0.2626 -2.7157 -1.1167 0.9883
0.4787 -2.7705 -1.1507 0.9879
2.0703 -4.4139 -1.9953 0.9791
2.8204 -3.9766 -1.9953 0.9791
3.1633 -3.7097 -1.9953 0.9791
3.7712 -3.0898 -1.9953 0.9791
4.4537 -1.9831 -1.9953 0.9791
4.7349 -1.1616 -1.9953 0.9791
4.8195 -0.7354 -1.9953 0.9791
4.8658 -0.3033 -1.9953 0.9791
4.8425 0.5646 -1.9953 0.9791
4.7730 0.9935 -1.9953 0.9791
4.6655 1.4146 -1.9953 0.9791
4.5210 1.8244 -1.9953 0.9791
4.1257 2.5975 -1.9953 0.9791
3.8780 2.9545 -1.9953 0.9791
3.2925 3.5956 -1.9953 0.9791
2.9565 3.8709 -1.9935 0.9792
2.5946 4.1101 -1.9893 0.9792
0.9231 4.4078 -1.8431 0.9807
-1.0677 4.3750 -1.8431 0.9807
-3.0807 3.7695 -1.9924 0.9792
-3.9732 2.8252 -1.9953 0.9791
-4.2090 2.4602 -1.9953 0.9791
-4.4114 2.0756 -1.9953 0.9791
-4.7096 1.2602 -1.9953 0.9791
-2.0510 0.3569 -0.8521 0.9910
-2.0141 0.1678 -0.8272 0.9913
4.2566 -1.6861 -1.9953 0.9802
4.3898 -1.3004 -1.9953 0.9802
4.4882 -0.9043 -1.9953 0.9802
4.5774 -0.0939 -1.9953 0.9802
4.5676 0.3141 -1.9953 0.9802
4.4394 1.1193 -1.9953 0.9802
3.7693 2.5989 -1.9953 0.9802
3.2485 3.2263 -1.9953 0.9802
2.9483 3.5027 -1.9953 0.9802
2.6247 3.7513 -1.9953 0.9802
1.9110 4.1430 -1.9884 0.9803
1.4938 4.1828 -1.9357 0.9808
1.0848 4.1815 -1.8827 0.9813
-0.4340 4.2068 -1.8431 0.9817
-0.8069 4.1515 -1.8431 0.9817
-1.1903 4.1219 -1.8698 0.9815
-1.5924 4.1020 -1.9177 0.9810
-2.3820 3.8972 -1.9906 0.9803
-2.7245 3.6762 -1.9942 0.9802
-3.8388 2.4951 -1.9953 0.9802
-4.0457 2.1434 -1.9953 0.9802
-4.2205 1.7746 -1.9953 0.9802
-1.4829 0.3311 -0.6622 0.9934
-1.4732 0.1934 -0.6476 0.9935
-1.4513 -0.0694 -0.6332 0.9937
-1.4932 -0.4870 -0.6845 0.9932
-4.2090 -1.8016 -1.9953 0.9802
-4.0319 -2.1692 -1.9953 0.9802
-2.8260 -2.6919 -1.7009 0.9831
-2.3958 -2.7286 -1.5825 0.9843
-1.3138 -2.6987 -1.3081 0.9870
-1.0174 -2.6714 -1.2458 0.9876
-0.5095 -2.7143 -1.2036 0.9880
-0.0194 -2.6782 -1.1672 0.9884
0.2211 -2.6929 -1.1775 0.9883
0.4764 -2.7575 -1.2196 0.9879
1.1781 -4.4242 -1.9953 0.9802
1.5674 -4.3017 -1.9953 0.9802
2.3056 -3.9555 -1.9953 0.9802
2.6487 -3.7345 -1.9953 0.9802
2.9707 -3.4838 -1.9953 0.9802
3.2691 -3.2054 -1.9953 0.9802
3.5415 -2.9016 -1.9953 0.9802
3.7858 -2.5747 -1.9953 0.9802
4.0000 -2.2274 -1.9953 0.9802
4.1825 -1.8623 -1.9953 0.9802
4.3317 -1.4825 -1.9953 0.9802
4.5695 -0.2849 -1.9953 0.9802
4.5767 0.1232 -1.9953 0.9802
4.5476 0.5302 -1.9953 0.9802
4.2457 1.7133 -1.9953 0.9802
4.0763 2.0846 -1.9953 0.9802
3.8745 2.4393 -1.9953 0.9802
3.3803 3.0878 -1.9953 0.9802
3.0919 3.3766 -1.9953 0.9802
2.7790 3.6385 -1.9953 0.9802
1.2736 4.1824 -1.9054 0.9811
0.8753 4.1797 -1.8611 0.9815
0.4949 4.2001 -1.8431 0.9817
-0.2580 4.2213 -1.8431 0.9817
-0.6329 4.1815 -1.8431 0.9817
-1.0080 4.1300 -1.8528 0.9816
-1.8152 4.0900 -1.9501 0.9807
-2.5664 3.7834 -1.9924 0.9802
-3.4802 2.9749 -1.9953 0.9802
-3.7312 2.6532 -1.9953 0.9802
-4.1427 1.9492 -1.9953 0.9802
-1.4873 0.5440 -0.6902 0.9931
-1.4714 0.2560 -0.6509 0.9935
-1.4270 -0.0086 -0.6219 0.9938
4.1331 -1.2243 -1.9953 0.9812
4.2257 -0.8514 -1.9953 0.9812
4.3005 0.2957 -1.9953 0.9812
4.0694 1.4219 -1.9953 0.9812
3.9266 1.7786 -1.9953 0.9812
3.5488 2.4469 -1.9953 0.9812
3.3169 2.7532 -1.9953 0.9812
3.0585 3.0376 -1.9953 0.9812
2.7759 3.2979 -1.9953 0.9812
2.1469 3.7380 -1.9953 0.9812
1.8028 3.9084 -1.9923 0.9812
1.4458 4.0483 -1.9898 0.9812
1.0784 4.1567 -1.9878 0.9812
0.3142 4.1522 -1.9275 0.9818
-0.4264 4.1328 -1.9232 0.9819
-1.1847 4.1023 -1.9765 0.9814
-1.9079 3.8562 -1.9915 0.9812
-2.2470 3.6763 -1.9944 0.9812
-2.8648 3.2209 -1.9953 0.9812
-3.1403 2.9530 -1.9953 0.9812
-3.3907 2.6617 -1.9953 0.9812
-3.8091 2.0180 -1.9953 0.9812
-1.2475 0.5245 -0.6264 0.9941
-1.2677 -0.0606 -0.5875 0.9944
-1.2751 -0.1757 -0.5958 0.9943
-1.2689 -0.2919 -0.6027 0.9943
-1.2675 -0.4134 -0.6171 0.9941
-3.7961 -2.0424 -1.9953 0.9812
-3.5992 -2.3723 -1.9953 0.9812
-2.4035 -2.7374 -1.6862 0.9841
-1.0192 -2.6761 -1.3255 0.9875
-0.5068 -2.6996 -1.2714 0.9880
0.2194 -2.6724 -1.2412 0.9883
0.4743 -2.7451 -1.2895 0.9878
1.4757 -4.0502 -1.9953 0.9812
1.8305 -3.9027 -1.9953 0.9812
2.7969 -3.2801 -1.9953 0.9812
3.7661 -2.0971 -1.9953 0.9812
4.2613 -0.6502 -1.9953 0.9812
4.2816 0.4992 -1.9953 0.9812
4.2202 0.8785 -1.9953 0.9812
4.1252 1.2508 -1.9953 0.9812
3.9974 1.6131 -1.9953 0.9812
3.6479 2.2966 -1.9953 0.9812
3.4289 2.6123 -1.9953 0.9812
3.1827 2.9073 -1.9953 0.9812
2.6165 3.4257 -1.9953 0.9812
2.3010 3.6451 -1.9953 0.9812
1.6144 3.9866 -1.9909 0.9812
1.2516 4.1099 -1.9887 0.9812
0.8712 4.1599 -1.9674 0.9814
0.4896 4.1552 -1.9367 0.9817
-0.2530 4.1383 -1.9191 0.9819
-0.6245 4.1258 -1.9315 0.9818
-1.3859 4.0655 -1.9882 0.9812
-2.4198 3.5674 -1.9953 0.9812
-3.5131 2.4980 -1.9953 0.9812
-1.2664 0.5959 -0.6478 0.9938
-1.2612 0.4613 -0.6216 0.9941
-1.2597 -0.0076 -0.5831 0.9945
3.7819 -1.4981 -1.9953 0.9820
3.9002 -1.1554 -1.9953 0.9820
3.9876 -0.8035 -1.9953 0.9820
4.0669 -0.0834 -1.9953 0.9820
4.0172 0.6393 -1.9953 0.9820
3.8401 1.3418 -1.9953 0.9820
3.7053 1.6784 -1.9953 0.9820
3.5412 2.0017 -1.9953 0.9820
3.3489 2.3090 -1.9953 0.9820
2.0259 3.5274 -1.9953 0.9820
1.3668 3.8273 -1.9935 0.9821
0.3060 4.0440 -1.9894 0.9821
-0.4162 4.0338 -1.9892 0.9821
-0.7740 3.9822 -1.9899 0.9821
-1.1262 3.8998 -1.9911 0.9821
-1.8037 3.6455 -1.9951 0.9820
-2.1214 3.4708 -1.9953 0.9820
-2.4220 3.2681 -1.9953 0.9820
-2.7034 3.0395 -1.9953 0.9820
-2.9633 2.7867 -1.9953 0.9820
-3.1997 2.5117 -1.9953 0.9820
-3.4106 2.2168 -1.9953 0.9820
-1.1081 0.4659 -0.5896 0.9947
-1.1325 -0.2605 -0.5700 0.9948
-1.1059 -0.4734 -0.5901 0.9947
-1.1049 -0.5945 -0.6155 0.9944
-3.3964 -2.2386 -1.9953 0.9820
-2.6839 -3.0567 -1.9953 0.9820
-1.3186 -2.7087 -1.4777 0.9867
-0.7512 -2.6651 -1.3582 0.9877
-0.0190 -2.6224 -1.2864 0.9884
0.2178 -2.6523 -1.3054 0.9882
0.4721 -2.7326 -1.3603 0.9877
1.0467 -3.9308 -1.9953 0.9820
2.3533 -3.3180 -1.9953 0.9820
2.6393 -3.0952 -1.9953 0.9820
3.3636 -2.2875 -1.9953 0.9820
3.7160 -1.6546 -1.9953 0.9820
4.0212 -0.6136 -1.9953 0.9820
4.0599 -0.2531 -1.9953 0.9820
4.0663 0.1094 -1.9953 0.9820
4.0404 0.4711 -1.9953 0.9820
3.6216 1.8521 -1.9953 0.9820
3.4423 2.1672 -1.9953 0.9820
3.2357 2.4651 -1.9953 0.9820
2.1714 3.4397 -1.9953 0.9820
1.5262 3.7689 -1.9946 0.9820
-0.9621 3.9422 -1.9905 0.9821
-1.6490 3.7156 -1.9940 0.9821
-1.9747 3.5563 -1.9953 0.9820
-2.2835 3.3664 -1.9953 0.9820
-2.8444 2.9079 -1.9953 0.9820
-3.0920 2.6431 -1.9953 0.9820
-3.3151 2.3573 -1.9953 0.9820
-1.1439 0.0953 -0.5630 0.9949
3.6878 -1.0924 -1.9953 0.9828
3.7704 -0.7597 -1.9953 0.9828
3.8231 -0.4209 -1.9953 0.9828
3.7295 0.9403 -1.9953 0.9828
3.6309 1.2687 -1.9953 0.9828
3.1665 2.1833 -1.9953 0.9828
2.9595 2.4566 -1.9953 0.9828
2.7290 2.7103 -1.9953 0.9828
2.2049 3.1514 -1.9953 0.9828
1.6110 3.4926 -1.9953 0.9828
1.2936 3.6221 -1.9953 0.9828
0.6301 3.7912 -1.9938 0.9828
-0.0524 3.8406 -1.9926 0.9828
-0.3942 3.8210 -1.9928 0.9828
-2.0058 3.2818 -1.9953 0.9828
-2.2901 3.0901 -1.9953 0.9828
-2.5562 2.8739 -1.9953 0.9828
-2.8019 2.6349 -1.9953 0.9828
-3.0254 2.3749 -1.9953 0.9828
-0.9592 0.5082 -0.5631 0.9951
-1.0254 0.2290 -0.5451 0.9953
-1.0367 0.1361 -0.5424 0.9953
-1.0349 0.0428 -0.5373 0.9953
-1.0363 -0.1428 -0.5427 0.9953
-1.0142 -0.3308 -0.5534 0.9952
-0.9561 -0.5144 -0.5632 0.9951
-2.7850 -2.6528 -1.9953 0.9828
-2.5377 -2.8902 -1.9953 0.9828
-1.0243 -2.6895 -1.4930 0.9871
-0.0190 -2.6224 -1.3605 0.9883
0.2221 -2.7048 -1.4079 0.9878
0.4705 -2.7231 -1.4336 0.9876
1.3167 -3.6138 -1.9953 0.9828
2.2251 -3.1372 -1.9953 0.9828
2.4956 -2.9267 -1.9953 0.9828
2.7463 -2.6928 -1.9953 0.9828
3.1804 -2.1630 -1.9953 0.9828
3.6390 -1.2454 -1.9953 0.9828
3.8203 0.4454 -1.9953 0.9828
3.7655 0.7838 -1.9953 0.9828
3.6807 1.1160 -1.9953 0.9828
3.0594 2.3309 -1.9953 0.9828
2.8398 2.5940 -1.9953 0.9828
1.7554 3.4223 -1.9953 0.9828
0.7880 3.7627 -1.9943 0.9828
-0.9113 3.7341 -1.9940 0.9828
-1.8671 3.3626 -1.9953 0.9828
-2.1591 3.1830 -1.9953 0.9828
-0.9571 0.5594 -0.5751 0.9950
-0.9800 0.4611 -0.5618 0.9951
-1.0327 0.1797 -0.5438 0.9953
-1.0375 0.0865 -0.5401 0.9953
-1.0304 -0.0062 -0.5345 0.9954
1.8803 -0.5570 -1.0741 0.9911
1.8854 -0.3799 -1.0534 0.9913
1.8777 -0.0385 -1.0286 0.9915
1.8868 0.1298 -1.0358 0.9914
1.8873 0.3004 -1.0467 0.9913
1.8857 0.4755 -1.0651 0.9912
1.9099 0.6673 -1.1081 0.9908
3.3185 1.5032 -1.9953 0.9835
3.1715 1.7927 -1.9953 0.9835
2.8032 2.3268 -1.9953 0.9835
2.0885 2.9850 -1.9953 0.9835
1.8144 3.1591 -1.9953 0.9835
1.5259 3.3081 -1.9953 0.9835
0.9149 3.5263 -1.9953 0.9835
0.5973 3.5938 -1.9953 0.9835
0.2749 3.6327 -1.9953 0.9835
-0.6951 3.5762 -1.9953 0.9835
-1.0107 3.5001 -1.9953 0.9835
-1.3184 3.3962 -1.9953 0.9835
-1.6156 3.2653 -1.9953 0.9835
-2.4212 2.7221 -1.9953 0.9835
-2.8656 2.2495 -1.9953 0.9835
-0.8697 0.5653 -0.5681 0.9953
-0.8820 0.4673 -0.5467 0.9955
-0.9044 0.3803 -0.5374 0.9955
-0.9202 0.2936 -0.5290 0.9956
-0.9462 0.1242 -0.5227 0.9957
-0.9458 -0.0452 -0.5186 0.9957
-0.9333 -0.2147 -0.5245 0.9956
-0.9031 -0.3866 -0.5381 0.9955
-0.8800 -0.4735 -0.5473 0.9955
-0.8715 -0.5744 -0.5717 0.9953
-2.4037 -2.7376 -1.9953 0.9835
-1.6475 -2.7347 -1.7486 0.9855
-1.0273 -2.6973 -1.5808 0.9869
-0.7552 -2.6796 -1.5248 0.9874
-0.0190 -2.6224 -1.4363 0.9881
0.2148 -2.6154 -1.4373 0.9881
0.9375 -3.5204 -1.9953 0.9835
2.3638 -2.7721 -1.9953 0.9835
3.0124 -2.0487 -1.9953 0.9835
3.1829 -1.7724 -1.9953 0.9835
3.3281 -1.4819 -1.9953 0.9835
1.8861 -0.4627 -1.0637 0.9912
1.8878 -0.2881 -1.0459 0.9913
1.8860 -0.1176 -1.0350 0.9914
1.8793 0.0506 -1.0297 0.9915
1.8859 0.3926 -1.0550 0.9913
1.8787 0.5696 -1.0752 0.9911
3.3784 1.3633 -1.9953 0.9835
3.0830 1.9410 -1.9953 0.9835
2.6898 2.4571 -1.9953 0.9835
2.4603 2.6868 -1.9953 0.9835
1.6627 3.2415 -1.9953 0.9835
1.3674 3.3767 -1.9953 0.9835
0.4263 3.6181 -1.9953 0.9835
-1.4779 3.3299 -1.9953 0.9835
-2.0451 3.0149 -1.9953 0.9835
-2.3054 2.8208 -1.9953 0.9835
-2.5475 2.6043 -1.9953 0.9835
-2.7692 2.3672 -1.9953 0.9835
-2.9690 2.1112 -1.9953 0.9835
-0.8683 0.5075 -0.5509 0.9954
-0.8951 0.4212 -0.5418 0.9955
-0.9127 0.3338 -0.5323 0.9956
-0.9251 0.2476 -0.5245 0.9956
-0.9424 0.1640 -0.5239 0.9956
-0.9473 0.0789 -0.5206 0.9957
-0.9416 -0.0057 -0.5157 0.9957
1.7239 -0.5107 -1.0380 0.9917
1.7335 -0.3493 -1.0210 0.9919
1.7417 -0.1918 -1.0117 0.9919
1.7399 0.2769 -1.0172 0.9919
1.7312 0.4365 -1.0308 0.9918
1.7085 0.5970 -1.0449 0.9917
3.1481 1.4260 -1.9953 0.9842
3.0086 1.7006 -1.9953 0.9842
2.6592 2.2073 -1.9953 0.9842
2.4521 2.4354 -1.9953 0.9842
2.2255 2.6440 -1.9953 0.9842
1.7212 2.9969 -1.9953 0.9842
1.1623 3.2547 -1.9953 0.9842
0.8679 3.3453 -1.9953 0.9842
0.5666 3.4092 -1.9953 0.9842
-0.0471 3.4557 -1.9953 0.9842
-0.6594 3.3925 -1.9953 0.9842
-0.9589 3.3203 -1.9953 0.9842
-1.2507 3.2218 -1.9953 0.9842
-1.5326 3.0976 -1.9953 0.9842
-2.5177 2.3676 -1.9953 0.9842
-2.7185 2.1340 -1.9953 0.9842
-0.7978 0.5186 -0.5494 0.9956
-0.8503 0.3575 -0.5326 0.9957
-0.8747 0.1953 -0.5174 0.9959
-0.8814 -0.1215 -0.5137 0.9959
-0.8631 -0.2815 -0.5242 0.9958
-0.8265 -0.4447 -0.5418 0.9957
-2.2803 -2.5970 -1.9953 0.9842
-2.0399 -2.7897 -1.9953 0.9842
-1.7834 -2.9603 -1.9953 0.9842
-0.5018 -2.6732 -1.5703 0.9875
-0.2543 -2.6295 -1.5252 0.9879
-0.0190 -2.6224 -1.5141 0.9880
0.2148 -2.6154 -1.5151 0.9880
0.8893 -3.3396 -1.9953 0.9842
2.6733 -2.1903 -1.9953 0.9842
3.1572 -1.4058 -1.9953 0.9842
1.7405 -0.2656 -1.0165 0.9919
1.7378 -0.1083 -1.0053 0.9920
1.7323 0.0466 -1.0005 0.9920
1.7418 0.2031 -1.0125 0.9919
1.7222 0.5222 -1.0390 0.9917
1.7810 0.7187 -1.1089 0.9912
3.0770 1.5735 -1.9953 0.9842
2.9247 1.8413 -1.9953 0.9842
2.7491 2.0944 -1.9953 0.9842
2.0977 2.7465 -1.9953 0.9842
1.2972 3.2033 -1.9953 0.9842
-0.2109 3.4496 -1.9953 0.9842
-0.5172 3.4171 -1.9953 0.9842
-0.8194 3.3575 -1.9953 0.9842
-1.1151 3.2712 -1.9953 0.9842
-1.4020 3.1589 -1.9953 0.9842
-1.6777 3.0215 -1.9953 0.9842
-2.4166 2.4706 -1.9953 0.9842
-0.8151 0.4765 -0.5451 0.9956
-0.8411 0.3958 -0.5367 0.9957
-0.8585 0.3140 -0.5278 0.9958
