ply
format ascii 1.0
element vertex 1224
property float32 x
property float32 y
property float32 z
property float32 I
end_header
4.7813 6.9716 1.4906 0.9662
6.5766 11.7037 2.3672 0.9469
5.4546 12.1245 2.3443 0.9474
4.1880 12.0864 2.2555 0.9494
3.0048 12.0509 2.1899 0.9508
1.8797 12.0170 2.1447 0.9518
0.7917 11.9843 2.1178 0.9524
-0.2777 11.9522 2.1081 0.9526
-1.3458 11.9201 2.1152 0.9524
-2.4299 11.8875 2.1394 0.9519
-4.7209 11.8187 2.2441 0.9496
-5.9728 11.7810 2.3290 0.9478
-4.4159 7.0682 1.4696 0.9667
-13.5187 13.7706 2.9562 0.9249
6.7683 12.0448 2.1166 0.9456
-0.2777 11.9522 1.8315 0.9528
-2.4299 11.8875 1.8588 0.9521
4.7619 6.9434 1.0964 0.9666
6.8364 12.1660 1.8173 0.9453
5.4546 12.1245 1.7313 0.9478
3.0377 12.1829 1.6350 0.9506
0.8004 12.1156 1.5811 0.9522
-0.2808 12.0831 1.5739 0.9524
-2.4565 12.0178 1.5973 0.9517
-3.5869 11.9838 1.6289 0.9508
-4.7209 11.8187 1.6573 0.9500
-4.3936 7.0326 1.0798 0.9671
-13.4352 13.6856 2.0594 0.9257
-2.6437 -19.3931 2.1017 0.9243
-0.9116 -19.6789 2.1154 0.9238
6.8364 12.1660 1.4985 0.9454
5.5476 12.3312 1.4520 0.9471
4.2769 12.3430 1.4027 0.9488
1.9003 12.1487 1.3204 0.9517
0.8004 12.1156 1.3038 0.9523
-0.2808 12.0831 1.2979 0.9525
-2.4565 12.0178 1.3172 0.9519
-4.7726 11.9481 1.3816 0.9496
-4.3849 7.0186 0.8887 0.9673
-3.4298 -19.4167 2.1173 0.9237
-1.6623 -19.3636 2.0869 0.9248
-13.4380 13.6884 1.6238 0.9259
-2.6437 -19.3931 1.6569 0.9244
-0.9116 -19.6789 1.6677 0.9240
4.7337 6.9022 0.7085 0.9670
6.9715 12.4064 1.2047 0.9445
5.5704 12.3819 1.1493 0.9470
4.2769 12.3430 1.1058 0.9489
1.9003 12.1487 1.0409 0.9518
0.8004 12.1156 1.0279 0.9524
-1.3606 12.0507 1.0266 0.9525
-3.5869 11.9838 1.0589 0.9510
-3.4298 -19.4167 1.6691 0.9239
-13.4490 13.6996 1.1905 0.9259
4.7233 6.8870 0.5178 0.9671
5.8924 13.0978 0.8906 0.9441
4.2769 12.3430 0.8100 0.9490
1.9003 12.1487 0.7625 0.9519
-2.4972 12.2166 0.7732 0.9513
-3.5869 11.9838 0.7757 0.9511
-4.3776 7.0070 0.5123 0.9674
-13.4659 13.7169 0.7579 0.9259
4.7193 6.8812 0.3290 0.9671
7.3780 13.1298 0.5939 0.9415
4.2769 12.3430 0.5151 0.9491
0.8004 12.1156 0.4788 0.9526
-1.3606 12.0507 0.4782 0.9526
-2.4972 12.2166 0.4917 0.9513
-3.5869 11.9838 0.4932 0.9512
-4.8516 12.1459 0.5157 0.9490
-4.3757 7.0039 0.3256 0.9675
-13.4876 13.7390 0.3252 0.9259
4.7154 6.8755 0.1408 0.9672
7.3780 13.1298 0.2544 0.9415
4.2769 12.3430 0.2207 0.9491
1.9003 12.1487 0.2077 0.9520
0.7690 11.6407 0.1971 0.9544
-0.2808 12.0831 0.2042 0.9528
-1.3606 12.0507 0.2049 0.9526
-3.5869 11.9838 0.2113 0.9512
-4.8516 12.1459 0.2209 0.9490
-4.3756 7.0038 0.1395 0.9675
-7.7781 -18.2401 -0.1116 0.9237
-5.9272 -18.2592 -0.1081 0.9261
-4.1572 -18.1899 -0.1051 0.9281
-2.4712 -18.1278 -0.1030 0.9294
-0.8463 -18.2696 -0.1030 0.9295
0.7739 -18.0252 -0.1016 0.9304
4.0356 -17.9369 -0.1035 0.9291
5.7644 -17.9642 -0.1062 0.9273
7.3780 13.1298 -0.0848 0.9415
3.0377 12.1829 -0.0707 0.9510
0.7591 11.4908 -0.0648 0.9550
-0.2808 12.0831 -0.0680 0.9528
-2.4565 12.0178 -0.0691 0.9521
-3.5869 11.9838 -0.0704 0.9512
-4.3884 7.0242 -0.0466 0.9674
-6.7031 -18.1805 -0.1091 0.9254
-4.8652 -17.9964 -0.1050 0.9281
-3.2096 -18.1702 -0.1039 0.9289
-1.5598 -18.1687 -0.1027 0.9297
-7.7177 -18.0985 -0.5540 0.9243
-2.4480 -17.9573 -0.5103 0.9300
-0.8382 -18.0938 -0.5100 0.9301
2.3807 -17.9164 -0.5089 0.9302
6.6342 -15.7047 -0.4800 0.9341
7.3780 13.1298 -0.4241 0.9415
5.9152 13.1485 -0.4060 0.9439
2.8123 11.2788 -0.3273 0.9546
1.7688 11.3081 -0.3223 0.9552
0.7494 11.3447 -0.3201 0.9555
-0.2808 12.0831 -0.3403 0.9528
-4.6853 11.7297 -0.3557 0.9507
-5.9279 11.6924 -0.3691 0.9489
-4.3960 7.0365 -0.2336 0.9673
-6.6498 -18.0359 -0.5413 0.9260
-4.8572 -17.9666 -0.5241 0.9282
-12.6995 10.8151 -0.8459 0.9354
-7.6932 -18.0410 -0.9946 0.9245
-5.8770 -18.1045 -0.9653 0.9266
-0.8368 -18.0636 -0.9171 0.9301
0.7656 -17.8316 -0.9051 0.9310
6.5594 -15.5275 -0.8548 0.9347
4.7234 6.8872 -0.4235 0.9671
7.3780 13.1298 -0.7638 0.9415
5.9152 13.1485 -0.7312 0.9439
3.6325 10.4833 -0.5627 0.9565
2.8123 11.2788 -0.5895 0.9545
1.7020 10.8811 -0.5585 0.9568
-0.2756 11.8623 -0.6017 0.9536
-1.3357 11.8304 -0.6038 0.9534
-2.4116 11.7981 -0.6107 0.9529
-4.6853 11.7297 -0.6406 0.9507
-5.9279 11.6924 -0.6648 0.9489
-4.4062 7.0528 -0.4217 0.9672
-4.8275 -17.8569 -0.9381 0.9286
-1.5455 -18.0028 -0.9164 0.9302
-13.2501 13.4970 -1.3868 0.9269
-12.6996 10.8152 -1.2231 0.9353
-7.5338 -17.6673 -1.4083 0.9259
-5.7193 -17.6189 -1.3582 0.9284
-4.0163 -17.5734 -1.3217 0.9303
-0.8363 -18.0530 -1.3251 0.9301
0.7686 -17.9023 -1.3138 0.9307
2.3511 -17.6936 -1.3087 0.9309
5.6314 -17.5497 -1.3514 0.9287
6.4007 -15.1519 -1.2060 0.9362
7.5479 -14.1885 -1.1784 0.9376
5.9152 13.1485 -1.0571 0.9438
0.7838 11.8651 -0.8719 0.9534
-1.3357 11.8304 -0.8729 0.9534
-2.2563 11.0385 -0.8261 0.9558
-3.5213 11.7647 -0.9004 0.9519
-5.9279 11.6924 -0.9612 0.9488
-4.4360 7.1004 -0.6139 0.9670
-12.8795 14.1959 -1.4054 0.9260
-6.5037 -17.6398 -1.3785 0.9274
-4.7562 -17.5932 -1.3363 0.9295
-3.1048 -17.5770 -1.3087 0.9309
-1.5267 -17.7837 -1.3087 0.9309
-12.6997 10.8154 -1.6015 0.9352
-11.9998 -15.1255 -1.8536 0.9253
-10.5449 -16.0432 -1.8431 0.9258
-5.7193 -17.6189 -1.7784 0.9283
-4.0163 -17.5734 -1.7306 0.9301
-2.3898 -17.5300 -1.6985 0.9314
-0.8101 -17.4879 -1.6807 0.9321
0.7491 -17.4463 -1.6765 0.9322
7.5303 -14.1556 -1.5393 0.9376
13.4955 13.6544 -1.8431 0.9258
12.2256 14.8023 -1.8431 0.9258
4.7422 6.9146 -0.8050 0.9669
2.6919 10.7959 -1.0682 0.9563
-0.2757 11.8623 -1.1391 0.9534
-1.3357 11.8304 -1.1430 0.9533
-2.2517 11.0157 -1.0794 0.9558
-11.5822 15.3112 -1.8431 0.9258
-14.1153 13.0129 -1.8431 0.9258
-11.1679 -15.6160 -1.8431 0.9258
-9.7324 -16.5487 -1.8431 0.9258
-8.2195 -17.3499 -1.8431 0.9258
-3.0999 -17.5490 -1.7109 0.9309
-10.8700 11.0727 -1.8431 0.9394
-12.6624 8.9680 -1.8431 0.9394
-15.7872 5.7385 -1.9953 0.9346
-16.5550 2.8460 -1.9953 0.9346
-16.7973 -0.1369 -1.9953 0.9346
-15.6916 -5.9950 -1.9953 0.9346
-10.4401 -13.1594 -1.9953 0.9346
-2.5109 -3.8201 -0.5430 0.9818
-6.3785 -14.9579 -1.9316 0.9366
-4.8461 -14.9286 -1.8644 0.9387
-2.0959 -15.3742 -1.8431 0.9394
0.6656 -15.5021 -1.8431 0.9394
6.1779 -14.6244 -1.8858 0.9381
7.8049 -14.6717 -1.9741 0.9352
9.1787 -14.0682 -1.9953 0.9346
12.5718 -11.1405 -1.9953 0.9346
13.5142 -9.9763 -1.9953 0.9346
14.3492 -8.7328 -1.9953 0.9346
15.6711 -6.0480 -1.9953 0.9346
16.2500 4.2544 -1.9953 0.9346
15.8064 5.6851 -1.9953 0.9346
14.5467 8.3997 -1.9953 0.9346
3.6325 10.4833 -1.3179 0.9563
0.6994 10.5871 -1.2603 0.9582
-0.2757 11.8623 -1.4094 0.9533
-1.3357 11.8304 -1.4142 0.9532
-2.2545 11.0295 -1.3372 0.9557
-5.9279 11.6924 -1.5572 0.9486
-4.4601 7.1390 -0.9999 0.9667
-9.3609 12.3747 -1.8431 0.9394
-10.4260 11.4917 -1.8431 0.9394
-12.2998 9.4592 -1.8431 0.9394
-13.0935 8.3260 -1.8431 0.9394
-14.9213 7.7150 -1.9953 0.9346
-16.0535 4.9448 -1.9953 0.9346
-16.6762 2.0176 -1.9953 0.9346
-16.6162 -2.4636 -1.9953 0.9346
-15.9153 -5.3730 -1.9953 0.9346
-15.3734 -6.7694 -1.9953 0.9346
-14.7093 -8.1120 -1.9953 0.9346
-13.9282 -9.3900 -1.9953 0.9346
-12.0409 -11.7125 -1.9953 0.9346
-10.9496 -12.7386 -1.9953 0.9346
-9.7714 -13.6633 -1.9953 0.9346
-5.5089 -14.9416 -1.8916 0.9379
-4.0494 -14.9787 -1.8431 0.9394
-2.6991 -15.2799 -1.8431 0.9394
-9.1129 9.2828 -1.8431 0.9488
-9.9036 8.4341 -1.8431 0.9488
-10.6156 7.5184 -1.8431 0.9488
-12.7541 5.9708 -1.9953 0.9447
-13.2353 4.8109 -1.9953 0.9447
-13.8789 2.3860 -1.9953 0.9447
-14.0158 -1.3687 -1.9953 0.9447
-12.6551 -6.1778 -1.9953 0.9447
-12.0545 -7.2805 -1.9953 0.9447
-9.7004 -10.2088 -1.9953 0.9447
-2.5090 -3.1625 -0.5720 0.9838
-2.0747 -3.1565 -0.5352 0.9849
-1.7581 -3.2780 -0.5270 0.9851
-1.4906 -3.4956 -0.5384 0.9848
-1.2612 -3.8852 -0.5788 0.9836
-1.9022 -13.9534 -1.9953 0.9447
-0.6516 -14.0674 -1.9953 0.9447
3.0911 -13.7390 -1.9953 0.9447
7.6950 -11.7941 -1.9953 0.9447
9.6658 -10.2414 -1.9953 0.9447
10.5397 -9.3397 -1.9953 0.9447
12.0297 -7.3212 -1.9953 0.9447
13.1380 -5.0703 -1.9953 0.9447
14.0400 1.0927 -1.9953 0.9447
13.8868 2.3390 -1.9953 0.9447
13.2514 4.7661 -1.9953 0.9447
12.7741 5.9276 -1.9953 0.9447
11.2651 6.5048 -1.8431 0.9488
10.6409 7.4824 -1.8431 0.9488
9.9320 8.4005 -1.8431 0.9488
8.2837 10.0297 -1.8431 0.9488
2.9822 11.9602 -1.7465 0.9514
1.6606 10.6160 -1.5225 0.9575
0.6994 10.5871 -1.5034 0.9580
-4.6853 11.7297 -1.7897 0.9503
-5.8823 11.6024 -1.8431 0.9488
-6.8924 11.0323 -1.8431 0.9488
-8.7407 9.6341 -1.8431 0.9488
-9.5642 8.8172 -1.8431 0.9488
-10.3116 7.9302 -1.8431 0.9488
-10.9770 6.9801 -1.8431 0.9488
-12.4924 6.4591 -1.9926 0.9448
-13.4585 4.1455 -1.9953 0.9447
-13.7743 2.9301 -1.9953 0.9447
-13.9806 1.6915 -1.9953 0.9447
-14.0757 0.4394 -1.9953 0.9447
-14.0589 -0.8163 -1.9953 0.9447
-13.9302 -2.0654 -1.9953 0.9447
-13.3427 -4.5045 -1.9953 0.9447
-12.8884 -5.6752 -1.9953 0.9447
-11.6768 -7.8721 -1.9953 0.9447
-10.9291 -8.8810 -1.9953 0.9447
-10.0945 -9.8192 -1.9953 0.9447
-9.1797 -10.6794 -1.9953 0.9447
-1.8747 -3.1877 -0.5240 0.9852
-1.6047 -3.3872 -0.5311 0.9850
-9.6700 5.6274 -1.8431 0.9557
-11.7068 3.1073 -1.9953 0.9521
-12.1117 -0.0987 -1.9953 0.9521
-12.0548 -1.1772 -1.9953 0.9521
-11.9020 -2.2463 -1.9953 0.9521
-10.8844 -5.3134 -1.9953 0.9521
-10.3679 -6.2619 -1.9953 0.9521
-2.8766 -3.0274 -0.6880 0.9832
-2.3665 -2.9829 -0.6273 0.9847
-1.9675 -2.9934 -0.5901 0.9856
-1.3783 -3.2321 -0.5788 0.9859
-1.1324 -3.4884 -0.6042 0.9852
-1.6360 -12.0011 -1.9953 0.9521
1.5954 -12.0065 -1.9953 0.9521
3.7007 -11.5329 -1.9953 0.9521
9.0650 -8.0329 -1.9953 0.9521
9.7445 -7.1935 -1.9953 0.9521
10.3466 -6.2969 -1.9953 0.9521
11.2997 -4.3609 -1.9953 0.9521
11.6433 -3.3370 -1.9953 0.9521
11.8943 -2.2866 -1.9953 0.9521
12.0506 -1.2179 -1.9953 0.9521
12.0755 0.9398 -1.9953 0.9521
11.9438 2.0117 -1.9953 0.9521
9.6889 5.5946 -1.8431 0.9557
9.1520 6.4355 -1.8431 0.9557
8.5424 7.2252 -1.8431 0.9557
7.8648 7.9574 -1.8431 0.9557
7.1247 8.6263 -1.8431 0.9557
4.7970 6.9944 -1.3972 0.9662
4.4200 7.8658 -1.4864 0.9641
4.5902 10.2032 -1.8431 0.9557
3.6631 10.5715 -1.8431 0.9557
1.6629 10.6311 -1.7727 0.9573
0.6994 10.5871 -1.7479 0.9579
-4.1502 10.3900 -1.8431 0.9557
-5.0592 9.9790 -1.8431 0.9557
-5.9280 9.4887 -1.8431 0.9557
-8.2260 7.5835 -1.8431 0.9557
-8.8688 6.8206 -1.8431 0.9557
-11.5755 3.5654 -1.9953 0.9521
-12.0244 1.4548 -1.9953 0.9521
-12.0918 -0.7021 -1.9953 0.9521
-11.9812 -1.7764 -1.9953 0.9521
-11.7753 -2.8366 -1.9953 0.9521
-11.4758 -3.8743 -1.9953 0.9521
-10.6062 -5.8492 -1.9953 0.9521
-2.5586 -2.9767 -0.6466 0.9842
-1.7712 -3.0117 -0.5756 0.9859
-1.4951 -3.1559 -0.5753 0.9859
-1.0345 -3.8267 -0.6530 0.9841
-6.8696 6.9976 -1.8431 0.9609
-8.0023 5.6675 -1.8431 0.9609
-9.9771 3.6266 -1.9953 0.9577
-10.2604 2.7234 -1.9953 0.9577
-10.4623 1.7986 -1.9953 0.9577
-10.5809 0.8595 -1.9953 0.9577
-10.6154 -0.0865 -1.9953 0.9577
-10.4316 -1.9688 -1.9953 0.9577
-10.2147 -2.8902 -1.9953 0.9577
-9.9166 -3.7887 -1.9953 0.9577
-9.5397 -4.6570 -1.9953 0.9577
-9.0870 -5.4882 -1.9953 0.9577
-3.4036 -2.9957 -0.8522 0.9817
-2.7815 -2.9273 -0.7590 0.9837
-2.3250 -2.9306 -0.7031 0.9849
-1.5882 -2.9612 -0.6316 0.9864
-1.0698 -3.2956 -0.6513 0.9860
-1.4339 -10.5184 -1.9953 0.9577
0.4553 -10.6059 -1.9953 0.9577
2.3302 -10.3568 -1.9953 0.9577
3.2435 -10.1080 -1.9953 0.9577
7.2863 -7.7202 -1.9953 0.9577
8.5406 -6.3048 -1.9953 0.9577
10.2048 -2.9247 -1.9953 0.9577
10.5618 -1.0675 -1.9953 0.9577
10.6149 -0.1224 -1.9953 0.9577
9.9892 3.5928 -1.9953 0.9577
9.6294 4.4683 -1.9953 0.9577
8.4919 4.9034 -1.8431 0.9609
7.4870 6.3325 -1.8431 0.9609
6.8931 6.9743 -1.8431 0.9609
4.0231 8.9426 -1.8431 0.9609
2.3724 9.5146 -1.8431 0.9609
1.5154 9.6881 -1.8431 0.9609
0.6464 9.7846 -1.8431 0.9609
-0.2278 9.8033 -1.8431 0.9609
-1.1002 9.7440 -1.8431 0.9609
-1.9638 9.6073 -1.8431 0.9609
-2.8118 9.3942 -1.8431 0.9609
-7.2097 6.6466 -1.8431 0.9609
-10.1454 3.1249 -1.9953 0.9577
-10.6106 0.3312 -1.9953 0.9577
-10.5009 -1.5569 -1.9953 0.9577
-10.0580 -3.3956 -1.9953 0.9577
-9.7156 -4.2781 -1.9953 0.9577
-9.2958 -5.1265 -1.9953 0.9577
-8.8022 -5.9342 -1.9953 0.9577
-2.5108 -2.9211 -0.7240 0.9844
-1.4164 -2.9897 -0.6218 0.9866
-1.1684 -3.1691 -0.6349 0.9863
-0.9080 -10.5768 -1.9953 0.9577
-6.1085 6.2223 -1.8431 0.9650
-7.1157 5.0396 -1.8431 0.9650
-7.5363 4.3857 -1.8431 0.9650
-8.5446 4.0001 -1.9943 0.9622
-8.8717 3.2248 -1.9953 0.9621
-9.1237 2.4217 -1.9953 0.9621
-9.4086 0.7642 -1.9953 0.9621
-9.3949 -0.9174 -1.9953 0.9621
-9.0830 -2.5700 -1.9953 0.9621
-8.0802 -4.8802 -1.9953 0.9621
-7.6134 -5.5806 -1.9953 0.9621
-3.2754 -2.8827 -0.9223 0.9823
-2.7484 -2.8924 -0.8434 0.9838
-2.2880 -2.8840 -0.7782 0.9851
-1.5655 -2.9189 -0.7001 0.9865
-1.2520 -2.9361 -0.6747 0.9870
-0.4368 -9.4295 -1.9953 0.9621
0.4049 -9.4309 -1.9953 0.9621
1.2434 -9.3573 -1.9953 0.9621
2.8841 -8.9882 -1.9953 0.9621
3.6733 -8.6955 -1.9953 0.9621
4.4333 -8.3337 -1.9953 0.9621
5.1580 -7.9057 -1.9953 0.9621
5.8418 -7.4148 -1.9953 0.9621
7.0648 -6.2605 -1.9953 0.9621
7.5944 -5.6063 -1.9953 0.9621
9.0742 -2.6007 -1.9953 0.9621
9.4111 0.7324 -1.9953 0.9621
9.3084 1.5678 -1.9953 0.9621
8.8825 3.1948 -1.9953 0.9621
8.5626 3.9733 -1.9953 0.9621
8.0210 4.6315 -1.9578 0.9628
7.1326 5.0155 -1.8431 0.9650
6.6575 5.6309 -1.8431 0.9650
2.8548 8.2389 -1.8431 0.9650
2.1096 8.4605 -1.8431 0.9650
1.3475 8.6148 -1.8431 0.9650
0.5748 8.7006 -1.8431 0.9650
-0.9783 8.6645 -1.8431 0.9650
-2.5003 8.3534 -1.8431 0.9650
-3.2345 8.0974 -1.8431 0.9650
-4.1925 6.7107 -1.6726 0.9682
-4.8154 6.3658 -1.6872 0.9679
-5.8589 6.4578 -1.8431 0.9650
-6.4109 5.9102 -1.8431 0.9650
-8.7380 3.5713 -1.9953 0.9621
-9.0213 2.7787 -1.9953 0.9621
-9.2330 1.9641 -1.9953 0.9621
-9.4237 -0.5471 -1.9953 0.9621
-9.3375 -1.3844 -1.9953 0.9621
-8.9437 -3.0194 -1.9953 0.9621
-8.6391 -3.8041 -1.9953 0.9621
-1.1228 -3.0453 -0.6861 0.9868
-5.4939 5.5964 -1.8431 0.9683
-5.9706 5.0847 -1.8431 0.9683
-7.0064 4.0773 -1.9052 0.9672
-7.9792 2.9004 -1.9953 0.9657
-8.2058 2.1781 -1.9953 0.9657
-8.4498 -0.8252 -1.9953 0.9657
-8.3427 -1.5746 -1.9953 0.9657
-8.1693 -2.3115 -1.9953 0.9657
-7.6294 -3.7244 -1.9953 0.9657
-7.2673 -4.3892 -1.9953 0.9657
-3.2272 -2.8404 -1.0104 0.9825
-2.7230 -2.8657 -0.9291 0.9839
-2.2519 -2.8385 -0.8516 0.9852
-1.8803 -2.8607 -0.8046 0.9860
-1.5432 -2.8774 -0.7674 0.9867
-0.9831 -3.0285 -0.7483 0.9870
-0.5289 -3.8795 -0.9202 0.9840
-0.1984 -4.2833 -1.0078 0.9825
0.3642 -8.4821 -1.9953 0.9657
1.8636 -8.2829 -1.9953 0.9657
3.3038 -7.8208 -1.9953 0.9657
3.9873 -7.4954 -1.9953 0.9657
4.6391 -7.1104 -1.9953 0.9657
5.2541 -6.6689 -1.9953 0.9657
5.8273 -6.1743 -1.9953 0.9657
6.3541 -5.6307 -1.9953 0.9657
6.8304 -5.0423 -1.9953 0.9657
7.2524 -4.4138 -1.9953 0.9657
7.6168 -3.7502 -1.9953 0.9657
7.9205 -3.0568 -1.9953 0.9657
7.7012 3.5736 -1.9953 0.9657
7.3378 4.2370 -1.9914 0.9658
6.4151 4.5109 -1.8431 0.9683
5.9878 5.0645 -1.8431 0.9683
5.5128 5.5777 -1.8431 0.9683
3.8418 6.8369 -1.8431 0.9683
3.2175 7.1519 -1.8431 0.9683
2.5676 7.4101 -1.8431 0.9683
1.8973 7.6094 -1.8431 0.9683
1.2120 7.7481 -1.8431 0.9683
-0.1125 4.8390 -1.1376 0.9803
-0.8799 7.7928 -1.8431 0.9683
-1.5706 7.6835 -1.8431 0.9683
-2.2487 7.5130 -1.8431 0.9683
-3.5462 6.9948 -1.8431 0.9683
-4.7312 6.2545 -1.8431 0.9683
-5.2695 5.8082 -1.8431 0.9683
-6.2166 4.7809 -1.8431 0.9683
-7.5289 3.8928 -1.9920 0.9658
-7.8589 3.2120 -1.9953 0.9657
-8.1138 2.4992 -1.9953 0.9657
-8.3042 1.7665 -1.9953 0.9657
-8.4858 0.2649 -1.9953 0.9657
-8.4757 -0.4921 -1.9953 0.9657
-8.2539 -1.9883 -1.9953 0.9657
-8.0439 -2.7157 -1.9953 0.9657
-7.7700 -3.4214 -1.9953 0.9657
-7.4344 -4.1000 -1.9953 0.9657
-3.5060 -2.8490 -1.0617 0.9816
-2.0394 -2.8517 -0.8240 0.9857
-1.6882 -2.8706 -0.7827 0.9864
-1.0836 -2.9391 -0.7362 0.9872
-0.3558 -4.1445 -0.9776 0.9831
-4.9869 5.0799 -1.8431 0.9710
-5.8092 4.1143 -1.8431 0.9710
-6.6441 3.8665 -1.9904 0.9687
-6.9795 3.2674 -1.9953 0.9687
-7.2428 2.6327 -1.9953 0.9687
-7.5950 1.3057 -1.9953 0.9687
-7.5728 -1.4293 -1.9953 0.9687
-7.4154 -2.0982 -1.9953 0.9687
-3.9897 -2.9244 -1.2808 0.9798
-3.1791 -2.7980 -1.0965 0.9827
-2.7068 -2.8487 -1.0174 0.9839
-2.2256 -2.8054 -0.9272 0.9853
-0.7238 -3.1669 -0.8411 0.9867
-0.1744 -3.7641 -0.9756 0.9846
1.0151 -7.6393 -1.9953 0.9687
1.6916 -7.5185 -1.9953 0.9687
2.9989 -7.0990 -1.9953 0.9687
3.6193 -6.8036 -1.9953 0.9687
4.2110 -6.4542 -1.9953 0.9687
4.7692 -6.0534 -1.9953 0.9687
5.2895 -5.6045 -1.9953 0.9687
5.7677 -5.1110 -1.9953 0.9687
6.2001 -4.5769 -1.9953 0.9687
6.5831 -4.0064 -1.9953 0.9687
6.9138 -3.4041 -1.9953 0.9687
7.1896 -2.7747 -1.9953 0.9687
7.4082 -2.1232 -1.9953 0.9687
7.6674 -0.7749 -1.9953 0.9687
7.5994 1.2800 -1.9953 0.9687
7.4551 1.9518 -1.9953 0.9687
6.9905 3.2438 -1.9953 0.9687
6.1402 4.3177 -1.9435 0.9695
4.5332 5.4886 -1.8431 0.9710
4.0262 5.8706 -1.8431 0.9710
2.9206 6.4919 -1.8431 0.9710
1.7222 6.9071 -1.8431 0.9710
1.1001 7.0331 -1.8431 0.9710
0.4692 7.1031 -1.8431 0.9710
-0.1115 4.7979 -1.2426 0.9804
-1.4256 6.9744 -1.8431 0.9710
-2.6406 6.6107 -1.8431 0.9710
-3.7718 6.0373 -1.8431 0.9710
-4.7832 5.2721 -1.8431 0.9710
-5.2339 4.8251 -1.8431 0.9710
-5.6429 4.3397 -1.8431 0.9710
-6.2963 4.0037 -1.9319 0.9696
-7.3650 2.2685 -1.9953 0.9687
-7.6507 0.9256 -1.9953 0.9687
-7.7027 0.2404 -1.9953 0.9687
-7.6935 -0.4467 -1.9953 0.9687
-7.6231 -1.1302 -1.9953 0.9687
-7.3016 -2.4650 -1.9953 0.9687
-7.0530 -3.1057 -1.9953 0.9687
-2.8970 -2.8180 -1.0464 0.9834
-1.6638 -2.8291 -0.8498 0.9865
-1.3492 -2.8480 -0.8160 0.9871
-1.0527 -2.8553 -0.7879 0.9875
-0.5949 -3.3680 -0.8855 0.9860
-0.3181 -3.7053 -0.9629 0.9848
-5.6316 3.9886 -1.9536 0.9717
-6.0917 3.5450 -1.9953 0.9711
-6.3835 2.9884 -1.9953 0.9711
-6.8125 1.8082 -1.9953 0.9711
-6.9465 1.1942 -1.9953 0.9711
-7.0481 -0.0574 -1.9953 0.9711
-7.0150 -0.6850 -1.9953 0.9711
-6.9261 -1.3072 -1.9953 0.9711
-6.7821 -1.9190 -1.9953 0.9711
-6.5842 -2.5155 -1.9953 0.9711
-6.3339 -3.0920 -1.9953 0.9711
-2.6906 -2.8316 -1.1058 0.9839
-1.8249 -2.7765 -0.9406 0.9863
-0.9245 -2.8480 -0.8477 0.9876
-0.4561 -3.3457 -0.9559 0.9861
0.1519 -3.5391 -1.0028 0.9854
2.1535 -6.7113 -1.9953 0.9711
6.5756 -2.5377 -1.9953 0.9711
6.9216 -1.3306 -1.9953 0.9711
7.0126 -0.7088 -1.9953 0.9711
7.0271 0.5469 -1.9953 0.9711
6.8185 1.7852 -1.9953 0.9711
6.6324 2.3855 -1.9953 0.9711
6.3935 2.9668 -1.9953 0.9711
5.7554 4.0471 -1.9918 0.9712
4.5767 4.6306 -1.8431 0.9733
4.1460 5.0199 -1.8431 0.9733
3.6824 5.3693 -1.8431 0.9733
3.1895 5.6760 -1.8431 0.9733
2.6712 5.9375 -1.8431 0.9733
2.1316 6.1518 -1.8431 0.9733
1.5752 6.3173 -1.8431 0.9733
-0.1111 4.7834 -1.3545 0.9803
-0.7305 6.4696 -1.8431 0.9733
-1.8669 6.2373 -1.8431 0.9733
-3.4497 5.5217 -1.8431 0.9733
-4.3748 4.8219 -1.8431 0.9733
-6.2610 3.2372 -1.9953 0.9711
-6.5244 2.6666 -1.9953 0.9711
-6.9973 0.8466 -1.9953 0.9711
-7.0449 0.2199 -1.9953 0.9711
-6.6780 -2.2545 -1.9953 0.9711
-6.1720 -3.4038 -1.9953 0.9711
-5.8443 -3.9400 -1.9953 0.9711
-3.4176 -2.7772 -1.2467 0.9819
-2.8614 -2.7834 -1.1301 0.9835
-2.4132 -2.8075 -1.0481 0.9847
-1.9780 -2.7658 -0.9626 0.9860
-1.6408 -2.7901 -0.9163 0.9866
-1.3315 -2.8105 -0.8804 0.9872
-1.0407 -2.8227 -0.8517 0.9876
-0.8013 -2.9639 -0.8692 0.9873
-0.5647 -3.1970 -0.9190 0.9866
-0.2921 -3.4023 -0.9667 0.9859
-4.1980 4.2762 -1.8431 0.9752
-5.2848 3.7429 -1.9919 0.9733
-5.6069 3.2629 -1.9953 0.9732
-6.4870 -0.0529 -1.9953 0.9732
-6.4565 -0.6305 -1.9953 0.9732
-6.3747 -1.2031 -1.9953 0.9732
-6.2422 -1.7662 -1.9953 0.9732
-3.8742 -2.8398 -1.4775 0.9801
-2.6744 -2.8145 -1.1942 0.9839
-2.1854 -2.7547 -1.0815 0.9854
-1.7991 -2.7372 -1.0075 0.9864
-0.6778 -2.9655 -0.9356 0.9874
-0.4248 -3.1163 -0.9674 0.9869
1.4240 -6.3290 -1.9953 0.9732
1.9821 -6.1770 -1.9953 0.9732
2.5244 -5.9759 -1.9953 0.9732
5.2192 -3.8528 -1.9953 0.9732
5.5416 -3.3726 -1.9953 0.9732
5.8200 -2.8656 -1.9953 0.9732
6.0521 -2.3357 -1.9953 0.9732
6.2362 -1.7873 -1.9953 0.9732
6.3706 -1.2247 -1.9953 0.9732
6.4544 -0.6523 -1.9953 0.9732
6.4868 -0.0748 -1.9953 0.9732
6.3971 1.0775 -1.9953 0.9732
6.2757 1.6430 -1.9953 0.9732
5.8845 2.7306 -1.9953 0.9732
5.6179 3.2439 -1.9953 0.9732
4.9380 4.1766 -1.9892 0.9733
3.8160 4.6203 -1.8431 0.9752
2.4585 5.4648 -1.8431 0.9752
1.9619 5.6621 -1.8431 0.9752
1.4498 5.8144 -1.8431 0.9752
-0.1109 4.7710 -1.4678 0.9802
-0.6723 5.9546 -1.8431 0.9752
-1.7183 5.7408 -1.8431 0.9752
-2.2228 5.5649 -1.8431 0.9752
-2.7097 5.3447 -1.8431 0.9752
-3.1751 5.0821 -1.8431 0.9752
-3.6151 4.7791 -1.8431 0.9752
-4.0265 4.4381 -1.8431 0.9752
-5.1250 3.9414 -1.9886 0.9733
-5.4742 3.4810 -1.9953 0.9732
-6.3453 1.3498 -1.9953 0.9732
-6.4403 0.7792 -1.9953 0.9732
-6.4841 0.2024 -1.9953 0.9732
-6.4763 -0.3760 -1.9953 0.9732
-6.4171 -0.9514 -1.9953 0.9732
-6.1464 -2.0751 -1.9953 0.9732
-5.3790 -3.6264 -1.9953 0.9732
-3.3730 -2.7410 -1.3368 0.9820
-2.3904 -2.7809 -1.1279 0.9848
-1.9504 -2.7272 -1.0313 0.9861
-1.6184 -2.7518 -0.9819 0.9867
-1.3139 -2.7735 -0.9439 0.9872
-1.0288 -2.7905 -0.9148 0.9876
-0.7768 -2.8733 -0.9155 0.9876
-5.4365 2.5451 -1.9953 0.9750
-5.8018 1.5400 -1.9953 0.9750
-5.9159 1.0170 -1.9953 0.9750
-5.7760 -1.6343 -1.9953 0.9750
-5.6074 -2.1423 -1.9953 0.9750
-5.3943 -2.6333 -1.9953 0.9750
-3.0667 -2.6991 -1.3580 0.9829
-2.1655 -2.7295 -1.1582 0.9854
-1.7870 -2.7187 -1.0815 0.9864
-1.4614 -2.7249 -1.0278 0.9871
-1.1701 -2.7441 -0.9916 0.9875
-0.8996 -2.7712 -0.9685 0.9878
-0.6503 -2.8454 -0.9702 0.9878
0.1314 -3.0609 -1.0184 0.9872
0.4245 -3.1948 -1.0713 0.9865
0.7791 -3.4630 -1.1799 0.9851
1.8340 -5.7157 -1.9953 0.9750
2.3359 -5.5296 -1.9953 0.9750
2.8192 -5.2995 -1.9953 0.9750
3.2800 -5.0273 -1.9953 0.9750
4.1201 -4.3655 -1.9953 0.9750
4.4926 -3.9811 -1.9953 0.9750
5.1277 -3.1207 -1.9953 0.9750
5.3853 -2.6515 -1.9953 0.9750
5.6001 -2.1613 -1.9953 0.9750
5.9723 -0.6036 -1.9953 0.9750
6.0023 -0.0692 -1.9953 0.9750
5.9846 0.4658 -1.9953 0.9750
5.1983 3.0017 -1.9953 0.9750
4.9103 3.4528 -1.9953 0.9750
4.5806 3.8743 -1.9942 0.9750
4.1979 4.2473 -1.9850 0.9751
2.7163 4.8339 -1.8431 0.9769
2.2749 5.0567 -1.8431 0.9769
1.8154 5.2392 -1.8431 0.9769
0.3655 5.5328 -1.8431 0.9769
-0.1106 4.7601 -1.5827 0.9801
-0.6221 5.5098 -1.8431 0.9769
-1.1104 5.4325 -1.8431 0.9769
-1.5899 5.3120 -1.8431 0.9769
-2.0568 5.1492 -1.8431 0.9769
-2.9379 4.7025 -1.8431 0.9769
-3.3451 4.4221 -1.8431 0.9769
-3.7258 4.1066 -1.8431 0.9769
-4.3574 4.0170 -1.9700 0.9753
-4.7541 3.6562 -1.9936 0.9750
-5.0654 3.2210 -1.9953 0.9750
-5.3322 2.7570 -1.9953 0.9750
-5.5565 2.2710 -1.9953 0.9750
-5.7368 1.7670 -1.9953 0.9750
-5.8713 1.2490 -1.9953 0.9750
-5.9998 0.1873 -1.9953 0.9750
-5.9378 -0.8804 -1.9953 0.9750
-5.8358 -1.4058 -1.9953 0.9750
-5.4937 -2.4191 -1.9953 0.9750
-5.2564 -2.8988 -1.9953 0.9750
-4.9773 -3.3555 -1.9953 0.9750
-3.3313 -2.7070 -1.4269 0.9821
-2.3676 -2.7544 -1.2073 0.9848
-1.5962 -2.7142 -1.0467 0.9868
-1.2966 -2.7369 -1.0067 0.9873
-0.7535 -2.7873 -0.9598 0.9879
-0.5114 -2.8949 -0.9772 0.9877
-4.2462 3.6162 -1.9945 0.9766
-5.0534 2.3657 -1.9953 0.9766
-5.4990 0.9453 -1.9953 0.9766
-5.5614 0.4517 -1.9953 0.9766
-5.5533 -0.5423 -1.9953 0.9766
-5.4829 -1.0348 -1.9953 0.9766
-5.3689 -1.5191 -1.9953 0.9766
-5.2123 -1.9913 -1.9953 0.9766
-4.7762 -2.8847 -1.9953 0.9766
-4.5002 -3.2986 -1.9953 0.9766
-3.0667 -2.6991 -1.4609 0.9828
-2.6227 -2.7602 -1.3616 0.9840
-2.1635 -2.7271 -1.2449 0.9853
-1.7903 -2.7237 -1.1656 0.9862
-1.4458 -2.6957 -1.0939 0.9871
-1.1565 -2.7121 -1.0544 0.9876
-0.6319 -2.7649 -1.0142 0.9880
-0.3775 -2.7695 -0.9995 0.9882
0.1241 -2.8916 -1.0350 0.9878
0.3996 -3.0070 -1.0848 0.9872
0.7188 -3.1949 -1.1711 0.9862
2.1713 -5.1399 -1.9953 0.9766
2.6205 -4.9260 -1.9953 0.9766
3.0489 -4.6730 -1.9953 0.9766
3.4530 -4.3828 -1.9953 0.9766
3.8297 -4.0578 -1.9953 0.9766
4.4890 -3.3138 -1.9953 0.9766
5.0058 -2.4647 -1.9953 0.9766
5.5793 -0.0643 -1.9953 0.9766
5.5022 0.9267 -1.9953 0.9766
4.2602 3.6033 -1.9953 0.9766
3.9165 3.9626 -1.9924 0.9766
2.9151 4.2505 -1.8431 0.9783
2.5249 4.4933 -1.8431 0.9783
1.2469 5.0010 -1.8431 0.9783
-1.0322 5.0497 -1.8431 0.9783
-4.0953 3.7754 -1.9919 0.9766
-5.4576 1.1609 -1.9953 0.9766
-5.5393 0.6702 -1.9953 0.9766
-5.5770 0.1741 -1.9953 0.9766
-5.5703 -0.3234 -1.9953 0.9766
-5.5194 -0.8183 -1.9953 0.9766
-5.4245 -1.3067 -1.9953 0.9766
-5.2866 -1.7848 -1.9953 0.9766
-4.8859 -2.6945 -1.9953 0.9766
-2.3450 -2.7281 -1.2864 0.9848
-1.2795 -2.7008 -1.0687 0.9874
-1.0054 -2.7270 -1.0393 0.9877
-3.9641 3.3759 -1.9953 0.9779
-4.8935 1.7788 -1.9953 0.9779
-5.1315 0.8822 -1.9953 0.9779
-4.8639 -1.8583 -1.9953 0.9779
-4.4570 -2.6919 -1.9953 0.9779
-3.0667 -2.6991 -1.5656 0.9827
-1.4483 -2.7004 -1.1743 0.9870
-0.3726 -2.7332 -1.0571 0.9883
0.6746 -2.9984 -1.1778 0.9869
1.5909 -4.9578 -1.9953 0.9779
2.0262 -4.7964 -1.9953 0.9779
2.8451 -4.3607 -1.9953 0.9779
3.5738 -3.7866 -1.9953 0.9779
4.1890 -3.0924 -1.9953 0.9779
4.4478 -2.7069 -1.9953 0.9779
4.6713 -2.3000 -1.9953 0.9779
5.0053 -1.4345 -1.9953 0.9779
5.1911 0.4040 -1.9953 0.9779
5.1345 0.8648 -1.9953 0.9779
4.8995 1.7622 -1.9953 0.9779
4.7231 2.1916 -1.9953 0.9779
4.5090 2.6036 -1.9953 0.9779
4.2592 2.9950 -1.9953 0.9779
3.9755 3.3625 -1.9953 0.9779
3.3091 4.0066 -1.9914 0.9780
2.3722 4.2215 -1.8557 0.9795
1.9733 4.3862 -1.8431 0.9796
1.1636 4.6667 -1.8431 0.9796
0.7433 4.7518 -1.8431 0.9796
0.3170 4.7992 -1.8431 0.9796
-0.5396 4.7793 -1.8431 0.9796
-0.9632 4.7122 -1.8431 0.9796
-1.3791 4.6076 -1.8431 0.9796
-1.7841 4.4665 -1.8431 0.9796
-2.5556 4.0906 -1.8484 0.9796
-3.4909 3.8477 -1.9909 0.9780
-3.8282 3.5292 -1.9953 0.9779
-4.1274 3.1742 -1.9953 0.9779
-5.0928 1.0834 -1.9953 0.9779
-2.3010 0.2784 -0.8882 0.9901
-2.3025 -0.1337 -0.8838 0.9902
-3.3313 -2.7070 -1.6450 0.9818
-2.3425 -2.7253 -1.3772 0.9847
-1.9548 -2.7334 -1.2878 0.9857
-1.5952 -2.7125 -1.2059 0.9866
-1.2726 -2.6861 -1.1390 0.9873
-0.9938 -2.6955 -1.1009 0.9878
-0.7393 -2.7345 -1.0855 0.9879
-0.4843 -2.7416 -1.0669 0.9881
-3.4154 3.4790 -1.9953 0.9791
-3.7117 3.1610 -1.9953 0.9791
-3.9785 2.8178 -1.9953 0.9791
-4.5820 1.6655 -1.9953 0.9791
-2.0488 0.3522 -0.8508 0.9911
-2.0136 0.1636 -0.8268 0.9913
-1.9923 -0.0162 -0.8154 0.9914
-2.0663 -0.3900 -0.8606 0.9910
-4.6911 -1.3273 -1.9953 0.9791
-4.3811 -2.1387 -1.9953 0.9791
-4.1732 -2.5205 -1.9953 0.9791
-3.9321 -2.8822 -1.9953 0.9791
-2.5867 -2.7223 -1.5369 0.9839
-2.1669 -2.7313 -1.4269 0.9850
-0.8691 -2.6774 -1.1521 0.9879
0.1161 -2.7035 -1.1075 0.9884
0.6617 -2.9412 -1.2339 0.9871
1.8972 -4.4910 -1.9953 0.9791
2.2897 -4.3042 -1.9953 0.9791
2.6640 -4.0831 -1.9953 0.9791
3.0171 -3.8296 -1.9953 0.9791
3.3463 -3.5456 -1.9953 0.9791
4.5483 -1.7553 -1.9953 0.9791
4.8606 0.3783 -1.9953 0.9791
4.5876 1.6500 -1.9953 0.9791
3.9880 2.8043 -1.9953 0.9791
3.7224 3.1484 -1.9953 0.9791
3.1046 3.7590 -1.9953 0.9791
2.3599 4.1997 -1.9716 0.9794
1.8907 4.2028 -1.8861 0.9803
1.4744 4.2552 -1.8431 0.9807
1.0895 4.3696 -1.8431 0.9807
0.2969 4.4936 -1.8431 0.9807
-0.5053 4.4750 -1.8431 0.9807
-0.9019 4.4122 -1.8431 0.9807
-1.2913 4.3143 -1.8431 0.9807
-2.0766 4.0959 -1.8795 0.9803
-2.5414 4.0678 -1.9630 0.9795
-3.8646 2.9721 -1.9953 0.9791
-4.1140 2.6160 -1.9953 0.9791
-4.5129 1.8445 -1.9953 0.9791
-4.6593 1.4351 -1.9953 0.9791
-2.0834 0.4432 -0.8718 0.9908
-2.0198 0.2444 -0.8327 0.9912
-2.0073 -0.1165 -0.8229 0.9913
-2.0228 -0.2999 -0.8369 0.9912
-4.4619 -1.9647 -1.9953 0.9791
-4.0424 -2.7253 -1.9953 0.9791
-2.7655 -2.6901 -1.5790 0.9835
-1.5982 -2.7175 -1.2903 0.9865
-1.2748 -2.6908 -1.2186 0.9872
-0.9823 -2.6643 -1.1622 0.9878
-0.2333 -2.7170 -1.1161 0.9883
-3.4857 2.9685 -1.9953 0.9802
-3.7362 2.6462 -1.9953 0.9802
-3.9571 2.3028 -1.9953 0.9802
-4.1465 1.9412 -1.9953 0.9802
-1.4926 0.3962 -0.6730 0.9933
-1.4717 0.2530 -0.6508 0.9935
-1.4645 0.1190 -0.6403 0.9936
-1.4688 -0.1434 -0.6432 0.9936
-1.4684 -0.2771 -0.6513 0.9935
-1.4936 -0.4226 -0.6765 0.9932
-4.1143 -2.0085 -1.9953 0.9802
-3.6926 -2.7067 -1.9953 0.9802
-3.0667 -2.6991 -1.7804 0.9823
-2.5993 -2.7355 -1.6446 0.9837
-1.4536 -2.7102 -1.3403 0.9867
-0.6190 -2.7087 -1.2109 0.9879
0.1151 -2.6810 -1.1695 0.9884
0.3620 -2.7244 -1.1978 0.9881
0.6611 -2.9383 -1.3126 0.9869
1.7816 -4.2175 -1.9953 0.9802
2.1502 -4.0420 -1.9953 0.9802
2.5018 -3.8344 -1.9953 0.9802
2.8334 -3.5963 -1.9953 0.9802
3.1425 -3.3296 -1.9953 0.9802
3.6834 -2.7191 -1.9953 0.9802
3.9110 -2.3802 -1.9953 0.9802
4.1075 -2.0224 -1.9953 0.9802
4.4960 -0.8643 -1.9953 0.9802
4.5552 -0.4604 -1.9953 0.9802
4.5781 -0.0528 -1.9953 0.9802
4.4291 1.1596 -1.9953 0.9802
3.9649 2.2894 -1.9953 0.9802
3.4957 2.9566 -1.9953 0.9802
2.9155 3.5300 -1.9953 0.9802
1.8716 4.1602 -1.9881 0.9803
1.4493 4.1828 -1.9292 0.9809
1.0425 4.1812 -1.8780 0.9814
-0.4745 4.2024 -1.8431 0.9817
-0.8469 4.1435 -1.8431 0.9817
-1.2331 4.1199 -1.8742 0.9814
-2.4205 3.8744 -1.9910 0.9803
-2.7611 3.6500 -1.9946 0.9802
-3.0764 3.3908 -1.9953 0.9802
-3.3662 3.1033 -1.9953 0.9802
-3.8634 2.4567 -1.9953 0.9802
-4.0669 2.1028 -1.9953 0.9802
-4.2381 1.7321 -1.9953 0.9802
-1.4789 0.3146 -0.6589 0.9934
-1.4426 0.0450 -0.6290 0.9937
-1.4559 -0.0845 -0.6356 0.9937
-1.4737 -0.2185 -0.6493 0.9935
-1.4919 -0.5037 -0.6862 0.9932
-4.1902 -1.8451 -1.9953 0.9802
-4.0091 -2.2110 -1.9953 0.9802
-3.3313 -2.7070 -1.8707 0.9814
-2.7655 -2.6901 -1.6814 0.9833
-1.2771 -2.6956 -1.3000 0.9871
-0.7257 -2.6843 -1.2119 0.9879
-0.4792 -2.7125 -1.2005 0.9881
-3.0198 3.0761 -1.9953 0.9812
-3.2818 2.7949 -1.9953 0.9812
-3.5177 2.4914 -1.9953 0.9812
-3.7257 2.1682 -1.9953 0.9812
-1.2652 0.5923 -0.6466 0.9939
-1.2617 0.4586 -0.6214 0.9941
-1.2706 0.3373 -0.6085 0.9942
-1.2729 0.2188 -0.5979 0.9943
-1.2726 0.1034 -0.5910 0.9944
-1.2741 -0.1244 -0.5926 0.9944
-3.6899 -2.2286 -1.9953 0.9812
-3.4767 -2.5484 -1.9953 0.9812
-3.0667 -2.6991 -1.8910 0.9822
-2.6218 -2.7592 -1.7618 0.9834
-1.7969 -2.7339 -1.5143 0.9857
-0.8655 -2.6663 -1.2976 0.9877
-0.6133 -2.6834 -1.2741 0.9879
-0.3657 -2.6828 -1.2533 0.9881
-0.1232 -2.6591 -1.2322 0.9883
0.3600 -2.7090 -1.2650 0.9880
0.6604 -2.9354 -1.3927 0.9868
1.6774 -3.9709 -1.9953 0.9812
2.3555 -3.6102 -1.9953 0.9812
3.2262 -2.8589 -1.9953 0.9812
3.6823 -2.2410 -1.9953 0.9812
3.8673 -1.9041 -1.9953 0.9812
4.0215 -1.5520 -1.9953 0.9812
4.2331 -0.8138 -1.9953 0.9812
4.2508 0.7160 -1.9953 0.9812
4.1701 1.0918 -1.9953 0.9812
3.7330 2.1555 -1.9953 0.9812
3.5261 2.4795 -1.9953 0.9812
2.1114 3.7574 -1.9950 0.9812
1.4073 4.0613 -1.9896 0.9812
0.6503 4.1575 -1.9479 0.9816
-1.5942 3.9911 -1.9894 0.9812
-2.2833 3.6548 -1.9948 0.9812
-2.6006 3.4378 -1.9953 0.9812
-2.8965 3.1925 -1.9953 0.9812
-3.4170 2.6279 -1.9953 0.9812
-3.6375 2.3130 -1.9953 0.9812
-1.2509 0.5113 -0.6255 0.9941
-1.2693 0.3910 -0.6148 0.9942
-1.2650 0.0395 -0.5858 0.9944
-1.2694 -0.0737 -0.5886 0.9944
-1.2660 -0.4274 -0.6185 0.9941
-3.5743 -2.4097 -1.9953 0.9812
-2.7655 -2.6901 -1.7858 0.9831
-1.9594 -2.7398 -1.5591 0.9853
-1.6037 -2.7269 -1.4643 0.9862
-1.2794 -2.7005 -1.3832 0.9869
-0.9855 -2.6730 -1.3187 0.9875
-0.7189 -2.6592 -1.2751 0.9879
-2.8497 2.9028 -1.9953 0.9820
-3.0969 2.6374 -1.9953 0.9820
-3.5158 2.0460 -1.9953 0.9820
-1.1217 0.4077 -0.5855 0.9947
-1.1328 0.3007 -0.5749 0.9948
-1.1416 0.1963 -0.5682 0.9949
-1.1396 -0.2151 -0.5689 0.9948
-1.1321 -0.3203 -0.5771 0.9948
-1.1178 -0.4271 -0.5870 0.9947
-3.4820 -2.1030 -1.9953 0.9820
-3.2808 -2.4048 -1.9953 0.9820
-2.1721 -2.7379 -1.7143 0.9846
-1.7983 -2.7360 -1.6060 0.9855
-1.4591 -2.7205 -1.5143 0.9863
-1.1483 -2.6929 -1.4360 0.9870
-0.1216 -2.6255 -1.2893 0.9884
0.1159 -2.6991 -1.3252 0.9880
0.3584 -2.6969 -1.3345 0.9880
1.9104 -3.5912 -1.9953 0.9820
2.2227 -3.4068 -1.9953 0.9820
2.7920 -2.9583 -1.9953 0.9820
3.0444 -2.6978 -1.9953 0.9820
3.2726 -2.4159 -1.9953 0.9820
3.4748 -2.1148 -1.9953 0.9820
3.6494 -1.7968 -1.9953 0.9820
3.7950 -1.4646 -1.9953 0.9820
3.9103 -1.1207 -1.9953 0.9820
4.0471 -0.4090 -1.9953 0.9820
4.0113 0.6756 -1.9953 0.9820
3.9351 1.0303 -1.9953 0.9820
3.8277 1.3767 -1.9953 0.9820
3.5227 2.0341 -1.9953 0.9820
3.1058 2.6269 -1.9953 0.9820
2.8595 2.8931 -1.9953 0.9820
2.5904 3.1363 -1.9953 0.9820
1.9927 3.5462 -1.9953 0.9820
0.9822 3.9392 -1.9914 0.9821
0.6270 4.0084 -1.9901 0.9821
0.2673 4.0466 -1.9893 0.9821
-0.4550 4.0297 -1.9892 0.9821
-0.8125 3.9747 -1.9900 0.9821
-1.5072 3.7733 -1.9931 0.9821
-2.1553 3.4498 -1.9953 0.9820
-2.7333 3.0126 -1.9953 0.9820
-1.0924 0.5648 -0.6033 0.9945
-1.1113 0.4542 -0.5889 0.9947
-1.1301 0.3481 -0.5801 0.9947
-1.1359 0.2416 -0.5696 0.9948
-1.1391 0.0356 -0.5590 0.9949
-1.1422 -0.0663 -0.5612 0.9949
-1.1435 -0.1695 -0.5670 0.9949
-3.3729 -2.2739 -1.9953 0.9820
-2.9158 -2.8363 -1.9953 0.9820
-1.2817 -2.7055 -1.4685 0.9868
-0.2314 -2.6959 -1.3273 0.9880
-2.6945 2.7447 -1.9953 0.9828
-2.9282 2.4937 -1.9953 0.9828
-0.9807 0.4591 -0.5618 0.9951
-1.0080 0.3664 -0.5564 0.9952
-1.0330 0.1776 -0.5437 0.9953
-1.0374 0.0843 -0.5400 0.9953
-1.0377 -0.1013 -0.5409 0.9953
-1.0308 -0.1946 -0.5442 0.9953
-1.0188 -0.2883 -0.5493 0.9952
-1.0041 -0.3836 -0.5576 0.9952
-0.9634 -0.5819 -0.5839 0.9949
-3.1021 -2.2738 -1.9953 0.9828
-2.3905 -3.0131 -1.9953 0.9828
-0.6084 -2.6622 -1.4167 0.9878
-0.1216 -2.6255 -1.3635 0.9882
0.1124 -2.6185 -1.3597 0.9883
0.3572 -2.6880 -1.4067 0.9879
1.1752 -3.6623 -1.9953 0.9828
1.8064 -3.3956 -1.9953 0.9828
2.3803 -3.0212 -1.9953 0.9828
2.6399 -2.7972 -1.9953 0.9828
2.8786 -2.5509 -1.9953 0.9828
3.0944 -2.2843 -1.9953 0.9828
3.2856 -1.9996 -1.9953 0.9828
3.5883 -1.3848 -1.9953 0.9828
3.6973 -1.0597 -1.9953 0.9828
3.7770 -0.7261 -1.9953 0.9828
3.8267 -0.3868 -1.9953 0.9828
3.8459 -0.0443 -1.9953 0.9828
3.8346 0.2984 -1.9953 0.9828
3.6192 1.3017 -1.9953 0.9828
3.3308 1.9233 -1.9953 0.9828
3.1462 2.2124 -1.9953 0.9828
2.9367 2.4838 -1.9953 0.9828
1.8842 3.3531 -1.9953 0.9828
1.5780 3.5076 -1.9953 0.9828
1.2593 3.6342 -1.9953 0.9828
0.5939 3.7968 -1.9937 0.9828
0.2532 3.8332 -1.9929 0.9828
-0.0892 3.8400 -1.9926 0.9828
-0.4310 3.8172 -1.9929 0.9828
-1.4267 3.5718 -1.9953 0.9828
-1.7392 3.4305 -1.9953 0.9828
-2.0379 3.2619 -1.9953 0.9828
-2.8279 2.6070 -1.9953 0.9828
-0.9727 0.6185 -0.5980 0.9948
-0.9639 0.4984 -0.5629 0.9951
-1.0273 0.2185 -0.5449 0.9953
-1.0372 0.1255 -0.5420 0.9953
-1.0338 0.0323 -0.5366 0.9954
-1.0355 -0.1535 -0.5431 0.9953
-1.0125 -0.3418 -0.5544 0.9952
-0.9509 -0.5244 -0.5633 0.9951
-3.1892 -2.1500 -1.9953 0.9828
-2.9849 -2.4256 -1.9953 0.9828
-2.7570 -2.6818 -1.9953 0.9828
-2.5072 -2.9168 -1.9953 0.9828
-1.6062 -2.7311 -1.6437 0.9858
-0.7218 -2.6700 -1.4349 0.9876
-0.4702 -2.6616 -1.4021 0.9879
-2.5522 2.5997 -1.9953 0.9835
-0.8807 0.6237 -0.5911 0.9951
-0.8690 0.5057 -0.5507 0.9954
-0.8956 0.4192 -0.5416 0.9955
-0.9131 0.3319 -0.5321 0.9956
-0.9426 0.1620 -0.5238 0.9956
-0.9474 -0.0925 -0.5213 0.9957
-0.9404 -0.1775 -0.5242 0.9956
-0.9240 -0.2615 -0.5260 0.9956
-0.8914 -0.4352 -0.5433 0.9955
-0.8631 -0.5213 -0.5523 0.9954
-2.2642 -2.8540 -1.9953 0.9835
-1.4630 -2.7279 -1.6954 0.9860
-0.8726 -2.6881 -1.5479 0.9872
-0.1216 -2.6255 -1.4395 0.9881
0.6435 -2.8603 -1.6058 0.9867
1.4177 -3.3559 -1.9953 0.9835
1.9907 -3.0511 -1.9953 0.9835
2.5005 -2.6494 -1.9953 0.9835
3.3988 -1.3117 -1.9953 0.9835
1.8891 -0.1909 -1.0399 0.9914
1.8753 -0.0216 -1.0272 0.9915
1.8877 0.1469 -1.0371 0.9914
1.8850 0.4935 -1.0672 0.9912
3.4281 1.2330 -1.9953 0.9835
3.3046 1.5334 -1.9953 0.9835
2.9801 2.0955 -1.9953 0.9835
2.3199 2.8089 -1.9953 0.9835
1.7847 3.1760 -1.9953 0.9835
1.4947 3.3224 -1.9953 0.9835
1.1928 3.4423 -1.9953 0.9835
0.8814 3.5349 -1.9953 0.9835
0.5630 3.5993 -1.9953 0.9835
0.2401 3.6352 -1.9953 0.9835
-0.0846 3.6421 -1.9953 0.9835
-0.4087 3.6201 -1.9953 0.9835
-1.0446 3.4901 -1.9953 0.9835
-1.3514 3.3832 -1.9953 0.9835
-1.9303 3.0897 -1.9953 0.9835
-2.1978 2.9054 -1.9953 0.9835
-2.4479 2.6981 -1.9953 0.9835
-2.8878 2.2209 -1.9953 0.9835
-0.9064 0.3704 -0.5363 0.9955
-0.9216 0.2839 -0.5281 0.9956
-0.9366 0.1992 -0.5245 0.9956
-0.9445 0.0295 -0.5175 0.9957
-0.9450 -0.1401 -0.5232 0.9957
-0.9009 -0.3967 -0.5392 0.9955
-0.8768 -0.4835 -0.5484 0.9954
-0.8743 -0.5894 -0.5775 0.9952
-2.6114 -2.5402 -1.9953 0.9835
-2.3748 -2.7627 -1.9953 0.9835
-2.1192 -2.9633 -1.9953 0.9835
-0.9938 -2.6955 -1.5735 0.9870
-0.4698 -2.6598 -1.4794 0.9878
-0.8001 0.5667 -0.5660 0.9955
-0.8158 0.4747 -0.5449 0.9956
-0.8795 0.1512 -0.5152 0.9959
-0.8822 -0.0862 -0.5118 0.9959
-0.8782 -0.1658 -0.5160 0.9959
-0.8563 -0.3272 -0.5292 0.9958
-0.8375 -0.4089 -0.5381 0.9957
-0.8101 -0.4893 -0.5464 0.9956
-0.8023 -0.5881 -0.5743 0.9954
-2.3806 -2.5054 -1.9953 0.9842
-2.1480 -2.7075 -1.9953 0.9842
-0.6119 -2.6772 -1.5855 0.9874
0.3560 -2.6792 -1.5604 0.9876
0.6473 -2.8770 -1.7026 0.9865
1.3449 -3.1836 -1.9953 0.9842
2.1388 -2.7147 -1.9953 0.9842
2.3721 -2.5134 -1.9953 0.9842
2.7805 -2.0526 -1.9953 0.9842
3.1006 -1.5266 -1.9953 0.9842
1.7268 -0.6664 -1.0686 0.9915
1.7260 -0.4947 -1.0366 0.9917
1.7353 -0.3336 -1.0202 0.9919
1.7414 -0.1760 -1.0105 0.9919
1.7389 0.2929 -1.0181 0.9919
1.7303 0.4530 -1.0326 0.9918
1.7048 0.6132 -1.0460 0.9917
3.1349 1.4547 -1.9953 0.9842
2.8271 1.9879 -1.9953 0.9842
2.6387 2.2318 -1.9953 0.9842
2.4294 2.4580 -1.9953 0.9842
2.2008 2.6647 -1.9953 0.9842
1.9547 2.8501 -1.9953 0.9842
1.6930 3.0129 -1.9953 0.9842
1.4179 3.1518 -1.9953 0.9842
1.1315 3.2655 -1.9953 0.9842
0.5341 3.4145 -1.9953 0.9842
-0.0803 3.4551 -1.9953 0.9842
-0.6921 3.3860 -1.9953 0.9842
-0.9910 3.3109 -1.9953 0.9842
-1.2820 3.2094 -1.9953 0.9842
-2.0850 2.7563 -1.9953 0.9842
-2.3222 2.5596 -1.9953 0.9842
-2.5410 2.3425 -1.9953 0.9842
-0.8059 0.6198 -0.5870 0.9953
-0.8017 0.5098 -0.5485 0.9956
-0.8523 0.3483 -0.5316 0.9958
-0.8648 0.2664 -0.5224 0.9958
-0.8820 0.1067 -0.5129 0.9959
-0.8802 0.0275 -0.5085 0.9959
-0.8816 -0.0512 -0.5098 0.9959
-0.8809 -0.1306 -0.5142 0.9959
-0.8619 -0.2910 -0.5252 0.9958
-2.4773 -2.4098 -1.9953 0.9842
-0.7258 -2.6849 -1.6058 0.9872
-0.4720 -2.6722 -1.5667 0.9875
-0.2257 -2.6286 -1.5232 0.9879
