ply
format ascii 1.0
element vertex 1582
property float32 x
property float32 y
property float32 z
property float32 I
end_header
1.2165 -15.4685 -1.8431 0.9394
5.2945 -14.6549 -1.8509 0.9392
9.6901 -13.7208 -1.9953 0.9346
11.9759 -11.7786 -1.9953 0.9346
13.8798 -9.4608 -1.9953 0.9346
15.3412 -6.8414 -1.9953 0.9346
15.8907 -5.4444 -1.9953 0.9346
16.6057 -2.5313 -1.9953 0.9346
16.7654 -1.0386 -1.9953 0.9346
-13.8565 -2.5125 -1.9953 0.9447
-13.5768 -3.7396 -1.9953 0.9447
-12.6952 -6.0947 -1.9953 0.9447
-12.1004 -7.2038 -1.9953 0.9447
-9.7587 -10.1529 -1.9953 0.9447
-2.0993 -3.1572 -0.5372 0.9848
-1.5044 -3.4804 -0.5372 0.9848
-1.2624 -3.8276 -0.5711 0.9838
-0.7092 -14.0645 -1.9953 0.9447
1.8036 -13.9664 -1.9953 0.9447
3.0434 -13.7496 -1.9953 0.9447
5.4403 -12.9891 -1.9953 0.9447
6.5782 -12.4515 -1.9953 0.9447
7.6637 -11.8144 -1.9953 0.9447
8.6879 -11.0829 -1.9953 0.9447
13.1317 -5.0862 -1.9953 0.9447
13.5334 -3.8935 -1.9953 0.9447
13.8269 -2.6696 -1.9953 0.9447
14.0813 -0.1679 -1.9953 0.9447
14.0400 1.0900 -1.9953 0.9447
13.6223 3.5697 -1.9953 0.9447
13.2492 4.7718 -1.9953 0.9447
12.7703 5.9356 -1.9953 0.9447
11.2595 6.5142 -1.8431 0.9488
9.9214 8.4129 -1.8431 0.9488
4.7543 6.9601 -1.1943 0.9665
6.3489 11.3535 -1.8431 0.9488
4.1714 12.1359 -1.8183 0.9495
1.6290 10.6151 -1.5216 0.9575
-0.3148 11.8611 -1.6812 0.9532
-2.2998 11.0418 -1.5981 0.9555
-3.5712 11.7632 -1.7418 0.9515
-5.9324 11.5767 -1.8431 0.9488
-4.5170 7.1577 -1.1992 0.9664
-7.8968 10.3370 -1.8431 0.9488
-8.7882 9.5907 -1.8431 0.9488
-11.0156 6.9189 -1.8431 0.9488
-12.5379 6.3913 -1.9940 0.9447
-13.4838 4.0622 -1.9953 0.9447
-13.7926 2.8421 -1.9953 0.9447
-13.9913 1.5993 -1.9953 0.9447
-14.0782 0.3437 -1.9953 0.9447
-14.0527 -0.9147 -1.9953 0.9447
-13.9149 -2.1657 -1.9953 0.9447
-13.3079 -4.6060 -1.9953 0.9447
-12.8435 -5.7758 -1.9953 0.9447
-12.2765 -6.8994 -1.9953 0.9447
-11.6115 -7.9679 -1.9953 0.9447
-10.0092 -9.9061 -1.9953 0.9447
-9.0848 -10.7602 -1.9953 0.9447
-1.8475 -3.2090 -0.5247 0.9852
-1.5748 -3.4070 -0.5318 0.9850
-1.3244 -3.7021 -0.5571 0.9842
-1.0601 -14.0424 -1.9953 0.9447
0.1979 -14.0810 -1.9953 0.9447
1.4543 -14.0071 -1.9953 0.9447
5.1142 -13.1209 -1.9953 0.9447
6.2653 -12.6118 -1.9953 0.9447
7.3663 -12.0021 -1.9953 0.9447
8.4084 -11.2964 -1.9953 0.9447
9.3835 -10.5006 -1.9953 0.9447
11.1014 -8.6643 -1.9953 0.9447
11.8307 -7.6385 -1.9953 0.9447
13.0006 -5.4126 -1.9953 0.9447
13.4319 -4.2302 -1.9953 0.9447
13.7560 -3.0141 -1.9953 0.9447
14.0727 -0.5194 -1.9953 0.9447
14.0629 0.7391 -1.9953 0.9447
13.3642 4.4394 -1.9953 0.9447
10.8167 7.2256 -1.8431 0.9488
9.3592 9.0342 -1.8431 0.9488
8.5152 9.8338 -1.8431 0.9488
3.0851 11.2947 -1.6590 0.9538
0.9330 10.5942 -1.5069 0.9579
-0.0186 11.8700 -1.6819 0.9532
-1.0110 11.0830 -1.5769 0.9560
-3.0397 10.9928 -1.6160 0.9550
-4.4072 11.7381 -1.7765 0.9506
-6.6655 11.1707 -1.8431 0.9488
-9.3875 9.0050 -1.8431 0.9488
-10.8394 7.1918 -1.8431 0.9488
-14.0711 -0.5635 -1.9953 0.9447
-13.9646 -1.8175 -1.9953 0.9447
-11.8068 -7.6755 -1.9953 0.9447
-11.0743 -8.6990 -1.9953 0.9447
-10.2534 -9.6530 -1.9953 0.9447
-2.3383 -3.1621 -0.5572 0.9842
-1.9223 -3.1542 -0.5234 0.9852
-1.3906 -3.6008 -0.5469 0.9845
-3.8800 -13.5373 -1.9953 0.9447
-1.4105 -14.0115 -1.9953 0.9447
-0.1538 -14.0815 -1.9953 0.9447
1.1040 -14.0390 -1.9953 0.9447
3.5834 -13.6188 -1.9953 0.9447
4.7850 -13.2445 -1.9953 0.9447
7.0642 -12.1823 -1.9953 0.9447
8.1237 -11.5029 -1.9953 0.9447
9.1183 -10.7316 -1.9953 0.9447
12.2979 -6.8609 -1.9953 0.9447
12.8614 -5.7355 -1.9953 0.9447
14.0553 -0.8707 -1.9953 0.9447
-12.1120 -0.0069 -1.9953 0.9521
-11.9177 -2.1609 -1.9953 0.9521
-11.6772 -3.2164 -1.9953 0.9521
-10.9189 -5.2419 -1.9953 0.9521
-9.8126 -7.1003 -1.9953 0.9521
-9.1394 -7.9481 -1.9953 0.9521
-2.3928 -2.9821 -0.6299 0.9846
-1.9899 -2.9926 -0.5920 0.9855
-1.6607 -3.0588 -0.5734 0.9860
-2.7517 -11.7953 -1.9953 0.9521
-1.6875 -11.9939 -1.9953 0.9521
-0.6099 -12.0966 -1.9953 0.9521
1.5512 -12.0122 -1.9953 0.9521
2.6175 -11.8258 -1.9953 0.9521
3.6629 -11.5448 -1.9953 0.9521
6.5914 -10.1614 -1.9953 0.9521
8.2936 -8.8270 -1.9953 0.9521
10.3362 -6.3136 -1.9953 0.9521
10.8587 -5.3655 -1.9953 0.9521
11.6398 -3.3487 -1.9953 0.9521
11.8923 -2.2961 -1.9953 0.9521
12.0498 -1.2251 -1.9953 0.9521
12.0756 0.9375 -1.9953 0.9521
11.9437 2.0119 -1.9953 0.9521
11.3954 4.1041 -1.9953 0.9521
9.6841 5.6027 -1.8431 0.9557
8.5332 7.2358 -1.8431 0.9557
7.8531 7.9688 -1.8431 0.9557
4.7761 6.9920 -1.3949 0.9663
5.4606 9.7650 -1.8431 0.9557
3.6368 10.5805 -1.8431 0.9557
0.6664 10.5861 -1.7474 0.9579
-0.2969 11.1841 -1.8431 0.9557
-2.2813 10.9530 -1.8431 0.9557
-4.1930 10.3727 -1.8431 0.9557
-5.1024 9.9569 -1.8431 0.9557
-7.5585 8.2488 -1.8431 0.9557
-8.2649 7.5410 -1.8431 0.9557
-9.4743 5.9508 -1.8431 0.9557
-9.9678 5.0811 -1.8431 0.9557
-11.2389 4.5153 -1.9953 0.9521
-11.5972 3.4938 -1.9953 0.9521
-11.8628 2.4444 -1.9953 0.9521
-11.9679 -1.8627 -1.9953 0.9521
-11.7538 -2.9238 -1.9953 0.9521
-11.4458 -3.9615 -1.9953 0.9521
-11.0464 -4.9676 -1.9953 0.9521
-9.9868 -6.8531 -1.9953 0.9521
-9.3350 -7.7174 -1.9953 0.9521
-3.6551 -3.6175 -0.8472 0.9794
-1.7377 -3.0184 -0.5738 0.9860
-1.0224 -3.9357 -0.6699 0.9837
1.2508 -12.0472 -1.9953 0.9521
3.3735 -11.6327 -1.9953 0.9521
4.3986 -11.2850 -1.9953 0.9521
6.3356 -10.3228 -1.9953 0.9521
7.2320 -9.7159 -1.9953 0.9521
9.5481 -7.4520 -1.9953 0.9521
11.1816 -4.6553 -1.9953 0.9521
11.5526 -3.6383 -1.9953 0.9521
12.0952 0.6357 -1.9953 0.9521
11.9902 1.7131 -1.9953 0.9521
11.7893 2.7768 -1.9953 0.9521
9.3033 6.2146 -1.8431 0.9557
8.7113 7.0204 -1.8431 0.9557
7.3238 8.4578 -1.8431 0.9557
6.5394 9.0780 -1.8431 0.9557
5.7027 9.6256 -1.8431 0.9557
4.8206 10.0963 -1.8431 0.9557
3.8999 10.4864 -1.8431 0.9557
1.9113 10.6701 -1.7858 0.9570
0.9330 10.5942 -1.7520 0.9578
-0.0175 11.1881 -1.8431 0.9557
-2.0071 11.0066 -1.8431 0.9557
-4.8521 10.0812 -1.8431 0.9557
-7.3502 8.4349 -1.8431 0.9557
-8.0740 7.7450 -1.8431 0.9557
-8.7332 6.9932 -1.8431 0.9557
-11.1227 4.7945 -1.9953 0.9521
-11.9956 1.6756 -1.9953 0.9521
-12.0973 0.5979 -1.9953 0.9521
-12.1023 -0.4846 -1.9953 0.9521
-11.5412 -3.6745 -1.9953 0.9521
-11.1670 -4.6902 -1.9953 0.9521
-10.7037 -5.6685 -1.9953 0.9521
-2.6406 -2.9737 -0.6551 0.9840
-1.2731 -3.2967 -0.5822 0.9858
-2.2842 -11.8946 -1.9953 0.9521
-0.1323 -12.1113 -1.9953 0.9521
2.0239 -11.9417 -1.9953 0.9521
3.0820 -11.7133 -1.9953 0.9521
6.9871 -9.8934 -1.9953 0.9521
9.3591 -7.6881 -1.9953 0.9521
10.5772 -5.9010 -1.9953 0.9521
11.7628 -2.8870 -1.9953 0.9521
11.9736 -1.8252 -1.9953 0.9521
-10.6156 -0.0060 -1.9953 0.9577
-10.5727 -0.9538 -1.9953 0.9577
-10.4453 -1.8940 -1.9953 0.9577
-10.2345 -2.8190 -1.9953 0.9577
-9.9419 -3.7215 -1.9953 0.9577
-9.1215 -5.4304 -1.9953 0.9577
-8.6003 -6.2231 -1.9953 0.9577
-3.4566 -3.0060 -0.8610 0.9815
-1.6074 -2.9606 -0.6332 0.9864
-1.4790 -10.5121 -1.9953 0.9577
-0.5346 -10.6021 -1.9953 0.9577
0.4142 -10.6075 -1.9953 0.9577
2.2942 -10.3647 -1.9953 0.9577
4.1010 -9.7915 -1.9953 0.9577
6.5492 -8.3546 -1.9953 0.9577
7.2689 -7.7365 -1.9953 0.9577
8.5290 -6.3203 -1.9953 0.9577
9.0592 -5.5336 -1.9953 0.9577
9.8990 -3.8341 -1.9953 0.9577
10.4231 -2.0124 -1.9953 0.9577
10.5837 0.8217 -1.9953 0.9577
10.4681 1.7634 -1.9953 0.9577
10.2688 2.6910 -1.9953 0.9577
9.9876 3.5971 -1.9953 0.9577
8.4877 4.9105 -1.8431 0.9609
8.0153 5.6488 -1.8431 0.9609
7.4790 6.3418 -1.8431 0.9609
3.1875 9.2733 -1.8431 0.9609
0.6160 9.7865 -1.8431 0.9609
-1.1344 9.7400 -1.8431 0.9609
-3.6750 9.0912 -1.8431 0.9609
-4.8623 6.3649 -1.5055 0.9679
-6.6247 7.2297 -1.8431 0.9609
-7.2438 6.6093 -1.8431 0.9609
-7.8050 5.9362 -1.8431 0.9609
-10.5470 1.2056 -1.9953 0.9577
-10.5932 -0.6895 -1.9953 0.9577
-10.4894 -1.6325 -1.9953 0.9577
-10.3017 -2.5626 -1.9953 0.9577
-10.0318 -3.4721 -1.9953 0.9577
-9.2543 -5.2009 -1.9953 0.9577
-2.9559 -2.9254 -0.7817 0.9832
-2.4681 -2.9233 -0.7191 0.9845
-1.3861 -2.9989 -0.6210 0.9866
-1.1446 -3.1995 -0.6387 0.9863
-0.9278 -3.5716 -0.6936 0.9851
-1.7411 -10.4719 -1.9953 0.9577
-0.7992 -10.5855 -1.9953 0.9577
0.1492 -10.6146 -1.9953 0.9577
1.0963 -10.5589 -1.9953 0.9577
2.9567 -10.1955 -1.9953 0.9577
3.8552 -9.8908 -1.9953 0.9577
5.5529 -9.0475 -1.9953 0.9577
6.3385 -8.5155 -1.9953 0.9577
7.0735 -7.9156 -1.9953 0.9577
9.3967 -4.9388 -1.9953 0.9577
9.8002 -4.0801 -1.9953 0.9577
10.3696 -2.2721 -1.9953 0.9577
10.6009 0.5572 -1.9953 0.9577
9.7352 4.2326 -1.9953 0.9577
9.2855 5.0669 -1.9883 0.9579
8.1539 5.4468 -1.8431 0.9609
7.6350 6.1531 -1.8431 0.9609
7.0552 6.8102 -1.8431 0.9609
4.8263 6.6999 -1.5520 0.9670
4.1964 7.0831 -1.5475 0.9670
3.4181 9.1908 -1.8431 0.9609
2.5838 9.4593 -1.8431 0.9609
1.7289 9.6522 -1.8431 0.9609
-0.0153 9.8058 -1.8431 0.9609
-0.8908 9.7653 -1.8431 0.9609
-4.2527 8.8357 -1.8431 0.9609
-4.1898 7.0217 -1.5369 0.9673
-4.6189 6.3698 -1.4789 0.9685
-7.6543 6.1292 -1.8431 0.9609
-8.1710 5.4213 -1.8431 0.9609
-8.6224 4.6702 -1.8431 0.9609
-10.5136 1.4686 -1.9953 0.9577
-10.6027 0.5240 -1.9953 0.9577
-10.6071 -0.4247 -1.9953 0.9577
-10.3625 -2.3045 -1.9953 0.9577
-9.7874 -4.1108 -1.9953 0.9577
-8.9002 -5.7860 -1.9953 0.9577
-3.1056 -2.9238 -0.8017 0.9828
-2.6021 -2.9303 -0.7366 0.9842
-2.1726 -2.9379 -0.6868 0.9852
-2.0020 -10.4251 -1.9953 0.9577
-0.1160 -10.6150 -1.9953 0.9577
0.8323 -10.5829 -1.9953 0.9577
1.7738 -10.4664 -1.9953 0.9577
2.7012 -10.2662 -1.9953 0.9577
3.6070 -9.9840 -1.9953 0.9577
6.1239 -8.6712 -1.9953 0.9577
6.8736 -8.0898 -1.9953 0.9577
8.2028 -6.7383 -1.9953 0.9577
9.2705 -5.1719 -1.9953 0.9577
9.6952 -4.3236 -1.9953 0.9577
10.3096 -2.5303 -1.9953 0.9577
10.4943 -1.5997 -1.9953 0.9577
10.5953 -0.6564 -1.9953 0.9577
-9.4395 -0.0054 -1.9953 0.9621
-9.4013 -0.8481 -1.9953 0.9621
-9.2881 -1.6841 -1.9953 0.9621
-8.5097 -4.0853 -1.9953 0.9621
-3.3136 -2.8817 -0.9282 0.9822
-2.7796 -2.8919 -0.8479 0.9837
-1.9303 -2.9030 -0.7369 0.9858
-1.5843 -2.9182 -0.7019 0.9865
-1.2660 -2.9289 -0.6745 0.9870
-1.0342 -3.1356 -0.6979 0.9866
2.0400 -9.2164 -1.9953 0.9621
2.8547 -8.9975 -1.9953 0.9621
3.6466 -8.7067 -1.9953 0.9621
4.4094 -8.3463 -1.9953 0.9621
5.8236 -7.4289 -1.9953 0.9621
6.4636 -6.8794 -1.9953 0.9621
8.4627 -4.1816 -1.9953 0.9621
9.0715 -2.6098 -1.9953 0.9621
9.2683 -1.7895 -1.9953 0.9621
9.4388 -0.1125 -1.9953 0.9621
9.3083 1.5680 -1.9953 0.9621
8.8810 3.1985 -1.9953 0.9621
7.9952 4.6256 -1.9525 0.9629
7.1273 5.0229 -1.8431 0.9650
6.1203 6.2105 -1.8431 0.9650
5.5414 6.7321 -1.8431 0.9650
4.1388 7.4013 -1.7925 0.9659
2.0868 8.4661 -1.8431 0.9650
1.3226 8.6186 -1.8431 0.9650
0.5478 8.7022 -1.8431 0.9650
-1.0087 8.6609 -1.8431 0.9650
-1.7779 8.5363 -1.8431 0.9650
-3.9765 7.7599 -1.8431 0.9650
-4.1911 6.6411 -1.6600 0.9684
-4.8623 6.3649 -1.6931 0.9678
-5.8908 6.4287 -1.8431 0.9650
-6.4412 5.8771 -1.8431 0.9650
-6.9402 5.2785 -1.8431 0.9650
-7.3838 4.6378 -1.8431 0.9650
-8.3834 4.2735 -1.9890 0.9623
-9.0383 2.7229 -1.9953 0.9621
-9.2453 1.9051 -1.9953 0.9621
-9.3785 1.0720 -1.9953 0.9621
-9.3272 -1.4517 -1.9953 0.9621
-9.1604 -2.2787 -1.9953 0.9621
-8.9203 -3.0874 -1.9953 0.9621
-8.6091 -3.8715 -1.9953 0.9621
-8.2290 -4.6247 -1.9953 0.9621
-7.7832 -5.3410 -1.9953 0.9621
-1.6778 -2.9144 -0.7108 0.9863
-1.0981 -3.0696 -0.6891 0.9868
0.1326 -9.4386 -1.9953 0.9621
1.8092 -9.2645 -1.9953 0.9621
2.6292 -9.0660 -1.9953 0.9621
4.1996 -8.4538 -1.9953 0.9621
4.9377 -8.0451 -1.9953 0.9621
5.6362 -7.5721 -1.9953 0.9621
6.8931 -6.4489 -1.9953 0.9621
7.4414 -5.8077 -1.9953 0.9621
8.3556 -4.3916 -1.9953 0.9621
9.2207 -2.0203 -1.9953 0.9621
9.4330 -0.3482 -1.9953 0.9621
9.3446 1.3351 -1.9953 0.9621
8.2667 4.5110 -1.9907 0.9622
7.2505 4.8434 -1.8431 0.9650
6.7891 5.4714 -1.8431 0.9650
6.2735 6.0557 -1.8431 0.9650
5.7078 6.5916 -1.8431 0.9650
3.7569 7.8686 -1.8431 0.9650
3.0394 8.1726 -1.8431 0.9650
2.2975 8.4113 -1.8431 0.9650
1.5374 8.5828 -1.8431 0.9650
-0.0136 8.7194 -1.8431 0.9650
-0.7921 8.6834 -1.8431 0.9650
-2.3239 8.4041 -1.8431 0.9650
-4.6189 6.3698 -1.6632 0.9683
-5.4878 6.2977 -1.7657 0.9664
-6.2925 6.0361 -1.8431 0.9650
-6.8062 5.4501 -1.8431 0.9650
-7.7968 4.2230 -1.8743 0.9644
-8.6685 3.7366 -1.9953 0.9621
-9.3488 1.3059 -1.9953 0.9621
-9.4280 0.4660 -1.9953 0.9621
-9.3606 -1.2183 -1.9953 0.9621
-9.2144 -2.0492 -1.9953 0.9621
-8.9947 -2.8637 -1.9953 0.9621
-3.6475 -2.8652 -0.9804 0.9812
-3.0614 -2.8821 -0.8888 0.9830
-2.5772 -2.9022 -0.8204 0.9843
-1.7737 -2.9103 -0.7204 0.9862
-1.4410 -2.9235 -0.6890 0.9868
-0.9353 -3.2632 -0.7176 0.9862
-0.7205 -3.7520 -0.8076 0.9845
-0.9455 -9.3920 -1.9953 0.9621
0.7400 -9.4104 -1.9953 0.9621
1.5773 -9.3068 -1.9953 0.9621
3.2074 -8.8779 -1.9953 0.9621
6.1121 -7.1935 -1.9953 0.9621
7.2940 -5.9917 -1.9953 0.9621
8.2434 -4.5989 -1.9953 0.9621
8.6211 -3.8446 -1.9953 0.9621
8.9299 -3.0595 -1.9953 0.9621
9.1674 -2.2500 -1.9953 0.9621
9.3317 -1.4225 -1.9953 0.9621
9.4214 -0.5836 -1.9953 0.9621
-8.4899 -0.0048 -1.9953 0.9657
-8.3537 -1.5147 -1.9953 0.9657
-8.1851 -2.2545 -1.9953 0.9657
-7.9511 -2.9763 -1.9953 0.9657
-7.6536 -3.6743 -1.9953 0.9657
-7.2950 -4.3430 -1.9953 0.9657
-3.2685 -2.8424 -1.0180 0.9824
-2.2763 -2.8369 -0.8548 0.9852
-1.9014 -2.8596 -0.8071 0.9860
-1.2492 -2.8901 -0.7400 0.9871
-0.5403 -3.8401 -0.9114 0.9842
-0.2150 -4.2645 -1.0035 0.9826
0.3312 -8.4834 -1.9953 0.9657
1.0873 -8.4200 -1.9953 0.9657
2.5675 -8.0923 -1.9953 0.9657
3.9659 -7.5067 -1.9953 0.9657
4.6202 -7.1226 -1.9953 0.9657
5.8134 -6.1873 -1.9953 0.9657
6.3426 -5.6436 -1.9953 0.9657
6.8211 -5.0547 -1.9953 0.9657
7.2452 -4.4255 -1.9953 0.9657
7.6114 -3.7610 -1.9953 0.9657
7.9168 -3.0664 -1.9953 0.9657
8.1589 -2.3473 -1.9953 0.9657
8.4463 -0.8588 -1.9953 0.9657
8.4893 -0.1012 -1.9953 0.9657
8.4644 0.6572 -1.9953 0.9657
8.3719 1.4103 -1.9953 0.9657
8.2126 2.1521 -1.9953 0.9657
7.9876 2.8768 -1.9953 0.9657
6.4103 4.5176 -1.8431 0.9683
5.9814 5.0719 -1.8431 0.9683
5.5046 5.5857 -1.8431 0.9683
4.9840 6.0549 -1.8431 0.9683
3.8276 6.8448 -1.8431 0.9683
2.5492 7.4164 -1.8431 0.9683
1.8769 7.6144 -1.8431 0.9683
1.1895 7.7515 -1.8431 0.9683
-0.1284 4.8382 -1.1375 0.9803
-1.5991 7.6775 -1.8431 0.9683
-3.5765 6.9793 -1.8431 0.9683
-6.2420 4.7475 -1.8431 0.9683
-7.8779 3.1650 -1.9953 0.9657
-8.1290 2.4490 -1.9953 0.9657
-8.4350 0.9642 -1.9953 0.9657
-8.4874 0.2072 -1.9953 0.9657
-8.4720 -0.5514 -1.9953 0.9657
-8.2388 -2.0494 -1.9953 0.9657
-7.7430 -3.4821 -1.9953 0.9657
-7.4012 -4.1595 -1.9953 0.9657
-7.0002 -4.8037 -1.9953 0.9657
-3.4351 -2.8398 -1.0475 0.9819
-2.8840 -2.8543 -0.9536 0.9835
-2.0021 -2.8538 -0.8193 0.9858
-1.6536 -2.8723 -0.7789 0.9865
-1.3347 -2.8877 -0.7477 0.9870
-0.6037 -3.6312 -0.8651 0.9850
0.8767 -8.4445 -1.9953 0.9657
2.3647 -8.1539 -1.9953 0.9657
3.0832 -7.9102 -1.9953 0.9657
4.4409 -7.2357 -1.9953 0.9657
5.0692 -6.8103 -1.9953 0.9657
6.6928 -5.2235 -1.9953 0.9657
7.1324 -4.6051 -1.9953 0.9657
8.4222 -1.0694 -1.9953 0.9657
8.4782 0.4456 -1.9953 0.9657
8.2637 1.9464 -1.9953 0.9657
7.7858 3.3851 -1.9953 0.9657
7.4498 4.0652 -1.9946 0.9657
6.5381 4.3675 -1.8479 0.9682
6.1062 4.9210 -1.8431 0.9683
5.1336 5.9285 -1.8431 0.9683
4.5838 6.3632 -1.8431 0.9683
3.9973 6.7470 -1.8431 0.9683
3.3790 7.0770 -1.8431 0.9683
2.7336 7.3504 -1.8431 0.9683
2.0664 7.5651 -1.8431 0.9683
1.3827 7.7194 -1.8431 0.9683
-0.0123 7.8423 -1.8431 0.9683
-2.0901 7.5586 -1.8431 0.9683
-2.7566 7.3418 -1.8431 0.9683
-4.0184 6.7345 -1.8431 0.9683
-6.5348 4.3357 -1.8431 0.9683
-7.7964 3.3607 -1.9953 0.9657
-8.0653 2.6512 -1.9953 0.9657
-8.2698 1.9205 -1.9953 0.9657
-8.4831 -0.3397 -1.9953 0.9657
-8.2874 -1.8430 -1.9953 0.9657
-8.0898 -2.5756 -1.9953 0.9657
-7.5027 -3.9734 -1.9953 0.9657
-7.1180 -4.6274 -1.9953 0.9657
-1.4211 -2.8833 -0.7555 0.9869
-0.8960 -3.1261 -0.7643 0.9867
-0.6702 -3.4901 -0.8352 0.9855
-0.4139 -4.1115 -0.9712 0.9832
-0.0927 -8.4894 -1.9953 0.9657
3.5861 -7.6953 -1.9953 0.9657
4.2589 -7.3444 -1.9953 0.9657
4.8976 -6.9348 -1.9953 0.9657
6.5602 -5.3890 -1.9953 0.9657
7.0152 -4.7817 -1.9953 0.9657
7.4141 -4.1363 -1.9953 0.9657
8.0316 -2.7517 -1.9953 0.9657
8.2452 -2.0236 -1.9953 0.9657
8.4736 -0.5249 -1.9953 0.9657
-7.7064 -0.0044 -1.9953 0.9687
-7.6752 -0.6924 -1.9953 0.9687
-7.4297 -2.0465 -1.9953 0.9687
-7.2173 -2.7016 -1.9953 0.9687
-6.9473 -3.3352 -1.9953 0.9687
-6.6218 -3.9422 -1.9953 0.9687
-3.2194 -2.7997 -1.1047 0.9825
-2.2542 -2.8093 -0.9326 0.9852
-1.8731 -2.8169 -0.8759 0.9861
-1.5402 -2.8368 -0.8358 0.9868
-0.9641 -2.9231 -0.7969 0.9874
-0.7360 -3.1551 -0.8388 0.9867
-0.1895 -3.7584 -0.9744 0.9846
0.1517 -3.8847 -1.0066 0.9841
0.9870 -7.6429 -1.9953 0.9687
2.3306 -7.3455 -1.9953 0.9687
2.9771 -7.1081 -1.9953 0.9687
4.1938 -6.4653 -1.9953 0.9687
5.7572 -5.1227 -1.9953 0.9687
6.1916 -4.5882 -1.9953 0.9687
6.5765 -4.0171 -1.9953 0.9687
6.9089 -3.4139 -1.9953 0.9687
7.1862 -2.7834 -1.9953 0.9687
7.5666 -1.4609 -1.9953 0.9687
7.4546 1.9535 -1.9953 0.9687
6.9884 3.2482 -1.9953 0.9687
6.6704 3.8592 -1.9953 0.9687
5.4294 4.6038 -1.8431 0.9710
4.5240 5.4961 -1.8431 0.9710
2.9058 6.4985 -1.8431 0.9710
2.3139 6.7320 -1.8431 0.9710
-0.1273 4.7954 -1.2421 0.9804
-2.6678 6.5997 -1.8431 0.9710
-3.2464 6.3352 -1.8431 0.9710
-6.3733 4.0031 -1.9487 0.9694
-7.1509 2.8729 -1.9953 0.9687
-7.5478 1.5553 -1.9953 0.9687
-7.6565 0.8752 -1.9953 0.9687
-7.7041 0.1881 -1.9953 0.9687
-7.6901 -0.5005 -1.9953 0.9687
-7.4785 -1.8603 -1.9953 0.9687
-6.7181 -3.7756 -1.9953 0.9687
-6.3542 -4.3604 -1.9953 0.9687
-3.3864 -2.7996 -1.1376 0.9820
-2.3873 -2.8276 -0.9582 0.9848
-1.3172 -2.8498 -0.8129 0.9871
-1.0255 -2.8667 -0.7883 0.9875
-0.5677 -3.4147 -0.8963 0.9858
1.4770 -7.5635 -1.9953 0.9687
4.0311 -6.5680 -1.9953 0.9687
4.5783 -6.1507 -1.9853 0.9688
5.1350 -5.7464 -1.9953 0.9687
6.0751 -4.7414 -1.9953 0.9687
6.8215 -3.5853 -1.9953 0.9687
7.3504 -2.3149 -1.9953 0.9687
7.5278 -1.6494 -1.9953 0.9687
7.6957 0.4045 -1.9953 0.9687
7.6289 1.0899 -1.9953 0.9687
7.5011 1.7667 -1.9953 0.9687
7.3134 2.4294 -1.9953 0.9687
6.7647 3.6914 -1.9953 0.9687
6.3870 4.2665 -1.9887 0.9688
5.5445 4.4683 -1.8437 0.9710
5.1217 4.9439 -1.8431 0.9710
4.6598 5.3814 -1.8431 0.9710
2.4813 6.6721 -1.8431 0.9710
-1.2770 7.0031 -1.8431 0.9710
-1.8972 6.8611 -1.8431 0.9710
-3.6476 6.1130 -1.8431 0.9710
-4.1788 5.7629 -1.8431 0.9710
-5.1371 4.9278 -1.8431 0.9710
-6.0431 4.0095 -1.8777 0.9705
-6.7716 3.6677 -1.9939 0.9687
-7.0769 3.0506 -1.9953 0.9687
-7.3210 2.4065 -1.9953 0.9687
-7.5066 1.7433 -1.9953 0.9687
-7.6323 1.0661 -1.9953 0.9687
-7.7002 -0.3083 -1.9953 0.9687
-7.6419 -0.9946 -1.9953 0.9687
-7.3432 -2.3379 -1.9953 0.9687
-6.8103 -3.6067 -1.9953 0.9687
-6.4611 -4.2003 -1.9953 0.9687
-2.0735 -2.8040 -0.9029 0.9857
-1.4023 -2.8450 -0.8212 0.9870
-0.8662 -3.0221 -0.8140 0.9871
-0.6341 -3.3021 -0.8706 0.9862
-0.3706 -3.6819 -0.9581 0.9848
1.2877 -7.5980 -1.9953 0.9687
1.9609 -7.4527 -1.9953 0.9687
3.2552 -6.9851 -1.9953 0.9687
4.4456 -6.2948 -1.9953 0.9687
6.3678 -4.3404 -1.9953 0.9687
7.2903 -2.4978 -1.9953 0.9687
7.4842 -1.8369 -1.9953 0.9687
7.6183 -1.1613 -1.9953 0.9687
7.6916 -0.4765 -1.9953 0.9687
-7.0483 -0.0040 -1.9953 0.9711
-6.6010 -2.4709 -1.9953 0.9711
-6.3540 -3.0504 -1.9953 0.9711
-6.0563 -3.6055 -1.9953 0.9711
-5.7102 -4.1319 -1.9953 0.9711
-3.1712 -2.7578 -1.1897 0.9827
-2.7136 -2.8232 -1.1085 0.9839
-2.2336 -2.7837 -1.0104 0.9853
-1.8452 -2.7751 -0.9434 0.9862
-1.2165 -2.8143 -0.8680 0.9873
-0.9360 -2.8377 -0.8459 0.9877
-0.7122 -3.0530 -0.8875 0.9871
-0.1735 -3.4402 -0.9751 0.9858
0.1380 -3.5339 -1.0012 0.9854
2.7229 -6.5011 -1.9953 0.9711
3.2924 -6.2320 -1.9953 0.9711
3.8357 -5.9132 -1.9953 0.9711
5.6629 -4.1964 -1.9953 0.9711
6.3189 -3.1223 -1.9953 0.9711
6.5725 -2.5457 -1.9953 0.9711
6.7735 -1.9487 -1.9953 0.9711
6.9205 -1.3362 -1.9953 0.9711
7.0478 -0.0840 -1.9953 0.9711
6.8180 1.7867 -1.9953 0.9711
6.6313 2.3883 -1.9953 0.9711
6.1008 3.5296 -1.9953 0.9711
5.7508 4.0529 -1.9917 0.9712
5.0599 4.2906 -1.8781 0.9728
4.5699 4.6372 -1.8431 0.9733
2.6576 5.9435 -1.8431 0.9733
2.1163 6.1571 -1.8431 0.9733
1.5582 6.3214 -1.8431 0.9733
0.4090 6.4978 -1.8431 0.9733
-0.1270 4.7848 -1.3550 0.9803
-0.7532 6.4669 -1.8431 0.9733
-1.8913 6.2299 -1.8431 0.9733
-4.3985 4.8002 -1.8431 0.9733
-5.2721 4.0097 -1.8751 0.9728
-5.9583 3.7424 -1.9919 0.9712
-6.2795 3.2010 -1.9953 0.9711
-6.7487 2.0331 -1.9953 0.9711
-7.0334 -0.4578 -1.9953 0.9711
-6.1444 -3.4532 -1.9953 0.9711
-3.3407 -2.7618 -1.2271 0.9821
-1.9422 -2.7684 -0.9573 0.9860
-1.6076 -2.7924 -0.9122 0.9867
-1.2999 -2.8123 -0.8771 0.9872
-0.7762 -2.9880 -0.8740 0.9872
-0.5382 -3.2370 -0.9289 0.9865
0.0492 -3.5035 -0.9919 0.9855
1.3509 -6.9176 -1.9953 0.9711
3.1358 -6.3123 -1.9953 0.9711
3.6869 -6.0071 -1.9953 0.9711
5.1469 -4.8153 -1.9953 0.9711
5.5563 -4.3365 -1.9953 0.9711
5.9213 -3.8231 -1.9953 0.9711
6.9921 -0.8878 -1.9953 0.9711
7.0435 -0.2600 -1.9953 0.9711
6.8605 1.6159 -1.9953 0.9711
6.1870 3.3762 -1.9953 0.9711
5.3198 4.2873 -1.9342 0.9720
4.2619 4.9218 -1.8431 0.9733
3.8054 5.2827 -1.8431 0.9733
2.8052 5.8753 -1.8431 0.9733
1.7155 6.2806 -1.8431 0.9733
1.1479 6.4086 -1.8431 0.9733
0.5712 6.4855 -1.8431 0.9733
-0.5914 6.4837 -1.8431 0.9733
-1.7352 6.2752 -1.8431 0.9733
-2.2885 6.0952 -1.8431 0.9733
-2.8236 5.8665 -1.8431 0.9733
-4.2773 4.9085 -1.8431 0.9733
-5.0821 4.0695 -1.8431 0.9733
-5.8557 3.8852 -1.9894 0.9712
-6.1976 3.3568 -1.9953 0.9711
-6.6958 2.2010 -1.9953 0.9711
-6.9805 0.9751 -1.9953 0.9711
-7.0397 0.3479 -1.9953 0.9711
-6.9894 -0.9097 -1.9953 0.9711
-6.8802 -1.5301 -1.9953 0.9711
-6.4984 -2.7294 -1.9953 0.9711
-5.9094 -3.8416 -1.9953 0.9711
-3.5431 -2.7831 -1.2755 0.9814
-2.5036 -2.8194 -1.0674 0.9844
-2.0418 -2.7611 -0.9721 0.9858
-1.3837 -2.8073 -0.8860 0.9871
-0.8390 -2.9272 -0.8620 0.9874
-0.6053 -3.1520 -0.9086 0.9867
-0.3409 -3.3863 -0.9635 0.9860
0.6917 -4.0812 -1.1718 0.9829
2.9772 -6.3886 -1.9953 0.9711
3.5357 -6.0973 -1.9953 0.9711
4.0660 -5.7573 -1.9953 0.9711
5.4463 -4.4739 -1.9953 0.9711
6.1552 -3.4339 -1.9953 0.9711
6.4372 -2.8707 -1.9953 0.9711
6.6678 -2.2845 -1.9953 0.9711
6.8451 -1.6800 -1.9953 0.9711
7.0348 -0.4358 -1.9953 0.9711
-6.4872 -0.0037 -1.9953 0.9732
-6.4610 -0.5829 -1.9953 0.9732
-6.2543 -1.7227 -1.9953 0.9732
-5.5742 -3.3185 -1.9953 0.9732
-2.6972 -2.8061 -1.1971 0.9838
-1.8190 -2.7356 -1.0104 0.9863
-1.2004 -2.7772 -0.9306 0.9874
-0.9241 -2.8017 -0.9074 0.9877
-0.1609 -3.1913 -0.9828 0.9867
0.1274 -3.2637 -1.0046 0.9864
0.4437 -3.4355 -1.0655 0.9856
1.4020 -6.3339 -1.9953 0.9732
3.5304 -5.4424 -1.9953 0.9732
4.8464 -4.3123 -1.9953 0.9732
5.5361 -3.3816 -1.9953 0.9732
6.0493 -2.3430 -1.9953 0.9732
6.2343 -1.7936 -1.9953 0.9732
6.4539 -0.6562 -1.9953 0.9732
6.3970 1.0776 -1.9953 0.9732
5.8828 2.7343 -1.9953 0.9732
5.6151 3.2486 -1.9953 0.9732
5.3027 3.7370 -1.9953 0.9732
4.9325 4.1825 -1.9891 0.9733
4.2145 4.2766 -1.8468 0.9752
2.4460 5.4704 -1.8431 0.9752
1.4341 5.8182 -1.8431 0.9752
0.3765 5.9805 -1.8431 0.9752
-0.1267 4.7741 -1.4689 0.9802
-0.6932 5.9521 -1.8431 0.9752
-2.2458 5.5556 -1.8431 0.9752
-5.7796 2.9462 -1.9953 0.9732
-6.4853 0.1583 -1.9953 0.9732
-6.4735 -0.4213 -1.9953 0.9732
-6.2954 -1.5660 -1.9953 0.9732
-6.1304 -2.1218 -1.9953 0.9732
-5.9165 -2.6607 -1.9953 0.9732
-5.6553 -3.1783 -1.9953 0.9732
-5.3489 -3.6705 -1.9953 0.9732
-2.3428 -2.7749 -1.1170 0.9849
-1.5857 -2.7543 -0.9775 0.9868
-1.2828 -2.7754 -0.9404 0.9873
-0.2389 -3.1641 -0.9760 0.9868
0.0456 -3.2470 -0.9988 0.9865
1.8068 -6.2305 -1.9953 0.9732
2.3559 -6.0443 -1.9953 0.9732
3.3933 -5.5289 -1.9953 0.9732
4.3226 -4.8372 -1.9953 0.9732
4.7372 -4.4320 -1.9953 0.9732
5.7423 -3.0181 -1.9953 0.9732
5.9889 -2.4934 -1.9953 0.9732
6.4828 -0.2393 -1.9953 0.9732
6.4782 0.3405 -1.9953 0.9732
6.1564 2.0451 -1.9953 0.9732
5.9492 2.5866 -1.9953 0.9732
5.3943 3.6034 -1.9953 0.9732
5.0407 4.0623 -1.9912 0.9733
4.4244 4.2708 -1.8914 0.9746
3.5025 4.8622 -1.8431 0.9752
2.5819 5.4076 -1.8431 0.9752
1.0566 5.8985 -1.8431 0.9752
0.5257 5.9692 -1.8431 0.9752
-1.5970 5.7756 -1.8431 0.9752
-2.5988 5.3995 -1.8431 0.9752
-3.0705 5.1459 -1.8431 0.9752
-3.5177 4.8512 -1.8431 0.9752
-4.3244 4.1482 -1.8431 0.9752
-4.9953 4.0000 -1.9683 0.9736
-5.4033 3.5850 -1.9945 0.9732
-5.7042 3.0896 -1.9953 0.9732
-6.3190 1.4675 -1.9953 0.9732
-6.4248 0.8974 -1.9953 0.9732
-6.4793 0.3202 -1.9953 0.9732
-6.4329 -0.8373 -1.9953 0.9732
-6.1815 -1.9680 -1.9953 0.9732
-5.4389 -3.5358 -1.9953 0.9732
-2.9138 -2.7431 -1.2309 0.9834
-1.3653 -2.7701 -0.9499 0.9872
-1.0760 -2.7863 -0.9187 0.9876
-0.3166 -3.1448 -0.9721 0.9869
-0.0353 -3.2287 -0.9931 0.9866
0.6087 -3.5916 -1.1205 0.9849
1.6507 -6.2737 -1.9953 0.9732
2.2042 -6.1012 -1.9953 0.9732
2.7402 -5.8800 -1.9953 0.9732
3.2542 -5.6119 -1.9953 0.9732
3.7423 -5.2989 -1.9953 0.9732
4.2004 -4.9437 -1.9953 0.9732
5.3604 -3.6538 -1.9953 0.9732
5.6652 -3.1606 -1.9953 0.9732
5.9247 -2.6421 -1.9953 0.9732
6.3002 -1.5463 -1.9953 0.9732
6.4131 -0.9776 -1.9953 0.9732
6.4748 -0.4011 -1.9953 0.9732
-5.9784 -0.5393 -1.9953 0.9750
-5.9064 -1.0710 -1.9953 0.9750
-5.6217 -2.1044 -1.9953 0.9750
-5.4114 -2.5979 -1.9953 0.9750
-4.8631 -3.5189 -1.9953 0.9750
-3.1050 -2.7002 -1.3678 0.9828
-2.6807 -2.7890 -1.2859 0.9838
-1.8089 -2.7205 -1.0860 0.9863
-1.4787 -2.7236 -1.0301 0.9870
-1.1854 -2.7425 -0.9932 0.9875
-0.9135 -2.7696 -0.9694 0.9878
-0.6627 -2.8406 -0.9696 0.9878
-0.4115 -2.9250 -0.9818 0.9876
-0.1517 -3.0097 -1.0017 0.9874
0.4114 -3.1854 -1.0676 0.9866
0.7639 -3.4512 -1.1749 0.9852
1.8153 -5.7216 -1.9953 0.9750
2.3189 -5.5366 -1.9953 0.9750
3.2667 -5.0359 -1.9953 0.9750
4.1103 -4.3747 -1.9953 0.9750
4.4844 -3.9902 -1.9953 0.9750
5.1226 -3.1290 -1.9953 0.9750
5.3815 -2.6591 -1.9953 0.9750
5.8938 -1.1379 -1.9953 0.9750
5.9719 -0.6072 -1.9953 0.9750
6.0022 -0.0715 -1.9953 0.9750
5.9192 0.9971 -1.9953 0.9750
5.8066 1.5216 -1.9953 0.9750
5.6475 2.0340 -1.9953 0.9750
5.1957 3.0060 -1.9953 0.9750
4.9066 3.4579 -1.9953 0.9750
4.5755 3.8798 -1.9941 0.9750
4.1858 4.2475 -1.9823 0.9752
3.5238 4.2810 -1.8431 0.9769
3.1275 4.5785 -1.8431 0.9769
2.7063 4.8395 -1.8431 0.9769
2.2634 5.0618 -1.8431 0.9769
0.8410 5.4806 -1.8431 0.9769
0.3483 5.5338 -1.8431 0.9769
-1.6107 5.3057 -1.8431 0.9769
-2.0780 5.1407 -1.8431 0.9769
-2.5287 4.9346 -1.8431 0.9769
-3.3660 4.4062 -1.8431 0.9769
-3.7460 4.0881 -1.8431 0.9769
-4.3994 4.0141 -1.9796 0.9752
-4.7746 3.6314 -1.9940 0.9750
-5.0832 3.1927 -1.9953 0.9750
-6.0009 0.1465 -1.9953 0.9750
-5.9900 -0.3899 -1.9953 0.9750
-5.9313 -0.9231 -1.9953 0.9750
-5.6725 -1.9633 -1.9953 0.9750
-5.4746 -2.4619 -1.9953 0.9750
-5.2329 -2.9409 -1.9953 0.9750
-3.2723 -2.7053 -1.4113 0.9823
-2.7806 -2.7519 -1.3004 0.9836
-1.9139 -2.7281 -1.1077 0.9861
-1.5641 -2.7168 -1.0420 0.9869
-0.9878 -2.7612 -0.9748 0.9877
-0.4828 -2.9038 -0.9785 0.9877
-0.2254 -2.9856 -0.9953 0.9875
0.0428 -3.0460 -1.0126 0.9872
0.3243 -3.1232 -1.0438 0.9869
0.6571 -3.3648 -1.1396 0.9857
1.6719 -5.7651 -1.9953 0.9750
3.5841 -4.8152 -1.9953 0.9750
3.9997 -4.4759 -1.9953 0.9750
4.3834 -4.1009 -1.9953 0.9750
4.7320 -3.6932 -1.9953 0.9750
5.0429 -3.2560 -1.9953 0.9750
5.3134 -2.7927 -1.9953 0.9750
5.5416 -2.3071 -1.9953 0.9750
5.8635 -1.2848 -1.9953 0.9750
5.9986 -0.2214 -1.9953 0.9750
5.9423 0.8490 -1.9953 0.9750
5.5049 2.3934 -1.9953 0.9750
4.9914 3.3343 -1.9953 0.9750
3.6840 4.2545 -1.8707 0.9766
3.2409 4.4990 -1.8431 0.9769
-0.9947 5.4548 -1.8431 0.9769
-1.4778 5.3442 -1.8431 0.9769
-1.9490 5.1910 -1.8431 0.9769
-3.2550 4.4889 -1.8431 0.9769
-3.6427 4.1803 -1.8431 0.9769
-4.1991 4.0280 -1.9342 0.9758
-4.6780 3.7459 -1.9921 0.9751
-5.2782 2.8588 -1.9953 0.9750
-5.9450 0.8304 -1.9953 0.9750
-5.9954 0.2963 -1.9953 0.9750
-5.9979 -0.2402 -1.9953 0.9750
-5.9525 -0.7747 -1.9953 0.9750
-5.8595 -1.3031 -1.9953 0.9750
-5.7198 -1.8210 -1.9953 0.9750
-5.5343 -2.3245 -1.9953 0.9750
-5.3047 -2.8093 -1.9953 0.9750
-5.0327 -3.2717 -1.9953 0.9750
-3.4818 -2.7350 -1.4718 0.9815
-2.4554 -2.7651 -1.2292 0.9845
-2.0176 -2.7284 -1.1280 0.9858
-1.6513 -2.7095 -1.0547 0.9867
-1.3472 -2.7334 -1.0129 0.9872
-1.0637 -2.7543 -0.9814 0.9876
-0.7975 -2.7823 -0.9621 0.9879
-0.2979 -2.9597 -0.9888 0.9875
0.2420 -3.0775 -1.0261 0.9871
2.0396 -5.6455 -1.9953 0.9750
2.5355 -5.4409 -1.9953 0.9750
3.4628 -4.9032 -1.9953 0.9750
3.8867 -4.5744 -1.9953 0.9750
5.2421 -2.9247 -1.9953 0.9750
5.4822 -2.4448 -1.9953 0.9750
5.6786 -1.9456 -1.9953 0.9750
5.9341 -0.9046 -1.9953 0.9750
5.9912 -0.3711 -1.9953 0.9750
-5.5796 -0.0032 -1.9953 0.9766
-5.5571 -0.5013 -1.9953 0.9766
-5.4901 -0.9955 -1.9953 0.9766
-5.3793 -1.4817 -1.9953 0.9766
-5.2255 -1.9561 -1.9953 0.9766
-5.0300 -2.4148 -1.9953 0.9766
-3.1050 -2.7002 -1.4715 0.9827
-2.1878 -2.7265 -1.2501 0.9853
-1.8123 -2.7256 -1.1705 0.9862
-0.9030 -2.7378 -1.0309 0.9878
-0.1436 -2.8475 -1.0196 0.9880
0.1128 -2.8901 -1.0343 0.9878
0.3874 -2.9999 -1.0817 0.9872
1.6874 -5.3184 -1.9953 0.9766
2.6064 -4.9335 -1.9953 0.9766
3.0365 -4.6810 -1.9953 0.9766
3.4423 -4.3912 -1.9953 0.9766
3.8206 -4.0664 -1.9953 0.9766
4.1684 -3.7090 -1.9953 0.9766
4.4829 -3.3220 -1.9953 0.9766
4.7616 -2.9085 -1.9953 0.9766
5.0023 -2.4717 -1.9953 0.9766
5.5510 -0.5644 -1.9953 0.9766
5.5792 -0.0665 -1.9953 0.9766
5.5021 0.9268 -1.9953 0.9766
5.3974 1.4144 -1.9953 0.9766
5.2495 1.8906 -1.9953 0.9766
5.0598 2.3518 -1.9953 0.9766
4.8296 2.7942 -1.9953 0.9766
4.2556 3.6086 -1.9953 0.9766
3.9105 3.9681 -1.9923 0.9766
3.4838 4.2324 -1.9603 0.9770
2.9071 4.2559 -1.8431 0.9783
2.5155 4.4984 -1.8431 0.9783
2.1038 4.7051 -1.8431 0.9783
1.6754 4.8741 -1.8431 0.9783
-0.1262 4.7553 -1.7011 0.9800
-0.5962 5.1194 -1.8431 0.9783
-1.4972 4.9318 -1.8431 0.9783
-2.3505 4.5868 -1.8431 0.9783
-3.6994 4.0372 -1.9582 0.9770
-4.4411 3.3777 -1.9953 0.9766
-4.7249 2.9677 -1.9953 0.9766
-5.1774 2.0801 -1.9953 0.9766
-5.3425 1.6095 -1.9953 0.9766
-5.5133 -0.8581 -1.9953 0.9766
-5.2728 -1.8250 -1.9953 0.9766
-5.0888 -2.2884 -1.9953 0.9766
-4.8641 -2.7336 -1.9953 0.9766
-3.2723 -2.7053 -1.5183 0.9821
-1.9153 -2.7300 -1.1926 0.9859
-1.5571 -2.7047 -1.1161 0.9868
-1.2491 -2.7025 -1.0647 0.9874
-0.9765 -2.7296 -1.0367 0.9878
-0.7185 -2.7659 -1.0219 0.9879
-0.2135 -2.8286 -1.0144 0.9880
0.0405 -2.8805 -1.0302 0.9878
0.6107 -3.1275 -1.1395 0.9866
2.0263 -5.1987 -1.9953 0.9766
2.4824 -4.9970 -1.9953 0.9766
2.9186 -4.7554 -1.9953 0.9766
3.3316 -4.4758 -1.9953 0.9766
4.0745 -3.8119 -1.9953 0.9766
4.6875 -3.0265 -1.9953 0.9766
4.9390 -2.5959 -1.9953 0.9766
5.1510 -2.1446 -1.9953 0.9766
5.3219 -1.6761 -1.9953 0.9766
5.5352 -0.7028 -1.9953 0.9766
5.5758 -0.2058 -1.9953 0.9766
5.2951 1.7590 -1.9953 0.9766
5.1169 2.2247 -1.9953 0.9766
4.6397 3.0993 -1.9953 0.9766
3.0527 4.2378 -1.8677 0.9781
2.2207 4.6511 -1.8431 0.9783
1.7966 4.8308 -1.8431 0.9783
0.9087 5.0733 -1.8431 0.9783
0.4521 5.1342 -1.8431 0.9783
-2.2352 4.6441 -1.8431 0.9783
-3.0256 4.1725 -1.8431 0.9783
-3.5281 4.0488 -1.9205 0.9774
-4.0170 3.8533 -1.9906 0.9766
-4.3554 3.4876 -1.9953 0.9766
-4.6494 3.0848 -1.9953 0.9766
-5.1239 2.2087 -1.9953 0.9766
-5.4350 1.2622 -1.9953 0.9766
-5.5752 -0.2233 -1.9953 0.9766
-5.5330 -0.7201 -1.9953 0.9766
-5.4466 -1.2113 -1.9953 0.9766
-4.9309 -2.6113 -1.9953 0.9766
-4.6780 -3.0411 -1.9953 0.9766
-3.4508 -2.7106 -1.5692 0.9815
-2.8604 -2.6929 -1.4049 0.9834
-1.0514 -2.7226 -1.0437 0.9877
0.2285 -2.9050 -1.0421 0.9877
0.5215 -3.0771 -1.1161 0.9868
1.4198 -5.3960 -1.9953 0.9766
1.8959 -5.2477 -1.9953 0.9766
2.7990 -4.8268 -1.9953 0.9766
3.2187 -4.5576 -1.9953 0.9766
3.6128 -4.2520 -1.9953 0.9766
4.3115 -3.5417 -1.9953 0.9766
5.0959 -2.2725 -1.9953 0.9766
5.2784 -1.8085 -1.9953 0.9766
5.4188 -1.3299 -1.9953 0.9766
-2.2867 -0.0013 -0.8763 0.9903
-2.3041 -0.2079 -0.8866 0.9901
-4.8763 -1.8253 -1.9953 0.9779
-4.2183 -3.0523 -1.9953 0.9779
-3.1050 -2.7002 -1.5769 0.9825
-2.6295 -2.7357 -1.4541 0.9839
-1.8142 -2.7284 -1.2556 0.9861
-0.8925 -2.7061 -1.0920 0.9879
-0.3845 -2.7326 -1.0575 0.9882
0.3650 -2.8267 -1.0922 0.9879
0.6623 -2.9922 -1.1744 0.9870
1.5746 -4.9629 -1.9953 0.9779
4.4434 -2.7141 -1.9953 0.9779
4.6680 -2.3065 -1.9953 0.9779
4.8553 -1.8806 -1.9953 0.9779
5.0038 -1.4396 -1.9953 0.9779
5.1123 -0.9871 -1.9953 0.9779
5.2064 -0.0621 -1.9953 0.9779
5.1911 0.4030 -1.9953 0.9779
4.8987 1.7643 -1.9953 0.9779
4.7216 2.1946 -1.9953 0.9779
4.2560 2.9994 -1.9953 0.9779
3.6547 3.7085 -1.9953 0.9779
3.3023 4.0119 -1.9913 0.9780
1.5634 4.5484 -1.8431 0.9796
0.3022 4.8001 -1.8431 0.9796
-0.1260 4.7463 -1.8195 0.9799
-0.9807 4.7085 -1.8431 0.9796
-1.8025 4.4590 -1.8431 0.9796
-2.1934 4.2803 -1.8431 0.9796
-2.5794 4.0873 -1.8522 0.9795
-4.8314 1.9410 -1.9953 0.9779
-4.9854 1.5019 -1.9953 0.9779
-2.3019 0.2631 -0.8879 0.9901
-4.9204 -1.7030 -1.9953 0.9779
-4.5390 -2.5510 -1.9953 0.9779
-1.9167 -2.7321 -1.2789 0.9858
-1.5599 -2.7096 -1.1981 0.9867
-0.7120 -2.7408 -1.0852 0.9879
-0.2068 -2.7397 -1.0529 0.9883
0.0384 -2.7339 -1.0478 0.9884
0.2897 -2.7905 -1.0751 0.9881
0.5758 -2.9486 -1.1513 0.9872
1.8909 -4.8512 -1.9953 0.9779
2.7236 -4.4376 -1.9953 0.9779
3.1089 -4.1767 -1.9953 0.9779
3.4694 -3.8825 -1.9953 0.9779
4.3742 -2.8242 -1.9953 0.9779
4.6089 -2.4224 -1.9953 0.9779
4.8068 -2.0012 -1.9953 0.9779
4.9663 -1.5641 -1.9953 0.9779
5.0861 -1.1144 -1.9953 0.9779
5.1996 0.2733 -1.9953 0.9779
5.1544 0.7364 -1.9953 0.9779
5.0680 1.1937 -1.9953 0.9779
4.9412 1.6414 -1.9953 0.9779
4.7750 2.0760 -1.9953 0.9779
4.5705 2.4941 -1.9953 0.9779
4.3296 2.8922 -1.9953 0.9779
4.0541 3.2672 -1.9953 0.9779
2.5005 4.2205 -1.8799 0.9792
1.6765 4.5079 -1.8431 0.9796
0.8480 4.7342 -1.8431 0.9796
0.4219 4.7910 -1.8431 0.9796
-0.8628 4.7316 -1.8431 0.9796
-1.2818 4.6356 -1.8431 0.9796
-1.6906 4.5027 -1.8431 0.9796
-2.4645 4.1302 -1.8431 0.9796
-3.7567 3.6037 -1.9949 0.9779
-4.3386 2.8786 -1.9953 0.9779
-4.7814 2.0611 -1.9953 0.9779
-4.9464 1.6259 -1.9953 0.9779
-2.3012 0.1137 -0.8829 0.9902
-2.2993 -0.0921 -0.8818 0.9902
-5.0826 -1.1303 -1.9953 0.9779
-4.9614 -1.5796 -1.9953 0.9779
-4.6013 -2.4368 -1.9953 0.9779
-4.3654 -2.8379 -1.9953 0.9779
-3.4508 -2.7106 -1.6816 0.9814
-2.0206 -2.7324 -1.3023 0.9855
-1.3261 -2.6905 -1.1495 0.9872
-1.0392 -2.6911 -1.1055 0.9877
-0.5270 -2.7442 -1.0708 0.9881
0.2166 -2.7542 -1.0587 0.9882
0.4915 -2.9003 -1.1273 0.9875
1.3249 -5.0354 -1.9953 0.9779
2.6119 -4.5042 -1.9953 0.9779
3.0036 -4.2530 -1.9953 0.9779
3.7122 -3.6510 -1.9953 0.9779
4.0233 -3.3050 -1.9953 0.9779
4.5470 -2.5367 -1.9953 0.9779
4.9256 -1.6876 -1.9953 0.9779
5.1473 -0.7846 -1.9953 0.9779
-2.0155 -0.1818 -0.8283 0.9913
-2.0587 -0.3733 -0.8563 0.9910
-4.5659 -1.7091 -1.9953 0.9791
-4.1891 -2.4939 -1.9953 0.9791
-3.1050 -2.7002 -1.6841 0.9824
-2.6160 -2.7216 -1.5450 0.9838
-2.1911 -2.7307 -1.4329 0.9850
-1.8156 -2.7305 -1.3420 0.9859
-1.1584 -2.6800 -1.1949 0.9875
-0.8822 -2.6747 -1.1527 0.9879
-0.3818 -2.7137 -1.1216 0.9882
-0.1366 -2.7091 -1.1102 0.9883
0.3542 -2.7430 -1.1320 0.9881
0.6458 -2.9177 -1.2230 0.9872
1.4744 -4.6470 -1.9953 0.9791
3.0077 -3.8369 -1.9953 0.9791
3.3383 -3.5530 -1.9953 0.9791
3.6422 -3.2408 -1.9953 0.9791
4.1605 -2.5413 -1.9953 0.9791
4.3708 -2.1597 -1.9953 0.9791
4.5461 -1.7608 -1.9953 0.9791
4.6852 -1.3479 -1.9953 0.9791
4.7868 -0.9242 -1.9953 0.9791
4.8749 -0.0581 -1.9953 0.9791
4.8606 0.3774 -1.9953 0.9791
4.4210 2.0549 -1.9953 0.9791
3.7184 3.1530 -1.9953 0.9791
3.4220 3.4724 -1.9953 0.9791
2.7438 4.0168 -1.9909 0.9792
2.3485 4.1998 -1.9694 0.9794
1.8793 4.2028 -1.8842 0.9803
1.4639 4.2588 -1.8431 0.9807
0.6831 4.4513 -1.8431 0.9807
0.2829 4.4945 -1.8431 0.9807
-0.1195 4.5018 -1.8431 0.9807
-0.9183 4.4088 -1.8431 0.9807
-1.3082 4.3092 -1.8431 0.9807
-2.0983 4.0947 -1.8831 0.9803
-2.5661 4.0662 -1.9679 0.9794
-3.2936 3.5944 -1.9953 0.9791
-3.6014 3.2860 -1.9953 0.9791
-3.8805 2.9513 -1.9953 0.9791
-4.3435 2.2141 -1.9953 0.9791
-4.5238 1.8175 -1.9953 0.9791
-2.0791 0.4284 -0.8688 0.9909
-1.9964 0.0487 -0.8173 0.9914
-2.0094 -0.1308 -0.8241 0.9913
-2.0311 -0.3161 -0.8413 0.9912
-2.1045 -0.5235 -0.8876 0.9907
-4.6071 -1.5946 -1.9953 0.9791
-4.4463 -1.9995 -1.9953 0.9791
-4.2501 -2.3885 -1.9953 0.9791
-3.2723 -2.7053 -1.7377 0.9818
-2.3035 -2.7283 -1.4614 0.9847
-1.9182 -2.7341 -1.3669 0.9857
-1.5628 -2.7145 -1.2819 0.9866
-0.9541 -2.6671 -1.1593 0.9878
-0.7055 -2.7156 -1.1483 0.9879
-0.4531 -2.7254 -1.1307 0.9881
-0.2050 -2.7150 -1.1144 0.9883
0.5508 -2.8203 -1.1761 0.9877
1.3579 -4.6823 -1.9953 0.9791
1.7705 -4.5424 -1.9953 0.9791
2.1690 -4.3662 -1.9953 0.9791
2.5502 -4.1551 -1.9953 0.9791
2.9110 -3.9108 -1.9953 0.9791
3.2485 -3.6353 -1.9953 0.9791
3.8433 -2.9995 -1.9953 0.9791
4.0957 -2.6444 -1.9953 0.9791
4.3155 -2.2682 -1.9953 0.9791
4.5008 -1.8738 -1.9953 0.9791
4.8364 -0.6141 -1.9953 0.9791
4.8262 0.6895 -1.9953 0.9791
4.7454 1.1177 -1.9953 0.9791
4.0539 2.7080 -1.9953 0.9791
3.7960 3.0592 -1.9953 0.9791
3.5077 3.3859 -1.9953 0.9791
3.1914 3.6855 -1.9953 0.9791
2.8450 3.9494 -1.9921 0.9792
1.5698 4.2209 -1.8431 0.9807
-1.2002 4.3405 -1.8431 0.9807
-1.5829 4.2160 -1.8431 0.9807
-1.9742 4.1018 -1.8631 0.9805
-2.4313 4.0747 -1.9420 0.9797
-2.8539 3.9357 -1.9897 0.9792
-3.2008 3.6731 -1.9940 0.9792
-3.8055 3.0473 -1.9953 0.9791
-4.0624 2.6954 -1.9953 0.9791
-4.2868 2.3219 -1.9953 0.9791
-4.6315 1.5224 -1.9953 0.9791
-2.0044 0.0991 -0.8214 0.9914
-2.0010 -0.0801 -0.8196 0.9914
-2.0204 -0.2630 -0.8339 0.9912
-4.4949 -1.8879 -1.9953 0.9791
-4.3084 -2.2817 -1.9953 0.9791
-4.0875 -2.6572 -1.9953 0.9791
-3.8339 -3.0116 -1.9953 0.9791
-2.8604 -2.6929 -1.6079 0.9832
-2.0221 -2.7344 -1.3919 0.9854
-1.3284 -2.6953 -1.2298 0.9871
-1.0304 -2.6683 -1.1706 0.9877
-0.0296 -2.7068 -1.1079 0.9884
2.4456 -4.2175 -1.9953 0.9791
2.8124 -3.9823 -1.9953 0.9791
3.1567 -3.7153 -1.9953 0.9791
3.4758 -3.4186 -1.9953 0.9791
3.7672 -3.0946 -1.9953 0.9791
4.0284 -2.7459 -1.9953 0.9791
4.2575 -2.3752 -1.9953 0.9791
4.4526 -1.9856 -1.9953 0.9791
4.6121 -1.5802 -1.9953 0.9791
4.7347 -1.1621 -1.9953 0.9791
4.8196 -0.7347 -1.9953 0.9791
4.8659 -0.3014 -1.9953 0.9791
-1.4670 -0.1323 -0.6419 0.9936
-1.4701 -0.2666 -0.6511 0.9935
-1.5104 -0.5654 -0.7029 0.9930
-3.9340 -2.3420 -1.9953 0.9802
-3.1050 -2.7002 -1.7933 0.9822
-1.8169 -2.7325 -1.4301 0.9858
-1.4723 -2.7118 -1.3448 0.9866
-0.8774 -2.6604 -1.2209 0.9879
-0.6312 -2.7059 -1.2109 0.9879
-0.3798 -2.6995 -1.1881 0.9882
-0.1354 -2.6846 -1.1715 0.9883
0.1046 -2.6801 -1.1689 0.9884
0.6452 -2.9148 -1.3011 0.9871
2.1387 -4.0481 -1.9953 0.9802
2.4916 -3.8410 -1.9953 0.9802
2.8245 -3.6032 -1.9953 0.9802
3.1350 -3.3366 -1.9953 0.9802
3.6784 -2.7259 -1.9953 0.9802
4.1046 -2.0282 -1.9953 0.9802
4.3999 -1.2658 -1.9953 0.9802
4.4953 -0.8679 -1.9953 0.9802
4.5549 -0.4631 -1.9953 0.9802
4.5780 -0.0546 -1.9953 0.9802
4.5147 0.7605 -1.9953 0.9802
4.4288 1.1606 -1.9953 0.9802
4.3075 1.5514 -1.9953 0.9802
3.9629 2.2927 -1.9953 0.9802
3.2136 3.2609 -1.9953 0.9802
2.5818 3.7797 -1.9949 0.9802
1.8620 4.1642 -1.9880 0.9803
0.6418 4.1821 -1.8440 0.9817
-0.1122 4.2276 -1.8431 0.9817
-1.2505 4.1191 -1.8761 0.9814
-2.7786 3.6373 -1.9948 0.9802
-3.6441 2.7716 -1.9953 0.9802
-3.8770 2.4351 -1.9953 0.9802
-4.0790 2.0793 -1.9953 0.9802
-4.2483 1.7068 -1.9953 0.9802
-1.4939 0.4500 -0.6799 0.9932
-1.4761 0.3042 -0.6568 0.9934
-1.4905 -0.5159 -0.6874 0.9931
-4.1756 -1.8778 -1.9953 0.9802
-3.9912 -2.2431 -1.9953 0.9802
-3.7750 -2.5905 -1.9953 0.9802
-3.2723 -2.7053 -1.8504 0.9816
-1.5657 -2.7196 -1.3676 0.9864
-1.2445 -2.6926 -1.2927 0.9871
-0.9536 -2.6656 -1.2338 0.9877
-0.4507 -2.7108 -1.1976 0.9881
0.0376 -2.6770 -1.1668 0.9884
1.2752 -4.3972 -1.9953 0.9802
3.0507 -3.4139 -1.9953 0.9802
3.3433 -3.1279 -1.9953 0.9802
3.6092 -2.8169 -1.9953 0.9802
4.0527 -2.1300 -1.9953 0.9802
4.2267 -1.7597 -1.9953 0.9802
4.4722 -0.9799 -1.9953 0.9802
4.5720 0.2403 -1.9953 0.9802
4.4564 1.0496 -1.9953 0.9802
4.1987 1.8255 -1.9953 0.9802
3.8071 2.5431 -1.9953 0.9802
3.5648 2.8729 -1.9953 0.9802
2.9970 3.4611 -1.9953 0.9802
2.6760 3.7148 -1.9953 0.9802
1.1423 4.1818 -1.8893 0.9813
-1.1404 4.1241 -1.8648 0.9815
-1.5412 4.1047 -1.9108 0.9811
-2.3399 3.9215 -1.9902 0.9803
-2.6855 3.7035 -1.9937 0.9802
-3.0078 3.4517 -1.9953 0.9802
-3.8150 2.5312 -1.9953 0.9802
-1.4858 0.3450 -0.6648 0.9934
-1.4520 0.0718 -0.6336 0.9937
-1.4732 -0.1917 -0.6474 0.9935
-1.4826 -0.3297 -0.6619 0.9934
-1.4937 -0.4756 -0.6832 0.9932
-4.0460 -2.1427 -1.9953 0.9802
-3.6004 -2.8281 -1.9953 0.9802
-2.8604 -2.6929 -1.7121 0.9830
-2.4225 -2.7280 -1.5900 0.9842
-2.0237 -2.7365 -1.4833 0.9853
-1.6620 -2.7270 -1.3918 0.9862
-1.3308 -2.7001 -1.3119 0.9870
-1.0322 -2.6728 -1.2487 0.9876
0.4668 -2.7545 -1.2176 0.9879
1.5556 -4.3059 -1.9953 0.9802
2.2967 -3.9606 -1.9953 0.9802
2.9645 -3.4890 -1.9953 0.9802
3.2641 -3.2104 -1.9953 0.9802
3.7831 -2.5787 -1.9953 0.9802
3.9982 -2.2306 -1.9953 0.9802
4.1814 -1.8647 -1.9953 0.9802
4.5260 -0.6899 -1.9953 0.9802
-1.2735 -0.1149 -0.5919 0.9944
-1.2719 -0.2306 -0.5983 0.9943
-1.2595 -0.4714 -0.6225 0.9941
-1.2723 -0.6108 -0.6533 0.9938
-3.7039 -2.2051 -1.9953 0.9812
-3.1050 -2.7002 -1.9047 0.9820
-2.6553 -2.7626 -1.7737 0.9833
-1.8183 -2.7346 -1.5201 0.9856
-1.4751 -2.7169 -1.4310 0.9865
-1.1625 -2.6895 -1.3562 0.9872
-0.6254 -2.6806 -1.2741 0.9879
-0.1341 -2.6600 -1.2328 0.9883
0.1039 -2.6600 -1.2322 0.9883
0.6445 -2.9119 -1.3805 0.9869
1.6653 -3.9760 -1.9953 0.9812
2.9517 -3.1415 -1.9953 0.9812
3.2203 -2.8654 -1.9953 0.9812
3.6786 -2.2470 -1.9953 0.9812
3.8646 -1.9096 -1.9953 0.9812
4.0196 -1.5569 -1.9953 0.9812
4.1426 -1.1918 -1.9953 0.9812
4.2324 -0.8172 -1.9953 0.9812
4.2885 -0.4360 -1.9953 0.9812
4.3103 -0.0514 -1.9953 0.9812
4.2977 0.3337 -1.9953 0.9812
4.2507 0.7160 -1.9953 0.9812
4.1698 1.0927 -1.9953 0.9812
3.9090 1.8169 -1.9953 0.9812
3.7312 2.1587 -1.9953 0.9812
3.5235 2.4832 -1.9953 0.9812
3.0257 3.0702 -1.9953 0.9812
2.7395 3.3281 -1.9953 0.9812
2.4314 3.5594 -1.9953 0.9812
2.1035 3.7616 -1.9950 0.9812
1.7566 3.9285 -1.9920 0.9812
1.0257 4.1611 -1.9838 0.9813
-0.1100 4.1423 -1.9181 0.9819
-0.4811 4.1309 -1.9251 0.9818
-0.8574 4.1167 -1.9465 0.9816
-1.6108 3.9847 -1.9895 0.9812
-1.9625 3.8297 -1.9919 0.9812
-2.6168 3.4254 -1.9953 0.9812
-3.1843 2.9054 -1.9953 0.9812
-3.4310 2.6095 -1.9953 0.9812
-3.8404 1.9577 -1.9953 0.9812
-1.2528 0.5033 -0.6250 0.9941
-1.2681 0.2613 -0.5993 0.9943
-1.2750 0.1457 -0.5940 0.9944
-1.2637 0.0308 -0.5851 0.9944
-1.2743 -0.1983 -0.5970 0.9943
-1.2648 -0.4377 -0.6195 0.9941
-3.7578 -2.1119 -1.9953 0.9812
-3.2723 -2.7053 -1.9653 0.9815
-2.3073 -2.7327 -1.6555 0.9844
-1.5687 -2.7248 -1.4554 0.9862
-0.9558 -2.6716 -1.3134 0.9876
-0.6924 -2.6654 -1.2747 0.9879
-0.2013 -2.6657 -1.2374 0.9883
0.0373 -2.6543 -1.2287 0.9884
0.2788 -2.6856 -1.2498 0.9882
1.5655 -4.0163 -1.9953 0.9812
1.9178 -3.8605 -1.9953 0.9812
2.2548 -3.6738 -1.9953 0.9812
3.3982 -2.6521 -1.9953 0.9812
3.9795 -1.6568 -1.9953 0.9812
4.2107 -0.9226 -1.9953 0.9812
4.2763 -0.5430 -1.9953 0.9812
4.3047 0.2262 -1.9953 0.9812
4.1958 0.9882 -1.9953 0.9812
4.0908 1.3589 -1.9953 0.9812
3.9531 1.7187 -1.9953 0.9812
3.7839 2.0648 -1.9953 0.9812
3.5844 2.3944 -1.9953 0.9812
2.8217 3.2587 -1.9953 0.9812
2.5195 3.4976 -1.9953 0.9812
2.1972 3.7086 -1.9953 0.9812
1.8549 3.8849 -1.9927 0.9812
1.4987 4.0298 -1.9901 0.9812
1.1317 4.1431 -1.9880 0.9812
0.3658 4.1531 -1.9299 0.9818
-0.7515 4.1210 -1.9390 0.9817
-1.8656 3.8761 -1.9912 0.9812
-2.2073 3.6993 -1.9940 0.9812
-3.3648 2.6944 -1.9953 0.9812
-3.7903 2.0530 -1.9953 0.9812
-1.2442 0.5363 -0.6272 0.9940
-1.2666 -0.0507 -0.5867 0.9944
-1.2681 -0.2820 -0.6013 0.9943
-1.2684 -0.4038 -0.6161 0.9942
-1.2476 -0.5240 -0.6264 0.9941
-3.8094 -2.0174 -1.9953 0.9812
-3.6141 -2.3495 -1.9953 0.9812
-3.3899 -2.6628 -1.9953 0.9812
-2.8604 -2.6929 -1.8185 0.9828
-2.0253 -2.7387 -1.5767 0.9851
-0.7621 -2.6591 -1.2804 0.9879
-0.5185 -2.7003 -1.2727 0.9880
-0.0290 -2.6506 -1.2270 0.9884
0.4647 -2.7421 -1.2874 0.9878
1.8208 -3.9072 -1.9953 0.9812
2.1624 -3.7290 -1.9953 0.9812
2.4867 -3.5210 -1.9953 0.9812
3.0733 -3.0226 -1.9953 0.9812
3.7644 -2.1001 -1.9953 0.9812
4.0779 -1.3971 -1.9953 0.9812
4.1864 -1.0275 -1.9953 0.9812
4.2614 -0.6496 -1.9953 0.9812
4.3024 -0.2665 -1.9953 0.9812
-1.1406 -0.2068 -0.5686 0.9948
-1.1325 -0.3119 -0.5762 0.9948
-1.1195 -0.4191 -0.5863 0.9947
-3.0694 -2.6693 -1.9953 0.9820
-1.1646 -2.6944 -1.4398 0.9870
0.3478 -2.6936 -1.3322 0.9880
0.6428 -2.9042 -1.4590 0.9868
1.2302 -3.8773 -1.9953 0.9820
1.5714 -3.7519 -1.9953 0.9820
3.0389 -2.7040 -1.9953 0.9820
3.9940 -0.7711 -1.9953 0.9820
4.0469 -0.4115 -1.9953 0.9820
4.0674 -0.0485 -1.9953 0.9820
4.0555 0.3149 -1.9953 0.9820
3.8271 1.3783 -1.9953 0.9820
3.6887 1.7145 -1.9953 0.9820
3.3250 2.3433 -1.9953 0.9820
3.1025 2.6308 -1.9953 0.9820
2.8552 2.8973 -1.9953 0.9820
2.5851 3.1406 -1.9953 0.9820
2.2944 3.3589 -1.9953 0.9820
0.6154 4.0101 -1.9901 0.9821
-0.4691 4.0281 -1.9892 0.9821
-1.5228 3.7672 -1.9932 0.9821
-2.1709 3.4400 -1.9953 0.9820
-3.0049 2.7417 -1.9953 0.9820
-3.2377 2.4625 -1.9953 0.9820
-1.0907 0.5560 -0.6005 0.9946
-1.1131 0.4472 -0.5884 0.9947
-1.1370 0.2343 -0.5695 0.9948
-1.1442 0.1308 -0.5649 0.9949
-1.1380 0.0278 -0.5584 0.9949
-1.1428 -0.0744 -0.5618 0.9949
-1.1430 -0.1779 -0.5674 0.9949
-1.1249 -0.3894 -0.5839 0.9947
-1.0992 -0.4943 -0.5912 0.9946
-3.5461 -1.9929 -1.9953 0.9820
-3.1351 -2.5918 -1.9953 0.9820
-1.2491 -2.7024 -1.4604 0.9868
-0.9584 -2.6788 -1.3956 0.9874
-0.6913 -2.6610 -1.3486 0.9878
-0.4458 -2.6814 -1.3333 0.9880
-0.2020 -2.6759 -1.3163 0.9881
1.1330 -3.9068 -1.9953 0.9820
1.4773 -3.7900 -1.9953 0.9820
1.8097 -3.6430 -1.9953 0.9820
2.1278 -3.4668 -1.9953 0.9820
2.4288 -3.2630 -1.9953 0.9820
2.9704 -2.7790 -1.9953 0.9820
3.2067 -2.5027 -1.9953 0.9820
3.7553 -1.5634 -1.9953 0.9820
3.9735 -0.8706 -1.9953 0.9820
3.9594 0.9326 -1.9953 0.9820
3.7304 1.6219 -1.9953 0.9820
2.9267 2.8251 -1.9953 0.9820
2.3776 3.3005 -1.9953 0.9820
0.7154 3.9941 -1.9904 0.9821
-0.7277 3.9906 -1.9898 0.9821
-1.0817 3.9120 -1.9909 0.9821
-1.7637 3.6644 -1.9948 0.9820
-2.0843 3.4931 -1.9953 0.9820
-1.1072 0.5997 -0.6176 0.9944
-1.1276 0.3707 -0.5822 0.9947
-1.1403 -0.0457 -0.5598 0.9949
-1.1340 -0.2522 -0.5699 0.9948
-1.1082 -0.4655 -0.5896 0.9947
-1.0996 -0.5823 -0.6103 0.9945
-3.4104 -2.2171 -1.9953 0.9820
-3.1989 -2.5127 -1.9953 0.9820
-2.7010 -3.0416 -1.9953 0.9820
-2.0269 -2.7409 -1.6721 0.9849
-1.3358 -2.7101 -1.4821 0.9866
-1.0360 -2.6827 -1.4107 0.9873
-0.7641 -2.6660 -1.3604 0.9877
-0.5144 -2.6787 -1.3380 0.9879
0.2084 -2.6497 -1.3038 0.9882
0.4626 -2.7296 -1.3580 0.9877
1.3822 -3.8257 -1.9953 0.9820
1.7182 -3.6870 -1.9953 0.9820
2.3466 -3.3227 -1.9953 0.9820
2.6339 -3.0999 -1.9953 0.9820
2.9001 -2.8523 -1.9953 0.9820
3.1432 -2.5820 -1.9953 0.9820
3.7151 -1.6567 -1.9953 0.9820
4.0213 -0.6130 -1.9953 0.9820
4.0599 -0.2515 -1.9953 0.9820
-1.0295 -0.0006 -0.5341 0.9954
-1.0376 -0.0936 -0.5405 0.9953
-1.0317 -0.1871 -0.5440 0.9953
-1.0058 -0.3765 -0.5571 0.9952
-0.9768 -0.4690 -0.5621 0.9951
-2.6653 -2.7730 -1.9953 0.9828
-1.8212 -2.7390 -1.7064 0.9853
-0.8845 -2.6816 -1.4649 0.9874
-0.6212 -2.6631 -1.4186 0.9878
-0.3737 -2.6561 -1.3915 0.9880
-0.1324 -2.6258 -1.3640 0.9882
0.1022 -2.6188 -1.3596 0.9883
0.3467 -2.6847 -1.4044 0.9879
1.4858 -3.5476 -1.9953 0.9828
1.7967 -3.4007 -1.9953 0.9828
2.3728 -3.0270 -1.9953 0.9828
3.0902 -2.2899 -1.9953 0.9828
3.2823 -2.0049 -1.9953 0.9828
3.4482 -1.7038 -1.9953 0.9828
3.5865 -1.3892 -1.9953 0.9828
3.7764 -0.7291 -1.9953 0.9828
3.8265 -0.3890 -1.9953 0.9828
3.8459 -0.0459 -1.9953 0.9828
3.8346 0.2977 -1.9953 0.9828
3.7927 0.6389 -1.9953 0.9828
3.7205 0.9750 -1.9953 0.9828
2.9335 2.4875 -1.9953 0.9828
2.4443 2.9696 -1.9953 0.9828
2.1694 3.1759 -1.9953 0.9828
1.5700 3.5111 -1.9953 0.9828
0.5829 3.7984 -1.9936 0.9828
0.2413 3.8339 -1.9929 0.9828
-0.1019 3.8396 -1.9926 0.9828
-0.7836 3.7621 -1.9936 0.9828
-1.1171 3.6795 -1.9949 0.9828
-1.7540 3.4229 -1.9953 0.9828
-2.0527 3.2526 -1.9953 0.9828
-2.3349 3.0564 -1.9953 0.9828
-2.8412 2.5924 -1.9953 0.9828
-0.9665 0.4927 -0.5628 0.9951
-1.0283 0.2119 -0.5447 0.9953
-1.0375 0.1186 -0.5417 0.9953
-1.0330 0.0252 -0.5361 0.9954
-1.0368 -0.0675 -0.5390 0.9953
-1.0348 -0.1611 -0.5433 0.9953
-1.0203 -0.2538 -0.5454 0.9953
-0.9865 -0.4436 -0.5611 0.9951
-0.9497 -0.5337 -0.5651 0.9951
-3.1713 -2.1762 -1.9953 0.9828
-2.7337 -2.7055 -1.9953 0.9828
-1.9243 -2.7429 -1.7382 0.9850
-1.5716 -2.7298 -1.6341 0.9859
-0.6931 -2.6680 -1.4301 0.9877
-0.4433 -2.6664 -1.4023 0.9879
-0.1984 -2.6278 -1.3671 0.9882
1.0713 -3.6940 -1.9953 0.9828
1.3968 -3.5836 -1.9953 0.9828
2.0119 -3.2780 -1.9953 0.9828
2.2965 -3.0853 -1.9953 0.9828
2.5628 -2.8679 -1.9953 0.9828
2.8086 -2.6277 -1.9953 0.9828
3.2312 -2.0862 -1.9953 0.9828
3.5507 -1.4783 -1.9953 0.9828
3.8435 -0.1419 -1.9953 0.9828
3.8409 0.2019 -1.9953 0.9828
3.8075 0.5440 -1.9953 0.9828
3.7437 0.8818 -1.9953 0.9828
