ply
format ascii 1.0
element vertex 1586
property float32 x
property float32 y
property float32 z
property float32 I
end_header
0.3491 12.1021 1.5766 0.9523
-0.7331 12.0695 1.5746 0.9524
-1.8212 12.0368 1.5853 0.9521
-5.2520 11.8027 1.6823 0.9492
-9.5232 11.6050 1.9549 0.9412
-13.4784 13.7153 2.5041 0.9254
8.0494 12.1836 1.9015 0.9428
5.1921 12.1166 1.7166 0.9482
3.9404 12.0790 1.6545 0.9500
2.7974 12.1756 1.6268 0.9509
1.6656 12.1416 1.5959 0.9518
0.5674 12.1086 1.5785 0.9523
-2.7069 12.0102 1.6032 0.9516
-5.0028 11.8102 1.6702 0.9496
-4.5508 6.9506 1.0819 0.9670
-13.2517 13.9790 2.5083 0.9252
-3.9157 -19.4313 2.1285 0.9234
-2.1274 -19.3776 2.0933 0.9246
7.7445 12.1933 1.5511 0.9435
3.7397 12.2040 1.3706 0.9499
0.3491 12.1021 1.3001 0.9525
-2.9332 12.0034 1.3269 0.9515
-5.3095 11.9320 1.4024 0.9488
-2.4823 -19.3883 2.0989 0.9244
8.0621 12.2028 1.5705 0.9429
6.5526 12.1575 1.4830 0.9460
2.7974 12.1757 1.3415 0.9510
-0.2082 4.8753 0.5240 0.9806
-1.6012 12.0435 1.3046 0.9523
-2.7069 12.0102 1.3220 0.9517
-5.0576 11.9396 1.3924 0.9492
-3.9157 -19.4313 1.6780 0.9235
3.7397 12.2040 1.0805 0.9501
2.6087 12.3701 1.0702 0.9505
0.3549 12.3023 1.0419 0.9518
-4.0885 11.9687 1.0707 0.9505
-5.3095 11.9320 1.1056 0.9489
-4.7495 6.9770 0.7145 0.9667
-4.2832 -19.4424 1.6853 0.9232
8.2333 12.4619 1.2644 0.9418
6.6821 12.3977 1.1922 0.9450
5.3023 12.3738 1.1396 0.9474
3.9647 12.1534 1.0822 0.9500
2.8437 12.3771 1.0751 0.9503
0.5768 12.3090 1.0431 0.9517
-1.6012 12.0435 1.0285 0.9524
-3.8518 11.9758 1.0649 0.9508
-5.1413 12.1372 1.1158 0.9485
-4.5309 6.9202 0.7002 0.9673
-13.2787 14.0074 1.6339 0.9254
7.9778 12.5607 0.9227 0.9421
5.2456 12.8765 0.8622 0.9458
3.7397 12.2040 0.7915 0.9501
2.6087 12.3701 0.7839 0.9506
-5.3095 11.9320 0.8099 0.9490
-4.7222 6.9369 0.5204 0.9669
-13.4564 13.6929 1.1905 0.9259
7.0787 13.1334 0.9252 0.9420
2.8437 12.3771 0.7875 0.9504
0.5768 12.3090 0.7641 0.9518
-0.2081 4.8743 0.3025 0.9806
-1.6012 12.0435 0.7534 0.9525
-5.1413 12.1372 0.8174 0.9485
6.7981 13.1750 0.5846 0.9424
3.7397 12.2040 0.5033 0.9502
2.6087 12.3701 0.4985 0.9507
1.4428 12.1349 0.4819 0.9523
-0.7331 12.0695 0.4768 0.9527
-1.8514 12.2360 0.4880 0.9517
-2.9332 12.0034 0.4872 0.9517
-5.3095 11.9320 0.5150 0.9491
4.6524 7.0419 0.3328 0.9668
7.1061 13.1843 0.5906 0.9418
3.9734 12.1800 0.5052 0.9500
2.8437 12.3771 0.5008 0.9504
1.6656 12.1416 0.4832 0.9521
0.5768 12.3090 0.4859 0.9519
-1.6012 12.0435 0.4791 0.9525
-3.8518 11.9758 0.4960 0.9509
-5.1413 12.1372 0.5197 0.9486
-4.5121 6.8916 0.3248 0.9676
-13.2712 13.9995 0.7606 0.9257
7.9778 12.5607 0.2514 0.9422
6.7981 13.1750 0.2504 0.9424
5.2456 12.8764 0.2349 0.9459
2.6087 12.3701 0.2135 0.9507
1.4428 12.1349 0.2064 0.9523
-2.9332 12.0034 0.2087 0.9518
-4.0885 11.9687 0.2136 0.9507
-5.3095 11.9320 0.2206 0.9491
-13.4952 13.7324 0.3252 0.9259
4.6419 7.0260 0.1422 0.9669
5.6306 13.1399 0.2415 0.9444
-0.2081 4.8732 0.0824 0.9807
-1.6012 12.0435 0.2052 0.9526
-3.8518 11.9758 0.2125 0.9509
-13.3210 14.0521 0.3271 0.9255
-5.3925 -18.1796 -0.1068 0.9270
-3.6238 -17.9827 -0.1033 0.9292
1.2621 -18.0889 -0.1021 0.9300
2.8897 -18.0026 -0.1027 0.9297
6.3770 -18.1332 -0.1082 0.9260
7.9778 12.5607 -0.0838 0.9422
6.7797 13.1392 -0.0832 0.9426
5.2456 12.8765 -0.0783 0.9459
1.4428 12.1349 -0.0688 0.9523
0.3311 11.4781 -0.0647 0.9551
-1.8212 12.0368 -0.0685 0.9525
-2.9332 12.0034 -0.0696 0.9518
-5.3095 11.9320 -0.0735 0.9491
-4.6356 6.8096 -0.0464 0.9676
-7.5470 -18.0591 -0.1102 0.9247
0.9301 -17.9847 -0.1014 0.9305
4.1877 -17.8309 -0.1031 0.9294
4.6273 7.0039 -0.0473 0.9670
7.0867 13.1485 -0.0841 0.9420
5.6306 13.1399 -0.0805 0.9444
2.7974 12.1756 -0.0703 0.9513
0.5382 11.4842 -0.0647 0.9551
-0.2081 4.8727 -0.0275 0.9807
-3.8518 11.9758 -0.0708 0.9509
-5.0576 11.9396 -0.0730 0.9495
-4.4973 6.8689 -0.0462 0.9677
-3.6175 -17.9514 -0.5156 0.9293
-1.9697 -17.9409 -0.5082 0.9303
-0.3551 -17.8890 -0.5038 0.9309
1.2478 -17.8839 -0.5048 0.9308
6.3139 -17.9539 -0.5359 0.9267
6.9543 -15.2574 -0.4721 0.9351
6.7797 13.1392 -0.4163 0.9426
4.3968 10.7929 -0.3282 0.9544
-0.7331 12.0695 -0.3405 0.9528
-1.8212 12.0368 -0.3428 0.9525
-5.2125 11.7139 -0.3610 0.9500
-4.6370 6.8117 -0.2320 0.9676
-13.5793 13.8180 -0.5455 0.9254
-14.0474 11.9430 -0.5192 0.9289
-7.5233 -18.0025 -0.5494 0.9249
-5.7015 -18.0257 -0.5324 0.9271
-3.9758 -18.0467 -0.5203 0.9287
0.9238 -17.8624 -0.5036 0.9309
4.1700 -17.7557 -0.5136 0.9296
5.8729 -17.7116 -0.5254 0.9281
4.6173 6.9887 -0.2359 0.9670
5.6306 13.1399 -0.4025 0.9444
2.7463 11.9531 -0.3453 0.9521
1.5506 11.3035 -0.3213 0.9554
-0.2080 4.8722 -0.1373 0.9807
-4.9652 11.7213 -0.3584 0.9503
-7.1569 -18.0305 -0.9838 0.9252
-1.9677 -17.9223 -0.9144 0.9303
1.2466 -17.8675 -0.9083 0.9308
5.8441 -16.6178 -0.8934 0.9319
6.8754 -15.0843 -0.8407 0.9358
9.5789 12.4612 -0.7971 0.9390
4.6180 7.2708 -0.4368 0.9661
4.2786 10.5027 -0.5751 0.9556
3.2085 10.4706 -0.5554 0.9571
2.2963 10.8885 -0.5643 0.9564
0.3396 11.7725 -0.5973 0.9539
-0.7197 11.8489 -0.6020 0.9536
-4.6357 6.8098 -0.4178 0.9675
-13.6256 13.8651 -0.9859 0.9251
-14.0415 11.9380 -0.9347 0.9288
2.5257 -17.7722 -0.9104 0.9306
4.1550 -17.6918 -0.9216 0.9298
6.6735 -15.3678 -0.8497 0.9351
7.8541 -14.4048 -0.8321 0.9364
7.1060 13.1843 -0.7596 0.9418
3.4178 10.4769 -0.5589 0.9568
1.4922 10.8779 -0.5568 0.9570
0.5520 11.7795 -0.5980 0.9539
-0.2080 4.8716 -0.2473 0.9807
-2.6574 11.7907 -0.6130 0.9527
-4.9652 11.7213 -0.6456 0.9503
-4.5040 6.8791 -0.4170 0.9676
-9.2330 11.6733 -0.7548 0.9421
-13.3421 14.0743 -0.9835 0.9253
-8.9346 -17.7046 -1.4541 0.9235
-7.0071 -17.6532 -1.3926 0.9267
-3.5388 -17.5607 -1.3135 0.9307
-1.9479 -17.7429 -1.3088 0.9309
-0.3572 -17.9983 -1.3199 0.9303
2.8290 -17.6239 -1.3088 0.9309
6.8551 -15.0396 -1.2119 0.9359
6.7981 13.1750 -1.0870 0.9423
4.2786 10.5027 -0.8315 0.9555
1.3640 11.4723 -0.8471 0.9547
0.3419 11.8518 -0.8694 0.9536
-0.6723 11.0681 -0.8130 0.9565
-1.7879 11.8168 -0.8763 0.9532
-4.0138 11.7499 -0.9104 0.9514
-5.2125 11.7139 -0.9401 0.9499
-4.6249 6.7940 -0.6026 0.9676
-3.8706 -17.5695 -1.3191 0.9304
0.9218 -17.8256 -1.3088 0.9309
4.0810 -17.3766 -1.3088 0.9309
5.8436 -17.6231 -1.3613 0.9282
6.6573 -15.3306 -1.2255 0.9352
7.7658 -14.2429 -1.1895 0.9370
4.6138 6.9835 -0.6137 0.9670
7.1060 13.1843 -1.0982 0.9417
2.4397 10.6187 -0.7989 0.9572
1.4530 10.5916 -0.7839 0.9580
0.5557 11.8582 -0.8704 0.9535
-2.4808 11.0069 -0.8273 0.9558
-9.0915 11.4945 -1.0746 0.9429
-12.4605 10.9860 -1.2180 0.9355
-10.1470 -16.2981 -1.8432 0.9258
-8.6496 -17.1398 -1.8432 0.9258
-7.0071 -17.6532 -1.8234 0.9265
-5.2222 -17.6056 -1.7630 0.9289
-3.5388 -17.5607 -1.7198 0.9305
-1.9232 -17.5176 -1.6919 0.9316
-0.3469 -17.4755 -1.6781 0.9322
1.2163 -17.4338 -1.6778 0.9322
2.7917 -17.3918 -1.6911 0.9317
4.4051 -17.3488 -1.7184 0.9306
5.8022 -16.4987 -1.6791 0.9321
8.3141 -14.6167 -1.6144 0.9347
10.9458 -15.7725 -1.8432 0.9258
13.0141 14.1144 -1.8432 0.9258
4.5415 7.1504 -0.8132 0.9665
6.7719 13.1242 -1.4178 0.9424
2.2425 10.6335 -1.0433 0.9573
1.2608 10.6040 -1.0252 0.9580
0.3051 10.5753 -1.0157 0.9584
-0.6721 11.0658 -1.0643 0.9564
-1.7879 11.8168 -1.1474 0.9531
-2.8796 11.7840 -1.1646 0.9524
-6.9221 12.4282 -1.3658 0.9444
-12.1789 14.8413 -1.8432 0.9258
-13.1852 13.4170 -1.8060 0.9272
-13.9145 11.8301 -1.7535 0.9292
-11.8468 -15.1279 -1.8447 0.9257
-8.9565 -16.9815 -1.8432 0.9258
-3.8706 -17.5695 -1.7272 0.9303
-2.2439 -17.5261 -1.6963 0.9315
2.4729 -17.4003 -1.6873 0.9318
4.0765 -17.3575 -1.7117 0.9309
5.8436 -17.6231 -1.7825 0.9281
10.6603 -15.9669 -1.8432 0.9258
13.2659 13.8780 -1.8432 0.9258
11.9723 15.0082 -1.8432 0.9258
4.6089 6.9760 -0.8027 0.9670
4.5034 10.5095 -1.0977 0.9551
2.4445 10.6396 -1.0481 0.9571
1.4555 10.6099 -1.0281 0.9579
0.4958 10.5810 -1.0169 0.9583
-1.5720 11.8233 -1.1451 0.9532
-4.9652 11.7213 -1.2221 0.9501
-9.0386 16.9379 -1.8432 0.9258
-4.4957 6.8665 -0.7879 0.9676
-12.4610 10.9865 -1.5949 0.9354
-12.3432 -11.3938 -1.9954 0.9346
-11.2753 -12.4515 -1.9954 0.9346
-10.1172 -13.4095 -1.9954 0.9346
-1.8659 -3.6975 -0.4920 0.9835
-5.9340 -14.9497 -1.9106 0.9373
-4.4261 -14.9217 -1.8488 0.9392
-3.0652 -15.2109 -1.8432 0.9394
5.1566 -14.6631 -1.8463 0.9393
6.6608 -14.6134 -1.9077 0.9374
8.2859 -14.5670 -1.9907 0.9347
10.7723 -12.8890 -1.9954 0.9346
11.8812 -11.8746 -1.9954 0.9346
12.8950 -10.7651 -1.9954 0.9346
15.8496 -5.5639 -1.9954 0.9346
16.5870 -2.6529 -1.9954 0.9346
16.7578 -1.1597 -1.9954 0.9346
16.6965 1.8425 -1.9954 0.9346
16.1016 4.7859 -1.9954 0.9346
14.9922 7.5764 -1.9954 0.9346
14.2550 8.8861 -1.9954 0.9346
9.4565 12.3020 -1.8432 0.9394
4.5367 7.1429 -1.0051 0.9665
4.2786 10.5027 -1.3471 0.9553
3.2085 10.4706 -1.3008 0.9568
1.2608 10.6040 -1.2685 0.9579
-0.6734 11.0869 -1.3194 0.9562
-6.7080 12.0438 -1.6376 0.9460
-4.6128 6.7761 -0.9737 0.9675
-10.8759 11.0671 -1.8432 0.9394
-12.6727 8.9538 -1.8432 0.9394
-14.5307 8.4282 -1.9954 0.9346
-15.7991 5.7063 -1.9954 0.9346
-16.7969 -0.1917 -1.9954 0.9346
-16.7126 -1.6923 -1.9954 0.9346
-16.4944 -3.1794 -1.9954 0.9346
-15.6648 -6.0654 -1.9954 0.9346
-14.3345 -8.7576 -1.9954 0.9346
-12.5461 -11.1699 -1.9954 0.9346
-11.4975 -12.2467 -1.9954 0.9346
-10.3568 -13.2253 -1.9954 0.9346
-2.4685 -3.8103 -0.5393 0.9819
-1.9270 -3.6536 -0.4907 0.9835
-6.2500 -14.9556 -1.9254 0.9368
-4.7211 -14.9261 -1.8596 0.9389
-1.9705 -15.3910 -1.8432 0.9394
-0.5869 -15.5055 -1.8432 0.9394
0.8014 -15.4959 -1.8432 0.9394
9.3273 -13.9703 -1.9954 0.9346
10.5387 -13.0807 -1.9954 0.9346
14.4541 -8.5584 -1.9954 0.9346
15.1613 -7.2322 -1.9954 0.9346
16.2067 -4.4172 -1.9954 0.9346
16.7342 -1.4609 -1.9954 0.9346
16.7978 0.0406 -1.9953 0.9346
16.7269 1.5419 -1.9953 0.9346
16.5222 3.0309 -1.9954 0.9346
15.7185 5.9242 -1.9954 0.9346
14.4125 8.6283 -1.9954 0.9346
12.5475 9.1282 -1.8432 0.9394
11.6814 10.2132 -1.8432 0.9394
9.6762 12.1299 -1.8432 0.9394
7.0786 13.1334 -1.7722 0.9417
3.4178 10.4769 -1.3091 0.9566
2.4445 10.6396 -1.2968 0.9570
-1.5155 11.3989 -1.3659 0.9547
-3.7814 11.7569 -1.4670 0.9515
-4.9652 11.7213 -1.5121 0.9500
-4.5086 6.8862 -0.9777 0.9674
-9.4497 11.9473 -1.8094 0.9405
-11.6389 10.2617 -1.8432 0.9394
-15.6939 5.9895 -1.9954 0.9346
-16.1665 4.5628 -1.9954 0.9346
-16.7403 -1.3915 -1.9954 0.9346
-15.7713 -5.7827 -1.9954 0.9346
-10.3480 -9.5521 -1.9954 0.9447
-9.4527 -10.4388 -1.9954 0.9447
-2.3862 -3.1627 -0.5614 0.9841
-1.9626 -3.1524 -0.5261 0.9851
-1.6829 -3.3347 -0.5292 0.9850
-1.4181 -3.5727 -0.5446 0.9846
-4.0048 -13.5012 -1.9954 0.9447
-2.7820 -13.8051 -1.9954 0.9447
-1.5369 -13.9985 -1.9954 0.9447
2.2319 -13.9046 -1.9954 0.9447
3.4658 -13.6495 -1.9954 0.9447
4.6720 -13.2851 -1.9954 0.9447
6.9628 -12.2409 -1.9954 0.9447
8.0290 -11.5696 -1.9954 0.9447
9.0310 -10.8056 -1.9954 0.9447
9.9607 -9.9551 -1.9954 0.9447
12.8175 -5.8336 -1.9954 0.9447
14.0796 0.2874 -1.9954 0.9447
13.9976 1.5447 -1.9954 0.9447
13.0862 5.2028 -1.9954 0.9447
11.0392 6.8815 -1.8432 0.9488
9.6376 8.7371 -1.8432 0.9488
8.8180 9.5635 -1.8432 0.9488
4.5334 7.1376 -1.1981 0.9664
5.9649 11.5602 -1.8432 0.9488
4.2822 10.5117 -1.6082 0.9552
3.6713 11.9809 -1.7755 0.9506
2.2425 10.6335 -1.5398 0.9570
0.3051 10.5753 -1.4990 0.9582
-1.7879 11.8168 -1.6934 0.9529
-2.6888 11.0033 -1.6049 0.9553
-5.2125 11.7139 -1.8166 0.9495
-6.3297 11.3646 -1.8432 0.9488
-4.6096 6.7715 -1.1607 0.9674
-8.2521 10.0560 -1.8432 0.9488
-10.6242 7.5065 -1.8432 0.9488
-11.2526 6.5268 -1.8432 0.9488
-12.7646 5.9486 -1.9954 0.9447
-13.8854 2.3491 -1.9954 0.9447
-14.0398 1.0986 -1.9954 0.9447
-14.0818 -0.1608 -1.9954 0.9447
-14.0110 -1.4188 -1.9954 0.9447
-13.8282 -2.6655 -1.9954 0.9447
-10.5181 -9.3644 -1.9954 0.9447
-2.0443 -3.1557 -0.5327 0.9849
-1.7373 -3.2939 -0.5277 0.9851
-1.2592 -3.9809 -0.5916 0.9833
-0.5327 -14.0726 -1.9954 0.9447
0.7273 -14.0638 -1.9954 0.9447
1.9815 -13.9425 -1.9954 0.9447
6.7415 -12.3642 -1.9954 0.9447
8.8352 -10.9663 -1.9954 0.9447
10.6466 -9.2179 -1.9954 0.9447
11.4279 -8.2294 -1.9954 0.9447
12.7105 -6.0631 -1.9954 0.9447
13.2016 -4.9028 -1.9954 0.9447
14.0292 -1.2248 -1.9954 0.9447
14.0825 0.0341 -1.9954 0.9447
14.0231 1.2927 -1.9954 0.9447
13.1777 4.9666 -1.9954 0.9447
12.6810 6.1246 -1.9954 0.9447
11.1612 6.6818 -1.8432 0.9488
9.7932 8.5623 -1.8432 0.9488
8.9886 9.4034 -1.8432 0.9488
5.1236 11.9569 -1.8432 0.9488
2.4445 10.6396 -1.5468 0.9569
1.4555 10.6099 -1.5174 0.9577
-0.2079 4.8695 -0.6906 0.9805
-1.5046 11.3171 -1.6176 0.9549
-4.5132 6.8932 -1.1674 0.9673
-8.0699 10.2028 -1.8432 0.9488
-9.7576 8.6030 -1.8432 0.9488
-10.4875 7.6964 -1.8432 0.9488
-13.5532 3.8252 -1.9954 0.9447
-14.0824 0.0926 -1.9954 0.9447
-14.0343 -1.1665 -1.9954 0.9447
-13.2219 -4.8479 -1.9954 0.9447
-3.8819 -3.5833 -0.8703 0.9788
-2.7062 -2.9885 -0.6642 0.9838
-1.8686 -3.0014 -0.5824 0.9858
-1.0779 -3.6339 -0.6244 0.9848
-2.3927 -11.8735 -1.9954 0.9521
-1.3218 -12.0399 -1.9954 0.9521
-0.2404 -12.1098 -1.9954 0.9521
0.8430 -12.0829 -1.9954 0.9521
4.0183 -11.4262 -1.9954 0.9521
5.9885 -10.5282 -1.9954 0.9521
8.5670 -8.5622 -1.9954 0.9521
11.4285 -4.0119 -1.9954 0.9521
11.7413 -2.9743 -1.9954 0.9521
12.0391 1.3286 -1.9954 0.9521
11.2552 4.4749 -1.9954 0.9521
9.4946 5.9186 -1.8432 0.9557
8.2891 7.5146 -1.8432 0.9557
6.8187 8.8704 -1.8432 0.9557
3.2780 10.6973 -1.8432 0.9557
1.2610 10.6059 -1.7595 0.9576
0.3051 10.5753 -1.7429 0.9580
-2.6559 10.8685 -1.8432 0.9557
-3.6167 10.5877 -1.8432 0.9557
-4.6109 6.7734 -1.3499 0.9673
-5.5372 6.7476 -1.4380 0.9652
-8.5240 7.2471 -1.8432 0.9557
-9.1377 6.4562 -1.8432 0.9557
-10.9723 5.1133 -1.9942 0.9521
-11.3920 4.1145 -1.9954 0.9521
-12.0754 0.9449 -1.9954 0.9521
-11.6408 -3.3464 -1.9954 0.9521
-11.2951 -4.3735 -1.9954 0.9521
-10.3359 -6.3147 -1.9954 0.9521
-4.0013 -3.5624 -0.8826 0.9785
-2.8284 -3.0127 -0.6808 0.9834
-1.6254 -3.0818 -0.5740 0.9860
-2.6059 -11.8286 -1.9954 0.9521
0.6256 -12.0961 -1.9954 0.9521
2.7693 -11.7914 -1.9954 0.9521
5.7982 -10.6342 -1.9954 0.9521
7.5990 -9.4319 -1.9954 0.9521
9.1569 -7.9282 -1.9954 0.9521
10.4222 -6.1711 -1.9954 0.9521
11.3545 -4.2168 -1.9954 0.9521
11.9238 -2.1277 -1.9954 0.9521
12.0611 1.1118 -1.9954 0.9521
11.3339 4.2717 -1.9954 0.9521
10.9067 5.2677 -1.9954 0.9521
9.0474 6.5819 -1.8432 0.9557
4.6265 7.0026 -1.3826 0.9665
4.4067 10.2839 -1.8432 0.9557
2.4577 10.6971 -1.8081 0.9565
1.4566 10.6178 -1.7655 0.9575
0.4958 10.5810 -1.7450 0.9580
-3.4257 10.6510 -1.8432 0.9557
-5.2674 9.8709 -1.8432 0.9557
-4.5241 6.9098 -1.3606 0.9671
-6.9408 8.7753 -1.8432 0.9557
-8.3923 7.3992 -1.8432 0.9557
-10.8583 5.3000 -1.9905 0.9522
-11.6569 3.2900 -1.9954 0.9521
-11.9043 2.2349 -1.9954 0.9521
-12.1120 0.0796 -1.9954 0.9521
-11.9327 -2.0782 -1.9954 0.9521
-11.3720 -4.1696 -1.9954 0.9521
-2.2151 -2.9359 -0.6913 0.9851
-2.0971 -10.4066 -1.9954 0.9577
-1.1585 -10.5524 -1.9954 0.9577
-0.2107 -10.6137 -1.9954 0.9577
0.7389 -10.5901 -1.9954 0.9577
4.4029 -9.6597 -1.9954 0.9577
5.2487 -9.2275 -1.9954 0.9577
6.0525 -8.7214 -1.9954 0.9577
7.5086 -7.5044 -1.9954 0.9577
8.1493 -6.8032 -1.9954 0.9577
8.7248 -6.0476 -1.9954 0.9577
9.2304 -5.2435 -1.9954 0.9577
10.0165 -3.5162 -1.9954 0.9577
10.2907 -2.6069 -1.9954 0.9577
10.4826 -1.6766 -1.9954 0.9577
10.5904 -0.7329 -1.9954 0.9577
10.5517 1.1644 -1.9954 0.9577
9.8647 3.9220 -1.9954 0.9577
8.3216 5.1874 -1.8432 0.9609
7.2650 6.5862 -1.8432 0.9609
6.6472 7.2092 -1.8432 0.9609
5.1585 6.7107 -1.5910 0.9661
4.2407 6.6769 -1.4867 0.9683
4.4965 8.7144 -1.8432 0.9609
-2.3278 9.5258 -1.8432 0.9609
-4.3401 6.3756 -1.4497 0.9691
-5.2083 6.3469 -1.5432 0.9671
-6.8733 6.9941 -1.8432 0.9609
-7.4709 6.3518 -1.8432 0.9609
-8.4825 4.9201 -1.8432 0.9609
-9.6098 4.4784 -1.9928 0.9578
-9.9846 3.6062 -1.9954 0.9577
-10.2669 2.6993 -1.9954 0.9577
-10.5835 0.8281 -1.9954 0.9577
-10.6152 -0.1212 -1.9954 0.9577
-10.5618 -1.0695 -1.9954 0.9577
-10.2026 -2.9330 -1.9954 0.9577
-9.8997 -3.8332 -1.9954 0.9577
-9.5174 -4.7027 -1.9954 0.9577
-9.0590 -5.5346 -1.9954 0.9577
-2.2961 -2.9320 -0.7000 0.9850
-1.9107 -2.9494 -0.6605 0.9858
-1.5623 -2.9621 -0.6295 0.9865
-0.8529 -3.8713 -0.7451 0.9840
-0.4015 -10.6082 -1.9954 0.9577
1.4937 -10.5102 -1.9954 0.9577
3.3412 -10.0763 -1.9954 0.9577
4.2284 -9.7373 -1.9954 0.9577
5.0819 -9.3204 -1.9954 0.9577
5.8946 -8.8289 -1.9954 0.9577
9.1346 -5.4087 -1.9954 0.9577
9.9517 -3.6958 -1.9954 0.9577
10.2422 -2.7915 -1.9954 0.9577
10.5756 -0.9233 -1.9954 0.9577
10.6158 0.0257 -1.9954 0.9577
10.5710 0.9745 -1.9954 0.9577
7.9297 5.7688 -1.8432 0.9609
6.7758 7.0885 -1.8432 0.9609
4.1749 7.7459 -1.6539 0.9648
3.0412 9.3225 -1.8432 0.9609
1.3327 9.7151 -1.8432 0.9609
0.4590 9.7953 -1.8432 0.9609
-0.2079 4.8684 -0.9159 0.9804
-2.1560 9.5661 -1.8432 0.9609
-3.8249 9.0294 -1.8432 0.9609
-4.6166 8.6514 -1.8432 0.9609
-6.7464 7.1166 -1.8432 0.9609
-7.3555 6.4851 -1.8432 0.9609
-7.9057 5.8017 -1.8432 0.9609
-10.2167 2.8835 -1.9954 0.9577
-10.5669 1.0184 -1.9954 0.9577
-10.6156 0.0698 -1.9954 0.9577
-10.5794 -0.8794 -1.9954 0.9577
-10.4584 -1.8215 -1.9954 0.9577
-9.9670 -3.6545 -1.9954 0.9577
-3.1217 -2.8816 -0.8980 0.9828
-2.1805 -2.8901 -0.7653 0.9853
-1.8109 -2.9086 -0.7242 0.9861
-1.4748 -2.9223 -0.6919 0.9867
-1.1858 -2.9873 -0.6794 0.9869
-1.0302 -9.3833 -1.9954 0.9621
-0.1873 -9.4378 -1.9954 0.9621
2.3232 -9.1493 -1.9954 0.9621
3.1317 -8.9051 -1.9954 0.9621
4.6672 -8.2052 -1.9954 0.9621
5.3819 -7.7552 -1.9954 0.9621
6.0535 -7.2431 -1.9954 0.9621
8.2078 -4.6626 -1.9954 0.9621
9.3212 -1.4908 -1.9954 0.9621
9.4377 0.1926 -1.9954 0.9621
9.0484 2.6895 -1.9954 0.9621
8.4250 4.2576 -1.9954 0.9621
7.3996 4.6127 -1.8432 0.9650
6.9577 5.2556 -1.8432 0.9650
5.1138 6.6525 -1.7737 0.9663
-0.5286 8.7036 -1.8432 0.9650
-1.3045 8.6215 -1.8432 0.9650
-2.8187 8.2515 -1.8432 0.9650
-3.5450 7.9665 -1.8432 0.9650
-4.1422 7.4370 -1.7994 0.9658
-4.3401 6.3756 -1.6303 0.9690
-5.2033 6.3408 -1.7338 0.9670
-6.6432 5.6480 -1.8432 0.9650
-8.5528 3.9858 -1.9946 0.9622
-9.1294 2.4002 -1.9954 0.9621
-9.4109 0.7364 -1.9954 0.9621
-9.4391 -0.1077 -1.9954 0.9621
-9.3917 -0.9510 -1.9954 0.9621
-9.2691 -1.7867 -1.9954 0.9621
-8.8029 -3.4085 -1.9954 0.9621
-8.4630 -4.1817 -1.9954 0.9621
-8.0553 -4.9214 -1.9954 0.9621
-3.2363 -2.8813 -0.9159 0.9824
-1.5400 -2.9199 -0.6978 0.9866
-1.2335 -2.9516 -0.6762 0.9870
-1.0022 -3.1685 -0.7025 0.9865
-0.7830 -3.5541 -0.7693 0.9852
-1.1988 -9.3633 -1.9954 0.9621
0.4875 -9.4271 -1.9954 0.9621
2.1582 -9.1896 -1.9954 0.9621
5.2415 -7.8507 -1.9954 0.9621
7.1365 -6.1788 -1.9954 0.9621
8.5200 -4.0642 -1.9954 0.9621
9.1074 -2.4822 -1.9954 0.9621
9.2929 -1.6583 -1.9954 0.9621
9.4039 -0.8210 -1.9954 0.9621
9.3998 0.8665 -1.9954 0.9621
9.2847 1.7032 -1.9954 0.9621
9.0953 2.5263 -1.9954 0.9621
7.5593 4.5255 -1.8623 0.9646
4.1303 7.6632 -1.8401 0.9650
3.4344 8.0148 -1.8432 0.9650
1.9525 8.4982 -1.8432 0.9650
1.1851 8.6387 -1.8432 0.9650
-1.9172 8.5063 -1.8432 0.9650
-2.6698 8.3009 -1.8432 0.9650
-3.4011 8.0290 -1.8432 0.9650
-4.1052 7.6929 -1.8432 0.9650
-4.1692 6.3678 -1.6089 0.9694
-5.0315 6.3614 -1.7144 0.9674
-5.9989 6.3281 -1.8432 0.9650
-6.5405 5.7666 -1.8432 0.9650
-7.0298 5.1589 -1.8432 0.9650
-8.4678 4.1332 -1.9918 0.9622
-9.0848 2.5641 -1.9954 0.9621
-9.2776 1.7418 -1.9954 0.9621
-9.3962 0.9055 -1.9954 0.9621
-9.4395 0.0621 -1.9954 0.9621
-9.1177 -2.4444 -1.9954 0.9621
-8.8627 -3.2496 -1.9954 0.9621
-2.6102 -2.8825 -0.9139 0.9841
-2.1467 -2.8452 -0.8377 0.9855
-1.7842 -2.8658 -0.7934 0.9862
-1.4542 -2.8816 -0.7586 0.9868
-1.1474 -2.8907 -0.7309 0.9873
-0.6940 -3.4439 -0.8257 0.9857
-0.4492 -4.0913 -0.9673 0.9832
1.3456 -8.3827 -1.9954 0.9657
5.4446 -6.5144 -1.9954 0.9657
6.5175 -5.4409 -1.9954 0.9657
8.2301 -2.0848 -1.9954 0.9657
8.4883 0.1732 -1.9954 0.9657
7.8894 3.1367 -1.9954 0.9657
6.2578 4.7269 -1.8432 0.9683
5.3162 5.7656 -1.8432 0.9683
2.9588 7.2629 -1.8432 0.9683
2.2977 7.4983 -1.8432 0.9683
1.6183 7.6737 -1.8432 0.9683
0.2261 7.8392 -1.8432 0.9683
-0.2934 4.8309 -1.1375 0.9803
-1.1732 7.7542 -1.8432 0.9683
-1.8616 7.6183 -1.8432 0.9683
-2.5352 7.4214 -1.8432 0.9683
-3.1883 7.1651 -1.8432 0.9683
-5.4969 5.5936 -1.8432 0.9683
-5.9749 5.0798 -1.8432 0.9683
-6.4051 4.5254 -1.8432 0.9683
-7.0326 4.0791 -1.9107 0.9671
-7.6955 3.5863 -1.9954 0.9657
-8.2110 2.1588 -1.9954 0.9657
-8.3711 1.4162 -1.9954 0.9657
-8.4642 0.6623 -1.9954 0.9657
-8.4895 -0.0969 -1.9954 0.9657
-8.1596 -2.3457 -1.9954 0.9657
-7.9173 -3.0656 -1.9954 0.9657
-7.6116 -3.7610 -1.9954 0.9657
-7.2450 -4.4263 -1.9954 0.9657
-3.1882 -2.8385 -1.0032 0.9826
-1.2079 -2.8904 -0.7362 0.9872
-0.7397 -3.3575 -0.8080 0.9860
-0.5065 -3.9562 -0.9374 0.9837
0.4385 -8.4787 -1.9954 0.9657
2.6721 -8.0586 -1.9954 0.9657
4.7143 -7.0609 -1.9954 0.9657
5.3265 -6.6113 -1.9954 0.9657
5.8961 -6.1087 -1.9954 0.9657
6.8896 -4.9613 -1.9954 0.9657
8.1912 -2.2325 -1.9954 0.9657
8.4579 -0.7384 -1.9954 0.9657
8.4900 0.0205 -1.9954 0.9657
8.4542 0.7793 -1.9954 0.9657
8.1803 2.2722 -1.9954 0.9657
7.9445 2.9942 -1.9954 0.9657
7.2626 4.3478 -1.9894 0.9658
6.3418 4.6136 -1.8432 0.9683
5.4190 5.6690 -1.8432 0.9683
4.3230 6.5433 -1.8432 0.9683
3.0889 7.2085 -1.8432 0.9683
0.3671 7.8339 -1.8432 0.9683
-0.2073 4.8544 -1.1419 0.9802
-3.6922 6.9190 -1.8432 0.9683
-4.8651 6.1510 -1.8432 0.9683
-5.3954 5.6915 -1.8432 0.9683
-6.3226 4.6399 -1.8432 0.9683
-6.7225 4.0626 -1.8460 0.9682
-7.9320 3.0272 -1.9954 0.9657
-8.4509 0.8144 -1.9954 0.9657
-8.4899 0.0558 -1.9954 0.9657
-8.4609 -0.7033 -1.9954 0.9657
-8.3642 -1.4567 -1.9954 0.9657
-8.2005 -2.1985 -1.9954 0.9657
-7.9712 -2.9227 -1.9954 0.9657
-2.5849 -2.8545 -0.9971 0.9842
-1.7581 -2.8239 -0.8613 0.9863
-1.1324 -2.8529 -0.7947 0.9874
-0.8891 -2.9975 -0.8095 0.9872
-0.4027 -3.6676 -0.9553 0.9849
0.2741 -3.9285 -1.0196 0.9839
1.2214 -7.6091 -1.9954 0.9687
1.8966 -7.4695 -1.9954 0.9687
2.5567 -7.2701 -1.9954 0.9687
5.4509 -5.4478 -1.9954 0.9687
6.3337 -4.3902 -1.9954 0.9687
6.7008 -3.8065 -1.9954 0.9687
7.0142 -3.1923 -1.9954 0.9687
7.2715 -2.5526 -1.9954 0.9687
7.4705 -1.8924 -1.9954 0.9687
7.6600 0.8453 -1.9954 0.9687
7.5538 1.5266 -1.9954 0.9687
7.3871 2.1957 -1.9954 0.9687
7.1613 2.8472 -1.9954 0.9687
6.5298 4.0705 -1.9923 0.9687
5.2740 4.7812 -1.8432 0.9710
4.8256 5.2335 -1.8432 0.9710
4.3384 5.6439 -1.8432 0.9710
2.0857 6.8063 -1.8432 0.9710
0.8405 7.0689 -1.8432 0.9710
0.2053 7.1157 -1.8432 0.9710
-0.2911 4.7925 -1.2431 0.9804
-1.6898 6.9152 -1.8432 0.9710
-4.0059 5.8846 -1.8432 0.9710
-4.5158 5.5030 -1.8432 0.9710
-4.9896 5.0774 -1.8432 0.9710
-5.8140 4.1078 -1.8432 0.9710
-6.9853 3.2553 -1.9954 0.9687
-7.4533 1.9596 -1.9954 0.9687
-7.6673 -0.7764 -1.9954 0.9687
-7.5673 -1.4586 -1.9954 0.9687
-7.4066 -2.1292 -1.9954 0.9687
-7.1866 -2.7827 -1.9954 0.9687
-3.1419 -2.7973 -1.0892 0.9828
-2.6826 -2.8574 -1.0148 0.9839
-2.1934 -2.8009 -0.9211 0.9854
-1.4976 -2.8394 -0.8312 0.9868
-0.7037 -3.1940 -0.8468 0.9866
-0.4610 -3.6008 -0.9399 0.9851
-0.1430 -3.7776 -0.9788 0.9845
1.7620 -7.5024 -1.9954 0.9687
3.0696 -7.0688 -1.9954 0.9687
4.2792 -6.4093 -1.9954 0.9687
5.8262 -5.0444 -1.9954 0.9687
6.6313 -3.9264 -1.9954 0.9687
7.7065 0.0186 -1.9954 0.9687
7.6740 0.7074 -1.9954 0.9687
7.4254 2.0625 -1.9954 0.9687
7.2113 2.7179 -1.9954 0.9687
6.6087 3.9564 -1.9943 0.9687
5.9254 4.3107 -1.8972 0.9702
5.3592 4.6856 -1.8432 0.9710
4.9189 5.1459 -1.8432 0.9710
2.8038 6.5433 -1.8432 0.9710
1.5940 6.9379 -1.8432 0.9710
-0.9382 7.0566 -1.8432 0.9710
-2.1796 6.7768 -1.8432 0.9710
-2.7767 6.5549 -1.8432 0.9710
-3.3514 6.2804 -1.8432 0.9710
-3.8994 5.9557 -1.8432 0.9710
-6.5730 3.9722 -1.9885 0.9688
-7.2000 2.7479 -1.9954 0.9687
-7.4168 2.0933 -1.9954 0.9687
-7.6710 0.7393 -1.9954 0.9687
-7.7064 0.0507 -1.9954 0.9687
-7.6801 -0.6384 -1.9954 0.9687
-7.5923 -1.3223 -1.9954 0.9687
-7.2355 -2.6530 -1.9954 0.9687
-3.0008 -2.7700 -1.1561 0.9832
-2.5597 -2.8267 -1.0796 0.9843
-2.0853 -2.7638 -0.9801 0.9857
-1.7329 -2.7833 -0.9282 0.9865
-0.6305 -3.1289 -0.9036 0.9868
-0.3707 -3.3760 -0.9615 0.9860
0.2491 -3.5708 -1.0133 0.9852
0.6409 -3.9929 -1.1448 0.9833
4.5201 -5.4083 -1.9954 0.9711
4.9854 -4.9826 -1.9954 0.9711
5.4108 -4.5170 -1.9954 0.9711
6.4152 -2.9197 -1.9954 0.9711
6.6505 -2.3346 -1.9954 0.9711
6.8326 -1.7308 -1.9954 0.9711
7.0316 -0.4866 -1.9954 0.9711
7.0469 0.1438 -1.9954 0.9711
7.0059 0.7731 -1.9954 0.9711
6.9087 1.3962 -1.9954 0.9711
6.7563 2.0082 -1.9954 0.9711
6.5497 2.6040 -1.9954 0.9711
6.2908 3.1791 -1.9954 0.9711
5.9814 3.7286 -1.9954 0.9711
3.9680 5.1619 -1.8432 0.9733
1.9076 6.2251 -1.8432 0.9733
1.3435 6.3706 -1.8432 0.9733
-0.9740 6.4375 -1.8432 0.9733
-1.5455 6.3247 -1.8432 0.9733
-3.1681 5.6880 -1.8432 0.9733
-3.6638 5.3821 -1.8432 0.9733
-4.5635 4.6438 -1.8432 0.9733
-4.9603 4.2173 -1.8432 0.9733
-6.8168 1.7922 -1.9954 0.9711
-7.0480 -0.0805 -1.9954 0.9711
-6.5729 -2.5450 -1.9954 0.9711
-6.0147 -3.6747 -1.9954 0.9711
-3.8037 -2.8198 -1.3404 0.9805
-3.0964 -2.7567 -1.1736 0.9829
-2.6666 -2.8404 -1.1029 0.9839
-1.4775 -2.8013 -0.8966 0.9869
-1.1764 -2.8150 -0.8637 0.9874
-0.6794 -3.0838 -0.8939 0.9870
-0.4295 -3.3547 -0.9574 0.9860
-0.1307 -3.4533 -0.9783 0.9857
0.5484 -3.8586 -1.1033 0.9839
1.6115 -6.8617 -1.9954 0.9711
2.2184 -6.6902 -1.9954 0.9711
4.4221 -5.4887 -1.9954 0.9711
4.8950 -5.0715 -1.9954 0.9711
5.3287 -4.6136 -1.9954 0.9711
6.6075 -2.4539 -1.9954 0.9711
6.8003 -1.8534 -1.9954 0.9711
7.0217 -0.6130 -1.9954 0.9711
7.0186 0.6470 -1.9954 0.9711
6.9327 1.2718 -1.9954 0.9711
6.7913 1.8863 -1.9954 0.9711
6.0475 3.6204 -1.9954 0.9711
5.6852 4.1360 -1.9903 0.9712
4.9125 4.2951 -1.8473 0.9732
4.4989 4.7064 -1.8432 0.9733
4.0602 5.0897 -1.8432 0.9733
3.5890 5.4323 -1.8432 0.9733
3.0891 5.7313 -1.8432 0.9733
2.5644 5.9845 -1.8432 0.9733
1.4579 6.3455 -1.8432 0.9733
-0.2048 4.7966 -1.3591 0.9802
-0.8581 6.4540 -1.8432 0.9733
-1.4315 6.3515 -1.8432 0.9733
-1.9935 6.1981 -1.8432 0.9733
-3.0652 5.7441 -1.8432 0.9733
-3.5664 5.4471 -1.8432 0.9733
-4.4793 4.7251 -1.8432 0.9733
-5.4478 3.9980 -1.9130 0.9723
-6.9274 1.3005 -1.9954 0.9711
-7.0483 0.0463 -1.9954 0.9711
-7.0242 -0.5839 -1.9954 0.9711
-6.9439 -1.2094 -1.9954 0.9711
-6.8080 -1.8252 -1.9954 0.9711
-0.8363 -2.8193 -0.9045 0.9878
0.2291 -3.2835 -1.0124 0.9863
0.5708 -3.5558 -1.1077 0.9850
1.5966 -6.2878 -1.9954 0.9732
2.6906 -5.9030 -1.9954 0.9732
5.6407 -3.2043 -1.9954 0.9732
6.1211 -2.1488 -1.9954 0.9732
6.2887 -1.5931 -1.9954 0.9732
6.4059 -1.0246 -1.9954 0.9732
6.4718 -0.4479 -1.9954 0.9732
6.4859 0.1324 -1.9954 0.9732
6.4482 0.7116 -1.9954 0.9732
6.3587 1.2851 -1.9954 0.9732
6.2184 1.8483 -1.9954 0.9732
6.0283 2.3967 -1.9954 0.9732
5.7900 2.9260 -1.9954 0.9732
4.7067 4.2669 -1.9540 0.9738
4.0621 4.4055 -1.8432 0.9752
3.6521 4.7510 -1.8432 0.9752
3.2128 5.0584 -1.8432 0.9752
2.7478 5.3253 -1.8432 0.9752
2.2608 5.5496 -1.8432 0.9752
1.2366 5.8635 -1.8432 0.9752
0.7075 5.9506 -1.8432 0.9752
0.1728 5.9900 -1.8432 0.9752
-0.8965 5.9250 -1.8432 0.9752
-1.4225 5.8212 -1.8432 0.9752
-1.9371 5.6707 -1.8432 0.9752
-3.3721 4.9536 -1.8432 0.9752
-4.2003 4.2741 -1.8432 0.9752
-4.7265 4.0185 -1.9082 0.9744
-5.6117 3.2549 -1.9954 0.9732
-6.1016 2.2037 -1.9954 0.9732
-6.2741 1.6495 -1.9954 0.9732
-6.3964 1.0821 -1.9954 0.9732
-6.4676 0.5061 -1.9954 0.9732
-6.3701 -1.2279 -1.9954 0.9732
-6.2348 -1.7923 -1.9954 0.9732
-5.5359 -3.3822 -1.9954 0.9732
-3.1236 -2.7810 -1.2863 0.9827
-1.1611 -2.7784 -0.9262 0.9875
-0.8875 -2.8057 -0.9051 0.9878
-0.3999 -3.1234 -0.9685 0.9869
-0.1214 -3.2058 -0.9867 0.9867
4.0700 -5.0517 -1.9954 0.9732
4.5053 -4.6677 -1.9954 0.9732
4.9045 -4.2463 -1.9954 0.9732
5.2644 -3.7910 -1.9954 0.9732
5.5822 -3.3053 -1.9954 0.9732
5.8553 -2.7931 -1.9954 0.9732
6.0815 -2.2585 -1.9954 0.9732
6.2590 -1.7059 -1.9954 0.9732
6.3864 -1.1396 -1.9954 0.9732
6.4599 0.5955 -1.9954 0.9732
6.3808 1.1705 -1.9954 0.9732
6.0705 2.2879 -1.9954 0.9732
5.8417 2.8214 -1.9954 0.9732
4.8656 4.2541 -1.9879 0.9733
4.1407 4.3318 -1.8432 0.9752
3.7369 4.6846 -1.8432 0.9752
2.3603 5.5081 -1.8432 0.9752
1.8585 5.6970 -1.8432 0.9752
1.3418 5.8403 -1.8432 0.9752
0.2805 5.9859 -1.8432 0.9752
-0.2043 4.7851 -1.4731 0.9802
-0.7898 5.9402 -1.8432 0.9752
-1.8348 5.7047 -1.8432 0.9752
-2.8212 5.2868 -1.8432 0.9752
-3.2825 5.0135 -1.8432 0.9752
-3.7175 4.7000 -1.8432 0.9752
-5.2173 3.8288 -1.9905 0.9733
-5.5522 3.3553 -1.9954 0.9732
-6.3759 1.1970 -1.9954 0.9732
-6.4872 0.0426 -1.9954 0.9732
-6.4650 -0.5374 -1.9954 0.9732
-6.0908 -2.2333 -1.9954 0.9732
-0.8245 -2.7795 -0.9637 0.9879
0.5241 -3.2654 -1.0993 0.9862
1.9915 -5.6628 -1.9954 0.9750
2.9680 -5.2177 -1.9954 0.9750
3.4224 -4.9316 -1.9954 0.9750
3.8495 -4.6059 -1.9954 0.9750
4.2458 -4.2434 -1.9954 0.9750
4.9335 -3.4195 -1.9954 0.9750
5.6639 -1.9883 -1.9954 0.9750
5.9885 -0.4144 -1.9954 0.9750
5.9666 0.6584 -1.9954 0.9750
5.5781 2.2177 -1.9954 0.9750
5.3575 2.7073 -1.9954 0.9750
5.0941 3.1755 -1.9954 0.9750
4.7899 3.6181 -1.9954 0.9750
4.4390 4.0242 -1.9916 0.9751
3.9199 4.2514 -1.9222 0.9759
3.3869 4.4060 -1.8473 0.9768
2.5426 4.9276 -1.8432 0.9769
2.0919 5.1351 -1.8432 0.9769
1.1442 5.4256 -1.8432 0.9769
0.6547 5.5061 -1.8432 0.9769
0.1599 5.5426 -1.8432 0.9769
-0.2894 4.7639 -1.5865 0.9801
-1.3163 5.3864 -1.8432 0.9769
-2.2543 5.0660 -1.8432 0.9769
-3.5175 4.2864 -1.8432 0.9769
-3.9735 4.0434 -1.8844 0.9764
-4.9026 3.4639 -1.9954 0.9750
-5.1925 3.0118 -1.9954 0.9750
-5.6458 2.0391 -1.9954 0.9750
-6.0024 -0.0685 -1.9954 0.9750
-5.9722 -0.6048 -1.9954 0.9750
-5.8943 -1.1362 -1.9954 0.9750
-5.7691 -1.6585 -1.9954 0.9750
-5.3817 -2.6592 -1.9954 0.9750
-5.1225 -3.1296 -1.9954 0.9750
-3.0304 -2.6980 -1.3487 0.9830
-2.6138 -2.7842 -1.2694 0.9840
-2.1345 -2.7257 -1.1508 0.9855
-1.7599 -2.7165 -1.0759 0.9864
-0.6287 -2.8538 -0.9713 0.9878
0.1585 -3.0654 -1.0203 0.9871
0.4573 -3.2180 -1.0804 0.9864
0.8209 -3.4954 -1.1935 0.9850
2.8736 -5.2703 -1.9954 0.9750
3.3331 -4.9923 -1.9954 0.9750
4.1688 -4.3191 -1.9954 0.9750
5.4179 -2.5844 -1.9954 0.9750
5.6272 -2.0898 -1.9954 0.9750
5.9094 -1.0545 -1.9954 0.9750
5.9800 -0.5221 -1.9954 0.9750
5.9774 0.5510 -1.9954 0.9750
5.7838 1.6065 -1.9954 0.9750
5.6171 2.1170 -1.9954 0.9750
4.8542 3.5314 -1.9954 0.9750
4.0619 4.2493 -1.9540 0.9755
3.4578 4.3347 -1.8432 0.9769
3.0565 4.6264 -1.8432 0.9769
2.6308 4.8811 -1.8432 0.9769
1.7197 5.2715 -1.8432 0.9769
0.2596 5.5388 -1.8432 0.9769
-0.7308 5.4965 -1.8432 0.9769
-1.2192 5.4092 -1.8432 0.9769
-1.6978 5.2786 -1.8432 0.9769
-2.6105 4.8920 -1.8432 0.9769
-3.0373 4.6390 -1.8432 0.9769
-3.4398 4.3490 -1.8432 0.9769
-3.8414 4.0522 -1.8560 0.9767
-4.4875 3.9565 -1.9887 0.9751
-5.3945 2.6331 -1.9954 0.9750
-5.8997 1.1076 -1.9954 0.9750
-5.9822 -0.4972 -1.9954 0.9750
-5.9138 -1.0300 -1.9954 0.9750
-5.7980 -1.5544 -1.9954 0.9750
-5.6359 -2.0665 -1.9954 0.9750
-2.9192 -2.6947 -1.4207 0.9833
-1.6907 -2.7156 -1.1439 0.9865
-1.0796 -2.7198 -1.0465 0.9876
-0.8150 -2.7477 -1.0249 0.9879
-0.5562 -2.7603 -1.0069 0.9881
-0.3070 -2.7961 -1.0059 0.9881
0.2024 -2.9003 -1.0397 0.9877
0.4911 -3.0597 -1.1082 0.9869
2.3142 -5.0772 -1.9954 0.9766
2.7587 -4.8500 -1.9954 0.9766
3.1812 -4.5840 -1.9954 0.9766
4.5858 -3.1787 -1.9954 0.9766
5.4089 -1.3702 -1.9954 0.9766
5.5097 -0.8812 -1.9954 0.9766
5.5664 -0.3852 -1.9954 0.9766
5.5461 0.6120 -1.9954 0.9766
5.4692 1.1053 -1.9954 0.9766
5.1850 2.0614 -1.9954 0.9766
4.7351 2.9517 -1.9954 0.9766
3.7725 4.0915 -1.9902 0.9766
2.7633 4.3507 -1.8432 0.9783
2.3634 4.5803 -1.8432 0.9783
1.0636 5.0432 -1.8432 0.9783
0.6085 5.1181 -1.8432 0.9783
-0.7711 5.0961 -1.8432 0.9783
-1.2235 5.0068 -1.8432 0.9783
-2.0954 4.7090 -1.8432 0.9783
-3.8980 3.9665 -1.9888 0.9767
-4.2494 3.6128 -1.9946 0.9766
-4.8266 2.7996 -1.9954 0.9766
-5.0575 2.3569 -1.9954 0.9766
-5.3964 1.4188 -1.9954 0.9766
-5.5628 0.4353 -1.9954 0.9766
-5.5794 -0.0637 -1.9954 0.9766
-5.4789 -1.0561 -1.9954 0.9766
-5.2033 -2.0147 -1.9954 0.9766
-5.0024 -2.4718 -1.9954 0.9766
-4.7615 -2.9090 -1.9954 0.9766
-2.5876 -2.7562 -1.3519 0.9841
-1.1344 -2.7144 -1.0520 0.9876
-0.6088 -2.7635 -1.0119 0.9881
-0.1081 -2.8550 -1.0217 0.9879
0.1497 -2.8947 -1.0365 0.9878
0.4298 -3.0244 -1.0924 0.9871
2.6711 -4.8989 -1.9954 0.9766
3.0983 -4.6405 -1.9954 0.9766
3.5006 -4.3450 -1.9954 0.9766
3.8750 -4.0147 -1.9954 0.9766
4.5279 -3.2606 -1.9954 0.9766
5.0361 -2.4023 -1.9954 0.9766
5.3834 -1.4672 -1.9954 0.9766
5.4930 -0.9802 -1.9954 0.9766
5.5586 -0.4853 -1.9954 0.9766
5.5797 0.0135 -1.9954 0.9766
5.5562 0.5122 -1.9954 0.9766
5.4882 1.0068 -1.9954 0.9766
5.3762 1.4933 -1.9954 0.9766
5.2212 1.9679 -1.9954 0.9766
5.0244 2.4267 -1.9954 0.9766
4.7874 2.8660 -1.9954 0.9766
4.5121 3.2825 -1.9954 0.9766
3.8477 4.0253 -1.9913 0.9766
2.0301 4.7375 -1.8432 0.9783
0.2413 5.1485 -1.8432 0.9783
-1.1332 5.0280 -1.8432 0.9783
-2.4265 4.5472 -1.8432 0.9783
-2.8233 4.3121 -1.8432 0.9783
-3.8193 4.0289 -1.9852 0.9767
-4.1812 3.6864 -1.9934 0.9766
-4.7755 2.8859 -1.9954 0.9766
-5.4840 1.0295 -1.9954 0.9766
-5.4970 -0.9574 -1.9954 0.9766
-5.3894 -1.4449 -1.9954 0.9766
-1.6938 -2.7206 -1.2281 0.9864
-1.3591 -2.6932 -1.1561 0.9872
-0.8065 -2.7189 -1.0868 0.9879
-0.5533 -2.7458 -1.0734 0.9881
-0.3004 -2.7366 -1.0550 0.9883
0.4628 -2.8829 -1.1189 0.9876
1.2814 -5.0467 -1.9954 0.9779
1.7274 -4.9120 -1.9954 0.9779
2.1595 -4.7379 -1.9954 0.9779
2.5744 -4.5259 -1.9954 0.9779
2.9686 -4.2777 -1.9954 0.9779
3.6828 -3.6808 -1.9954 0.9779
3.9971 -3.3369 -1.9954 0.9779
4.5273 -2.5719 -1.9954 0.9779
5.0474 -1.2786 -1.9954 0.9779
5.1415 -0.8223 -1.9954 0.9779
5.1944 -0.3595 -1.9954 0.9779
5.1754 0.5711 -1.9954 0.9779
5.1036 1.0314 -1.9954 0.9779
4.8385 1.9237 -1.9954 0.9779
4.6471 2.3484 -1.9954 0.9779
4.4186 2.7544 -1.9954 0.9779
3.1639 4.1160 -1.9895 0.9780
2.6796 4.2189 -1.9153 0.9788
2.2055 4.2742 -1.8432 0.9796
0.9925 4.7062 -1.8432 0.9796
0.5679 4.7760 -1.8432 0.9796
0.1387 4.8077 -1.8432 0.9796
-0.7195 4.7556 -1.8432 0.9796
-1.5548 4.5514 -1.8432 0.9796
-2.7741 4.0751 -1.8892 0.9791
-5.0357 1.3240 -1.9954 0.9779
-2.3041 0.1803 -0.8857 0.9901
-2.3034 -0.2332 -0.8872 0.9901
-5.1127 -0.9855 -1.9954 0.9779
-4.8556 -1.8801 -1.9954 0.9779
-4.6681 -2.3066 -1.9954 0.9779
-4.1828 -3.1009 -1.9954 0.9779
-3.0304 -2.6980 -1.5549 0.9828
-2.5614 -2.7283 -1.4341 0.9841
-1.7664 -2.7266 -1.2450 0.9862
-0.8573 -2.7103 -1.0893 0.9879
-0.6056 -2.7489 -1.0787 0.9880
-0.3501 -2.7343 -1.0564 0.9883
0.1418 -2.7414 -1.0520 0.9883
0.7148 -3.0434 -1.1980 0.9867
1.6388 -4.9422 -1.9954 0.9779
3.2667 -4.0546 -1.9954 0.9779
3.6160 -3.7464 -1.9954 0.9779
4.2253 -3.0427 -1.9954 0.9779
5.0236 -1.3692 -1.9954 0.9779
5.1259 -0.9147 -1.9954 0.9779
5.1871 -0.4529 -1.9954 0.9779
5.2068 0.0126 -1.9954 0.9779
5.1849 0.4779 -1.9954 0.9779
4.6886 2.2645 -1.9954 0.9779
4.4675 2.6745 -1.9954 0.9779
3.5979 3.7639 -1.9954 0.9779
2.7865 4.2177 -1.9372 0.9786
2.2820 4.2339 -1.8432 0.9796
1.8944 4.4209 -1.8432 0.9796
0.2251 4.8044 -1.8432 0.9796
-0.2028 4.7499 -1.8219 0.9798
-1.4727 4.5787 -1.8432 0.9796
-1.8760 4.4287 -1.8432 0.9796
-2.6723 4.0816 -1.8696 0.9793
-3.2011 4.0472 -1.9774 0.9781
-3.9056 3.4435 -1.9954 0.9779
-4.4563 2.6930 -1.9954 0.9779
-5.0111 1.4143 -1.9954 0.9779
-2.3038 0.2220 -0.8869 0.9901
-2.3042 -0.1915 -0.8860 0.9901
-5.0293 -1.3483 -1.9954 0.9779
-1.6970 -2.7257 -1.3141 0.9862
-1.3615 -2.6979 -1.2368 0.9870
-0.7991 -2.6939 -1.1500 0.9879
-0.5504 -2.7312 -1.1403 0.9880
-0.2980 -2.7142 -1.1175 0.9883
0.1889 -2.7072 -1.1107 0.9883
1.1999 -4.7254 -1.9954 0.9791
2.4105 -4.2378 -1.9954 0.9791
3.1265 -3.7409 -1.9954 0.9791
3.4484 -3.4464 -1.9954 0.9791
3.7426 -3.1244 -1.9954 0.9791
4.2391 -2.4081 -1.9954 0.9791
4.7261 -1.1972 -1.9954 0.9791
4.8141 -0.7700 -1.9954 0.9791
4.8459 0.5348 -1.9954 0.9791
4.7787 0.9658 -1.9954 0.9791
4.5304 1.8012 -1.9954 0.9791
4.1373 2.5791 -1.9954 0.9791
3.8902 2.9386 -1.9954 0.9791
2.9688 3.8621 -1.9937 0.9792
2.1678 4.2013 -1.9349 0.9798
1.7123 4.2032 -1.8575 0.9806
0.9293 4.4065 -1.8432 0.9807
0.1299 4.5016 -1.8432 0.9807
-0.2730 4.4952 -1.8432 0.9807
-0.6737 4.4528 -1.8432 0.9807
-1.0690 4.3747 -1.8432 0.9807
-1.4558 4.2617 -1.8432 0.9807
-2.2748 4.0843 -1.9134 0.9800
-3.0884 3.7635 -1.9926 0.9792
-3.4172 3.4773 -1.9954 0.9791
-4.4190 2.0594 -1.9954 0.9791
-2.0129 0.1575 -0.8264 0.9913
-2.0175 -0.2043 -0.8299 0.9913
-2.0700 -0.3990 -0.8628 0.9909
-4.5464 -1.7604 -1.9954 0.9791
-3.9165 -2.9035 -1.9954 0.9791
-2.5563 -2.7229 -1.5286 0.9840
-2.1393 -2.7319 -1.4201 0.9851
-1.7678 -2.7288 -1.3307 0.9860
-1.4258 -2.7032 -1.2508 0.9869
-1.1184 -2.6763 -1.1872 0.9875
-0.8484 -2.6823 -1.1514 0.9879
-0.6024 -2.7342 -1.1459 0.9880
-0.3472 -2.7118 -1.1189 0.9883
0.1398 -2.7030 -1.1078 0.9884
0.3910 -2.7512 -1.1373 0.9881
1.9419 -4.4719 -1.9954 0.9791
4.5703 -1.6973 -1.9954 0.9791
4.7995 -0.8565 -1.9954 0.9791
4.8753 0.0118 -1.9954 0.9791
4.8548 0.4475 -1.9954 0.9791
4.7953 0.8797 -1.9954 0.9791
4.6975 1.3048 -1.9954 0.9791
4.5621 1.7194 -1.9954 0.9791
4.3901 2.1203 -1.9954 0.9791
3.3688 3.5242 -1.9954 0.9791
3.0391 3.8098 -1.9946 0.9792
2.6806 4.0573 -1.9902 0.9792
2.2640 4.2005 -1.9530 0.9796
1.3967 4.2814 -1.8432 0.9807
1.0084 4.3891 -1.8432 0.9807
0.2108 4.4985 -1.8432 0.9807
-0.5935 4.4642 -1.8432 0.9807
-1.3789 4.2872 -1.8432 0.9807
-2.1824 4.0898 -1.8973 0.9802
-3.0189 3.8168 -1.9917 0.9792
-3.9305 2.8845 -1.9954 0.9791
-4.3813 2.1385 -1.9954 0.9791
-2.0652 0.3877 -0.8600 0.9910
-2.0167 0.1944 -0.8292 0.9913
-2.0512 -0.3572 -0.8521 0.9910
-4.7091 -1.2625 -1.9954 0.9791
-4.5774 -1.6783 -1.9954 0.9791
-2.9192 -2.6947 -1.7314 0.9828
-1.6986 -2.7283 -1.4006 0.9861
-1.0620 -2.6756 -1.2546 0.9875
-0.7917 -2.6690 -1.2133 0.9879
-0.5474 -2.7165 -1.2077 0.9880
-0.2955 -2.6917 -1.1801 0.9883
-0.0532 -2.6788 -1.1677 0.9884
0.1875 -2.6871 -1.1739 0.9883
1.1268 -4.4376 -1.9954 0.9802
2.2637 -3.9797 -1.9954 0.9802
2.6103 -3.7614 -1.9954 0.9802
2.9361 -3.5130 -1.9954 0.9802
3.2383 -3.2365 -1.9954 0.9802
3.5147 -2.9341 -1.9954 0.9802
3.9809 -2.2614 -1.9954 0.9802
4.3200 -1.5165 -1.9954 0.9802
4.4382 -1.1243 -1.9954 0.9802
4.5210 -0.7231 -1.9954 0.9802
4.5675 -0.3161 -1.9954 0.9802
4.4877 0.9070 -1.9954 0.9802
4.0863 2.0650 -1.9954 0.9802
3.6533 2.7596 -1.9954 0.9802
3.3920 3.0751 -1.9954 0.9802
2.4523 3.8611 -1.9935 0.9802
0.8815 4.1798 -1.8617 0.9815
0.1219 4.2274 -1.8432 0.9817
-0.6327 4.1816 -1.8432 0.9817
-1.8198 4.0897 -1.9509 0.9807
-3.2091 3.2655 -1.9954 0.9802
-3.4881 2.9656 -1.9954 0.9802
-3.7393 2.6420 -1.9954 0.9802
-4.1499 1.9340 -1.9954 0.9802
-1.4872 0.5371 -0.6891 0.9931
-1.4923 0.3923 -0.6725 0.9933
-1.4721 0.2490 -0.6507 0.9935
-1.4635 0.1145 -0.6398 0.9936
-1.4306 -0.0163 -0.6235 0.9938
-1.4936 -0.4294 -0.6773 0.9932
-1.5453 -0.5984 -0.7222 0.9928
-4.1047 -2.0282 -1.9954 0.9802
-3.6780 -2.7266 -1.9954 0.9802
-3.0304 -2.6980 -1.7683 0.9825
-2.5651 -2.7322 -1.6333 0.9838
-2.1410 -2.7340 -1.5134 0.9850
-1.7691 -2.7308 -1.4181 0.9859
-1.1204 -2.6810 -1.2663 0.9874
-0.8407 -2.6578 -1.2149 0.9879
-0.5978 -2.7135 -1.2109 0.9879
-0.1015 -2.6816 -1.1695 0.9884
0.1388 -2.6830 -1.1709 0.9883
1.4410 -4.3458 -1.9954 0.9802
1.8237 -4.1996 -1.9954 0.9802
2.1917 -4.0198 -1.9954 0.9802
2.5423 -3.8077 -1.9954 0.9802
2.8724 -3.5653 -1.9954 0.9802
3.7153 -2.6755 -1.9954 0.9802
4.1324 -1.9712 -1.9954 0.9802
4.2920 -1.5940 -1.9954 0.9802
4.5072 -0.8043 -1.9954 0.9802
4.5033 0.8261 -1.9954 0.9802
4.4114 1.2253 -1.9954 0.9802
4.1228 1.9912 -1.9954 0.9802
3.1636 3.3096 -1.9954 0.9802
2.8551 3.5791 -1.9954 0.9802
1.7921 4.1821 -1.9829 0.9803
0.9605 4.1805 -1.8694 0.9815
-0.1804 4.2253 -1.8432 0.9817
-0.5574 4.1923 -1.8432 0.9817
-0.9321 4.1356 -1.8476 0.9817
-1.3237 4.1156 -1.8841 0.9813
-3.1499 3.3227 -1.9954 0.9802
-3.4343 3.0279 -1.9954 0.9802
-3.6911 2.7088 -1.9954 0.9802
-3.9185 2.3680 -1.9954 0.9802
-1.5303 0.5840 -0.7138 0.9929
-1.4685 0.1415 -0.6430 0.9936
-1.4650 -0.1218 -0.6407 0.9936
-1.4928 -0.4002 -0.6736 0.9933
-1.4898 -0.5462 -0.6915 0.9931
-2.9192 -2.6947 -1.8389 0.9826
-2.4862 -2.7456 -1.7145 0.9838
-1.3665 -2.7078 -1.4040 0.9867
-1.0639 -2.6803 -1.3348 0.9874
-0.2930 -2.6691 -1.2429 0.9882
0.1861 -2.6669 -1.2375 0.9883
1.4301 -4.0666 -1.9954 0.9812
2.1313 -3.7470 -1.9954 0.9812
2.4577 -3.5414 -1.9954 0.9812
2.7644 -3.3076 -1.9954 0.9812
3.5428 -2.4557 -1.9954 0.9812
4.1787 -1.0586 -1.9954 0.9812
4.2566 -0.6808 -1.9954 0.9812
4.3098 0.0880 -1.9954 0.9812
4.2847 0.4728 -1.9954 0.9812
2.9221 3.1691 -1.9954 0.9812
1.9751 3.8278 -1.9938 0.9812
1.6228 3.9834 -1.9910 0.9812
0.1197 4.1481 -1.9209 0.9819
-0.2514 4.1383 -1.9191 0.9819
-0.6243 4.1259 -1.9315 0.9818
-1.7481 3.9286 -1.9904 0.9812
-2.0951 3.7616 -1.9931 0.9812
-3.0215 3.0746 -1.9954 0.9812
-3.5206 2.4875 -1.9954 0.9812
-1.2640 0.5891 -0.6455 0.9939
-1.2732 0.2154 -0.5977 0.9943
-1.2610 -0.0144 -0.5837 0.9945
-1.2703 -0.2449 -0.5988 0.9943
-1.2704 -0.3652 -0.6119 0.9942
-3.0304 -2.6980 -1.8781 0.9823
-1.7705 -2.7329 -1.5073 0.9857
-1.4310 -2.7132 -1.4199 0.9866
-0.5922 -2.6881 -1.2741 0.9879
-0.3429 -2.6782 -1.2498 0.9882
0.1377 -2.6629 -1.2343 0.9883
0.3862 -2.7173 -1.2704 0.9880
0.7051 -3.0025 -1.4276 0.9865
1.3567 -4.0916 -1.9954 0.9812
2.3936 -3.5851 -1.9954 0.9812
2.9937 -3.1016 -1.9954 0.9812
3.4981 -2.5190 -1.9954 0.9812
3.7092 -2.1963 -1.9954 0.9812
4.2437 -0.7573 -1.9954 0.9812
4.2925 0.3957 -1.9954 0.9812
4.2399 0.7778 -1.9954 0.9812
3.8817 1.8747 -1.9954 0.9812
3.6986 2.2142 -1.9954 0.9812
3.4858 2.5359 -1.9954 0.9812
3.2452 2.8374 -1.9954 0.9812
2.6882 3.3698 -1.9954 0.9812
1.6946 3.9546 -1.9915 0.9812
1.3327 4.0854 -1.9891 0.9812
0.9559 4.1606 -1.9761 0.9814
0.5702 4.1565 -1.9420 0.9817
-1.3149 4.0883 -1.9879 0.9812
-1.6768 3.9584 -1.9899 0.9812
-2.6742 3.3810 -1.9954 0.9812
-3.2334 2.8508 -1.9954 0.9812
-3.4753 2.5504 -1.9954 0.9812
-3.6894 2.2295 -1.9954 0.9812
-3.8739 1.8908 -1.9954 0.9812
-1.2578 0.4800 -0.6232 0.9941
-1.2706 0.3586 -0.6111 0.9942
-1.2728 -0.1058 -0.5912 0.9944
-1.2727 -0.2217 -0.5980 0.9943
-1.2706 -0.3407 -0.6089 0.9942
-1.2611 -0.4624 -0.6217 0.9941
-2.9192 -2.6947 -1.9487 0.9825
-2.7305 -3.0153 -1.9954 0.9820
-1.7012 -2.7325 -1.5789 0.9858
-1.0658 -2.6851 -1.4171 0.9872
-0.7914 -2.6679 -1.3650 0.9877
-0.3099 -2.8224 -1.3928 0.9874
-0.0521 -2.6234 -1.2871 0.9884
1.3495 -3.8374 -1.9954 0.9820
1.6871 -3.7015 -1.9954 0.9820
2.3192 -3.3419 -1.9954 0.9820
2.6086 -3.1212 -1.9954 0.9820
2.8772 -2.8756 -1.9954 0.9820
3.1227 -2.6069 -1.9954 0.9820
3.5370 -2.0092 -1.9954 0.9820
3.7024 -1.6850 -1.9954 0.9820
3.8382 -1.3474 -1.9954 0.9820
3.9433 -0.9989 -1.9954 0.9820
4.0168 -0.6425 -1.9954 0.9820
4.0581 -0.2808 -1.9954 0.9820
4.0670 0.0830 -1.9954 0.9820
4.0433 0.4462 -1.9954 0.9820
3.9872 0.8058 -1.9954 0.9820
3.8992 1.1590 -1.9954 0.9820
3.7800 1.5029 -1.9954 0.9820
3.6306 1.8347 -1.9954 0.9820
3.4520 2.1519 -1.9954 0.9820
3.0137 2.7321 -1.9954 0.9820
2.4791 3.2251 -1.9954 0.9820
2.1809 3.4338 -1.9954 0.9820
1.8653 3.6149 -1.9954 0.9820
1.5341 3.7659 -1.9947 0.9820
-0.9633 3.9420 -1.9905 0.9821
-1.3128 3.8430 -1.9920 0.9821
-1.6527 3.7141 -1.9941 0.9821
-1.9793 3.5538 -1.9954 0.9820
-2.2891 3.3626 -1.9954 0.9820
-2.5805 3.1446 -1.9954 0.9820
-3.3222 2.3473 -1.9954 0.9820
-3.5188 2.0410 -1.9954 0.9820
-1.0938 0.5097 -0.5919 0.9946
-1.1358 -0.0130 -0.5572 0.9950
-1.1166 -0.4324 -0.5874 0.9947
-3.2678 -2.4225 -1.9954 0.9820
-3.0304 -2.6980 -1.9903 0.9821
-2.1445 -2.7384 -1.7061 0.9846
-1.7719 -2.7350 -1.5985 0.9856
-1.4338 -2.7184 -1.5075 0.9864
-1.1244 -2.6906 -1.4304 0.9871
-0.3410 -2.6638 -1.3173 0.9881
-0.0994 -2.6248 -1.2885 0.9884
0.1410 -2.7269 -1.3394 0.9879
1.2803 -3.8611 -1.9954 0.9820
2.5521 -3.1677 -1.9954 0.9820
2.8250 -2.9269 -1.9954 0.9820
3.0753 -2.6626 -1.9954 0.9820
3.3010 -2.3771 -1.9954 0.9820
3.6715 -1.7514 -1.9954 0.9820
3.9247 -1.0697 -1.9954 0.9820
4.0046 -0.7146 -1.9954 0.9820
4.0678 0.0098 -1.9954 0.9820
3.6630 1.7691 -1.9954 0.9820
3.2894 2.3930 -1.9954 0.9820
3.0624 2.6775 -1.9954 0.9820
2.8108 2.9405 -1.9954 0.9820
2.5367 3.1800 -1.9954 0.9820
1.6020 3.7386 -1.9951 0.9820
-0.8921 3.9582 -1.9903 0.9821
-1.5853 3.7423 -1.9936 0.9821
-1.9151 3.5888 -1.9954 0.9820
-2.2282 3.4033 -1.9954 0.9820
-2.5235 3.1905 -1.9954 0.9820
-3.0512 2.6902 -1.9954 0.9820
-3.2795 2.4067 -1.9954 0.9820
-1.1398 0.2140 -0.5689 0.9948
-1.1443 0.1103 -0.5639 0.9949
-1.1349 0.0075 -0.5567 0.9950
-1.1439 -0.0951 -0.5630 0.9949
-1.1328 -0.3037 -0.5753 0.9948
-2.5817 -2.8510 -1.9954 0.9828
-1.3717 -2.7182 -1.5795 0.9864
-1.0685 -2.6918 -1.5024 0.9870
-0.7935 -2.6751 -1.4475 0.9875
-0.2888 -2.6305 -1.3729 0.9881
0.1849 -2.6501 -1.3781 0.9881
0.9466 -3.7280 -1.9954 0.9828
1.2760 -3.6284 -1.9954 0.9828
1.5952 -3.4998 -1.9954 0.9828
2.1929 -3.1599 -1.9954 0.9828
2.9526 -2.4649 -1.9954 0.9828
3.1611 -2.1911 -1.9954 0.9828
3.3443 -1.8998 -1.9954 0.9828
3.5007 -1.5933 -1.9954 0.9828
3.7285 -0.9445 -1.9954 0.9828
3.8454 0.0785 -1.9954 0.9828
3.8231 0.4219 -1.9954 0.9828
3.5741 1.4210 -1.9954 0.9828
3.2640 2.0347 -1.9954 0.9828
3.0691 2.3183 -1.9954 0.9828
2.8496 2.5833 -1.9954 0.9828
2.6073 2.8277 -1.9954 0.9828
1.4511 3.5620 -1.9954 0.9828
0.7933 3.7616 -1.9944 0.9828
0.1108 3.8396 -1.9928 0.9828
-0.2329 3.8340 -1.9927 0.9828
-0.5748 3.7987 -1.9931 0.9828
-1.2433 3.6397 -1.9954 0.9828
-1.5637 3.5140 -1.9954 0.9828
-1.8715 3.3602 -1.9954 0.9828
-2.4399 2.9733 -1.9954 0.9828
-3.1413 2.2195 -1.9954 0.9828
-0.9555 0.5542 -0.5731 0.9950
-1.0373 0.0812 -0.5398 0.9953
-1.0303 -0.1986 -0.5443 0.9953
-1.0184 -0.2928 -0.5497 0.9952
-1.0030 -0.3884 -0.5580 0.9952
-0.9721 -0.4803 -0.5625 0.9951
-0.9655 -0.5899 -0.5870 0.9949
-3.0898 -2.2906 -1.9954 0.9828
-1.4366 -2.7237 -1.5975 0.9862
-0.8474 -2.6790 -1.4576 0.9874
-0.5862 -2.6607 -1.4134 0.9878
-0.3538 -2.7634 -1.4453 0.9875
-0.0994 -2.6248 -1.3627 0.9882
0.1354 -2.6178 -1.3599 0.9883
1.2106 -3.6508 -1.9954 0.9828
1.5320 -3.5280 -1.9954 0.9828
2.1357 -3.1988 -1.9954 0.9828
2.9078 -2.5176 -1.9954 0.9828
3.1212 -2.2476 -1.9954 0.9828
3.3096 -1.9596 -1.9954 0.9828
3.4715 -1.6560 -1.9954 0.9828
3.6056 -1.3391 -1.9954 0.9828
3.7109 -1.0114 -1.9954 0.9828
3.7864 -0.6757 -1.9954 0.9828
3.8300 0.3531 -1.9954 0.9828
3.7831 0.6940 -1.9954 0.9828
3.5991 1.3565 -1.9954 0.9828
3.4634 1.6727 -1.9954 0.9828
3.1103 2.2627 -1.9954 0.9828
2.8956 2.5317 -1.9954 0.9828
2.3985 3.0068 -1.9954 0.9828
2.1202 3.2091 -1.9954 0.9828
1.1929 3.6566 -1.9954 0.9828
0.8609 3.7473 -1.9947 0.9828
0.5222 3.8070 -1.9935 0.9828
-1.1776 3.6612 -1.9952 0.9828
-1.5002 3.5416 -1.9954 0.9828
-2.1069 3.2179 -1.9954 0.9828
-2.3861 3.0167 -1.9954 0.9828
-2.8851 2.5437 -1.9954 0.9828
-3.1009 2.2756 -1.9954 0.9828
-0.9635 0.5823 -0.5840 0.9949
-1.0377 0.1000 -0.5408 0.9953
-1.0327 -0.1799 -0.5438 0.9953
-1.0197 -0.2734 -0.5477 0.9953
-2.6770 -2.4711 -1.9954 0.9835
-1.7039 -2.7368 -1.7657 0.9854
-1.3744 -2.7235 -1.6709 0.9862
-0.5369 -2.6644 -1.4886 0.9877
0.1825 -2.6164 -1.4365 0.9881
0.4344 -2.7062 -1.5012 0.9876
1.5110 -3.3150 -1.9954 0.9835
1.8012 -3.1667 -1.9954 0.9835
2.0771 -2.9930 -1.9954 0.9835
3.1677 -1.7995 -1.9954 0.9835
3.3159 -1.5091 -1.9954 0.9835
1.9164 -0.6727 -1.1124 0.9908
1.8857 -0.4777 -1.0654 0.9912
1.8872 -0.3019 -1.0468 0.9913
1.8892 0.2085 -1.0410 0.9914
1.8801 0.5588 -1.0743 0.9911
3.3854 1.3460 -1.9954 0.9835
3.2515 1.6432 -1.9954 0.9835
3.0916 1.9272 -1.9954 0.9835
2.6991 2.4469 -1.9954 0.9835
2.4696 2.6784 -1.9954 0.9835
1.0674 3.4833 -1.9954 0.9835
0.1051 3.6416 -1.9954 0.9835
-0.2209 3.6364 -1.9954 0.9835
-0.5450 3.6021 -1.9954 0.9835
-0.8648 3.5390 -1.9954 0.9835
-2.0501 3.0116 -1.9954 0.9835
-2.3111 2.8163 -1.9954 0.9835
-0.8695 0.5043 -0.5505 0.9954
-0.9262 0.2435 -0.5245 0.9956
-0.9472 0.0741 -0.5204 0.9957
-0.9473 -0.0959 -0.5215 0.9957
-0.9398 -0.1812 -0.5242 0.9956
-0.9237 -0.2655 -0.5264 0.9956
-0.9097 -0.3523 -0.5343 0.9956
-0.8901 -0.4398 -0.5438 0.9955
-0.8615 -0.5263 -0.5529 0.9954
-2.9266 -2.1696 -1.9954 0.9835
-2.7210 -2.4225 -1.9954 0.9835
-2.4936 -2.6560 -1.9954 0.9835
-2.2462 -2.8683 -1.9954 0.9835
-1.7747 -2.7395 -1.7878 0.9852
-1.4383 -2.7270 -1.6886 0.9860
-1.1295 -2.7027 -1.6043 0.9867
-0.5877 -2.6678 -1.4962 0.9876
-0.0994 -2.6248 -1.4387 0.9881
0.3821 -2.6886 -1.4873 0.9877
1.1466 -3.4580 -1.9954 0.9835
1.7440 -3.1986 -1.9954 0.9835
2.2856 -2.8369 -1.9954 0.9835
2.5301 -2.6213 -1.9954 0.9835
3.1348 -1.8562 -1.9954 0.9835
3.2882 -1.5685 -1.9954 0.9835
3.4152 -1.2683 -1.9954 0.9835
1.8885 -0.1649 -1.0383 0.9914
3.4090 1.2848 -1.9954 0.9835
3.1258 1.8713 -1.9954 0.9835
2.5173 2.6335 -1.9954 0.9835
2.0082 3.0396 -1.9954 0.9835
1.4349 3.3486 -1.9954 0.9835
0.4951 3.6093 -1.9954 0.9835
-0.4801 3.6114 -1.9954 0.9835
-0.8010 3.5540 -1.9954 0.9835
-1.1155 3.4682 -1.9954 0.9835
-1.7152 3.2141 -1.9954 0.9835
-1.9956 3.0480 -1.9954 0.9835
-2.2600 2.8574 -1.9954 0.9835
-2.5064 2.6439 -1.9954 0.9835
-0.8914 0.4351 -0.5433 0.9955
-0.9241 0.2608 -0.5259 0.9956
