ply
format ascii 1.0
element vertex 1503
property float32 x
property float32 y
property float32 z
property float32 I
end_header
4.8519 6.9070 1.4883 0.9663
6.7406 11.6899 2.3794 0.9467
4.3367 12.0909 2.2649 0.9492
2.0105 12.0210 2.1491 0.9517
0.9175 11.9881 2.1200 0.9523
-2.3069 11.8912 2.1358 0.9520
-3.4219 11.8577 2.1762 0.9511
-4.3659 7.1377 1.4753 0.9666
13.2399 10.2867 2.9564 0.9342
4.7541 12.1034 2.2929 0.9486
2.3841 12.0322 2.1628 0.9514
0.2028 11.9666 2.1103 0.9526
-4.1915 11.8346 2.2138 0.9503
-5.4069 11.7980 2.2884 0.9487
6.9483 12.0502 2.1309 0.9453
5.6174 12.1294 2.0477 0.9473
2.0105 12.0210 1.8671 0.9519
-0.1548 11.9559 1.8317 0.9528
-1.2239 11.9238 1.8363 0.9527
-2.3069 11.8912 1.8556 0.9522
-3.4219 11.8577 1.8907 0.9513
-4.5894 11.8226 1.9428 0.9500
-5.8333 11.7852 2.0145 0.9482
-4.3544 7.1190 1.2784 0.9668
13.2374 10.2848 2.5680 0.9344
8.9112 11.9121 2.2790 0.9416
6.0104 12.0220 2.0590 0.9471
4.7541 12.1034 1.9921 0.9487
2.3841 12.0322 1.8791 0.9516
0.2028 11.9666 1.8335 0.9527
-3.0440 11.8691 1.8771 0.9516
4.8290 6.8744 1.0940 0.9667
5.6174 12.1294 1.7407 0.9475
4.3367 12.0909 1.6727 0.9495
3.1775 12.1871 1.6401 0.9505
2.0325 12.1527 1.6045 0.9515
-0.1565 12.0869 1.5741 0.9524
-1.2373 12.0544 1.5780 0.9523
-4.3431 7.1005 1.0839 0.9670
13.2350 10.2829 2.1825 0.9346
4.7541 12.1034 1.6933 0.9489
3.5714 12.1928 1.6545 0.9500
2.4102 12.1640 1.6148 0.9512
1.2941 12.1305 1.5886 0.9520
-3.0774 11.9991 1.6131 0.9513
-4.2374 11.9642 1.6528 0.9501
-5.4069 11.7980 1.6900 0.9490
7.0182 12.1715 1.5087 0.9450
4.4287 12.3476 1.4086 0.9486
3.1775 12.1871 1.3524 0.9506
2.0325 12.1527 1.3231 0.9516
0.9275 12.1195 1.3052 0.9523
-2.3321 12.0215 1.3150 0.9519
-4.6397 11.9521 1.3767 0.9497
13.2326 10.2810 1.7994 0.9348
7.5210 12.1866 1.5378 0.9440
6.1593 12.3198 1.4790 0.9461
4.8550 12.3604 1.4260 0.9480
3.5732 12.1990 1.3650 0.9501
1.2941 12.1305 1.3100 0.9521
0.2050 12.0977 1.2993 0.9525
-3.0774 11.9991 1.3302 0.9514
-4.2374 11.9642 1.3629 0.9502
-5.4661 11.9273 1.4089 0.9486
4.8074 6.8436 0.7080 0.9670
5.7367 12.3869 1.1556 0.9467
4.4287 12.3476 1.1105 0.9487
2.0325 12.1527 1.0430 0.9517
0.9275 12.1195 1.0289 0.9524
-1.2373 12.0544 1.0258 0.9525
-2.3707 12.2204 1.0538 0.9513
-4.3395 7.0946 0.7040 0.9672
-3.5472 -19.4203 1.6712 0.9238
13.2312 10.2799 1.4184 0.9350
7.6807 12.4453 1.2380 0.9430
6.1908 12.3829 1.1720 0.9459
4.8550 12.3604 1.1242 0.9481
1.2941 12.1305 1.0327 0.9522
0.2084 12.2979 1.0412 0.9518
-0.8749 12.0653 1.0240 0.9526
-3.0774 11.9991 1.0486 0.9515
-4.2374 11.9642 1.0745 0.9503
-13.7817 13.7362 1.6472 0.9249
4.7999 6.8330 0.5178 0.9671
7.5106 13.0254 0.9324 0.9415
4.4287 12.3476 0.8134 0.9488
2.0325 12.1527 0.7641 0.9518
-0.1591 12.2869 0.7620 0.9519
-1.2373 12.0544 0.7514 0.9526
-3.4594 11.9876 0.7737 0.9512
-4.7164 12.1499 0.8082 0.9491
13.2310 10.2798 1.0390 0.9351
6.5582 13.1178 0.9094 0.9429
3.5732 12.1990 0.7882 0.9503
-1.9956 12.2317 0.7685 0.9515
-4.2374 11.9642 0.7871 0.9504
-5.4661 11.9273 0.8136 0.9488
4.7966 6.8282 0.3290 0.9671
7.5359 13.0691 0.5949 0.9414
6.0918 13.1538 0.5716 0.9436
4.4287 12.3476 0.5173 0.9488
0.9275 12.1195 0.4793 0.9525
-0.1591 12.2869 0.4845 0.9520
-1.2373 12.0544 0.4778 0.9526
-3.4594 11.9876 0.4920 0.9513
-4.7164 12.1499 0.5139 0.9492
-4.3494 7.1109 0.3287 0.9672
13.2308 10.2797 0.6607 0.9351
7.8925 12.7885 0.5926 0.9416
4.8550 12.3604 0.5236 0.9482
2.4501 12.3653 0.4971 0.9508
1.2941 12.1305 0.4810 0.9523
-3.0774 11.9991 0.4884 0.9516
-5.4661 11.9273 0.5173 0.9488
6.0753 13.1181 0.2442 0.9438
4.4287 12.3476 0.2216 0.9489
-0.1591 12.2869 0.2076 0.9520
-2.3707 12.2204 0.2103 0.9514
-3.4594 11.9876 0.2108 0.9513
-4.7165 12.1499 0.2202 0.9492
13.1924 10.2498 0.2822 0.9354
7.8925 12.7885 0.2538 0.9417
3.5732 12.1990 0.2147 0.9504
1.2434 11.6555 0.1980 0.9542
-1.9956 12.2317 0.2093 0.9516
-4.2374 11.9642 0.2144 0.9505
-5.4661 11.9273 0.2216 0.9489
-4.8066 6.9008 0.1421 0.9669
-13.7725 13.7271 0.3285 0.9252
4.8064 6.8422 -0.0471 0.9671
7.5359 13.0691 -0.0849 0.9414
6.0753 13.1181 -0.0814 0.9438
4.4287 12.3476 -0.0739 0.9489
3.1775 12.1871 -0.0709 0.9509
-0.1565 12.0869 -0.0681 0.9528
-2.3321 12.0215 -0.0689 0.9522
-4.6397 11.9521 -0.0722 0.9500
-5.0217 -18.1450 -0.1060 0.9275
-1.6525 -18.0431 -0.1020 0.9301
-0.0357 -17.8677 -0.1006 0.9310
3.1976 -17.9107 -0.1024 0.9298
4.8547 -17.8181 -0.1040 0.9288
6.7200 -18.1089 -0.1087 0.9256
7.8925 12.7885 -0.0846 0.9417
6.5657 13.1328 -0.0827 0.9430
2.4102 12.1640 -0.0698 0.9516
-0.8749 12.0653 -0.0681 0.9528
-1.9631 12.0326 -0.0686 0.9524
-3.0774 11.9991 -0.0697 0.9517
-5.4661 11.9273 -0.0739 0.9489
7.5359 13.0691 -0.4248 0.9414
6.0918 13.1538 -0.4082 0.9436
0.8685 11.3480 -0.3205 0.9555
-0.1565 12.0869 -0.3404 0.9528
-1.2373 12.0544 -0.3412 0.9527
-2.3321 12.0215 -0.3448 0.9522
-3.4025 11.7904 -0.3455 0.9521
-4.5548 11.7337 -0.3544 0.9509
-4.3776 7.1569 -0.2362 0.9670
-6.7320 -17.9218 -0.5391 0.9263
-4.9785 -17.9889 -0.5256 0.9280
-0.0355 -17.7763 -0.5005 0.9313
1.5672 -17.8993 -0.5059 0.9306
3.1790 -17.8063 -0.5093 0.9302
6.6592 -17.9452 -0.5390 0.9263
4.2396 10.7935 -0.3265 0.9547
3.1617 10.7940 -0.3167 0.9560
2.2425 11.3177 -0.3249 0.9549
1.2116 11.3577 -0.3216 0.9553
0.1920 11.3285 -0.3190 0.9557
-0.8749 12.0653 -0.3406 0.9527
-1.9631 12.0326 -0.3433 0.9524
-3.0486 11.8868 -0.3455 0.9521
-4.7435 6.8102 -0.2337 0.9673
-13.8516 13.8058 -0.5507 0.9247
4.8216 6.8638 -0.4254 0.9670
6.0918 13.1538 -0.7352 0.9436
3.7615 10.4872 -0.5650 0.9564
0.9024 11.7914 -0.5997 0.9537
-3.3962 11.7685 -0.6212 0.9521
-4.9698 -17.9575 -0.9449 0.9281
-1.6360 -17.8632 -0.9097 0.9307
-0.0355 -17.7756 -0.9015 0.9313
1.5638 -17.8594 -0.9092 0.9307
3.1567 -17.6817 -0.9109 0.9306
6.0385 -16.2725 -0.8802 0.9328
7.0650 -14.8270 -0.8329 0.9363
9.5131 12.7167 -0.8054 0.9384
6.5836 13.1686 -0.7466 0.9427
4.1235 10.4981 -0.5720 0.9558
3.0657 10.4663 -0.5531 0.9573
2.1572 10.8870 -0.5629 0.9565
0.1994 11.7680 -0.5969 0.9540
-0.8589 11.8447 -0.6023 0.9535
-3.0211 11.7797 -0.6167 0.9525
-5.3662 11.7093 -0.6532 0.9497
-4.7253 6.7842 -0.4193 0.9674
-13.9191 13.8731 -0.9966 0.9243
4.8322 6.8789 -0.6164 0.9668
3.7615 10.4872 -0.8169 0.9563
1.7735 10.6037 -0.7883 0.9578
-1.2147 11.8340 -0.8723 0.9534
-3.3962 11.7685 -0.8981 0.9521
-4.5548 11.7337 -0.9229 0.9508
-5.7894 11.6966 -0.9569 0.9490
-12.8866 14.4691 -1.4207 0.9252
-14.3465 13.4687 -1.4428 0.9241
-8.5177 -17.6935 -1.4398 0.9243
-6.6274 -17.6431 -1.3819 0.9272
-4.8698 -17.5962 -1.3387 0.9294
-3.2072 -17.5587 -1.3087 0.9309
-1.6279 -17.7748 -1.3087 0.9309
-0.0357 -17.8647 -1.3099 0.9309
1.5686 -17.9150 -1.3186 0.9304
4.7245 -17.3403 -1.3178 0.9305
9.4572 12.6420 -1.1576 0.9386
7.8661 12.7457 -1.0982 0.9417
6.5836 13.1686 -1.0795 0.9427
4.1235 10.4981 -0.8270 0.9558
3.0657 10.4663 -0.7997 0.9572
2.1039 10.6181 -0.7937 0.9575
-3.0211 11.7797 -0.8917 0.9524
-4.7159 6.7707 -0.6050 0.9674
-14.1335 11.7701 -1.3486 0.9289
12.3930 14.6625 -1.8431 0.9258
4.8553 6.9118 -0.8109 0.9666
7.5106 13.0254 -1.4435 0.9414
6.0683 13.1031 -1.3863 0.9436
2.8256 10.8373 -1.0752 0.9560
0.8105 10.5905 -1.0197 0.9582
-0.1537 11.8659 -1.1393 0.9534
-1.2147 11.8340 -1.1421 0.9533
-3.3962 11.7685 -1.1759 0.9520
-4.5548 11.7337 -1.2084 0.9507
-13.9968 13.1404 -1.8431 0.9258
-11.2691 -15.5431 -1.8431 0.9258
-9.8375 -16.4865 -1.8431 0.9258
-8.3275 -17.2984 -1.8431 0.9258
-1.6036 -17.5091 -1.6880 0.9318
1.5258 -17.4256 -1.6793 0.9321
4.7245 -17.3403 -1.7254 0.9303
7.0105 -14.7126 -1.5646 0.9366
9.7716 -16.5255 -1.8431 0.9258
11.5606 -16.0798 -1.9013 0.9235
12.8257 14.2855 -1.8431 0.9258
4.1235 10.4981 -1.0828 0.9557
3.0657 10.4663 -1.0470 0.9571
1.1308 10.6001 -1.0234 0.9581
0.1791 10.5715 -1.0151 0.9584
-1.9272 11.8126 -1.1491 0.9530
-3.0211 11.7797 -1.1675 0.9523
-7.0973 12.4229 -1.3736 0.9441
-4.7055 6.7558 -0.7904 0.9675
-13.4544 13.4100 -1.8237 0.9265
-14.0838 11.7287 -1.7596 0.9290
-11.7287 -15.1993 -1.8431 0.9258
16.6895 -1.9037 -1.9953 0.9346
16.7927 -0.4072 -1.9953 0.9346
16.7621 1.0926 -1.9953 0.9346
16.5978 2.5836 -1.9953 0.9346
16.3011 4.0541 -1.9953 0.9346
15.8744 5.4922 -1.9953 0.9346
15.3212 6.8865 -1.9953 0.9346
14.6457 8.2259 -1.9953 0.9346
12.7967 8.7751 -1.8431 0.9394
11.0335 10.9096 -1.8431 0.9394
10.0162 11.8505 -1.8431 0.9394
4.8597 6.9181 -1.0043 0.9665
7.5106 13.0254 -1.7860 0.9412
-0.1537 11.8659 -1.4096 0.9533
-1.2147 11.8340 -1.4131 0.9532
-7.5759 12.3858 -1.7247 0.9432
-9.2450 12.4616 -1.8431 0.9394
-10.3198 11.5872 -1.8431 0.9394
-11.3124 10.6203 -1.8431 0.9394
-13.0198 8.4409 -1.8431 0.9394
-14.8540 7.8440 -1.9953 0.9346
-16.0115 5.0793 -1.9953 0.9346
-16.4008 3.6306 -1.9953 0.9346
-16.3601 -3.8101 -1.9953 0.9346
-15.9549 -5.2544 -1.9953 0.9346
-14.7671 -8.0062 -1.9953 0.9346
-13.9940 -9.2917 -1.9953 0.9346
-13.1092 -10.5031 -1.9953 0.9346
-2.2353 -3.7461 -0.5182 0.9826
-2.7880 -15.2640 -1.8431 0.9394
-0.0310 -15.5164 -1.8431 0.9394
1.3534 -15.4573 -1.8431 0.9394
4.0789 -14.9707 -1.8431 0.9394
8.5417 -14.4456 -1.9935 0.9346
10.9832 -12.7095 -1.9953 0.9346
12.0733 -11.6790 -1.9953 0.9346
14.7349 -8.0650 -1.9953 0.9346
15.3957 -6.7183 -1.9953 0.9346
15.9336 -5.3180 -1.9953 0.9346
16.6251 -2.4017 -1.9953 0.9346
16.7731 -0.9089 -1.9953 0.9346
16.4150 3.5651 -1.9953 0.9346
14.8850 7.7845 -1.9953 0.9346
14.1312 9.0814 -1.9953 0.9346
11.3547 10.5750 -1.8431 0.9394
7.8661 12.7457 -1.7791 0.9415
6.5582 13.1178 -1.7421 0.9426
1.1308 10.6001 -1.2663 0.9580
0.1791 10.5715 -1.2559 0.9583
-0.8030 11.0739 -1.3189 0.9563
-1.9272 11.8126 -1.4217 0.9529
-4.1600 11.7455 -1.4801 0.9510
-5.3662 11.7093 -1.5300 0.9494
-11.9234 9.9295 -1.8431 0.9394
-15.2937 6.9477 -1.9953 0.9346
-16.5875 2.6499 -1.9953 0.9346
-16.7578 1.1595 -1.9953 0.9346
-16.7944 -0.3401 -1.9953 0.9346
-16.4666 -3.3194 -1.9953 0.9346
-16.1048 -4.7752 -1.9953 0.9346
-14.9998 -7.5613 -1.9953 0.9346
-14.2655 -8.8693 -1.9953 0.9346
-13.4173 -10.1066 -1.9953 0.9346
14.0783 -0.3414 -1.9953 0.9447
13.9149 2.1660 -1.9953 0.9447
13.3084 4.6044 -1.9953 0.9447
12.8446 5.7734 -1.9953 0.9447
10.0291 8.2844 -1.8431 0.9488
9.2501 9.1460 -1.8431 0.9488
8.3972 9.9349 -1.8431 0.9488
4.8924 6.9645 -1.2059 0.9662
6.4979 11.2691 -1.8431 0.9488
4.3381 12.0948 -1.8206 0.9494
2.9390 11.2723 -1.6506 0.9540
-0.1537 11.8659 -1.6814 0.9532
-1.2147 11.8340 -1.6856 0.9531
-3.1712 10.9888 -1.6205 0.9548
-7.7506 10.4473 -1.8431 0.9488
-9.4838 8.9036 -1.8431 0.9488
-10.2403 8.0220 -1.8431 0.9488
-10.9152 7.0764 -1.8431 0.9488
-11.5030 6.0744 -1.8431 0.9488
-12.9899 5.4388 -1.9953 0.9447
-13.4233 4.2583 -1.9953 0.9447
-13.7497 3.0437 -1.9953 0.9447
-13.9664 1.8049 -1.9953 0.9447
-14.0717 0.5517 -1.9953 0.9447
-13.3759 -4.4051 -1.9953 0.9447
-2.2923 -3.1616 -0.5533 0.9843
-3.7562 -13.5723 -1.9953 0.9447
-2.5304 -13.8533 -1.9953 0.9447
-1.2844 -14.0238 -1.9953 0.9447
2.4750 -13.8633 -1.9953 0.9447
3.7020 -13.5872 -1.9953 0.9447
6.0577 -12.7130 -1.9953 0.9447
8.2206 -11.4341 -1.9953 0.9447
9.2078 -10.6551 -1.9953 0.9447
10.9549 -8.8491 -1.9953 0.9447
11.7006 -7.8365 -1.9953 0.9447
13.3581 -4.4584 -1.9953 0.9447
13.7025 -3.2489 -1.9953 0.9447
13.9377 -2.0135 -1.9953 0.9447
14.0737 0.4955 -1.9953 0.9447
13.7616 2.9888 -1.9953 0.9447
13.0114 5.3869 -1.9953 0.9447
12.4789 6.5262 -1.9953 0.9447
10.9433 7.0327 -1.8431 0.9488
10.2722 7.9810 -1.8431 0.9488
9.5192 8.8656 -1.8431 0.9488
8.6904 9.6795 -1.8431 0.9488
6.8318 11.0698 -1.8431 0.9488
5.8170 11.6352 -1.8431 0.9488
3.1001 10.5837 -1.5626 0.9564
-1.9272 11.8126 -1.6959 0.9528
-2.8210 10.9994 -1.6089 0.9552
-4.1600 11.7455 -1.7655 0.9509
-5.3662 11.7093 -1.8250 0.9493
-6.4529 11.2950 -1.8431 0.9488
-4.7054 6.7556 -1.1665 0.9673
-9.9960 8.3245 -1.8431 0.9488
-10.6988 7.3995 -1.8431 0.9488
-13.2900 4.6576 -1.9953 0.9447
-13.6526 3.4533 -1.9953 0.9447
-13.9062 2.2216 -1.9953 0.9447
-14.0490 0.9721 -1.9953 0.9447
-14.0797 -0.2851 -1.9953 0.9447
-13.9981 -1.5401 -1.9953 0.9447
-13.8049 -2.7828 -1.9953 0.9447
-13.5016 -4.0033 -1.9953 0.9447
-10.4477 -9.4426 -1.9953 0.9447
12.0340 -1.3727 -1.9953 0.9521
12.1085 -0.2936 -1.9953 0.9521
11.9679 1.8630 -1.9953 0.9521
11.0474 4.9656 -1.9953 0.9521
9.7548 5.4789 -1.8431 0.9557
7.9558 7.8664 -1.8431 0.9557
7.2223 8.5448 -1.8431 0.9557
2.8226 10.8263 -1.8431 0.9557
1.7794 10.6390 -1.7770 0.9572
0.8105 10.5905 -1.7498 0.9579
-0.1449 11.1873 -1.8431 0.9557
-2.1308 10.9834 -1.8431 0.9557
-3.1021 10.7496 -1.8431 0.9557
-5.8379 9.5444 -1.8431 0.9557
-5.0158 6.7610 -1.3868 0.9664
-7.4412 8.3550 -1.8431 0.9557
-9.8935 5.2245 -1.8431 0.9557
-12.1028 0.4745 -1.9953 0.9521
-12.0969 -0.6071 -1.9953 0.9521
-11.9945 -1.6839 -1.9953 0.9521
-10.6479 -5.7729 -1.9953 0.9521
-10.0904 -6.6998 -1.9953 0.9521
-3.7547 -3.6032 -0.8573 0.9791
-2.5921 -2.9755 -0.6501 0.9841
-2.1664 -2.9881 -0.6080 0.9851
-1.7956 -3.0091 -0.5773 0.9859
-1.0435 -3.7706 -0.6445 0.9843
-1.1047 -12.0616 -1.9953 0.9521
1.0565 -12.0659 -1.9953 0.9521
3.1840 -11.6861 -1.9953 0.9521
4.2138 -11.3554 -1.9953 0.9521
5.2101 -10.9342 -1.9953 0.9521
6.1648 -10.4258 -1.9953 0.9521
8.7055 -8.4212 -1.9953 0.9521
10.0635 -6.7400 -1.9953 0.9521
11.1011 -4.8443 -1.9953 0.9521
11.4890 -3.8346 -1.9953 0.9521
11.7853 -2.7943 -1.9953 0.9521
12.0943 -0.6554 -1.9953 0.9521
11.8361 2.5706 -1.9953 0.9521
11.5596 3.6163 -1.9953 0.9521
9.4121 6.0487 -1.8431 0.9557
4.4868 7.2700 -1.4074 0.9660
4.0904 10.4137 -1.8431 0.9557
-0.8048 11.0984 -1.8331 0.9559
-1.8015 11.0422 -1.8431 0.9557
-2.7795 10.8375 -1.8431 0.9557
-4.6612 10.1710 -1.8431 0.9557
-4.6994 6.7469 -1.3545 0.9672
-7.1881 8.5737 -1.8431 0.9557
-11.0276 5.0097 -1.9953 0.9521
-11.9605 1.9107 -1.9953 0.9521
-12.1097 -0.2453 -1.9953 0.9521
-11.8733 -2.3934 -1.9953 0.9521
-10.8157 -5.4521 -1.9953 0.9521
-10.2862 -6.3952 -1.9953 0.9521
-9.6746 -7.2874 -1.9953 0.9521
-3.9511 -3.5710 -0.8774 0.9786
-2.3031 -2.9847 -0.6211 0.9848
10.6125 -0.2573 -1.9953 0.9577
10.5932 0.6905 -1.9953 0.9577
10.4893 1.6328 -1.9953 0.9577
10.3018 2.5621 -1.9953 0.9577
10.0322 3.4709 -1.9953 0.9577
9.6826 4.3521 -1.9953 0.9577
7.5602 6.2450 -1.8431 0.9609
6.9729 6.8946 -1.8431 0.9609
4.7036 6.6959 -1.5381 0.9672
4.1904 7.2673 -1.5768 0.9664
4.1209 8.8980 -1.8431 0.9609
3.3106 9.2302 -1.8431 0.9609
2.4740 9.4887 -1.8431 0.9609
1.6176 9.6716 -1.8431 0.9609
-0.1270 9.8051 -1.8431 0.9609
-1.0012 9.7547 -1.8431 0.9609
-2.7189 9.4215 -1.8431 0.9609
-4.3500 8.7884 -1.8431 0.9609
-6.5219 7.3227 -1.8431 0.9609
-7.1491 6.7117 -1.8431 0.9609
-8.2281 5.3344 -1.8431 0.9609
-8.6712 4.5790 -1.8431 0.9609
-10.3648 2.2944 -1.9953 0.9577
-10.5282 1.3606 -1.9953 0.9577
-10.6076 0.4159 -1.9953 0.9577
-10.6024 -0.5321 -1.9953 0.9577
-9.7466 -4.2069 -1.9953 0.9577
-9.3324 -5.0597 -1.9953 0.9577
-3.7428 -2.9988 -0.9015 0.9807
-2.1314 -2.9398 -0.6825 0.9853
-1.4363 -2.9835 -0.6224 0.9866
-1.1840 -3.1521 -0.6329 0.9864
-0.0212 -10.6157 -1.9953 0.9577
0.9260 -10.5752 -1.9953 0.9577
1.8657 -10.4505 -1.9953 0.9577
4.5664 -9.5834 -1.9953 0.9577
6.1969 -8.6193 -1.9953 0.9577
6.9411 -8.0321 -1.9953 0.9577
8.2580 -6.6707 -1.9953 0.9577
9.3121 -5.0969 -1.9953 0.9577
9.7296 -4.2458 -1.9953 0.9577
10.0696 -3.3608 -1.9953 0.9577
10.5066 -1.5178 -1.9953 0.9577
10.5335 1.3185 -1.9953 0.9577
9.8083 4.0608 -1.9953 0.9577
7.7434 6.0163 -1.8431 0.9609
5.0167 6.7061 -1.5742 0.9665
3.5850 9.1271 -1.8431 0.9609
1.9059 9.6189 -1.8431 0.9609
-1.5789 9.6780 -1.8431 0.9609
-2.4361 9.4986 -1.8431 0.9609
-3.2738 9.2434 -1.8431 0.9609
-4.2058 7.3618 -1.5936 0.9661
-4.4393 6.3735 -1.4599 0.9689
-5.3283 6.3553 -1.5588 0.9668
-6.9453 6.9224 -1.8431 0.9609
-7.5352 6.2752 -1.8431 0.9609
-8.5305 4.8362 -1.8431 0.9609
-9.6610 4.3889 -1.9945 0.9577
-10.0183 3.5110 -1.9953 0.9577
-10.2916 2.6032 -1.9953 0.9577
-10.4828 1.6747 -1.9953 0.9577
-10.6136 -0.2150 -1.9953 0.9577
-10.5521 -1.1610 -1.9953 0.9577
-10.4064 -2.0978 -1.9953 0.9577
-8.4794 -6.3871 -1.9953 0.9577
-3.2913 -2.9747 -0.8339 0.9821
-2.7089 -2.9280 -0.7497 0.9839
9.2459 -1.9023 -1.9953 0.9621
9.3787 -1.0698 -1.9953 0.9621
9.4196 0.6140 -1.9953 0.9621
9.1605 2.2782 -1.9953 0.9621
8.9207 3.0864 -1.9953 0.9621
8.6098 3.8699 -1.9953 0.9621
8.2033 4.6075 -1.9888 0.9623
6.2004 6.1307 -1.8431 0.9650
5.6287 6.6594 -1.8431 0.9650
4.1479 7.1935 -1.7552 0.9666
2.9438 8.2076 -1.8431 0.9650
2.1999 8.4375 -1.8431 0.9650
0.6654 8.6941 -1.8431 0.9650
-3.8680 7.8147 -1.8431 0.9650
-4.1955 6.8593 -1.6996 0.9677
-4.7240 6.3677 -1.6760 0.9681
-5.7993 6.5115 -1.8431 0.9650
-6.8642 5.3772 -1.8431 0.9650
-8.9977 2.8543 -1.9953 0.9621
-9.2165 2.0402 -1.9953 0.9621
-9.4324 0.3698 -1.9953 0.9621
-9.3479 -1.3123 -1.9953 0.9621
-8.2985 -4.4991 -1.9953 0.9621
-7.8640 -5.2215 -1.9953 0.9621
-3.0093 -2.8879 -0.8816 0.9831
-2.5212 -2.8941 -0.8113 0.9844
-2.0986 -2.8944 -0.7557 0.9855
-1.7375 -2.9119 -0.7168 0.9862
-1.4079 -2.9246 -0.6861 0.9868
-0.7000 -3.8323 -0.8235 0.9842
-0.8609 -9.4002 -1.9953 0.9621
0.8234 -9.4036 -1.9953 0.9621
1.6590 -9.2926 -1.9953 0.9621
5.5103 -7.6643 -1.9953 0.9621
7.3431 -5.9316 -1.9953 0.9621
7.8430 -5.2528 -1.9953 0.9621
8.2804 -4.5322 -1.9953 0.9621
8.6517 -3.7754 -1.9953 0.9621
8.9540 -2.9885 -1.9953 0.9621
9.1849 -2.1778 -1.9953 0.9621
9.4257 -0.5108 -1.9953 0.9621
9.4337 0.3322 -1.9953 0.9621
9.3665 1.1725 -1.9953 0.9621
9.2245 2.0034 -1.9953 0.9621
7.3354 4.7141 -1.8431 0.9650
5.8252 6.4882 -1.8431 0.9650
3.8992 7.7991 -1.8431 0.9650
3.1878 8.1159 -1.8431 0.9650
1.6948 8.5533 -1.8431 0.9650
0.9249 8.6703 -1.8431 0.9650
0.1477 8.7183 -1.8431 0.9650
-1.4040 8.6058 -1.8431 0.9650
-2.1662 8.4462 -1.8431 0.9650
-3.6327 7.9268 -1.8431 0.9650
-4.4393 6.3735 -1.6418 0.9687
-6.1758 6.1555 -1.8431 0.9650
-6.7004 5.5799 -1.8431 0.9650
-7.1715 4.9599 -1.8431 0.9650
-7.5854 4.3004 -1.8431 0.9650
-8.5943 3.9043 -1.9953 0.9621
-8.9084 3.1220 -1.9953 0.9621
-9.1514 2.3148 -1.9953 0.9621
-9.4171 0.6516 -1.9953 0.9621
-9.4377 -0.1911 -1.9953 0.9621
-9.3830 -1.0324 -1.9953 0.9621
-9.2535 -1.8653 -1.9953 0.9621
-9.0502 -2.6834 -1.9953 0.9621
-8.7747 -3.4801 -1.9953 0.9621
-3.7857 -2.8516 -1.0019 0.9808
-3.1876 -2.8810 -0.9082 0.9826
8.4720 0.5522 -1.9953 0.9657
8.3889 1.3058 -1.9953 0.9657
7.3935 4.1527 -1.9930 0.9658
3.9174 6.7938 -1.8431 0.9683
2.6477 7.3819 -1.8431 0.9683
1.9786 7.5887 -1.8431 0.9683
1.2937 7.7349 -1.8431 0.9683
-0.8007 7.8014 -1.8431 0.9683
-1.4935 7.6988 -1.8431 0.9683
-2.8380 7.3109 -1.8431 0.9683
-4.0921 6.6901 -1.8431 0.9683
-5.2159 5.8564 -1.8431 0.9683
-6.1736 4.8362 -1.8431 0.9683
-6.5805 4.2662 -1.8431 0.9683
-8.4200 1.0881 -1.9953 0.9657
-8.4835 0.3326 -1.9953 0.9657
-8.2687 -1.9257 -1.9953 0.9657
-8.0640 -2.6557 -1.9953 0.9657
-7.0729 -4.6962 -1.9953 0.9657
-3.5497 -2.8440 -1.0690 0.9815
-2.4973 -2.8666 -0.8935 0.9845
-2.0664 -2.8501 -0.8274 0.9856
-1.7122 -2.8695 -0.7853 0.9864
-1.3888 -2.8850 -0.7525 0.9869
-1.0993 -2.9266 -0.7347 0.9872
-0.8722 -3.1516 -0.7685 0.9867
-0.6455 -3.5339 -0.8443 0.9853
0.7405 -8.4576 -1.9953 0.9657
1.4921 -8.3578 -1.9953 0.9657
2.9537 -7.9596 -1.9953 0.9657
3.6520 -7.6643 -1.9953 0.9657
4.9560 -6.8933 -1.9953 0.9657
5.5512 -6.4237 -1.9953 0.9657
6.1021 -5.9028 -1.9953 0.9657
7.0540 -4.7244 -1.9953 0.9657
8.0532 -2.6879 -1.9953 0.9657
8.4775 -0.4594 -1.9953 0.9657
8.4847 0.2987 -1.9953 0.9657
8.4242 1.0545 -1.9953 0.9657
8.2965 1.8019 -1.9953 0.9657
8.1027 2.5348 -1.9953 0.9657
5.7389 5.3448 -1.8431 0.9683
5.2392 5.8355 -1.8431 0.9683
4.6977 6.2797 -1.8431 0.9683
2.8671 7.2995 -1.8431 0.9683
0.1329 7.8412 -1.8431 0.9683
-0.5672 7.8218 -1.8431 0.9683
-1.9483 7.5965 -1.8431 0.9683
-2.6182 7.3924 -1.8431 0.9683
-3.2673 7.1294 -1.8431 0.9683
-3.8903 6.8094 -1.8431 0.9683
-5.0385 6.0097 -1.8431 0.9683
-5.5546 5.5362 -1.8431 0.9683
-6.0263 5.0186 -1.8431 0.9683
-6.4500 4.4610 -1.8431 0.9683
-8.0122 2.8079 -1.9953 0.9657
-8.2308 2.0819 -1.9953 0.9657
-8.3837 1.3393 -1.9953 0.9657
-8.4697 0.5860 -1.9953 0.9657
-8.3226 -1.6777 -1.9953 0.9657
-3.7464 -2.8220 -1.1023 0.9809
7.7042 -0.1868 -1.9953 0.9687
7.2829 2.5197 -1.9953 0.9687
7.0290 3.1594 -1.9953 0.9687
6.7191 3.7739 -1.9953 0.9687
5.4883 4.5336 -1.8431 0.9710
5.0620 5.0051 -1.8431 0.9710
4.5953 5.4367 -1.8431 0.9710
3.5559 6.1669 -1.8431 0.9710
1.7960 6.8883 -1.8431 0.9710
1.1743 7.0211 -1.8431 0.9710
-0.0922 7.1180 -1.8431 0.9710
-1.9738 6.8395 -1.8431 0.9710
-3.7144 6.0727 -1.8431 0.9710
-4.2414 5.7171 -1.8431 0.9710
-5.6039 4.3899 -1.8431 0.9710
-6.1797 4.0064 -1.9069 0.9700
-6.8142 3.5984 -1.9952 0.9687
-7.3457 2.3303 -1.9953 0.9687
-7.6429 0.9877 -1.9953 0.9687
-7.7006 0.3019 -1.9953 0.9687
-7.6968 -0.3863 -1.9953 0.9687
-7.6316 -1.0714 -1.9953 0.9687
-7.3197 -2.4106 -1.9953 0.9687
-7.0755 -3.0540 -1.9953 0.9687
-6.7748 -3.6731 -1.9953 0.9687
-6.4201 -4.2628 -1.9953 0.9687
-3.5162 -2.8172 -1.1666 0.9816
-2.4736 -2.8394 -0.9750 0.9846
-2.0348 -2.8066 -0.8976 0.9858
-1.0719 -2.8536 -0.7893 0.9875
-0.3385 -3.6963 -0.9610 0.9848
-0.0076 -3.8283 -0.9912 0.9843
0.3550 -4.0546 -1.0538 0.9833
2.0258 -7.4354 -1.9953 0.9687
2.6811 -7.2250 -1.9953 0.9687
3.3150 -6.9570 -1.9953 0.9687
4.4986 -6.2572 -1.9953 0.9687
5.0389 -5.8309 -1.9953 0.9687
5.9949 -4.8426 -1.9953 0.9687
6.4030 -4.2884 -1.9953 0.9687
6.7601 -3.7001 -1.9953 0.9687
7.3100 -2.4398 -1.9953 0.9687
7.4985 -1.7779 -1.9953 0.9687
7.6273 -1.1019 -1.9953 0.9687
7.6951 -0.4170 -1.9953 0.9687
7.5309 1.6356 -1.9953 0.9687
7.3549 2.3009 -1.9953 0.9687
6.8289 3.5714 -1.9953 0.9687
6.4681 4.1567 -1.9907 0.9687
5.6213 4.3675 -1.8431 0.9710
5.2093 4.8516 -1.8431 0.9710
4.7557 5.2970 -1.8431 0.9710
3.7386 6.0578 -1.8431 0.9710
2.6025 6.6258 -1.8431 0.9710
1.3836 6.9829 -1.8431 0.9710
-4.5735 5.4551 -1.8431 0.9710
-5.0419 5.0253 -1.8431 0.9710
-5.4702 4.5555 -1.8431 0.9710
-5.8548 4.0493 -1.8431 0.9710
-6.6918 3.7938 -1.9917 0.9687
-7.0164 3.1874 -1.9953 0.9687
-7.4712 1.8898 -1.9953 0.9687
-7.6100 1.2157 -1.9953 0.9687
-7.6881 0.5320 -1.9953 0.9687
-7.7049 -0.1560 -1.9953 0.9687
-7.5545 -1.5229 -1.9953 0.9687
-7.3885 -2.1908 -1.9953 0.9687
-6.5447 -4.0690 -1.9953 0.9687
-3.7244 -2.8054 -1.2073 0.9809
-2.6489 -2.8631 -1.0099 0.9840
-2.1591 -2.7980 -0.9151 0.9855
6.9037 -1.4204 -1.9953 0.9711
7.0029 -0.7988 -1.9953 0.9711
7.0463 -0.1709 -1.9953 0.9711
6.8400 1.7011 -1.9953 0.9711
6.6609 2.3045 -1.9953 0.9711
6.1454 3.4516 -1.9953 0.9711
5.8060 3.9813 -1.9930 0.9712
3.7425 5.3276 -1.8431 0.9733
3.2522 5.6402 -1.8431 0.9733
2.1981 6.1284 -1.8431 0.9733
-0.6648 6.4767 -1.8431 0.9733
-1.2399 6.3916 -1.8431 0.9733
-1.8052 6.2554 -1.8431 0.9733
-2.8882 5.8351 -1.8431 0.9733
-3.3972 5.5541 -1.8431 0.9733
-4.3302 4.8620 -1.8431 0.9733
-4.7467 4.4563 -1.8431 0.9733
-5.8998 3.8249 -1.9905 0.9712
-6.5015 2.7221 -1.9953 0.9711
-6.7184 2.1313 -1.9953 0.9711
-6.8818 1.5234 -1.9953 0.9711
-6.9799 -0.9799 -1.9953 0.9711
-6.8647 -1.5987 -1.9953 0.9711
-3.4830 -2.7906 -1.2634 0.9816
-2.4500 -2.8123 -1.0559 0.9846
-1.6639 -2.7884 -0.9192 0.9866
-1.3524 -2.8092 -0.8826 0.9871
-1.0597 -2.8211 -0.8531 0.9876
-0.8162 -2.9494 -0.8663 0.9874
-0.5800 -3.1756 -0.9138 0.9867
-0.3110 -3.3962 -0.9655 0.9859
-0.0070 -3.4888 -0.9877 0.9856
2.4521 -6.6080 -1.9953 0.9711
3.5875 -6.0671 -1.9953 0.9711
4.1144 -5.7228 -1.9953 0.9711
4.6086 -5.3329 -1.9953 0.9711
5.4830 -4.4290 -1.9953 0.9711
5.8562 -3.9222 -1.9953 0.9711
6.1828 -3.3841 -1.9953 0.9711
6.8582 -1.6261 -1.9953 0.9711
6.9759 -1.0078 -1.9953 0.9711
7.0380 -0.3814 -1.9953 0.9711
6.7268 2.1044 -1.9953 0.9711
4.7725 4.4448 -1.8463 0.9733
4.3496 4.8446 -1.8431 0.9733
3.4194 5.5405 -1.8431 0.9733
1.8302 6.2482 -1.8431 0.9733
1.2654 6.3865 -1.8431 0.9733
0.6906 6.4740 -1.8431 0.9733
-0.3472 4.7877 -1.3589 0.9802
-2.7125 5.9188 -1.8431 0.9733
-4.1829 4.9892 -1.8431 0.9733
-5.7622 3.9852 -1.9834 0.9713
-6.1315 3.4761 -1.9953 0.9711
-6.4172 2.9153 -1.9953 0.9711
-6.9601 1.1119 -1.9953 0.9711
-7.0469 -0.1427 -1.9953 0.9711
-6.2939 -3.1727 -1.9953 0.9711
-5.9858 -3.7216 -1.9953 0.9711
-3.0562 -2.7622 -1.1662 0.9830
6.2955 1.5657 -1.9953 0.9732
6.1307 2.1211 -1.9953 0.9732
5.9170 2.6596 -1.9953 0.9732
5.6561 3.1768 -1.9953 0.9732
5.3502 3.6688 -1.9953 0.9732
4.9887 4.1209 -1.9902 0.9733
3.8682 4.5766 -1.8431 0.9752
2.0231 5.6406 -1.8431 0.9752
1.5118 5.7986 -1.8431 0.9752
-0.0620 4.7883 -1.4729 0.9802
-1.1412 5.8827 -1.8431 0.9752
-3.9855 4.4749 -1.8431 0.9752
-5.0877 3.9856 -1.9879 0.9733
-5.4434 3.5290 -1.9953 0.9732
-5.9839 2.5054 -1.9953 0.9732
-6.1836 1.9616 -1.9953 0.9732
-6.3339 1.4021 -1.9953 0.9732
-6.4791 -0.3252 -1.9953 0.9732
-6.4243 -0.9019 -1.9953 0.9732
-6.3182 -1.4714 -1.9953 0.9732
-6.1617 -2.0292 -1.9953 0.9732
-5.9561 -2.5709 -1.9953 0.9732
-5.7030 -3.0920 -1.9953 0.9732
-5.4044 -3.5884 -1.9953 0.9732
-2.4267 -2.7855 -1.1363 0.9847
-1.9776 -2.7276 -1.0363 0.9860
-1.0476 -2.7888 -0.9163 0.9876
-0.7914 -2.8596 -0.9126 0.9877
-0.5610 -3.0715 -0.9604 0.9870
-0.2886 -3.1516 -0.9734 0.9868
-0.0065 -3.2355 -0.9952 0.9866
0.2885 -3.2945 -1.0172 0.9863
0.6478 -3.6286 -1.1337 0.9847
3.3019 -5.5841 -1.9953 0.9732
3.7869 -5.2672 -1.9953 0.9732
4.2417 -4.9084 -1.9953 0.9732
5.3900 -3.6100 -1.9953 0.9732
5.6906 -3.1147 -1.9953 0.9732
6.1535 -2.0538 -1.9953 0.9732
6.4206 -0.9275 -1.9953 0.9732
6.4777 -0.3510 -1.9953 0.9732
6.4832 0.2283 -1.9953 0.9732
6.4370 0.8058 -1.9953 0.9732
5.4574 3.5072 -1.9953 0.9732
5.1161 3.9750 -1.9927 0.9733
4.5834 4.2686 -1.9264 0.9741
4.0033 4.4590 -1.8431 0.9752
3.5895 4.7983 -1.8431 0.9752
2.6797 5.3599 -1.8431 0.9752
1.6845 5.7508 -1.8431 0.9752
1.1647 5.8781 -1.8431 0.9752
0.1015 5.9915 -1.8431 0.9752
-0.3457 4.7679 -1.4704 0.9802
-1.4887 5.8046 -1.8431 0.9752
-2.0006 5.6486 -1.8431 0.9752
-2.9726 5.2031 -1.8431 0.9752
-3.8500 4.5920 -1.8431 0.9752
-4.2443 4.2303 -1.8431 0.9752
-4.8179 4.0122 -1.9284 0.9741
-5.9064 2.6832 -1.9953 0.9732
-6.4060 1.0234 -1.9953 0.9732
-6.4718 0.4478 -1.9953 0.9732
-6.4859 -0.1314 -1.9953 0.9732
-6.4484 -0.7095 -1.9953 0.9732
-6.2196 -1.8442 -1.9953 0.9732
-5.7929 -2.9201 -1.9953 0.9732
-3.1025 -2.8041 -1.2863 0.9827
-2.1190 -2.7461 -1.0669 0.9856
5.8796 -1.2097 -1.9953 0.9750
5.9640 -0.6803 -1.9953 0.9750
5.8253 1.4487 -1.9953 0.9750
5.4751 2.4609 -1.9953 0.9750
5.2337 2.9396 -1.9953 0.9750
4.6274 3.8224 -1.9951 0.9750
3.1873 4.5372 -1.8431 0.9769
2.7698 4.8035 -1.8431 0.9769
2.3302 5.0315 -1.8431 0.9769
1.3989 5.3655 -1.8431 0.9769
0.9147 5.4689 -1.8431 0.9769
0.4231 5.5287 -1.8431 0.9769
-0.0618 4.7682 -1.5851 0.9801
-0.5662 5.5159 -1.8431 0.9769
-1.0560 5.4434 -1.8431 0.9769
-1.5374 5.3274 -1.8431 0.9769
-2.4597 4.9694 -1.8431 0.9769
-4.2843 4.0221 -1.9534 0.9755
-4.7197 3.6973 -1.9929 0.9750
-5.3081 2.8030 -1.9953 0.9750
-5.7217 1.8151 -1.9953 0.9750
-5.8609 1.2974 -1.9953 0.9750
-5.9532 0.7694 -1.9953 0.9750
-5.9981 0.2352 -1.9953 0.9750
-5.2771 -2.8610 -1.9953 0.9750
-3.3806 -2.7085 -1.4399 0.9819
-2.8433 -2.7285 -1.3099 0.9835
-1.9788 -2.7293 -1.1206 0.9859
-1.6184 -2.7123 -1.0499 0.9868
-1.3169 -2.7355 -1.0092 0.9873
-1.0356 -2.7569 -0.9789 0.9877
-0.5278 -2.8897 -0.9764 0.9877
-0.2719 -2.9692 -0.9911 0.9875
0.2704 -3.0885 -1.0306 0.9870
1.5780 -5.7916 -1.9953 0.9750
2.0884 -5.6277 -1.9953 0.9750
2.5822 -5.4190 -1.9953 0.9750
3.0553 -5.1670 -1.9953 0.9750
3.5041 -4.8738 -1.9953 0.9750
3.9249 -4.5418 -1.9953 0.9750
4.3144 -4.1735 -1.9953 0.9750
4.9875 -3.3403 -1.9953 0.9750
5.2656 -2.8821 -1.9953 0.9750
5.5017 -2.4008 -1.9953 0.9750
5.8408 -1.3849 -1.9953 0.9750
5.9990 0.2112 -1.9953 0.9750
5.9562 0.7456 -1.9953 0.9750
5.7289 1.7922 -1.9953 0.9750
5.5462 2.2962 -1.9953 0.9750
5.3192 2.7818 -1.9953 0.9750
4.3823 4.0814 -1.9906 0.9751
2.9121 4.7186 -1.8431 0.9769
2.4795 4.9596 -1.8431 0.9769
2.0272 5.1610 -1.8431 0.9769
1.0777 5.4391 -1.8431 0.9769
0.0939 5.5440 -1.8431 0.9769
-0.8928 5.4725 -1.8431 0.9769
-1.3775 5.3710 -1.8431 0.9769
-4.0515 4.0381 -1.9014 0.9762
-4.6019 3.8324 -1.9907 0.9751
-5.4652 2.4828 -1.9953 0.9750
-5.6649 1.9853 -1.9953 0.9750
-5.9667 -0.6565 -1.9953 0.9750
-5.8844 -1.1862 -1.9953 0.9750
-5.5799 -2.2131 -1.9953 0.9750
-5.3602 -2.7020 -1.9953 0.9750
-5.0978 -3.1695 -1.9953 0.9750
-3.6958 -2.7839 -1.5380 0.9807
-2.5711 -2.7790 -1.2585 0.9842
5.4652 -1.1244 -1.9953 0.9766
5.5437 -0.6324 -1.9953 0.9766
5.4147 1.3467 -1.9953 0.9766
5.2730 1.8243 -1.9953 0.9766
4.3018 3.5535 -1.9953 0.9766
3.5762 4.2311 -1.9811 0.9767
2.9775 4.2386 -1.8524 0.9782
2.1660 4.6769 -1.8431 0.9783
1.3003 4.9873 -1.8431 0.9783
0.8502 5.0835 -1.8431 0.9783
-0.0615 4.7496 -1.6986 0.9800
-0.5263 5.1271 -1.8431 0.9783
-1.4291 4.9520 -1.8431 0.9783
-1.8652 4.8048 -1.8431 0.9783
-2.2864 4.6192 -1.8431 0.9783
-2.6893 4.3968 -1.8431 0.9783
-3.0709 4.1394 -1.8431 0.9783
-3.6015 4.0438 -1.9365 0.9773
-4.0597 3.8113 -1.9913 0.9766
-4.3924 3.4409 -1.9953 0.9766
-5.1468 2.1549 -1.9953 0.9766
-5.3185 1.6872 -1.9953 0.9766
-5.4478 1.2060 -1.9953 0.9766
-5.5337 0.7151 -1.9953 0.9766
-5.5754 0.2186 -1.9953 0.9766
-5.5727 -0.2797 -1.9953 0.9766
-5.2997 -1.7453 -1.9953 0.9766
-5.1229 -2.2112 -1.9953 0.9766
-4.9052 -2.6594 -1.9953 0.9766
-4.6484 -3.0864 -1.9953 0.9766
-3.3806 -2.7085 -1.5491 0.9818
-2.8298 -2.7156 -1.4026 0.9835
-2.3802 -2.7322 -1.2958 0.9847
-1.9802 -2.7312 -1.2064 0.9858
-1.6168 -2.7096 -1.1283 0.9867
-1.2995 -2.6993 -1.0713 0.9874
-1.0237 -2.7252 -1.0410 0.9877
-0.7627 -2.7558 -1.0225 0.9879
-0.5036 -2.7570 -1.0022 0.9882
0.5525 -3.0948 -1.1242 0.9867
1.4668 -5.3835 -1.9953 0.9766
1.9412 -5.2311 -1.9953 0.9766
3.2571 -4.5304 -1.9953 0.9766
3.6483 -4.2217 -1.9953 0.9766
4.0104 -3.8794 -1.9953 0.9766
4.3405 -3.5062 -1.9953 0.9766
4.6360 -3.1049 -1.9953 0.9766
4.8945 -2.6790 -1.9953 0.9766
5.1140 -2.2316 -1.9953 0.9766
5.5224 -0.7978 -1.9953 0.9766
5.5762 0.1963 -1.9953 0.9766
5.4526 1.1842 -1.9953 0.9766
5.1553 2.1344 -1.9953 0.9766
4.9443 2.5858 -1.9953 0.9766
4.0828 3.8025 -1.9952 0.9766
3.1693 4.2365 -1.8920 0.9778
2.7092 4.3900 -1.8448 0.9783
2.3048 4.6100 -1.8431 0.9783
1.4488 4.9463 -1.8431 0.9783
1.0018 5.0558 -1.8431 0.9783
0.5467 5.1250 -1.8431 0.9783
-1.7207 4.8584 -1.8431 0.9783
-2.5567 4.4752 -1.8431 0.9783
-2.9498 4.2350 -1.8456 0.9783
-3.4016 4.0573 -1.8934 0.9778
-3.9402 3.9271 -1.9894 0.9766
-4.5891 3.1739 -1.9953 0.9766
-4.8539 2.7518 -1.9953 0.9766
-5.0801 2.3078 -1.9953 0.9766
-5.2657 1.8454 -1.9953 0.9766
-5.5664 0.3851 -1.9953 0.9766
-5.5462 -0.6102 -1.9953 0.9766
-5.4697 -1.1026 -1.9953 0.9766
-5.1867 -2.0571 -1.9953 0.9766
-4.9825 -2.5116 -1.9953 0.9766
-4.7385 -2.9461 -1.9953 0.9766
-3.7308 -2.8102 -1.6703 0.9804
-2.9836 -2.6966 -1.4382 0.9831
-2.5455 -2.7513 -1.3404 0.9842
-2.1054 -2.7284 -1.2324 0.9855
5.1000 -1.0493 -1.9953 0.9779
5.1732 -0.5901 -1.9953 0.9779
5.2052 -0.1262 -1.9953 0.9779
5.1958 0.3387 -1.9953 0.9779
5.0529 1.2566 -1.9953 0.9779
4.5397 2.5498 -1.9953 0.9779
4.0143 3.3160 -1.9953 0.9779
3.7025 3.6609 -1.9953 0.9779
2.9613 4.2156 -1.9743 0.9782
2.4339 4.2211 -1.8672 0.9793
1.6238 4.5272 -1.8431 0.9796
1.2134 4.6540 -1.8431 0.9796
0.7934 4.7437 -1.8431 0.9796
0.3670 4.7956 -1.8431 0.9796
-0.9160 4.7216 -1.8431 0.9796
-1.3336 4.6211 -1.8431 0.9796
-1.7405 4.4837 -1.8431 0.9796
-2.5096 4.1030 -1.8431 0.9796
-3.0119 4.0598 -1.9372 0.9786
-3.7961 3.5638 -1.9953 0.9779
-4.3690 2.8324 -1.9953 0.9779
-4.6043 2.4314 -1.9953 0.9779
-4.8028 2.0109 -1.9953 0.9779
-5.0837 1.1254 -1.9953 0.9779
-2.2991 0.0901 -0.8817 0.9902
-2.3013 -0.1155 -0.8830 0.9902
-5.1562 -0.7239 -1.9953 0.9779
-4.7805 -2.0634 -1.9953 0.9779
-4.5773 -2.4817 -1.9953 0.9779
-4.3377 -2.8801 -1.9953 0.9779
-2.8044 -2.6912 -1.4895 0.9835
-1.9817 -2.7333 -1.2938 0.9856
-1.6197 -2.7145 -1.2114 0.9866
-1.2940 -2.6879 -1.1432 0.9873
-0.7557 -2.7307 -1.0858 0.9879
-0.2508 -2.7388 -1.0539 0.9883
1.3687 -5.0237 -1.9953 0.9779
1.8115 -4.8815 -1.9953 0.9779
2.2397 -4.7005 -1.9953 0.9779
2.6502 -4.4819 -1.9953 0.9779
4.0504 -3.2718 -1.9953 0.9779
4.5674 -2.4999 -1.9953 0.9779
4.9390 -1.6484 -1.9953 0.9779
5.0663 -1.2012 -1.9953 0.9779
5.1533 -0.7445 -1.9953 0.9779
5.2036 0.1832 -1.9953 0.9779
5.1665 0.6467 -1.9953 0.9779
5.0882 1.1051 -1.9953 0.9779
4.9693 1.5546 -1.9953 0.9779
4.8108 1.9917 -1.9953 0.9779
4.3802 2.8150 -1.9953 0.9779
3.4757 3.8713 -1.9937 0.9780
3.1087 4.1555 -1.9888 0.9780
2.6041 4.2196 -1.9002 0.9790
2.1508 4.3019 -1.8431 0.9796
1.7584 4.4767 -1.8431 0.9796
1.3520 4.6157 -1.8431 0.9796
0.0815 4.8089 -1.8431 0.9796
-0.7744 4.7469 -1.8431 0.9796
-1.6057 4.5337 -1.8431 0.9796
-2.0038 4.3723 -1.8431 0.9796
-2.3859 4.1761 -1.8431 0.9796
-3.3343 3.9770 -1.9888 0.9780
-4.0011 3.3320 -1.9953 0.9779
-4.5295 2.5679 -1.9953 0.9779
-4.9138 1.7221 -1.9953 0.9779
-5.0478 1.2768 -1.9953 0.9779
-5.1416 0.8214 -1.9953 0.9779
-2.3036 0.1594 -0.8849 0.9902
-2.2940 -0.0465 -0.8793 0.9902
-2.3025 -0.2533 -0.8877 0.9901
-4.6495 -2.3438 -1.9953 0.9779
-2.9836 -2.6966 -1.5412 0.9829
-2.5199 -2.7237 -1.4220 0.9842
-2.1070 -2.7305 -1.3217 0.9853
4.7753 -0.9825 -1.9953 0.9791
4.8439 -0.5525 -1.9953 0.9791
4.8739 -0.1182 -1.9953 0.9791
4.8650 0.3171 -1.9953 0.9791
4.8173 0.7499 -1.9953 0.9791
4.7312 1.1766 -1.9953 0.9791
4.6073 1.5940 -1.9953 0.9791
3.7587 3.1049 -1.9953 0.9791
3.1471 3.7234 -1.9953 0.9791
2.4213 4.1991 -1.9838 0.9793
1.9463 4.2025 -1.8955 0.9802
1.1362 4.3577 -1.8431 0.9807
0.7429 4.4417 -1.8431 0.9807
-0.4598 4.4799 -1.8431 0.9807
-0.8577 4.4210 -1.8431 0.9807
-1.2487 4.3269 -1.8431 0.9807
-2.0287 4.0987 -1.8717 0.9804
-2.4901 4.0710 -1.9531 0.9796
-3.2413 3.6393 -1.9946 0.9792
-3.8379 3.0065 -1.9953 0.9791
-4.0908 2.6521 -1.9953 0.9791
-4.3111 2.2766 -1.9953 0.9791
-2.0888 0.4624 -0.8756 0.9908
-2.0007 0.0784 -0.8194 0.9914
-2.0207 -0.2837 -0.8351 0.9912
-4.4761 -1.9321 -1.9953 0.9791
-4.0615 -2.6968 -1.9953 0.9791
-2.8044 -2.6912 -1.5908 0.9833
-2.3755 -2.7268 -1.4801 0.9845
-1.9832 -2.7353 -1.3828 0.9855
-1.6227 -2.7195 -1.2961 0.9864
-1.2962 -2.6926 -1.2231 0.9872
-0.2488 -2.7163 -1.1164 0.9883
0.2379 -2.7167 -1.1161 0.9883
2.0971 -4.4012 -1.9953 0.9791
3.1877 -3.6888 -1.9953 0.9791
3.5041 -3.3897 -1.9953 0.9791
3.7925 -3.0635 -1.9953 0.9791
4.2766 -2.3408 -1.9953 0.9791
4.8681 -0.2638 -1.9953 0.9791
4.8723 0.1716 -1.9953 0.9791
4.8375 0.6055 -1.9953 0.9791
4.7642 1.0347 -1.9953 0.9791
4.6529 1.4556 -1.9953 0.9791
4.5045 1.8649 -1.9953 0.9791
4.3202 2.2593 -1.9953 0.9791
4.1014 2.6358 -1.9953 0.9791
3.8499 2.9911 -1.9953 0.9791
3.5677 3.3227 -1.9953 0.9791
3.2570 3.6277 -1.9953 0.9791
2.5521 4.1353 -1.9888 0.9792
1.6516 4.2047 -1.8489 0.9807
0.4777 4.4780 -1.8431 0.9807
0.0763 4.5028 -1.8431 0.9807
-0.3257 4.4916 -1.8431 0.9807
-0.7251 4.4447 -1.8431 0.9807
-2.3314 4.0808 -1.9235 0.9799
-3.1287 3.7317 -1.9931 0.9792
-3.7463 3.1199 -1.9953 0.9791
-4.0097 2.7732 -1.9953 0.9791
-4.2411 2.4044 -1.9953 0.9791
-2.1206 0.5364 -0.8952 0.9906
-2.0357 0.3252 -0.8437 0.9911
-2.0187 -0.2221 -0.8312 0.9913
-3.8942 -2.9333 -1.9953 0.9791
-2.9836 -2.6966 -1.6460 0.9828
-2.5199 -2.7237 -1.5186 0.9841
-2.1086 -2.7325 -1.4126 0.9852
4.5489 -0.5189 -1.9953 0.9802
4.5687 0.2978 -1.9953 0.9802
4.4430 1.1050 -1.9953 0.9802
4.1759 1.8770 -1.9953 0.9802
3.7759 2.5892 -1.9953 0.9802
2.9555 3.4967 -1.9953 0.9802
2.2828 3.9590 -1.9917 0.9803
1.5002 4.1828 -1.9366 0.9808
1.0902 4.1815 -1.8833 0.9813
0.3227 4.2168 -1.8431 0.9817
-0.0548 4.2288 -1.8431 0.9817
-0.4318 4.2071 -1.8431 0.9817
-1.1895 4.1219 -1.8697 0.9815
-2.0186 4.0783 -1.9832 0.9803
-3.0450 3.4190 -1.9953 0.9802
-3.3379 3.1337 -1.9953 0.9802
-4.0486 2.1379 -1.9953 0.9802
-4.2232 1.7682 -1.9953 0.9802
-1.4938 0.4739 -0.6830 0.9932
-1.4731 0.1904 -0.6473 0.9935
-1.4524 -0.0729 -0.6338 0.9937
-1.4737 -0.2069 -0.6486 0.9935
-1.4860 -0.3461 -0.6649 0.9934
-1.4929 -0.4917 -0.6850 0.9932
-4.0249 -2.1822 -1.9953 0.9802
-3.5730 -2.8627 -1.9953 0.9802
-2.3774 -2.7290 -1.5774 0.9843
-1.9847 -2.7374 -1.4736 0.9854
-1.6258 -2.7246 -1.3828 0.9863
-1.2986 -2.6974 -1.3047 0.9870
-1.0030 -2.6701 -1.2431 0.9876
-0.0053 -2.6779 -1.1671 0.9884
0.2361 -2.6963 -1.1796 0.9883
0.4932 -2.7628 -1.2231 0.9878
1.2035 -4.4174 -1.9953 0.9802
1.5928 -4.2924 -1.9953 0.9802
2.3303 -3.9410 -1.9953 0.9802
2.6726 -3.7174 -1.9953 0.9802
2.9936 -3.4641 -1.9953 0.9802
3.2907 -3.1832 -1.9953 0.9802
3.8040 -2.5477 -1.9953 0.9802
4.3429 -1.4495 -1.9953 0.9802
4.4549 -1.0563 -1.9953 0.9802
4.5313 -0.6546 -1.9953 0.9802
4.5756 0.1611 -1.9953 0.9802
4.5429 0.5687 -1.9953 0.9802
4.3696 1.3670 -1.9953 0.9802
3.8516 2.4752 -1.9953 0.9802
3.6154 2.8090 -1.9953 0.9802
3.3504 3.1203 -1.9953 0.9802
3.0587 3.4068 -1.9953 0.9802
2.0413 4.0831 -1.9895 0.9803
1.6429 4.1826 -1.9584 0.9806
0.4486 4.2053 -1.8431 0.9817
-2.6136 3.7524 -1.9930 0.9802
-3.7655 2.6043 -1.9953 0.9802
-1.4896 0.5220 -0.6879 0.9931
-1.4362 -0.0291 -0.6260 0.9938
-1.4740 -0.2971 -0.6553 0.9935
-1.4936 -0.4429 -0.6790 0.9932
-3.6570 -2.7546 -1.9953 0.9802
-2.9836 -2.6966 -1.7527 0.9826
-2.5241 -2.7283 -1.6199 0.9839
-2.1102 -2.7347 -1.5054 0.9850
4.2222 -0.8687 -1.9953 0.9812
4.3094 -0.1045 -1.9953 0.9812
4.0737 1.4094 -1.9953 0.9812
3.9317 1.7672 -1.9953 0.9812
3.7584 2.1109 -1.9953 0.9812
3.5551 2.4378 -1.9953 0.9812
3.3234 2.7453 -1.9953 0.9812
3.0652 3.0308 -1.9953 0.9812
2.4778 3.5273 -1.9953 0.9812
1.4513 4.0464 -1.9898 0.9812
1.0835 4.1555 -1.9878 0.9812
-0.4242 4.1329 -1.9231 0.9819
-0.7991 4.1191 -1.9422 0.9817
-1.1839 4.1023 -1.9764 0.9814
-1.5551 4.0060 -1.9891 0.9812
-3.1427 2.9504 -1.9953 0.9812
-3.3934 2.6583 -1.9953 0.9812
-3.6170 2.3450 -1.9953 0.9812
-1.2480 0.5225 -0.6263 0.9941
-1.2664 0.0496 -0.5867 0.9944
-1.2681 -0.0636 -0.5877 0.9944
-1.2750 -0.1790 -0.5960 0.9943
-1.2691 -0.2956 -0.6032 0.9943
-1.2671 -0.4173 -0.6175 0.9941
-3.7895 -2.0545 -1.9953 0.9812
-3.5911 -2.3844 -1.9953 0.9812
-2.8044 -2.6912 -1.7991 0.9830
-1.3009 -2.7024 -1.3883 0.9869
-1.0047 -2.6748 -1.3226 0.9875
-0.7354 -2.6572 -1.2762 0.9879
-0.4929 -2.6988 -1.2699 0.9880
-0.0053 -2.6505 -1.2269 0.9884
0.2343 -2.6757 -1.2433 0.9882
2.1940 -3.7105 -1.9953 0.9812
2.8185 -3.2615 -1.9953 0.9812
3.0983 -2.9971 -1.9953 0.9812
3.3533 -2.7087 -1.9953 0.9812
3.5816 -2.3988 -1.9953 0.9812
3.9509 -1.7241 -1.9953 0.9812
4.0889 -1.3647 -1.9953 0.9812
4.1944 -0.9945 -1.9953 0.9812
4.2664 -0.6163 -1.9953 0.9812
4.2773 0.5354 -1.9953 0.9812
4.2124 0.9149 -1.9953 0.9812
4.1140 1.2870 -1.9953 0.9812
3.9828 1.6489 -1.9953 0.9812
3.6264 2.3305 -1.9953 0.9812
3.4040 2.6447 -1.9953 0.9812
3.1545 2.9379 -1.9953 0.9812
2.8798 3.2076 -1.9953 0.9812
0.8242 4.1595 -1.9628 0.9815
0.4432 4.1545 -1.9340 0.9818
-0.6728 4.1240 -1.9342 0.9818
-2.1363 3.7392 -1.9934 0.9812
-3.5453 2.4520 -1.9953 0.9812
-3.7500 2.1259 -1.9953 0.9812
-1.2711 0.0879 -0.5898 0.9944
-1.2629 -0.0256 -0.5847 0.9944
-1.2689 -0.2558 -0.5992 0.9943
-1.2700 -0.3766 -0.6132 0.9942
-3.8493 -1.9404 -1.9953 0.9812
-3.6608 -2.2760 -1.9953 0.9812
-3.4432 -2.5936 -1.9953 0.9812
3.8442 1.3300 -1.9953 0.9820
3.7102 1.6677 -1.9953 0.9820
3.3548 2.3005 -1.9953 0.9820
3.1362 2.5906 -1.9953 0.9820
2.6259 3.1067 -1.9953 0.9820
2.3382 3.3286 -1.9953 0.9820
2.0319 3.5239 -1.9953 0.9820
1.7094 3.6911 -1.9953 0.9820
1.3721 3.8255 -1.9936 0.9821
1.0244 3.9289 -1.9916 0.9821
-0.7726 3.9824 -1.9899 0.9821
-1.1255 3.9001 -1.9911 0.9821
-2.7054 3.0377 -1.9953 0.9820
-2.9656 2.7842 -1.9953 0.9820
-3.2022 2.5085 -1.9953 0.9820
-3.4132 2.2128 -1.9953 0.9820
-1.1342 0.2511 -0.5698 0.9948
-1.1442 0.1479 -0.5659 0.9949
-1.1402 0.0447 -0.5597 0.9949
-1.1326 -0.2638 -0.5704 0.9948
-1.1275 -0.3713 -0.5823 0.9947
-1.1075 -0.6005 -0.6180 0.9944
-3.1746 -2.5434 -1.9953 0.9820
-1.9878 -2.7417 -1.6611 0.9850
-1.6289 -2.7298 -1.5593 0.9859
-0.7373 -2.6641 -1.3559 0.9878
-0.4902 -2.6839 -1.3383 0.9879
0.2326 -2.6571 -1.3083 0.9882
0.4888 -2.7378 -1.3642 0.9877
1.7498 -3.6722 -1.9953 0.9820
2.0704 -3.5015 -1.9953 0.9820
2.3745 -3.3028 -1.9953 0.9820
2.6597 -3.0778 -1.9953 0.9820
2.9237 -2.8282 -1.9953 0.9820
3.3798 -2.2636 -1.9953 0.9820
3.7283 -1.6269 -1.9953 0.9820
3.8585 -1.2878 -1.9953 0.9820
4.0260 -0.5816 -1.9953 0.9820
4.0652 0.1431 -1.9953 0.9820
4.0363 0.5052 -1.9953 0.9820
3.9751 0.8633 -1.9953 0.9820
3.7584 1.5560 -1.9953 0.9820
3.6046 1.8851 -1.9953 0.9820
3.2122 2.4957 -1.9953 0.9820
2.9767 2.7723 -1.9953 0.9820
2.7175 3.0268 -1.9953 0.9820
0.7888 3.9808 -1.9907 0.9821
0.4302 4.0332 -1.9896 0.9821
0.0687 4.0544 -1.9891 0.9821
-0.6531 4.0032 -1.9896 0.9821
-1.3559 3.8284 -1.9922 0.9821
-1.6938 3.6961 -1.9943 0.9820
-2.0179 3.5320 -1.9953 0.9820
-2.6134 3.1172 -1.9953 0.9820
-3.3456 2.3139 -1.9953 0.9820
-3.5387 2.0062 -1.9953 0.9820
-1.0977 0.4987 -0.5914 0.9946
-1.1330 0.2866 -0.5733 0.9948
-1.1427 0.1825 -0.5676 0.9949
-1.1431 0.0791 -0.5621 0.9949
-1.1144 -0.4420 -0.5881 0.9947
-1.0892 -0.5491 -0.5983 0.9946
-3.4545 -2.1478 -1.9953 0.9820
3.8214 -0.4359 -1.9953 0.9828
3.8451 -0.0932 -1.9953 0.9828
3.8004 0.5916 -1.9953 0.9828
3.7325 0.9283 -1.9953 0.9828
3.6348 1.2576 -1.9953 0.9828
3.1721 2.1752 -1.9953 0.9828
2.9653 2.4495 -1.9953 0.9828
2.7350 2.7043 -1.9953 0.9828
2.2109 3.1473 -1.9953 0.9828
1.6163 3.4901 -1.9953 0.9828
0.9703 3.7214 -1.9951 0.9828
-0.0497 3.8407 -1.9926 0.9828
-1.0661 3.6941 -1.9947 0.9828
-2.2916 3.0890 -1.9953 0.9828
-2.5581 2.8722 -1.9953 0.9828
-2.8041 2.6325 -1.9953 0.9828
-3.0278 2.3719 -1.9953 0.9828
-1.0154 0.3221 -0.5526 0.9952
-1.0258 0.2271 -0.5450 0.9953
-1.0357 -0.0520 -0.5380 0.9953
-1.0361 -0.1455 -0.5428 0.9953
-0.9917 -0.4281 -0.5604 0.9951
-0.9545 -0.5175 -0.5633 0.9951
-3.2042 -2.1275 -1.9953 0.9828
-2.7751 -2.6631 -1.9953 0.9828
-2.5265 -2.9001 -1.9953 0.9828
-1.3058 -2.7126 -1.5618 0.9865
-0.4855 -2.6583 -1.4019 0.9879
-0.2408 -2.6291 -1.3696 0.9882
1.6545 -3.4722 -1.9953 0.9828
2.5149 -2.9101 -1.9953 0.9828
3.1957 -2.1403 -1.9953 0.9828
3.3739 -1.8467 -1.9953 0.9828
3.6484 -1.2177 -1.9953 0.9828
3.7425 -0.8873 -1.9953 0.9828
3.6708 1.1484 -1.9953 0.9828
3.2356 2.0794 -1.9953 0.9828
3.0372 2.3598 -1.9953 0.9828
2.8146 2.6213 -1.9953 0.9828
2.5695 2.8620 -1.9953 0.9828
1.7199 3.4402 -1.9953 0.9828
1.4062 3.5800 -1.9953 0.9828
0.7471 3.7707 -1.9942 0.9828
0.0651 3.8406 -1.9927 0.9828
-0.2778 3.8311 -1.9927 0.9828
-0.9550 3.7235 -1.9942 0.9828
-1.6024 3.4965 -1.9953 0.9828
-2.7242 2.7152 -1.9953 0.9828
-2.9556 2.4613 -1.9953 0.9828
-1.0344 0.1652 -0.5434 0.9953
-1.0324 -0.0209 -0.5357 0.9954
-1.0375 -0.1142 -0.5415 0.9953
-1.0008 -0.3969 -0.5585 0.9952
-0.9687 -0.6023 -0.5918 0.9949
-2.8535 -2.5790 -1.9953 0.9828
1.8857 -0.3880 -1.0545 0.9913
1.8786 -0.0456 -1.0292 0.9915
1.8859 0.4690 -1.0644 0.9912
1.8962 0.6560 -1.0990 0.9909
2.3517 2.7824 -1.9953 0.9835
2.0941 2.9811 -1.9953 0.9835
1.5310 3.3058 -1.9953 0.9835
0.6010 3.5932 -1.9953 0.9835
-0.0472 3.6428 -1.9953 0.9835
-0.3720 3.6241 -1.9953 0.9835
-1.0101 3.5003 -1.9953 0.9835
-1.9009 3.1078 -1.9953 0.9835
-2.4230 2.7205 -1.9953 0.9835
-2.8679 2.2466 -1.9953 0.9835
-0.8694 0.5636 -0.5675 0.9953
-0.8824 0.4660 -0.5466 0.9955
-0.9047 0.3788 -0.5372 0.9955
-0.9204 0.2920 -0.5289 0.9956
-0.9350 0.2070 -0.5245 0.9956
-0.9464 0.1223 -0.5226 0.9957
-0.9188 -0.3026 -0.5298 0.9956
-0.8790 -0.4766 -0.5477 0.9955
-0.8724 -0.5793 -0.5736 0.9952
-2.6286 -2.5225 -1.9953 0.9835
-2.3930 -2.7469 -1.9953 0.9835
-1.3084 -2.7179 -1.6521 0.9863
-0.4860 -2.6609 -1.4815 0.9877
0.9577 -3.5150 -1.9953 0.9835
1.8543 -3.1359 -1.9953 0.9835
2.1266 -2.9580 -1.9953 0.9835
2.8340 -2.2892 -1.9953 0.9835
3.3390 -1.4571 -1.9953 0.9835
1.8864 -0.4473 -1.0618 0.9912
1.8863 0.4097 -1.0572 0.9912
1.8762 0.5870 -1.0767 0.9911
2.4338 2.7108 -1.9953 0.9835
2.1823 2.9172 -1.9953 0.9835
1.9133 3.1002 -1.9953 0.9835
1.3319 3.3909 -1.9953 0.9835
1.0241 3.4962 -1.9953 0.9835
-0.2635 3.6335 -1.9953 0.9835
-0.5866 3.5956 -1.9953 0.9835
-0.9050 3.5289 -1.9953 0.9835
-1.2163 3.4341 -1.9953 0.9835
-1.8072 3.1633 -1.9953 0.9835
-2.5803 2.5718 -1.9953 0.9835
-0.8773 0.6068 -0.5843 0.9951
-0.8729 0.4949 -0.5496 0.9954
-0.8983 0.4081 -0.5404 0.9955
-0.9155 0.3208 -0.5313 0.9956
-0.9284 0.2348 -0.5245 0.9956
-0.9440 0.1508 -0.5236 0.9956
-0.9472 -0.1042 -0.5219 0.9957
-0.8879 -0.4476 -0.5446 0.9955
-2.9099 -2.1919 -1.9953 0.9835
-2.4741 -2.6742 -1.9953 0.9835
-2.2256 -2.8842 -1.9953 0.9835
1.7326 -0.3565 -1.0213 0.9919
1.7318 -0.0420 -1.0001 0.9920
1.7315 0.4306 -1.0301 0.9918
1.7097 0.5915 -1.0445 0.9917
3.0133 1.6924 -1.9953 0.9842
2.8503 1.9545 -1.9953 0.9842
2.6645 2.2010 -1.9953 0.9842
2.4575 2.4299 -1.9953 0.9842
2.2310 2.6395 -1.9953 0.9842
1.9866 2.8280 -1.9953 0.9842
0.8719 3.3442 -1.9953 0.9842
0.5701 3.4087 -1.9953 0.9842
0.2637 3.4459 -1.9953 0.9842
-0.0448 3.4557 -1.9953 0.9842
-0.6582 3.3928 -1.9953 0.9842
-1.5331 3.0974 -1.9953 0.9842
-2.0592 2.7756 -1.9953 0.9842
-2.2986 2.5808 -1.9953 0.9842
-2.5197 2.3655 -1.9953 0.9842
-0.8288 0.4377 -0.5411 0.9957
-0.8506 0.3562 -0.5324 0.9957
-0.8817 0.1139 -0.5133 0.9959
-0.8812 -0.0442 -0.5094 0.9959
-0.8735 -0.2034 -0.5178 0.9959
-2.6971 -2.1609 -1.9953 0.9842
-2.2702 -2.6059 -1.9953 0.9842
-1.3110 -2.7234 -1.7450 0.9861
-1.0159 -2.7045 -1.6680 0.9867
-0.2408 -2.6291 -1.5243 0.9879
-0.0052 -2.6220 -1.5138 0.9880
0.2290 -2.6150 -1.5155 0.9879
0.4863 -2.7241 -1.5976 0.9873
0.9085 -3.3345 -1.9953 0.9842
1.4866 -3.1199 -1.9953 0.9842
1.7590 -2.9749 -1.9953 0.9842
2.4840 -2.4029 -1.9953 0.9842
2.8715 -1.9232 -1.9953 0.9842
3.1676 -1.3823 -1.9953 0.9842
1.7323 -0.4107 -1.0279 0.9918
1.7411 -0.2515 -1.0157 0.9919
2.9074 1.8684 -1.9953 0.9842
2.7291 2.1204 -1.9953 0.9842
2.5291 2.3554 -1.9953 0.9842
2.0702 2.7674 -1.9953 0.9842
0.6717 3.3901 -1.9953 0.9842
-0.5565 3.4109 -1.9953 0.9842
-0.8586 3.3477 -1.9953 0.9842
-1.4398 3.1418 -1.9953 0.9842
-1.7144 3.0008 -1.9953 0.9842
-1.9753 2.8359 -1.9953 0.9842
-2.2204 2.6484 -1.9953 0.9842
-2.6557 2.2116 -1.9953 0.9842
-0.7984 0.5522 -0.5605 0.9955
-0.8443 0.3835 -0.5354 0.9957
-0.8605 0.3016 -0.5264 0.9958
-0.8709 0.2203 -0.5186 0.9959
-0.8803 0.1406 -0.5147 0.9959
-0.8795 -0.0178 -0.5079 0.9959
-0.8821 -0.0971 -0.5124 0.9959
-0.8770 -0.1768 -0.5165 0.9959
-0.8655 -0.2566 -0.5212 0.9958
-0.8055 -0.5008 -0.5476 0.9956
-0.8040 -0.6056 -0.5811 0.9954
-2.5640 -2.3173 -1.9953 0.9842
-2.3470 -2.5369 -1.9953 0.9842
-2.1114 -2.7361 -1.9953 0.9842
