ply
format ascii 1.0
element vertex 1224
property float32 x
property float32 y
property float32 z
property float32 I
end_header
7.1151 11.6626 2.4089 0.9460
4.6839 12.1013 2.2880 0.9487
3.4700 12.0648 2.2136 0.9503
2.3238 12.0304 2.1605 0.9515
1.2227 11.9973 2.1264 0.9522
-0.9198 11.9329 2.1103 0.9526
-1.9960 11.9006 2.1277 0.9522
-3.0989 11.8674 2.1627 0.9514
-4.2480 11.8329 2.2168 0.9502
-5.4660 11.7963 2.2925 0.9486
8.8207 11.9205 2.2717 0.9418
5.9334 12.0197 2.0535 0.9472
4.6840 12.1013 1.9879 0.9488
3.4700 12.0648 1.9232 0.9505
2.3238 12.0304 1.8771 0.9516
1.2227 11.9973 1.8474 0.9524
0.1474 11.9650 1.8331 0.9527
-0.9198 11.9329 1.8335 0.9527
-3.0989 11.8674 1.8790 0.9516
-4.2480 11.8329 1.9260 0.9504
-5.4660 11.7963 1.9917 0.9487
7.4332 12.1839 1.8586 0.9441
5.9932 12.1407 1.7631 0.9468
3.5081 12.1970 1.6527 0.9501
-0.9299 12.0636 1.5756 0.9524
-2.0179 12.0309 1.5886 0.9520
-5.4660 11.7963 1.6930 0.9489
-9.7102 11.4897 1.9590 0.9411
-3.3898 -19.4155 2.1164 0.9238
13.1272 10.3151 1.7927 0.9350
4.7834 12.3582 1.4230 0.9481
2.3493 12.1622 1.3301 0.9514
1.2361 12.1287 1.3091 0.9521
0.1490 12.0961 1.2990 0.9525
-0.9299 12.0636 1.2993 0.9525
-2.0179 12.0309 1.3099 0.9521
-3.1328 11.9974 1.3315 0.9513
-4.2945 11.9625 1.3648 0.9502
-9.7838 16.9632 2.1028 0.9242
-4.1180 -19.4374 2.1336 0.9232
-2.3279 -19.3836 2.0964 0.9245
-1.6225 -19.3624 1.6448 0.9250
13.1266 10.3147 1.4132 0.9352
7.5910 12.4426 1.2338 0.9432
6.1116 12.3805 1.1688 0.9461
4.7834 12.3582 1.1218 0.9482
0.1515 12.2962 1.0410 0.9518
-2.0513 12.2300 1.0498 0.9514
-4.3656 12.1605 1.0937 0.9495
-2.3279 -19.3836 1.6527 0.9246
7.8051 12.7937 0.9293 0.9417
6.4743 13.1153 0.9070 0.9431
4.7834 12.3582 0.8217 0.9483
3.5081 12.1970 0.7870 0.9504
2.3881 12.3634 0.7808 0.9508
1.2361 12.1287 0.7560 0.9523
0.1515 12.2962 0.7626 0.9519
-2.0513 12.2300 0.7690 0.9515
-3.1328 11.9974 0.7689 0.9515
7.8314 12.8366 0.5929 0.9416
6.4993 13.1661 0.5790 0.9429
4.7834 12.3582 0.5225 0.9483
3.5081 12.1970 0.5004 0.9505
1.2361 12.1287 0.4807 0.9524
0.1515 12.2962 0.4849 0.9520
-3.1328 11.9974 0.4889 0.9516
-4.3656 12.1605 0.5095 0.9496
-5.5259 11.9255 0.5183 0.9487
1.1725 -19.8607 0.7845 0.9234
7.8314 12.8366 0.2540 0.9416
4.7834 12.3582 0.2238 0.9484
1.1877 11.6538 0.1979 0.9542
0.1431 11.6215 0.1963 0.9546
-0.9299 12.0636 0.2044 0.9527
-2.0513 12.2300 0.2095 0.9516
-3.1328 11.9974 0.2095 0.9516
-4.3656 12.1605 0.2183 0.9496
-5.5259 11.9255 0.2220 0.9488
-6.6304 -18.0886 -0.1085 0.9258
-3.1686 -18.1485 -0.1037 0.9290
1.7074 -17.9388 -0.1015 0.9305
6.8933 -18.1684 -0.1094 0.9252
6.4743 13.1153 -0.0824 0.9432
4.7834 12.3582 -0.0746 0.9484
3.5081 12.1970 -0.0715 0.9505
1.1723 11.5031 -0.0651 0.9548
-2.0179 12.0309 -0.0687 0.9524
-4.2945 11.9625 -0.0716 0.9504
-4.8283 6.8729 -0.0473 0.9670
-5.5879 -18.1916 -0.1071 0.9267
-3.8576 -18.2081 -0.1048 0.9283
-2.1753 -18.1133 -0.1027 0.9296
-0.5511 -18.1966 -0.1025 0.9298
1.0617 -17.9833 -0.1014 0.9305
4.3227 -17.8602 -0.1035 0.9291
6.2049 -18.3115 -0.1089 0.9256
-4.8173 -17.9571 -0.5235 0.9283
-1.5019 -17.9232 -0.5064 0.9306
0.1013 -17.9428 -0.5052 0.9307
7.2691 -14.9764 -0.4688 0.9356
7.8314 12.8366 -0.4234 0.9416
6.4743 13.1153 -0.4118 0.9432
4.1778 10.7938 -0.3259 0.9547
3.1045 10.7938 -0.3163 0.9561
0.1395 11.3270 -0.3190 0.9557
-2.0179 12.0309 -0.3435 0.9524
-3.1005 11.8736 -0.3455 0.9521
-4.8036 6.8377 -0.2353 0.9671
-14.0696 13.9155 -0.5572 0.9239
-3.8318 -18.0863 -0.5206 0.9287
-2.1427 -17.8415 -0.5060 0.9306
-0.5446 -17.9819 -0.5066 0.9305
1.0533 -17.8414 -0.5032 0.9310
2.6656 -17.8530 -0.5083 0.9303
4.2610 -17.6054 -0.5100 0.9301
6.0283 -17.7905 -0.5289 0.9276
6.8185 -15.4360 -0.4752 0.9347
-4.8135 -17.9431 -0.9421 0.9283
-3.1393 -17.9805 -0.9257 0.9295
-1.5065 -17.9780 -0.9149 0.9303
1.7038 -17.9017 -0.9120 0.9305
4.9433 -17.6290 -0.9285 0.9293
7.1429 -14.7164 -0.8296 0.9366
9.5083 12.8497 -0.8107 0.9380
7.8314 12.8366 -0.7626 0.9416
3.0098 10.4646 -0.5522 0.9573
2.1028 10.8864 -0.5623 0.9566
1.2028 11.8020 -0.6016 0.9536
0.1449 11.7662 -0.5968 0.9540
-0.9129 11.8431 -0.6024 0.9535
-3.0756 11.7781 -0.6173 0.9524
-4.7817 6.8066 -0.4219 0.9672
-7.3366 -17.9879 -0.9852 0.9251
-5.5527 -18.0773 -0.9590 0.9271
-3.8071 -17.9701 -0.9316 0.9291
-2.1484 -17.8886 -0.9137 0.9304
1.0536 -17.8469 -0.9067 0.9309
2.6688 -17.8743 -0.9165 0.9302
4.2585 -17.5952 -0.9181 0.9301
8.0280 -14.5151 -0.8412 0.9357
-8.3402 -17.6888 -1.4339 0.9246
-4.7194 -17.5922 -1.3355 0.9296
-1.4905 -17.7869 -1.3087 0.9309
0.1014 -17.9697 -1.3176 0.9305
1.6993 -17.8542 -1.3150 0.9306
3.2682 -17.5475 -1.3087 0.9309
6.1197 -16.1296 -1.2649 0.9331
7.1091 -14.6466 -1.1937 0.9368
4.0627 10.4962 -0.8252 0.9559
3.0098 10.4646 -0.7984 0.9573
2.0510 10.6179 -0.7929 0.9576
-5.4249 11.7075 -0.9461 0.9496
-4.7525 6.7650 -0.6062 0.9674
-13.6364 13.4870 -1.4063 0.9260
-5.4094 -17.6106 -1.3508 0.9288
-3.7214 -17.5656 -1.3165 0.9305
-2.1283 -17.7219 -1.3087 0.9309
2.6359 -17.6536 -1.3087 0.9309
6.7267 -15.2281 -1.2206 0.9354
7.9345 -14.3462 -1.2021 0.9364
-9.7028 -16.5662 -1.8432 0.9258
-8.1876 -17.3651 -1.8432 0.9258
-6.4655 -17.6388 -1.8036 0.9273
-4.7194 -17.5922 -1.7487 0.9294
-3.0637 -17.5480 -1.7102 0.9309
-1.4669 -17.5054 -1.6865 0.9318
0.0986 -17.4637 -1.6766 0.9322
1.6582 -17.4220 -1.6802 0.9321
3.2370 -17.3799 -1.6973 0.9314
4.8613 -17.3366 -1.7286 0.9302
7.0878 -14.6028 -1.5584 0.9369
9.8891 -16.4555 -1.8431 0.9258
12.7496 14.3535 -1.8431 0.9258
9.3963 12.6984 -1.5166 0.9385
7.8051 12.7936 -1.4388 0.9416
4.0627 10.4962 -1.0805 0.9558
2.0529 10.6278 -1.0392 0.9574
1.0801 10.5986 -1.0228 0.9581
0.1302 10.5700 -1.0149 0.9584
-0.8523 11.0570 -1.0647 0.9564
-1.9810 11.8110 -1.1498 0.9530
-7.1640 12.4209 -1.3766 0.9440
-4.7448 6.7541 -0.7924 0.9674
-14.1748 11.7144 -1.7654 0.9288
-11.6950 -15.2253 -1.8432 0.9258
-10.2915 -16.2071 -1.8432 0.9258
-2.1044 -17.5224 -1.6943 0.9315
-0.5295 -17.4804 -1.6790 0.9321
1.0295 -17.4388 -1.6771 0.9322
4.2002 -17.3542 -1.7142 0.9308
6.7303 -15.2364 -1.5991 0.9353
7.9322 -14.3421 -1.5735 0.9363
-14.6972 -8.1340 -1.9954 0.9346
-13.0195 -10.6142 -1.9954 0.9346
-12.0217 -11.7324 -1.9954 0.9346
-9.7476 -13.6804 -1.9954 0.9346
-2.1861 -3.7325 -0.5138 0.9827
-1.8117 -3.8424 -0.5046 0.9830
-5.4766 -14.9410 -1.8903 0.9379
-1.2957 -15.4623 -1.8431 0.9394
1.4702 -15.4467 -1.8431 0.9394
2.8411 -15.2542 -1.8431 0.9394
4.1893 -14.9402 -1.8431 0.9394
5.5568 -14.6460 -1.8607 0.9389
7.0953 -14.6183 -1.9302 0.9366
8.6500 -14.3937 -1.9948 0.9346
12.1532 -11.5959 -1.9953 0.9346
13.1384 -10.4665 -1.9953 0.9346
14.0189 -9.2538 -1.9953 0.9346
16.7784 -0.8053 -1.9953 0.9346
16.7834 0.6933 -1.9953 0.9346
16.6548 2.1864 -1.9953 0.9346
16.3937 3.6622 -1.9953 0.9346
14.0804 9.1601 -1.9953 0.9346
11.2974 10.6362 -1.8431 0.9394
10.3045 11.6008 -1.8431 0.9394
7.8051 12.7936 -1.7802 0.9414
1.0801 10.5986 -1.2655 0.9580
-1.9810 11.8110 -1.4226 0.9529
-2.8718 10.9978 -1.3502 0.9552
-4.2160 11.7438 -1.4822 0.9510
-6.9424 12.0367 -1.6506 0.9456
-10.0157 11.8511 -1.8432 0.9394
-12.7941 8.7792 -1.8432 0.9394
-14.6426 8.2319 -1.9954 0.9346
-15.8715 5.5014 -1.9954 0.9346
-16.5961 2.5960 -1.9954 0.9346
-16.7933 -0.3918 -1.9954 0.9346
-15.5977 -6.2356 -1.9954 0.9346
-13.3923 -10.1398 -1.9954 0.9346
-2.4098 -3.7950 -0.5340 0.9821
-1.8865 -3.6547 -0.4885 0.9836
-4.5840 -14.9233 -1.8544 0.9391
-3.2159 -15.1796 -1.8431 0.9394
-1.8502 -15.4058 -1.8431 0.9394
-0.4698 -15.5094 -1.8431 0.9394
3.6500 -15.0811 -1.8431 0.9394
13.6776 -9.7514 -1.9953 0.9346
14.4922 -8.4935 -1.9953 0.9346
15.1916 -7.1680 -1.9953 0.9346
15.7700 -5.7855 -1.9953 0.9346
-12.8802 -5.6939 -1.9954 0.9447
-10.9150 -8.8985 -1.9954 0.9447
-10.0784 -9.8359 -1.9954 0.9447
-9.1616 -10.6950 -1.9954 0.9447
-2.2524 -3.1612 -0.5500 0.9844
-1.5990 -3.3912 -0.5312 0.9850
-1.3453 -3.6702 -0.5539 0.9843
-2.4221 -13.8727 -1.9953 0.9447
0.0795 -14.0823 -1.9953 0.9447
3.8022 -13.5596 -1.9953 0.9447
4.9956 -13.1667 -1.9953 0.9447
6.1492 -12.6690 -1.9953 0.9447
8.3009 -11.3760 -1.9953 0.9447
9.2817 -10.5909 -1.9953 0.9447
10.1887 -9.7214 -1.9953 0.9447
11.0146 -8.7746 -1.9953 0.9447
11.7529 -7.7580 -1.9953 0.9447
12.3975 -6.6796 -1.9953 0.9447
12.9435 -5.5481 -1.9953 0.9447
13.3865 -4.3723 -1.9953 0.9447
13.7229 -3.1618 -1.9953 0.9447
14.0705 0.5813 -1.9953 0.9447
13.7437 3.0702 -1.9953 0.9447
10.9040 7.0936 -1.8431 0.9488
10.2283 8.0373 -1.8431 0.9488
9.4714 8.9168 -1.8431 0.9488
8.6388 9.7256 -1.8431 0.9488
7.7376 10.4568 -1.8431 0.9488
5.7581 11.6645 -1.8431 0.9488
3.0181 10.4935 -1.5471 0.9568
0.1302 10.5700 -1.4978 0.9582
-0.8544 11.0845 -1.5752 0.9561
-4.2160 11.7438 -1.7680 0.9508
-6.4993 11.2684 -1.8431 0.9488
-4.7416 6.7495 -1.1687 0.9672
-8.3967 9.9355 -1.8432 0.9488
-10.0273 8.2868 -1.8432 0.9488
-13.3059 4.6121 -1.9954 0.9447
-13.6640 3.4078 -1.9954 0.9447
-13.9134 2.1764 -1.9954 0.9447
-14.0520 0.9277 -1.9954 0.9447
-14.0788 -0.3285 -1.9954 0.9447
-13.9935 -1.5820 -1.9954 0.9447
-13.4903 -4.0413 -1.9954 0.9447
-13.0764 -5.2276 -1.9954 0.9447
-10.4252 -9.4676 -1.9954 0.9447
-9.5398 -10.3591 -1.9954 0.9447
-2.4295 -3.1628 -0.5651 0.9840
-2.0028 -3.1540 -0.5294 0.9850
-1.6792 -13.9821 -1.9953 0.9447
0.8299 -14.0581 -1.9953 0.9447
3.3127 -13.6874 -1.9953 0.9447
6.8157 -12.3233 -1.9953 0.9447
8.8954 -10.9174 -1.9953 0.9447
10.6924 -9.1646 -1.9953 0.9447
11.4667 -8.1751 -1.9953 0.9447
12.1497 -7.1206 -1.9953 0.9447
12.7359 -6.0094 -1.9953 0.9447
13.8720 -2.4259 -1.9953 0.9447
14.0330 -1.1799 -1.9953 0.9447
-11.0780 -4.8972 -1.9954 0.9521
-10.5974 -5.8651 -1.9954 0.9521
-10.0325 -6.7863 -1.9954 0.9521
-9.3878 -7.6534 -1.9954 0.9521
-3.7005 -3.6114 -0.8518 0.9793
-1.0320 -3.8470 -0.6562 0.9840
-2.0832 -11.9317 -1.9953 0.9521
0.0684 -12.1120 -1.9953 0.9521
3.2702 -11.6623 -1.9953 0.9521
7.1394 -9.7843 -1.9953 0.9521
8.7632 -8.3613 -1.9953 0.9521
10.1084 -6.6725 -1.9953 0.9521
12.0982 -0.5807 -1.9953 0.9521
12.1018 0.4999 -1.9953 0.9521
11.8208 2.6406 -1.9953 0.9521
11.5384 3.6837 -1.9953 0.9521
10.6801 5.6627 -1.9914 0.9522
8.7972 6.9127 -1.8431 0.9557
7.4301 8.3648 -1.8431 0.9557
4.9525 10.0324 -1.8431 0.9557
1.0801 10.5986 -1.7550 0.9577
0.1302 10.5700 -1.7414 0.9581
-2.8268 10.8253 -1.8431 0.9557
-4.7039 10.1514 -1.8431 0.9557
-4.7335 6.7380 -1.3566 0.9672
-7.9548 7.8676 -1.8431 0.9557
-9.2252 6.3303 -1.8432 0.9557
-9.7527 5.4829 -1.8432 0.9557
-11.7522 2.9310 -1.9954 0.9521
-12.0859 0.7979 -1.9954 0.9521
-12.0355 -1.3606 -1.9954 0.9521
-11.6027 -3.4759 -1.9954 0.9521
-10.8013 -5.4807 -1.9954 0.9521
-10.2698 -6.4216 -1.9954 0.9521
-3.9355 -3.5740 -0.8758 0.9787
-2.7628 -3.0001 -0.6719 0.9836
-1.5989 -3.0976 -0.5743 0.9860
-1.0972 -3.5721 -0.6156 0.9850
-2.5104 -11.8491 -1.9953 0.9521
0.7138 -12.0911 -1.9953 0.9521
1.7886 -11.9794 -1.9953 0.9521
2.8492 -11.7723 -1.9953 0.9521
3.8871 -11.4715 -1.9953 0.9521
4.8941 -11.0793 -1.9953 0.9521
6.7834 -10.0344 -1.9953 0.9521
7.6508 -9.3899 -1.9953 0.9521
8.4572 -8.6706 -1.9953 0.9521
9.1963 -7.8823 -1.9953 0.9521
9.8623 -7.0313 -1.9953 0.9521
10.4497 -6.1243 -1.9953 0.9521
11.3710 -4.1717 -1.9953 0.9521
11.9310 -2.0865 -1.9953 0.9521
12.0695 -1.0148 -1.9953 0.9521
-3.6834 -3.0029 -0.8933 0.9808
-1.7315 -2.9563 -0.6440 0.9862
-0.9473 -3.5313 -0.6872 0.9852
-1.8258 -10.4576 -1.9953 0.9577
0.0599 -10.6156 -1.9953 0.9577
1.0058 -10.5680 -1.9953 0.9577
2.8662 -10.2215 -1.9953 0.9577
3.7658 -9.9254 -1.9953 0.9577
4.6354 -9.5502 -1.9953 0.9577
6.2574 -8.5755 -1.9953 0.9577
7.6805 -7.3283 -1.9953 0.9577
8.8596 -5.8482 -1.9953 0.9577
9.3456 -5.0353 -1.9953 0.9577
10.0911 -3.2960 -1.9953 0.9577
10.6035 -0.5089 -1.9953 0.9577
10.6067 0.4382 -1.9953 0.9577
7.7104 6.0587 -1.8431 0.9609
7.1397 6.7218 -1.8431 0.9609
6.5121 7.3314 -1.8431 0.9609
4.9609 6.7043 -1.5676 0.9666
-1.6220 9.6709 -1.8431 0.9609
-2.4775 9.4879 -1.8431 0.9609
-3.3133 9.2293 -1.8431 0.9609
-4.1227 8.8973 -1.8431 0.9609
-4.2043 7.2895 -1.5817 0.9663
-4.4769 6.3728 -1.4639 0.9688
-7.5588 6.2468 -1.8431 0.9609
-9.6794 4.3564 -1.9951 0.9577
-10.0303 3.4767 -1.9954 0.9577
-10.4882 1.6406 -1.9954 0.9577
-10.5927 0.6993 -1.9954 0.9577
-10.6129 -0.2476 -1.9954 0.9577
-8.4636 -6.4081 -1.9954 0.9577
-2.6965 -2.9281 -0.7482 0.9839
-1.8738 -2.9509 -0.6570 0.9859
-1.5304 -2.9647 -0.6271 0.9865
-0.3214 -10.6109 -1.9953 0.9577
1.5677 -10.4994 -1.9953 0.9577
5.9454 -8.7947 -1.9953 0.9577
7.4124 -7.5994 -1.9953 0.9577
8.6438 -6.1626 -1.9953 0.9577
9.9662 -3.6563 -1.9953 0.9577
10.2524 -2.7535 -1.9953 0.9577
10.5784 -0.8894 -1.9953 0.9577
-8.6337 -3.8166 -1.9954 0.9621
-8.2591 -4.5710 -1.9954 0.9621
-7.8189 -5.2889 -1.9954 0.9621
-3.5289 -2.8770 -0.9624 0.9816
-2.9601 -2.8889 -0.8743 0.9832
-2.4731 -2.8871 -0.8036 0.9846
-2.0637 -2.8963 -0.7517 0.9856
-1.3794 -2.9256 -0.6837 0.9869
-0.6828 -3.9108 -0.8392 0.9839
-0.7883 -9.4067 -1.9953 0.9621
0.0533 -9.4395 -1.9953 0.9621
0.8944 -9.3972 -1.9953 0.9621
1.7284 -9.2800 -1.9953 0.9621
4.1218 -8.4921 -1.9953 0.9621
4.8623 -8.0910 -1.9953 0.9621
5.5641 -7.6254 -1.9953 0.9621
6.2216 -7.0991 -1.9953 0.9621
6.8296 -6.5164 -1.9953 0.9621
7.8780 -5.2002 -1.9953 0.9621
8.3102 -4.4774 -1.9953 0.9621
8.6762 -3.7189 -1.9953 0.9621
9.3509 -1.2911 -1.9953 0.9621
9.3593 1.2287 -1.9953 0.9621
9.2125 2.0580 -1.9953 0.9621
8.9924 2.8709 -1.9953 0.9621
7.3090 4.7549 -1.8431 0.9650
6.3486 5.9771 -1.8431 0.9650
3.8597 7.8188 -1.8431 0.9650
3.1475 8.1317 -1.8431 0.9650
0.8841 8.6746 -1.8431 0.9650
0.1074 8.7189 -1.8431 0.9650
-1.4423 8.5995 -1.8431 0.9650
-2.9462 8.2068 -1.8431 0.9650
-3.6660 7.9115 -1.8431 0.9650
-4.4769 6.3728 -1.6463 0.9687
-5.3257 6.3017 -1.7440 0.9668
-7.1897 4.9335 -1.8431 0.9650
-9.4371 -0.2202 -1.9954 0.9621
-9.2480 -1.8922 -1.9954 0.9621
-8.7652 -3.5041 -1.9954 0.9621
-8.0038 -5.0047 -1.9954 0.9621
-1.8459 -2.9070 -0.7279 0.9860
-1.5078 -2.9211 -0.6949 0.9867
-1.2108 -2.9686 -0.6777 0.9870
-0.2858 -9.4353 -1.9953 0.9621
2.2205 -9.1747 -1.9953 0.9621
3.0294 -8.9403 -1.9953 0.9621
3.8142 -8.6347 -1.9953 0.9621
7.6862 -5.4798 -1.9953 0.9621
8.1440 -4.7730 -1.9953 0.9621
8.5370 -4.0281 -1.9953 0.9621
8.8620 -3.2512 -1.9953 0.9621
9.4064 -0.7909 -1.9953 0.9621
-7.7651 -3.4327 -1.9953 0.9657
-7.0323 -4.7568 -1.9953 0.9657
-3.4960 -2.8501 -1.0601 0.9816
-2.9237 -2.8533 -0.9601 0.9834
-2.4499 -2.8599 -0.8850 0.9846
-1.6815 -2.8710 -0.7820 0.9864
-1.3609 -2.8864 -0.7500 0.9870
-1.0788 -2.9431 -0.7367 0.9872
-0.8513 -3.1735 -0.7722 0.9866
-0.6237 -3.5723 -0.8523 0.9852
0.0479 -8.4899 -1.9953 0.9657
0.8044 -8.4518 -1.9953 0.9657
1.5545 -8.3465 -1.9953 0.9657
2.2922 -8.1747 -1.9953 0.9657
3.0117 -7.9379 -1.9953 0.9657
3.7072 -7.6378 -1.9953 0.9657
4.3732 -7.2770 -1.9953 0.9657
5.0044 -6.8583 -1.9953 0.9657
6.1425 -5.8608 -1.9953 0.9657
6.6404 -5.2900 -1.9953 0.9657
7.0855 -4.6771 -1.9953 0.9657
7.4742 -4.0270 -1.9953 0.9657
8.2732 -1.9062 -1.9953 0.9657
8.4102 -1.1612 -1.9953 0.9657
8.4827 0.3504 -1.9953 0.9657
8.4177 1.1051 -1.9953 0.9657
7.5009 3.9770 -1.9953 0.9657
6.7208 4.3723 -1.8844 0.9676
4.6648 6.3042 -1.8431 0.9683
4.0844 6.6948 -1.8431 0.9683
3.4714 7.0322 -1.8431 0.9683
2.1677 7.5368 -1.8431 0.9683
0.0966 7.8418 -1.8431 0.9683
-0.6027 7.8192 -1.8431 0.9683
-1.2972 7.7344 -1.8431 0.9683
-1.9814 7.5880 -1.8431 0.9683
-2.6498 7.3812 -1.8431 0.9683
-3.2972 7.1156 -1.8431 0.9683
-3.9182 6.7934 -1.8431 0.9683
-5.5759 5.5148 -1.8431 0.9683
-7.3116 4.1105 -1.9713 0.9661
-8.2377 2.0545 -1.9954 0.9657
-8.4716 0.5593 -1.9954 0.9657
-8.4877 -0.1980 -1.9954 0.9657
-8.1329 -2.4364 -1.9954 0.9657
-7.8834 -3.1516 -1.9954 0.9657
-3.1268 -2.8396 -0.9927 0.9828
-1.4865 -2.8799 -0.7617 0.9868
-0.9439 -3.0728 -0.7555 0.9869
-0.4885 -4.0677 -0.9629 0.9833
-0.1318 -4.3505 -1.0229 0.9823
0.5003 -8.4752 -1.9953 0.9657
1.2537 -8.3969 -1.9953 0.9657
3.4305 -7.7661 -1.9953 0.9657
4.1090 -7.4294 -1.9953 0.9657
5.3628 -6.5818 -1.9953 0.9657
5.9281 -6.0777 -1.9953 0.9657
7.6782 -3.6229 -1.9953 0.9657
8.3631 -1.4625 -1.9953 0.9657
-6.7427 -3.7317 -1.9953 0.9687
-6.3833 -4.3178 -1.9953 0.9687
-3.4531 -2.8152 -1.1535 0.9818
-2.8878 -2.8183 -1.0448 0.9835
-2.4268 -2.8330 -0.9659 0.9847
-0.3108 -3.7086 -0.9636 0.9847
0.0217 -3.8392 -0.9940 0.9843
1.4111 -7.5762 -1.9953 0.9687
2.7337 -7.2053 -1.9953 0.9687
3.3651 -6.9330 -1.9953 0.9687
3.9696 -6.6055 -1.9953 0.9687
4.5306 -6.2091 -1.9901 0.9687
6.0276 -4.8018 -1.9953 0.9687
6.4316 -4.2455 -1.9953 0.9687
7.5097 -1.7303 -1.9953 0.9687
7.6976 -0.3695 -1.9953 0.9687
7.6999 0.3181 -1.9953 0.9687
7.3414 2.3438 -1.9953 0.9687
7.1033 2.9888 -1.9953 0.9687
6.4428 4.1914 -1.9901 0.9687
4.2343 5.7224 -1.8431 0.9710
3.1510 6.3832 -1.8431 0.9710
0.7218 7.0820 -1.8431 0.9710
0.0877 7.1181 -1.8431 0.9710
-0.5471 7.0976 -1.8431 0.9710
-2.4053 6.7000 -1.8431 0.9710
-2.9929 6.4589 -1.8431 0.9710
-4.0921 5.8249 -1.8431 0.9710
-5.8696 4.0277 -1.8431 0.9710
-6.7068 3.7705 -1.9921 0.9687
-7.4774 1.8649 -1.9953 0.9687
-7.6139 1.1910 -1.9953 0.9687
-7.3824 -2.2116 -1.9953 0.9687
-6.5343 -4.0858 -1.9953 0.9687
-3.6991 -2.8007 -1.2013 0.9810
-3.0818 -2.7987 -1.0779 0.9829
-2.6350 -2.8613 -1.0071 0.9841
-1.1635 -2.8527 -0.7977 0.9874
-0.9131 -2.9728 -0.8052 0.9872
-0.6832 -3.2247 -0.8535 0.9865
-0.1148 -3.7885 -0.9814 0.9845
0.2310 -3.9137 -1.0151 0.9839
1.1380 -7.6220 -1.9953 0.9687
3.1139 -7.0494 -1.9953 0.9687
4.3160 -6.3845 -1.9953 0.9687
4.8679 -5.9744 -1.9953 0.9687
5.3810 -5.5168 -1.9953 0.9687
6.6487 -3.8967 -1.9953 0.9687
6.9696 -3.2885 -1.9953 0.9687
-5.8382 -3.9491 -1.9953 0.9711
-3.4018 -2.7733 -1.2425 0.9819
-1.9711 -2.7663 -0.9616 0.9860
-1.6344 -2.7905 -0.9155 0.9866
-1.3253 -2.8109 -0.8798 0.9872
-0.7964 -2.9686 -0.8701 0.9873
-0.5595 -3.2044 -0.9209 0.9866
-0.2853 -3.4046 -0.9672 0.9859
0.3446 -3.6210 -1.0297 0.9850
1.9030 -6.7866 -1.9953 0.9711
2.5003 -6.5900 -1.9953 0.9711
3.0777 -6.3409 -1.9953 0.9711
3.6306 -6.0414 -1.9953 0.9711
4.6456 -5.3008 -1.9953 0.9711
5.0995 -4.8656 -1.9953 0.9711
5.5129 -4.3918 -1.9953 0.9711
5.8824 -3.8829 -1.9953 0.9711
6.2050 -3.3432 -1.9953 0.9711
6.4783 -2.7768 -1.9953 0.9711
6.7000 -2.1884 -1.9953 0.9711
7.0402 -0.3379 -1.9953 0.9711
7.0423 0.2909 -1.9953 0.9711
6.9884 0.9174 -1.9953 0.9711
6.8788 1.5366 -1.9953 0.9711
6.7145 2.1436 -1.9953 0.9711
6.4967 2.7335 -1.9953 0.9711
5.9081 3.8436 -1.9953 0.9711
5.4537 4.2855 -1.9635 0.9716
4.7404 4.4630 -1.8431 0.9733
4.3238 4.8677 -1.8431 0.9733
3.8727 5.2337 -1.8431 0.9733
2.3501 6.0718 -1.8431 0.9733
1.7996 6.2571 -1.8431 0.9733
0.6601 6.4772 -1.8431 0.9733
0.0802 6.5102 -1.8431 0.9733
-2.1999 6.1278 -1.8431 0.9733
-2.7373 5.9074 -1.8431 0.9733
-6.1440 3.4541 -1.9953 0.9711
-6.4274 2.8927 -1.9953 0.9711
-6.6597 2.3084 -1.9953 0.9711
-7.0331 0.4643 -1.9953 0.9711
-7.0465 -0.1644 -1.9953 0.9711
-6.9053 -1.4129 -1.9953 0.9711
-6.5448 -2.6164 -1.9953 0.9711
-6.2855 -3.1894 -1.9953 0.9711
-5.9763 -3.7369 -1.9953 0.9711
-3.0436 -2.7640 -1.1639 0.9831
-2.6091 -2.8331 -1.0903 0.9841
-2.1273 -2.7695 -0.9886 0.9856
-1.1483 -2.8154 -0.8607 0.9874
-0.6576 -3.1039 -0.8982 0.9869
-0.4040 -3.3639 -0.9591 0.9860
-0.1048 -3.4606 -0.9801 0.9857
0.2102 -3.5597 -1.0095 0.9853
2.2620 -6.6755 -1.9953 0.9711
3.4113 -6.1679 -1.9953 0.9711
4.4522 -5.4642 -1.9953 0.9711
6.8071 -1.8282 -1.9953 0.9711
6.9430 -1.2142 -1.9953 0.9711
7.0236 -0.5905 -1.9953 0.9711
-5.3734 -3.6347 -1.9953 0.9732
-2.8264 -2.7584 -1.2147 0.9836
-1.9428 -2.7266 -1.0298 0.9861
-1.6120 -2.7524 -0.9811 0.9867
-1.0231 -2.7910 -0.9143 0.9876
-0.7720 -2.8779 -0.9165 0.9876
0.0183 -3.2412 -0.9969 0.9865
0.3156 -3.3161 -1.0246 0.9862
2.3013 -6.0654 -1.9953 0.9732
4.6936 -4.4783 -1.9953 0.9732
5.0740 -4.0422 -1.9953 0.9732
5.4141 -3.5738 -1.9953 0.9732
5.7111 -3.0769 -1.9953 0.9732
5.9626 -2.5558 -1.9953 0.9732
6.4263 -0.8873 -1.9953 0.9732
6.4798 -0.3110 -1.9953 0.9732
6.4321 0.8444 -1.9953 0.9732
6.3312 1.4143 -1.9953 0.9732
5.7315 3.0389 -1.9953 0.9732
5.0931 4.0020 -1.9923 0.9733
4.5347 4.2693 -1.9157 0.9743
3.9796 4.4802 -1.8431 0.9752
3.1209 5.1156 -1.8431 0.9752
2.1631 5.5884 -1.8431 0.9752
1.6564 5.7590 -1.8431 0.9752
1.1365 5.8837 -1.8431 0.9752
0.0738 5.9920 -1.8431 0.9752
-0.3687 4.7834 -1.4756 0.9801
-0.9912 5.9099 -1.8431 0.9752
-1.5140 5.7980 -1.8431 0.9752
-2.0248 5.6400 -1.8431 0.9752
-2.5194 5.4371 -1.8431 0.9752
-2.9940 5.1909 -1.8431 0.9752
-3.4447 4.9034 -1.8431 0.9752
-3.8680 4.5769 -1.8431 0.9752
-4.8521 4.0099 -1.9361 0.9740
-6.1295 2.1246 -1.9953 0.9732
-6.4094 1.0026 -1.9953 0.9732
-6.4732 0.4273 -1.9953 0.9732
-6.4855 -0.1513 -1.9953 0.9732
-6.4462 -0.7287 -1.9953 0.9732
-6.2144 -1.8617 -1.9953 0.9732
-6.0238 -2.4082 -1.9953 0.9732
-5.5005 -3.4394 -1.9953 0.9732
-3.0960 -2.8116 -1.2863 0.9827
-2.5834 -2.8052 -1.1730 0.9842
-1.7412 -2.7421 -0.9991 0.9865
-1.1342 -2.7810 -0.9238 0.9875
-0.8626 -2.8084 -0.9036 0.9878
-0.6365 -3.0043 -0.9446 0.9872
0.1934 -3.2768 -1.0096 0.9864
2.6213 -5.9341 -1.9953 0.9732
3.6332 -5.3744 -1.9953 0.9732
4.0978 -5.0292 -1.9953 0.9732
4.9256 -4.2218 -1.9953 0.9732
6.0903 -2.2344 -1.9953 0.9732
6.2652 -1.6826 -1.9953 0.9732
6.4644 -0.5435 -1.9953 0.9732
-5.2521 -2.9067 -1.9953 0.9750
-4.9721 -3.3633 -1.9953 0.9750
-3.3200 -2.7067 -1.4239 0.9821
-2.3586 -2.7533 -1.2051 0.9848
-1.9446 -2.7291 -1.1139 0.9860
-0.7488 -2.7914 -0.9607 0.9879
-0.5058 -2.8968 -0.9775 0.9877
0.0172 -3.0421 -1.0112 0.9873
0.2955 -3.1046 -1.0367 0.9869
2.1294 -5.6124 -1.9953 0.9750
3.0920 -5.1451 -1.9953 0.9750
4.6950 -3.7402 -1.9953 0.9750
5.2845 -2.8472 -1.9953 0.9750
5.5173 -2.3649 -1.9953 0.9750
5.7061 -1.8637 -1.9953 0.9750
5.8495 -1.3477 -1.9953 0.9750
5.9517 0.7813 -1.9953 0.9750
5.7184 1.8256 -1.9953 0.9750
5.3034 2.8119 -1.9953 0.9750
5.0317 3.2734 -1.9953 0.9750
4.7199 3.7088 -1.9953 0.9750
4.3593 4.1042 -1.9902 0.9751
3.2982 4.4573 -1.8431 0.9769
2.0015 5.1710 -1.8431 0.9769
1.0516 5.4442 -1.8431 0.9769
0.5622 5.5163 -1.8431 0.9769
-1.4009 5.3650 -1.8431 0.9769
-3.1874 4.5372 -1.8431 0.9769
-3.5791 4.2350 -1.8431 0.9769
-4.6170 3.8156 -1.9910 0.9751
-4.9495 3.3963 -1.9953 0.9750
-5.6717 1.9659 -1.9953 0.9750
-5.9897 0.3954 -1.9953 0.9750
-5.8809 -1.2033 -1.9953 0.9750
-5.7503 -1.7226 -1.9953 0.9750
-5.5739 -2.2283 -1.9953 0.9750
-5.0897 -3.1825 -1.9953 0.9750
-3.6681 -2.7772 -1.5293 0.9808
-2.9688 -2.6962 -1.3331 0.9832
-2.5578 -2.7775 -1.2551 0.9842
-2.0944 -2.7266 -1.1429 0.9856
-1.4086 -2.7289 -1.0208 0.9871
3.3618 -4.9730 -1.9953 0.9750
3.7917 -4.6536 -1.9953 0.9750
4.1914 -4.2971 -1.9953 0.9750
4.8877 -3.4847 -1.9953 0.9750
5.1789 -3.0352 -1.9953 0.9750
5.4288 -2.5615 -1.9953 0.9750
5.9130 -1.0341 -1.9953 0.9750
5.9816 -0.5029 -1.9953 0.9750
-5.1033 -2.2560 -1.9953 0.9766
-4.6217 -3.1262 -1.9953 0.9766
-2.7914 -2.7243 -1.3948 0.9836
-1.5855 -2.7070 -1.1219 0.9868
-1.2735 -2.7010 -1.0679 0.9874
-0.9998 -2.7275 -1.0388 0.9877
-0.7406 -2.7609 -1.0222 0.9879
-0.4811 -2.7556 -1.0003 0.9882
0.0162 -2.8771 -1.0289 0.9879
0.5792 -3.1099 -1.1313 0.9867
2.4364 -5.0197 -1.9953 0.9766
3.6776 -4.1963 -1.9953 0.9766
4.0369 -3.8518 -1.9953 0.9766
4.9121 -2.6466 -1.9953 0.9766
5.1284 -2.1982 -1.9953 0.9766
5.3040 -1.7324 -1.9953 0.9766
5.5273 -0.7632 -1.9953 0.9766
5.4455 1.2165 -1.9953 0.9766
5.1430 2.1640 -1.9953 0.9766
4.6771 3.0427 -1.9953 0.9766
2.6843 4.3999 -1.8431 0.9783
2.2815 4.6217 -1.8431 0.9783
1.8605 4.8066 -1.8431 0.9783
1.4246 4.9533 -1.8431 0.9783
0.5226 5.1275 -1.8431 0.9783
0.0635 5.1537 -1.8431 0.9783
-1.7415 4.8510 -1.8431 0.9783
-2.5751 4.4647 -1.8431 0.9783
-4.6007 3.1570 -1.9953 0.9766
-5.0882 2.2900 -1.9953 0.9766
-5.2720 1.8274 -1.9953 0.9766
-5.4139 1.3502 -1.9953 0.9766
-5.5127 0.8623 -1.9953 0.9766
-5.5782 -0.1301 -1.9953 0.9766
-5.5444 -0.6268 -1.9953 0.9766
-5.4665 -1.1185 -1.9953 0.9766
-5.1810 -2.0713 -1.9953 0.9766
-4.7310 -2.9582 -1.9953 0.9766
-3.7026 -2.8034 -1.6608 0.9805
-2.9688 -2.6962 -1.4341 0.9831
-2.5324 -2.7498 -1.3368 0.9842
-2.0959 -2.7286 -1.2304 0.9855
-1.7262 -2.7185 -1.1516 0.9864
-0.8430 -2.7446 -1.0267 0.9879
-0.3346 -2.7859 -1.0034 0.9882
0.4536 -3.0378 -1.0984 0.9870
0.7845 -3.2413 -1.1926 0.9859
1.7907 -5.2846 -1.9953 0.9766
2.2545 -5.1039 -1.9953 0.9766
2.7005 -4.8827 -1.9953 0.9766
3.1249 -4.6226 -1.9953 0.9766
3.5245 -4.3256 -1.9953 0.9766
4.5433 -3.2391 -1.9953 0.9766
5.5601 -0.4675 -1.9953 0.9766
-4.3128 -2.9173 -1.9953 0.9779
-3.3200 -2.7067 -1.6415 0.9818
-2.7759 -2.7091 -1.4864 0.9835
-2.3347 -2.7254 -1.3752 0.9847
-1.9474 -2.7332 -1.2861 0.9857
-1.5883 -2.7119 -1.2044 0.9866
-0.7339 -2.7357 -1.0855 0.9879
-0.4786 -2.7413 -1.0664 0.9882
-0.2296 -2.7397 -1.0536 0.9883
0.0154 -2.7344 -1.0479 0.9884
0.2644 -2.7782 -1.0695 0.9881
1.4058 -5.0134 -1.9953 0.9779
2.2736 -4.6842 -1.9953 0.9779
2.6820 -4.4629 -1.9953 0.9779
3.4318 -3.9158 -1.9953 0.9779
3.7671 -3.5944 -1.9953 0.9779
4.9495 -1.6166 -1.9953 0.9779
5.0739 -1.1691 -1.9953 0.9779
5.2008 -0.2496 -1.9953 0.9779
5.1625 0.6777 -1.9953 0.9779
5.0816 1.1352 -1.9953 0.9779
4.3645 2.8394 -1.9953 0.9779
3.7910 3.5691 -1.9953 0.9779
3.4545 3.8891 -1.9934 0.9780
3.0865 4.1712 -1.9885 0.9780
2.5745 4.2199 -1.8943 0.9790
2.1290 4.3128 -1.8431 0.9796
1.7361 4.4854 -1.8431 0.9796
0.9122 4.7224 -1.8431 0.9796
0.4876 4.7849 -1.8431 0.9796
0.0592 4.8093 -1.8431 0.9796
-0.3642 4.7254 -1.8162 0.9799
-0.7956 4.7434 -1.8431 0.9796
-1.2152 4.6536 -1.8431 0.9796
-1.6251 4.5268 -1.8431 0.9796
-2.4030 4.1663 -1.8431 0.9796
-2.8590 4.0697 -1.9060 0.9789
-3.3503 3.9642 -1.9890 0.9780
-4.0136 3.3169 -1.9953 0.9779
-4.2933 2.9460 -1.9953 0.9779
-4.5387 2.5516 -1.9953 0.9779
-4.9197 1.7052 -1.9953 0.9779
-5.1443 0.8047 -1.9953 0.9779
-2.3021 -0.2603 -0.8878 0.9901
-4.6433 -2.3561 -1.9953 0.9779
-4.1512 -3.1430 -1.9953 0.9779
-2.0975 -2.7307 -1.3195 0.9854
-1.7294 -2.7235 -1.2363 0.9863
-1.0953 -2.6854 -1.1114 0.9877
-0.0829 -2.7362 -1.0491 0.9883
0.4272 -2.8609 -1.1085 0.9877
0.7535 -3.1132 -1.2275 0.9864
2.1039 -4.7628 -1.9953 0.9779
2.9161 -4.3136 -1.9953 0.9779
3.6356 -3.7273 -1.9953 0.9779
3.9534 -3.3885 -1.9953 0.9779
4.2396 -3.0226 -1.9953 0.9779
4.4922 -2.6327 -1.9953 0.9779
5.1290 -0.8970 -1.9953 0.9779
5.1885 -0.4363 -1.9953 0.9779
-4.2656 -2.3608 -1.9953 0.9791
-1.9489 -2.7352 -1.3746 0.9856
-0.9768 -2.6649 -1.1616 0.9878
0.2590 -2.7215 -1.1189 0.9883
0.5195 -2.7894 -1.1613 0.9878
1.3163 -4.6943 -1.9953 0.9791
2.5113 -4.1788 -1.9953 0.9791
3.2133 -3.6665 -1.9953 0.9791
3.5273 -3.3655 -1.9953 0.9791
3.8132 -3.0378 -1.9953 0.9791
4.6344 -1.5137 -1.9953 0.9791
4.7508 -1.0946 -1.9953 0.9791
4.8697 -0.2337 -1.9953 0.9791
4.8712 0.2012 -1.9953 0.9791
4.8338 0.6346 -1.9953 0.9791
4.7580 1.0629 -1.9953 0.9791
4.6444 1.4827 -1.9953 0.9791
4.4937 1.8908 -1.9953 0.9791
4.0866 2.6586 -1.9953 0.9791
3.8334 3.0122 -1.9953 0.9791
3.5497 3.3419 -1.9953 0.9791
3.2377 3.6450 -1.9953 0.9791
2.0742 4.2019 -1.9179 0.9800
1.2448 4.3280 -1.8431 0.9807
0.8541 4.4217 -1.8431 0.9807
-1.1378 4.3573 -1.8431 0.9807
-2.3529 4.0795 -1.9275 0.9799
-3.1437 3.7198 -1.9933 0.9792
-3.4663 3.4283 -1.9953 0.9791
-2.1070 0.5255 -0.8888 0.9907
-2.0320 0.3179 -0.8418 0.9912
-1.9962 -0.0466 -0.8172 0.9914
-2.0191 -0.2283 -0.8316 0.9913
-4.6703 -1.3991 -1.9953 0.9791
-3.8869 -2.9429 -1.9953 0.9791
-2.9688 -2.6962 -1.6414 0.9828
-2.0991 -2.7327 -1.4103 0.9852
-1.3940 -2.7006 -1.2439 0.9870
-1.0905 -2.6738 -1.1818 0.9876
-0.5790 -2.7329 -1.1433 0.9880
-0.3258 -2.7128 -1.1183 0.9883
0.1597 -2.7047 -1.1089 0.9884
0.4115 -2.7557 -1.1404 0.9880
2.3596 -4.2663 -1.9953 0.9791
3.0795 -3.7796 -1.9953 0.9791
3.7017 -3.1727 -1.9953 0.9791
3.9697 -2.8302 -1.9953 0.9791
4.4091 -2.0804 -1.9953 0.9791
4.5770 -1.6792 -1.9953 0.9791
4.8582 -0.4085 -1.9953 0.9791
-4.0058 -2.2170 -1.9953 0.9802
-2.7561 -2.6898 -1.6784 0.9833
-2.3384 -2.7298 -1.5665 0.9844
-1.9504 -2.7374 -1.4648 0.9854
-1.5943 -2.7220 -1.3748 0.9863
-0.9779 -2.6678 -1.2383 0.9877
-0.7204 -2.6856 -1.2118 0.9879
0.0151 -2.6775 -1.1669 0.9884
0.2571 -2.7010 -1.1825 0.9882
1.2361 -4.4084 -1.9953 0.9802
1.9992 -4.1189 -1.9953 0.9802
2.6987 -3.6985 -1.9953 0.9802
3.0176 -3.4432 -1.9953 0.9802
3.3125 -3.1606 -1.9953 0.9802
3.8210 -2.5222 -1.9953 0.9802
4.0306 -2.1716 -1.9953 0.9802
4.2081 -1.8037 -1.9953 0.9802
4.5354 -0.6262 -1.9953 0.9802
4.5731 -0.2195 -1.9953 0.9802
4.5745 0.1890 -1.9953 0.9802
4.4683 0.9981 -1.9953 0.9802
4.3615 1.3924 -1.9953 0.9802
4.2201 1.7756 -1.9953 0.9802
4.0450 2.1447 -1.9953 0.9802
3.3335 3.1384 -1.9953 0.9802
2.3813 3.9033 -1.9927 0.9802
1.6190 4.1827 -1.9547 0.9806
0.8072 4.1790 -1.8550 0.9816
0.4288 4.2074 -1.8431 0.9817
-0.3250 4.2167 -1.8431 0.9817
-0.6996 4.1709 -1.8431 0.9817
-2.2810 3.9548 -1.9897 0.9803
-2.9553 3.4969 -1.9953 0.9802
-3.5292 2.9166 -1.9953 0.9802
-3.9910 2.2437 -1.9953 0.9802
-4.1750 1.8790 -1.9953 0.9802
-1.4901 0.3716 -0.6693 0.9933
-1.4592 0.0963 -0.6373 0.9936
-1.4380 -0.0336 -0.6269 0.9937
-1.4716 -0.1664 -0.6454 0.9936
-1.4754 -0.3019 -0.6563 0.9935
-4.2513 -1.6996 -1.9953 0.9802
-2.9688 -2.6962 -1.7478 0.9827
-1.7332 -2.7295 -1.4091 0.9860
-1.0924 -2.6784 -1.2606 0.9875
-0.5759 -2.7182 -1.2109 0.9879
-0.0812 -2.6797 -1.1684 0.9884
0.1585 -2.6847 -1.1721 0.9883
0.7442 -3.0748 -1.3787 0.9863
1.4693 -4.3362 -1.9953 0.9802
1.8500 -4.1880 -1.9953 0.9802
2.5641 -3.7930 -1.9953 0.9802
2.8920 -3.5494 -1.9953 0.9802
3.1968 -3.2775 -1.9953 0.9802
3.9500 -2.3150 -1.9953 0.9802
4.1406 -1.9537 -1.9953 0.9802
4.2983 -1.5769 -1.9953 0.9802
4.4217 -1.1875 -1.9953 0.9802
4.5099 -0.7887 -1.9953 0.9802
4.5623 -0.3836 -1.9953 0.9802
-1.2507 -0.5529 -0.6330 0.9940
-3.7716 -2.0874 -1.9953 0.9812
-3.5705 -2.4152 -1.9953 0.9812
-3.3411 -2.7238 -1.9953 0.9812
-2.3404 -2.7321 -1.6652 0.9843
-0.9797 -2.6728 -1.3177 0.9875
-0.7137 -2.6605 -1.2750 0.9879
-0.4710 -2.6975 -1.2675 0.9880
-0.2235 -2.6675 -1.2391 0.9883
0.0150 -2.6523 -1.2277 0.9884
0.2551 -2.6804 -1.2463 0.9882
0.5136 -2.7575 -1.2983 0.9877
1.1638 -4.1506 -1.9953 0.9812
1.5291 -4.0303 -1.9953 0.9812
1.8823 -3.8780 -1.9953 0.9812
2.2204 -3.6948 -1.9953 0.9812
2.5409 -3.4822 -1.9953 0.9812
2.8411 -3.2419 -1.9953 0.9812
3.1188 -2.9757 -1.9953 0.9812
3.9621 -1.6983 -1.9953 0.9812
4.0976 -1.3384 -1.9953 0.9812
4.3057 -0.2067 -1.9953 0.9812
4.3070 0.1779 -1.9953 0.9812
4.2070 0.9398 -1.9953 0.9812
4.1065 1.3110 -1.9953 0.9812
3.8085 2.0193 -1.9953 0.9812
3.6133 2.3507 -1.9953 0.9812
3.3894 2.6634 -1.9953 0.9812
2.8627 3.2228 -1.9953 0.9812
2.5641 3.4652 -1.9953 0.9812
2.2450 3.6799 -1.9953 0.9812
1.9061 3.8612 -1.9932 0.9812
1.5522 4.0103 -1.9905 0.9812
1.1873 4.1282 -1.9883 0.9812
0.8034 4.1593 -1.9609 0.9815
0.0511 4.1465 -1.9195 0.9819
-0.6916 4.1233 -1.9353 0.9817
-1.8082 3.9023 -1.9908 0.9812
-2.1518 3.7307 -1.9935 0.9812
-3.0648 3.0313 -1.9953 0.9812
-3.3228 2.7460 -1.9953 0.9812
-3.5543 2.4390 -1.9953 0.9812
-1.2553 0.5650 -0.6372 0.9940
-1.2702 0.3168 -0.6060 0.9942
-1.2706 0.0839 -0.5894 0.9944
-1.2635 -0.0295 -0.5850 0.9944
-1.2749 -0.1441 -0.5939 0.9944
-1.2699 -0.3804 -0.6136 0.9942
-3.8441 -1.9506 -1.9953 0.9812
-3.6550 -2.2854 -1.9953 0.9812
-3.4367 -2.6021 -1.9953 0.9812
-2.9688 -2.6962 -1.8564 0.9825
-1.3991 -2.7105 -1.4120 0.9866
-0.8180 -2.6629 -1.2895 0.9878
-0.5705 -2.6929 -1.2742 0.9879
0.1573 -2.6645 -1.2355 0.9883
1.3834 -4.0827 -1.9953 0.9812
1.7418 -3.9431 -1.9953 0.9812
2.0863 -3.7722 -1.9953 0.9812
2.4142 -3.5712 -1.9953 0.9812
3.0099 -3.0858 -1.9953 0.9812
3.7190 -2.1796 -1.9953 0.9812
3.8985 -1.8395 -1.9953 0.9812
-1.1144 -0.6168 -0.6248 0.9943
-3.3694 -2.2791 -1.9953 0.9820
-2.9112 -2.8411 -1.9953 0.9820
-2.3593 -2.7541 -1.7789 0.9840
-0.9824 -2.6800 -1.4001 0.9874
-0.7143 -2.6625 -1.3522 0.9878
-0.4684 -2.6827 -1.3358 0.9879
-0.2256 -2.6920 -1.3251 0.9880
0.5112 -2.7448 -1.3695 0.9876
1.7762 -3.6595 -1.9953 0.9820
3.8668 -1.2630 -1.9953 0.9820
4.0643 0.1679 -1.9953 0.9820
3.5939 1.9055 -1.9953 0.9820
2.9617 2.7884 -1.9953 0.9820
2.4196 3.2699 -1.9953 0.9820
2.1185 3.4726 -1.9953 0.9820
1.4675 3.7913 -1.9942 0.9821
1.1226 3.9030 -1.9921 0.9821
-0.3116 4.0430 -1.9891 0.9821
-1.0254 3.9267 -1.9907 0.9821
-1.3724 3.8228 -1.9923 0.9821
-1.7094 3.6892 -1.9944 0.9820
-2.0324 3.5237 -1.9953 0.9820
-2.3383 3.3285 -1.9953 0.9820
-3.1356 2.5913 -1.9953 0.9820
-3.5459 1.9934 -1.9953 0.9820
-1.0991 0.4947 -0.5912 0.9946
-1.1429 0.0754 -0.5618 0.9949
-1.1373 -0.2327 -0.5694 0.9948
-1.0901 -0.5531 -0.5996 0.9946
-3.2431 -2.4555 -1.9953 0.9820
-2.9688 -2.6962 -1.9672 0.9823
-2.7556 -2.9923 -1.9953 0.9820
-1.7359 -2.7337 -1.5885 0.9857
-1.4018 -2.7157 -1.4991 0.9865
-0.8201 -2.6700 -1.3701 0.9876
-0.5651 -2.6675 -1.3375 0.9879
0.1630 -2.7616 -1.3570 0.9878
1.3055 -3.8526 -1.9953 0.9820
1.6436 -3.7209 -1.9953 0.9820
2.5695 -3.1535 -1.9953 0.9820
3.0885 -2.6472 -1.9953 0.9820
3.5095 -2.0568 -1.9953 0.9820
3.8189 -1.4010 -1.9953 0.9820
3.9286 -1.0551 -1.9953 0.9820
4.0535 -0.3408 -1.9953 0.9820
-0.9887 -0.4371 -0.5608 0.9951
-0.9501 -0.5258 -0.5633 0.9951
-1.5994 -2.7308 -1.6418 0.9858
-1.2778 -2.7101 -1.5544 0.9866
-0.7162 -2.6696 -1.4339 0.9876
-0.4649 -2.6627 -1.4023 0.9879
-0.2203 -2.6285 -1.3684 0.9882
1.3644 -3.5961 -1.9953 0.9828
1.6795 -3.4602 -1.9953 0.9828
2.2671 -3.1070 -1.9953 0.9828
3.5352 -1.5153 -1.9953 0.9828
3.6561 -1.1942 -1.9953 0.9828
3.7480 -0.8636 -1.9953 0.9828
3.8101 -0.5261 -1.9953 0.9828
3.8429 0.1588 -1.9953 0.9828
3.8135 0.5006 -1.9953 0.9828
3.7537 0.8385 -1.9953 0.9828
3.5452 1.4917 -1.9953 0.9828
3.3981 1.8017 -1.9953 0.9828
3.2240 2.0974 -1.9953 0.9828
3.0242 2.3764 -1.9953 0.9828
2.8004 2.6365 -1.9953 0.9828
2.5543 2.8756 -1.9953 0.9828
2.2878 3.0918 -1.9953 0.9828
2.0031 3.2834 -1.9953 0.9828
1.7025 3.4489 -1.9953 0.9828
0.7290 3.7741 -1.9941 0.9828
-0.2952 3.8298 -1.9927 0.9828
-0.6356 3.7892 -1.9932 0.9828
-1.2996 3.6200 -1.9953 0.9828
-1.6171 3.4898 -1.9953 0.9828
-1.9217 3.3318 -1.9953 0.9828
-2.7346 2.7047 -1.9953 0.9828
-3.1714 2.1762 -1.9953 0.9828
-1.0203 0.2545 -0.5455 0.9953
-1.0347 0.1619 -0.5433 0.9953
-1.0329 -0.0241 -0.5360 0.9954
-1.0286 -0.2105 -0.5447 0.9953
-0.9674 -0.4909 -0.5628 0.9951
-3.0665 -2.3217 -1.9953 0.9828
-2.8473 -2.5858 -1.9953 0.9828
-2.6055 -2.8293 -1.9953 0.9828
-0.8223 -2.6772 -1.4529 0.9875
1.2344 -3.6428 -1.9953 0.9828
1.5541 -3.5183 -1.9953 0.9828
2.4295 -2.9818 -1.9953 0.9828
2.9203 -2.5030 -1.9953 0.9828
3.3183 -1.9448 -1.9953 0.9828
3.4784 -1.6413 -1.9953 0.9828
3.7146 -0.9976 -1.9953 0.9828
3.8327 -0.3223 -1.9953 0.9828
-0.8747 -0.5917 -0.5784 0.9952
-2.1140 -2.9670 -1.9953 0.9835
-1.6007 -2.7330 -1.7347 0.9857
-1.2803 -2.7154 -1.6442 0.9864
-0.9879 -2.6952 -1.5722 0.9870
-0.4643 -2.6595 -1.4786 0.9878
-0.2203 -2.6285 -1.4447 0.9880
0.0148 -2.6214 -1.4358 0.9881
1.2923 -3.4062 -1.9953 0.9835
1.5908 -3.2774 -1.9953 0.9835
2.1474 -2.9429 -1.9953 0.9835
2.8494 -2.2700 -1.9953 0.9835
3.3485 -1.4353 -1.9953 0.9835
1.8865 -0.4347 -1.0603 0.9912
1.8825 0.0778 -1.0319 0.9914
1.8887 0.2480 -1.0434 0.9913
1.8744 0.5984 -1.0777 0.9911
3.3580 1.4129 -1.9953 0.9835
3.2187 1.7066 -1.9953 0.9835
2.8645 2.2509 -1.9953 0.9835
2.6525 2.4973 -1.9953 0.9835
2.4194 2.7237 -1.9953 0.9835
2.1670 2.9285 -1.9953 0.9835
1.8974 3.1100 -1.9953 0.9835
1.6126 3.2668 -1.9953 0.9835
1.0070 3.5012 -1.9953 0.9835
0.3694 3.6243 -1.9953 0.9835
-0.6026 3.5929 -1.9953 0.9835
-0.9205 3.5249 -1.9953 0.9835
-1.2310 3.4288 -1.9953 0.9835
-1.5317 3.3055 -1.9953 0.9835
-2.0942 2.9810 -1.9953 0.9835
-2.5902 2.5618 -1.9953 0.9835
-2.8082 2.3208 -1.9953 0.9835
-0.8741 0.4914 -0.5492 0.9954
-0.8991 0.4047 -0.5400 0.9955
-0.9293 0.2318 -0.5245 0.9956
-0.9437 -0.0220 -0.5170 0.9957
-0.9225 -0.2764 -0.5274 0.9956
-0.9078 -0.3629 -0.5355 0.9956
-0.8872 -0.4502 -0.5449 0.9955
-0.8646 -0.5406 -0.5585 0.9954
-2.9045 -2.1991 -1.9953 0.9835
-2.6970 -2.4492 -1.9953 0.9835
-1.4071 -2.7259 -1.6802 0.9861
-1.1017 -2.7012 -1.5978 0.9868
-0.8246 -2.6846 -1.5382 0.9873
-0.3160 -2.6313 -1.4516 0.9880
-0.0795 -2.6242 -1.4380 0.9881
0.1545 -2.6172 -1.4360 0.9881
1.1692 -3.4504 -1.9953 0.9835
1.7632 -3.1880 -1.9953 0.9835
2.0403 -3.0182 -1.9953 0.9835
2.7661 -2.3709 -1.9953 0.9835
2.9664 -2.1149 -1.9953 0.9835
3.4202 -1.2548 -1.9953 0.9835
1.8843 -0.5061 -1.0686 0.9911
1.8855 -0.3297 -1.0484 0.9913
-0.7967 -0.5389 -0.5553 0.9956
-2.0055 -2.8146 -1.9953 0.9842
-0.7202 -2.6845 -1.6047 0.9872
0.0148 -2.6214 -1.5135 0.9880
0.5092 -2.7338 -1.6055 0.9872
1.2260 -3.2313 -1.9953 0.9842
1.5091 -3.1092 -1.9953 0.9842
1.7802 -2.9623 -1.9953 0.9842
2.0371 -2.7918 -1.9953 0.9842
2.2779 -2.5991 -1.9953 0.9842
2.5005 -2.3858 -1.9953 0.9842
2.7031 -2.1534 -1.9953 0.9842
3.1765 -1.3616 -1.9953 0.9842
1.7158 -0.5604 -1.0421 0.9917
1.7326 -0.3992 -1.0265 0.9918
1.7415 -0.2405 -1.0150 0.9919
1.7417 0.2286 -1.0142 0.9919
1.8361 0.7725 -1.1501 0.9908
2.8970 1.8846 -1.9953 0.9842
2.7174 2.1353 -1.9953 0.9842
1.7999 2.9503 -1.9953 0.9842
0.9553 3.3214 -1.9953 0.9842
0.3504 3.4382 -1.9953 0.9842
-0.5717 3.4084 -1.9953 0.9842
-1.1678 3.2528 -1.9953 0.9842
-1.4530 3.1357 -1.9953 0.9842
-2.2308 2.6396 -1.9953 0.9842
-2.4572 2.4303 -1.9953 0.9842
-2.6640 2.2016 -1.9953 0.9842
-0.7978 0.5474 -0.5586 0.9955
-0.8207 0.4614 -0.5436 0.9957
-0.8451 0.3803 -0.5350 0.9957
-0.8609 0.2984 -0.5261 0.9958
-0.8805 0.1377 -0.5145 0.9959
-0.8818 0.0582 -0.5102 0.9959
-0.8821 -0.0997 -0.5125 0.9959
-0.8537 -0.3413 -0.5308 0.9958
-0.8334 -0.4229 -0.5396 0.9957
-0.8045 -0.5031 -0.5478 0.9956
-0.8045 -0.6091 -0.5826 0.9954
-2.5585 -2.3235 -1.9953 0.9842
-1.1050 -2.7093 -1.6893 0.9866
-0.5668 -2.6755 -1.5790 0.9874
-0.3160 -2.6313 -1.5301 0.9878
-0.0795 -2.6242 -1.5158 0.9879
0.8130 -3.3591 -1.9953 0.9842
1.9356 -2.8632 -1.9953 0.9842
2.4132 -2.4740 -1.9953 0.9842
2.6241 -2.2491 -1.9953 0.9842
2.8141 -2.0063 -1.9953 0.9842
2.9817 -1.7475 -1.9953 0.9842
3.1256 -1.4748 -1.9953 0.9842
1.7021 -0.6245 -1.0468 0.9917
1.7294 -0.4645 -1.0338 0.9918
1.7402 -0.1463 -1.0082 0.9920
