ply
format ascii 1.0
element vertex 1378
property float32 x
property float32 y
property float32 z
property float32 I
end_header
6.6532 11.6973 2.3728 0.9468
5.5269 12.1267 2.3499 0.9473
4.2507 12.0883 2.2594 0.9493
-0.2377 11.9534 2.1081 0.9526
-1.3093 11.9212 2.1147 0.9525
-2.3962 11.8885 2.1384 0.9519
-5.9464 11.7818 2.3271 0.9478
-4.4075 7.0785 1.4703 0.9667
5.5269 12.1267 2.0416 0.9475
3.0599 12.0525 1.9050 0.9509
1.9288 12.0185 1.8647 0.9519
-0.2377 11.9534 1.8316 0.9528
-1.3093 11.9212 1.8372 0.9526
-2.3962 11.8885 1.8579 0.9521
-3.5170 11.8548 1.8943 0.9512
-4.6921 11.8195 1.9481 0.9498
4.9523 6.8711 1.2975 0.9663
4.7915 6.9047 1.0944 0.9667
6.9212 12.1686 1.8230 0.9451
5.5269 12.1267 1.7354 0.9477
4.2507 12.0883 1.6686 0.9496
1.9499 12.1502 1.6025 0.9516
0.8450 12.1170 1.5817 0.9522
-0.2403 12.0844 1.5739 0.9524
-1.3236 12.0518 1.5788 0.9523
-2.4225 12.0188 1.5966 0.9517
-5.9464 11.7818 1.7186 0.9482
-4.3856 7.0434 1.0805 0.9671
-2.9361 -19.4019 2.1071 0.9241
4.7805 6.8889 0.9004 0.9668
6.9212 12.1686 1.5033 0.9452
5.6212 12.3334 1.4554 0.9469
3.0935 12.1845 1.3499 0.9507
0.8450 12.1170 1.3043 0.9523
-0.2403 12.0844 1.2979 0.9525
-1.3236 12.0518 1.3019 0.9524
-4.3769 7.0295 0.8892 0.9672
-1.5239 -19.3594 2.0853 0.9248
-1.1757 -19.3490 1.6410 0.9251
7.0681 12.4269 1.2102 0.9442
4.3410 12.3450 1.1078 0.9488
1.9499 12.1502 1.0417 0.9518
-0.2433 12.2343 1.0359 0.9521
-2.4626 12.2177 1.0551 0.9512
-4.3737 7.0242 0.7005 0.9673
-1.5239 -19.3594 1.6439 0.9250
4.9174 6.8226 0.7119 0.9668
7.4401 13.0809 0.9332 0.9415
5.9706 13.1001 0.8927 0.9439
4.3410 12.3450 0.8115 0.9489
3.1446 12.3862 0.7924 0.9501
1.9499 12.1502 0.7631 0.9519
0.8450 12.1170 0.7532 0.9525
-0.2433 12.2343 0.7588 0.9521
-2.4626 12.2177 0.7729 0.9513
-3.5555 11.9847 0.7752 0.9511
-4.8220 12.1467 0.8104 0.9490
2.3568 -19.8251 0.7872 0.9232
4.7575 6.8558 0.3290 0.9671
7.4651 13.1248 0.5954 0.9413
5.9937 13.1508 0.5699 0.9438
4.3410 12.3450 0.5160 0.9490
1.9499 12.1502 0.4852 0.9519
0.8450 12.1170 0.4789 0.9525
-2.4626 12.2177 0.4914 0.9513
-4.8220 12.1468 0.5153 0.9490
-4.3681 7.0153 0.3259 0.9675
6.2237 -15.2782 0.2787 0.9361
5.9774 13.1151 0.2435 0.9440
-1.3236 12.0518 0.2048 0.9527
-2.4626 12.2177 0.2105 0.9514
-3.5555 11.9847 0.2112 0.9512
-4.3738 7.0244 0.1398 0.9674
-8.1279 -18.2642 -0.1126 0.9231
-6.2278 -18.2295 -0.1085 0.9258
-4.4967 -18.3992 -0.1066 0.9270
-1.0988 -18.0834 -0.1020 0.9301
0.5168 -17.9294 -0.1010 0.9308
2.1392 -17.9946 -0.1020 0.9301
3.8006 -18.0230 -0.1037 0.9290
4.7534 6.8499 -0.0469 0.9672
3.0935 12.1845 -0.0708 0.9510
-0.2403 12.0844 -0.0681 0.9528
-1.3236 12.0518 -0.0683 0.9527
-4.7435 11.9490 -0.0724 0.9499
-4.3865 7.0448 -0.0467 0.9673
-8.4527 -18.1156 -0.1125 0.9232
-6.5916 -18.2235 -0.1091 0.9254
-1.4198 -18.0373 -0.1019 0.9302
5.1120 -17.8135 -0.1043 0.9286
-8.0428 -18.0729 -0.5570 0.9239
-6.1907 -18.1211 -0.5392 0.9262
-1.0914 -17.9623 -0.5067 0.9305
2.1258 -17.8824 -0.5071 0.9305
3.7436 -17.7531 -0.5109 0.9300
5.4315 -17.7261 -0.5220 0.9285
6.2211 -15.2717 -0.4643 0.9361
7.7563 -15.0325 -0.4763 0.9346
7.4651 13.1248 -0.4252 0.9414
5.9937 13.1508 -0.4069 0.9438
3.7958 10.7946 -0.3222 0.9552
2.8177 11.0985 -0.3224 0.9552
1.8149 11.3091 -0.3225 0.9552
-0.2403 12.0844 -0.3403 0.9528
-3.4905 11.7656 -0.3456 0.9521
-5.9016 11.6932 -0.3688 0.9489
-6.5493 -18.1065 -0.5422 0.9258
-4.7654 -18.0907 -0.5268 0.9279
-3.0466 -17.9573 -0.5129 0.9297
-1.4121 -17.9391 -0.5067 0.9305
3.4259 -17.8175 -0.5109 0.9300
5.1041 -17.7858 -0.5210 0.9286
7.0412 -18.2096 -0.5497 0.9248
-8.0420 -18.0711 -1.0031 0.9238
-6.1584 -18.0263 -0.9661 0.9265
-2.7077 -17.8924 -0.9177 0.9301
2.1107 -17.7554 -0.9068 0.9309
4.7680 6.8709 -0.4241 0.9671
7.4651 13.1248 -0.7657 0.9413
5.9937 13.1508 -0.7329 0.9438
3.6869 10.4849 -0.5637 0.9565
2.8177 11.0985 -0.5807 0.9552
-0.2359 11.8635 -0.6018 0.9536
-2.3782 11.7991 -0.6104 0.9529
-4.6568 11.7306 -0.6401 0.9507
-5.9016 11.6932 -0.6643 0.9489
-4.4037 7.0725 -0.4225 0.9672
-6.5326 -18.0603 -0.9740 0.9260
-3.0388 -17.9112 -0.9213 0.9298
-1.4016 -17.8055 -0.9058 0.9310
0.1966 -17.9568 -0.9107 0.9306
1.7896 -17.7546 -0.9050 0.9310
5.1351 -17.8940 -0.9441 0.9282
6.2010 -16.0368 -0.8720 0.9335
7.2191 -14.6269 -0.8272 0.9368
-7.8662 -17.6761 -1.4186 0.9253
-6.0219 -17.6269 -1.3658 0.9280
-2.6707 -17.6481 -1.3087 0.9309
0.5185 -17.9877 -1.3194 0.9304
2.1070 -17.7243 -1.3087 0.9309
6.1717 -15.1505 -1.1995 0.9365
4.7779 6.8852 -0.6145 0.9669
7.4401 13.0809 -1.1034 0.9414
5.9937 13.1508 -1.0597 0.9437
3.6869 10.4849 -0.8149 0.9564
2.7117 10.6809 -0.8080 0.9568
-2.2251 11.0393 -0.8257 0.9558
-3.4905 11.7656 -0.8998 0.9520
-4.4345 7.1219 -0.6151 0.9669
-12.8802 14.2222 -1.4069 0.9259
-14.5643 13.4426 -1.4532 0.9236
-6.3793 -17.6365 -1.3751 0.9275
-4.6335 -17.5899 -1.3337 0.9296
0.1966 -17.9538 -1.3165 0.9305
3.3702 -17.5280 -1.3087 0.9309
13.0280 10.4872 -1.2263 0.9351
-12.4185 -15.1321 -1.8793 0.9244
-6.0219 -17.6269 -1.7883 0.9279
-4.2967 -17.5809 -1.7375 0.9299
2.0698 -17.4111 -1.6833 0.9320
3.6625 -17.3686 -1.7041 0.9312
5.3474 -17.4516 -1.7523 0.9293
6.1534 -15.1055 -1.5659 0.9366
7.3484 -14.2420 -1.5386 0.9376
10.2928 -16.2059 -1.8431 0.9258
13.5787 13.5717 -1.8431 0.9258
12.3112 14.7311 -1.8431 0.9258
7.4401 13.0809 -1.4448 0.9413
3.6869 10.4849 -1.0670 0.9563
2.7413 10.7974 -1.0695 0.9562
1.7039 10.6173 -1.0324 0.9577
-0.2359 11.8635 -1.1392 0.9534
-1.2994 11.8315 -1.1427 0.9533
-3.4905 11.7656 -1.1782 0.9519
-12.8839 -15.1394 -1.9085 0.9232
-11.0858 -15.6743 -1.8431 0.9258
-9.6404 -16.6024 -1.8431 0.9258
-8.1178 -17.3977 -1.8431 0.9258
-6.3793 -17.6365 -1.8005 0.9274
-4.6335 -17.5899 -1.7463 0.9295
-2.9768 -17.5457 -1.7085 0.9310
7.1586 -14.5044 -1.5529 0.9371
10.0015 -16.3873 -1.8431 0.9258
13.8190 13.3269 -1.8431 0.9258
8.8483 12.2765 -1.4528 0.9410
-16.2459 -4.2704 -1.9953 0.9346
-15.7991 -5.7055 -1.9953 0.9346
-15.2259 -7.0948 -1.9953 0.9346
-14.5308 -8.4274 -1.9953 0.9346
-13.7194 -9.6925 -1.9953 0.9346
-12.7981 -10.8800 -1.9953 0.9346
-10.6563 -12.9849 -1.9953 0.9346
-9.4530 -13.8854 -1.9953 0.9346
-2.0575 -3.6939 -0.5023 0.9831
-1.8606 -4.1810 -0.5436 0.9817
-5.1018 -14.9337 -1.8746 0.9384
0.4471 -15.5100 -1.8431 0.9394
3.2016 -15.1825 -1.8431 0.9394
7.5570 -14.6462 -1.9577 0.9358
12.4448 -11.2822 -1.9953 0.9346
14.9920 -7.5763 -1.9953 0.9346
16.1014 -4.7859 -1.9953 0.9346
16.4647 -3.3275 -1.9953 0.9346
16.7941 -0.3427 -1.9953 0.9346
16.5868 2.6531 -1.9953 0.9346
16.2832 4.1251 -1.9953 0.9346
15.2886 6.9584 -1.9953 0.9346
14.6054 8.2972 -1.9953 0.9346
2.7413 10.7974 -1.3233 0.9561
1.7039 10.6173 -1.2773 0.9576
-0.2359 11.8635 -1.4095 0.9533
-2.2235 11.0314 -1.3367 0.9557
-4.6568 11.7306 -1.4992 0.9504
-5.9016 11.6932 -1.5559 0.9486
-11.4020 10.5240 -1.8431 0.9394
-15.5533 6.3452 -1.9953 0.9346
-16.6793 1.9916 -1.9953 0.9346
-16.7906 0.4927 -1.9953 0.9346
-16.7674 -1.0101 -1.9953 0.9346
-16.6100 -2.5048 -1.9953 0.9346
-15.8986 -5.4223 -1.9953 0.9346
-13.8904 -9.4458 -1.9953 0.9346
-11.9865 -11.7681 -1.9953 0.9346
-2.1630 -3.7251 -0.5117 0.9828
-1.8136 -3.8869 -0.5095 0.9829
-3.9524 -15.0046 -1.8431 0.9394
-2.5954 -15.2978 -1.8431 0.9394
-1.2176 -15.4686 -1.8431 0.9394
0.1699 -15.5155 -1.8431 0.9394
5.6618 -14.6423 -1.8648 0.9387
8.7509 -14.3381 -1.9953 0.9346
9.9975 -13.4986 -1.9953 0.9346
12.2412 -11.5027 -1.9953 0.9346
13.2204 -10.3625 -1.9953 0.9346
14.0937 -9.1393 -1.9953 0.9346
14.8542 -7.8430 -1.9953 0.9346
16.0133 -5.0728 -1.9953 0.9346
16.4027 -3.6211 -1.9953 0.9346
16.6607 -2.1405 -1.9953 0.9346
16.7756 0.8602 -1.9953 0.9346
15.9462 5.2799 -1.9953 0.9346
15.4104 6.6842 -1.9953 0.9346
12.0869 9.7296 -1.8431 0.9394
10.1613 11.7262 -1.8431 0.9394
-13.6198 -3.5801 -1.9953 0.9447
-12.7647 -5.9480 -1.9953 0.9447
-10.7293 -9.1213 -1.9953 0.9447
-9.8711 -10.0438 -1.9953 0.9447
-1.8056 -3.2415 -0.5257 0.9851
-1.5341 -3.4473 -0.5346 0.9849
-3.3433 -13.6798 -1.9953 0.9447
0.4058 -14.0766 -1.9953 0.9447
1.6624 -13.9840 -1.9953 0.9447
2.9057 -13.7794 -1.9953 0.9447
4.1257 -13.4645 -1.9953 0.9447
6.4572 -12.5147 -1.9953 0.9447
7.5500 -11.8875 -1.9953 0.9447
8.5823 -11.1650 -1.9953 0.9447
9.5460 -10.3532 -1.9953 0.9447
11.2368 -8.4881 -1.9953 0.9447
11.9506 -7.4497 -1.9953 0.9447
12.5686 -6.3517 -1.9953 0.9447
13.0860 -5.2028 -1.9953 0.9447
14.0488 0.9723 -1.9953 0.9447
12.8173 5.8337 -1.9953 0.9447
12.2289 6.9471 -1.9928 0.9448
10.6909 7.4107 -1.8431 0.9488
9.2006 9.1958 -1.8431 0.9488
5.3948 11.8368 -1.8431 0.9488
4.2521 12.0922 -1.8162 0.9495
1.7039 10.6173 -1.5236 0.9575
-1.2636 11.5054 -1.6400 0.9543
-3.4905 11.7656 -1.7389 0.9516
-4.6568 11.7306 -1.7883 0.9503
-5.8612 11.6130 -1.8431 0.9488
-10.9772 6.9798 -1.8431 0.9488
-13.0391 5.3195 -1.9953 0.9447
-13.4624 4.1327 -1.9953 0.9447
-13.7780 2.9128 -1.9953 0.9447
-13.9832 1.6696 -1.9953 0.9447
-14.0570 -0.8468 -1.9953 0.9447
-13.9251 -2.0999 -1.9953 0.9447
-13.6816 -3.3362 -1.9953 0.9447
-12.8690 -5.7190 -1.9953 0.9447
-12.3063 -6.8464 -1.9953 0.9447
-10.0489 -9.8659 -1.9953 0.9447
-9.1269 -10.7246 -1.9953 0.9447
-2.2353 -3.1606 -0.5485 0.9845
-1.8584 -3.2005 -0.5244 0.9852
-1.3338 -3.6875 -0.5556 0.9843
0.1542 -14.0816 -1.9953 0.9447
1.4123 -14.0114 -1.9953 0.9447
2.6590 -13.8291 -1.9953 0.9447
5.0789 -13.1347 -1.9953 0.9447
7.3364 -12.0205 -1.9953 0.9447
8.3815 -11.3166 -1.9953 0.9447
9.3595 -10.5221 -1.9953 0.9447
10.2625 -9.6434 -1.9953 0.9447
11.0834 -8.6875 -1.9953 0.9447
11.8156 -7.6620 -1.9953 0.9447
12.4531 -6.5752 -1.9953 0.9447
13.4249 -4.2528 -1.9953 0.9447
13.7513 -3.0358 -1.9953 0.9447
14.0721 -0.5388 -1.9953 0.9447
14.0639 0.7212 -1.9953 0.9447
13.7107 3.2138 -1.9953 0.9447
12.9194 5.6037 -1.9953 0.9447
12.3668 6.7361 -1.9953 0.9447
10.8216 7.2184 -1.8431 0.9488
10.1331 8.1568 -1.8431 0.9488
9.3634 9.0300 -1.8431 0.9488
8.5188 9.8308 -1.8431 0.9488
7.6060 10.5529 -1.8431 0.9488
-11.7142 -3.0792 -1.9953 0.9521
-10.9787 -5.1158 -1.9953 0.9521
-10.4775 -6.0766 -1.9953 0.9521
-9.8924 -6.9888 -1.9953 0.9521
-9.2281 -7.8451 -1.9953 0.9521
-3.5654 -3.6278 -0.8380 0.9796
-2.4459 -2.9804 -0.6352 0.9845
-2.0362 -2.9910 -0.5961 0.9854
-1.6923 -3.0381 -0.5729 0.9860
-1.1648 -3.4095 -0.5936 0.9855
-1.8123 -11.9757 -1.9953 0.9521
-0.7346 -12.0898 -1.9953 0.9521
0.3490 -12.1070 -1.9953 0.9521
1.4298 -12.0274 -1.9953 0.9521
3.5485 -11.5806 -1.9953 0.9521
4.5694 -11.2171 -1.9953 0.9521
8.9734 -8.1351 -1.9953 0.9521
9.6646 -7.3004 -1.9953 0.9521
11.2551 -4.4748 -1.9953 0.9521
11.6100 -3.4509 -1.9953 0.9521
11.8720 -2.3993 -1.9953 0.9521
12.0389 -1.3285 -1.9953 0.9521
11.9600 1.9130 -1.9953 0.9521
11.4283 4.0120 -1.9953 0.9521
9.7601 5.5446 -1.8492 0.9555
9.1951 6.3738 -1.8431 0.9557
8.5885 7.1702 -1.8431 0.9557
7.9133 7.9092 -1.8431 0.9557
7.1746 8.5848 -1.8431 0.9557
4.8588 7.0017 -1.4040 0.9660
3.7114 10.5546 -1.8431 0.9557
2.7531 10.8441 -1.8431 0.9557
1.7066 10.6340 -1.7743 0.9573
0.7384 10.5883 -1.7485 0.9579
-1.2214 11.1213 -1.8431 0.9557
-4.1281 10.3988 -1.8431 0.9557
-5.0411 9.9881 -1.8431 0.9557
-7.5103 8.2929 -1.8431 0.9557
-8.2215 7.5884 -1.8431 0.9557
-9.4413 6.0032 -1.8431 0.9557
-9.9401 5.1353 -1.8431 0.9557
-11.2147 4.5752 -1.9953 0.9521
-11.5788 3.5545 -1.9953 0.9521
-11.8502 2.5053 -1.9953 0.9521
-12.1069 0.3553 -1.9953 0.9521
-11.9767 -1.8061 -1.9953 0.9521
-11.7673 -2.8694 -1.9953 0.9521
-11.4637 -3.9097 -1.9953 0.9521
-10.5844 -5.8884 -1.9953 0.9521
-10.0157 -6.8110 -1.9953 0.9521
-2.5339 -2.9775 -0.6441 0.9843
-2.1142 -2.9892 -0.6032 0.9853
-1.4771 -3.1657 -0.5755 0.9859
-1.2090 -3.3424 -0.5855 0.9857
-1.0258 -3.8944 -0.6634 0.9838
-2.0260 -11.9414 -1.9953 0.9521
-0.9505 -12.0747 -1.9953 0.9521
0.1326 -12.1113 -1.9953 0.9521
1.2147 -12.0510 -1.9953 0.9521
2.2870 -11.8942 -1.9953 0.9521
3.3410 -11.6421 -1.9953 0.9521
5.3605 -10.8612 -1.9953 0.9521
6.3099 -10.3386 -1.9953 0.9521
8.8266 -8.2941 -1.9953 0.9521
9.5326 -7.4719 -1.9953 0.9521
10.1624 -6.5900 -1.9953 0.9521
11.1733 -4.6752 -1.9953 0.9521
12.0133 -1.5434 -1.9953 0.9521
12.1031 -0.4634 -1.9953 0.9521
11.9923 1.6990 -1.9953 0.9521
11.7924 2.7641 -1.9953 0.9521
11.1118 4.8196 -1.9953 0.9521
10.6034 5.7756 -1.9891 0.9522
9.3075 6.2085 -1.8431 0.9557
8.7153 7.0156 -1.8431 0.9557
6.5418 9.0763 -1.8431 0.9557
-9.9846 -3.6057 -1.9953 0.9577
-3.5432 -3.0122 -0.8741 0.9813
-2.8759 -2.9263 -0.7712 0.9834
-2.4019 -2.9267 -0.7116 0.9847
-1.3431 -3.0181 -0.6209 0.9866
-1.1087 -3.2453 -0.6446 0.9861
-1.5884 -10.4962 -1.9953 0.9577
0.3059 -10.6113 -1.9953 0.9577
1.2531 -10.5414 -1.9953 0.9577
2.1904 -10.3872 -1.9953 0.9577
6.4696 -8.4165 -1.9953 0.9577
7.1960 -7.8045 -1.9953 0.9577
7.8648 -7.1300 -1.9953 0.9577
8.4706 -6.3985 -1.9953 0.9577
9.0086 -5.6157 -1.9953 0.9577
9.4745 -4.7880 -1.9953 0.9577
9.8646 -3.9220 -1.9953 0.9577
10.5516 -1.1644 -1.9953 0.9577
10.5903 0.7330 -1.9953 0.9577
10.4824 1.6767 -1.9953 0.9577
9.6620 4.3975 -1.9953 0.9577
8.5261 4.8436 -1.8431 0.9609
3.2529 9.2507 -1.8431 0.9609
2.4130 9.5044 -1.8431 0.9609
1.5538 9.6820 -1.8431 0.9609
-1.0705 9.7473 -1.8431 0.9609
-1.9375 9.6126 -1.8431 0.9609
-4.8036 6.3661 -1.4990 0.9681
-7.2058 6.6508 -1.8431 0.9609
-7.7714 5.9801 -1.8431 0.9609
-8.2748 5.2616 -1.8431 0.9609
-8.7120 4.5008 -1.8431 0.9609
-9.8292 4.0100 -1.9953 0.9577
-10.1483 3.1153 -1.9953 0.9577
-10.3861 2.1958 -1.9953 0.9577
-10.5408 1.2586 -1.9953 0.9577
-10.6111 0.3114 -1.9953 0.9577
-10.5965 -0.6383 -1.9953 0.9577
-10.4970 -1.5830 -1.9953 0.9577
-10.3135 -2.5149 -1.9953 0.9577
-9.2767 -5.1609 -1.9953 0.9577
-8.7783 -5.9695 -1.9953 0.9577
-3.6644 -3.0040 -0.8906 0.9809
-2.9794 -2.9251 -0.7848 0.9831
-1.7169 -2.9568 -0.6427 0.9862
-1.3977 -2.9954 -0.6213 0.9866
-1.7757 -10.4661 -1.9953 0.9577
-0.8331 -10.5829 -1.9953 0.9577
0.1162 -10.6150 -1.9953 0.9577
1.0646 -10.5622 -1.9953 0.9577
2.0044 -10.4247 -1.9953 0.9577
3.8286 -9.9012 -1.9953 0.9577
6.3182 -8.5307 -1.9953 0.9577
7.7361 -7.2694 -1.9953 0.9577
9.3875 -4.9565 -1.9953 0.9577
9.7929 -4.0976 -1.9953 0.9577
10.1200 -3.2059 -1.9953 0.9577
10.3660 -2.2885 -1.9953 0.9577
10.0776 3.3368 -1.9953 0.9577
8.1576 5.4414 -1.8431 0.9609
7.0584 6.8070 -1.8431 0.9609
4.8290 6.7000 -1.5523 0.9669
-9.1294 -2.3998 -1.9953 0.9621
-8.8784 -3.2062 -1.9953 0.9621
-2.8412 -2.8909 -0.8568 0.9836
-1.9748 -2.9008 -0.7418 0.9858
-1.6246 -2.9166 -0.7057 0.9864
-0.8393 -3.4343 -0.7473 0.9857
-0.5725 -9.4222 -1.9953 0.9621
0.2720 -9.4356 -1.9953 0.9621
1.9477 -9.2364 -1.9953 0.9621
2.7655 -9.0254 -1.9953 0.9621
5.7528 -7.4840 -1.9953 0.9621
6.9934 -6.3401 -1.9953 0.9621
7.5321 -5.6896 -1.9953 0.9621
8.0106 -4.9936 -1.9953 0.9621
8.4248 -4.2576 -1.9953 0.9621
8.7717 -3.4875 -1.9953 0.9621
9.0483 -2.6894 -1.9953 0.9621
9.2525 -1.8699 -1.9953 0.9621
9.3826 -1.0354 -1.9953 0.9621
9.4170 0.6518 -1.9953 0.9621
9.3210 1.4909 -1.9953 0.9621
8.9066 3.1267 -1.9953 0.9621
8.1777 4.6457 -1.9881 0.9623
4.6452 6.6940 -1.7223 0.9672
4.1427 7.2835 -1.7712 0.9663
2.8925 8.2258 -1.8431 0.9650
2.1457 8.4514 -1.8431 0.9650
1.3817 8.6093 -1.8431 0.9650
-3.2173 8.1043 -1.8431 0.9650
-3.9288 7.7843 -1.8431 0.9650
-4.8036 6.3661 -1.6858 0.9679
-5.8531 6.4630 -1.8431 0.9650
-6.4074 5.9140 -1.8431 0.9650
-6.9104 5.3176 -1.8431 0.9650
-7.3581 4.6786 -1.8431 0.9650
-9.0239 2.7702 -1.9953 0.9621
-9.1709 -2.2363 -1.9953 0.9621
-8.9343 -3.0471 -1.9953 0.9621
-8.2490 -4.5892 -1.9953 0.9621
-2.9428 -2.8892 -0.8717 0.9833
-2.4546 -2.8843 -0.8006 0.9846
-2.0490 -2.8970 -0.7501 0.9856
-1.6919 -2.9138 -0.7122 0.9863
-1.3653 -2.9261 -0.6825 0.9869
-1.1070 -3.0604 -0.6879 0.9868
-0.8827 -3.3509 -0.7325 0.9859
-0.7408 -9.4104 -1.9953 0.9621
0.1034 -9.4390 -1.9953 0.9621
0.9466 -9.3920 -1.9953 0.9621
2.6038 -9.0733 -1.9953 0.9621
4.9176 -8.0574 -1.9953 0.9621
6.2737 -7.0530 -1.9953 0.9621
7.4293 -5.8233 -1.9953 0.9621
7.9200 -5.1359 -1.9953 0.9621
8.7080 -3.6436 -1.9953 0.9621
9.2176 -2.0349 -1.9953 0.9621
9.3462 1.3241 -1.9953 0.9621
9.1904 2.1542 -1.9953 0.9621
8.9611 2.9671 -1.9953 0.9621
8.6600 3.7562 -1.9953 0.9621
7.2538 4.8386 -1.8431 0.9650
-8.2110 -2.1584 -1.9953 0.9657
-7.6955 -3.5855 -1.9953 0.9657
-7.3442 -4.2594 -1.9953 0.9657
-6.9341 -4.8988 -1.9953 0.9657
-3.3420 -2.8411 -1.0309 0.9821
-2.8069 -2.8561 -0.9411 0.9837
-2.3335 -2.8434 -0.8645 0.9850
-1.9451 -2.8571 -0.8123 0.9859
-1.6013 -2.8747 -0.7734 0.9866
-1.2860 -2.8898 -0.7434 0.9871
-0.7970 -3.2613 -0.7890 0.9863
0.2446 -8.4864 -1.9953 0.9657
1.7517 -8.3072 -1.9953 0.9657
2.4873 -8.1174 -1.9953 0.9657
3.2029 -7.8626 -1.9953 0.9657
3.8929 -7.5448 -1.9953 0.9657
4.5517 -7.1667 -1.9953 0.9657
5.1741 -6.7308 -1.9953 0.9657
6.7744 -5.1172 -1.9953 0.9657
8.1380 -2.4189 -1.9953 0.9657
8.3217 -1.6818 -1.9953 0.9657
8.4387 -0.9312 -1.9953 0.9657
8.3833 1.3409 -1.9953 0.9657
8.2299 2.0849 -1.9953 0.9657
8.0106 2.8122 -1.9953 0.9657
7.7272 3.5170 -1.9953 0.9657
7.3708 4.1873 -1.9923 0.9658
6.4453 4.4677 -1.8431 0.9683
5.5468 5.5439 -1.8431 0.9683
2.6015 7.3983 -1.8431 0.9683
1.9298 7.6012 -1.8431 0.9683
1.2427 7.7432 -1.8431 0.9683
0.5456 7.8233 -1.8431 0.9683
-0.0990 4.9785 -1.1703 0.9797
-1.5495 7.6877 -1.8431 0.9683
-2.2305 7.5185 -1.8431 0.9683
-3.5335 7.0012 -1.8431 0.9683
-4.1256 6.6257 -1.8344 0.9684
-4.7237 6.2601 -1.8431 0.9683
-5.7628 5.3190 -1.8431 0.9683
-7.8610 3.2070 -1.9953 0.9657
-8.1161 2.4915 -1.9953 0.9657
-8.4301 1.0066 -1.9953 0.9657
-8.4863 0.2490 -1.9953 0.9657
-8.3950 -1.2660 -1.9953 0.9657
-8.2483 -2.0113 -1.9953 0.9657
-7.4191 -4.1275 -1.9953 0.9657
-7.0205 -4.7741 -1.9953 0.9657
-3.4771 -2.8506 -1.0567 0.9817
-2.9067 -2.8537 -0.9573 0.9834
-2.4316 -2.8573 -0.8818 0.9847
-2.0178 -2.8529 -0.8213 0.9857
-1.6674 -2.8716 -0.7804 0.9864
-1.3471 -2.8871 -0.7488 0.9870
-1.0677 -2.9517 -0.7377 0.9872
-0.8405 -3.1909 -0.7755 0.9865
-0.6115 -3.6045 -0.8593 0.9851
-0.3275 -4.1600 -0.9807 0.9830
0.0929 -8.4894 -1.9953 0.9657
0.8514 -8.4471 -1.9953 0.9657
1.6030 -8.3372 -1.9953 0.9657
4.4229 -7.2468 -1.9953 0.9657
5.6426 -6.3435 -1.9953 0.9657
6.1870 -5.8138 -1.9953 0.9657
7.1233 -4.6192 -1.9953 0.9657
7.5077 -3.9640 -1.9953 0.9657
7.8319 -3.2771 -1.9953 0.9657
8.0935 -2.5639 -1.9953 0.9657
8.2903 -1.8302 -1.9953 0.9657
8.4788 0.4348 -1.9953 0.9657
8.0596 2.6686 -1.9953 0.9657
7.7888 3.3783 -1.9953 0.9657
6.5462 4.3666 -1.8494 0.9682
5.1358 5.9267 -1.8431 0.9683
4.5854 6.3621 -1.8431 0.9683
-7.2483 -2.6175 -1.9953 0.9687
-6.2941 -4.4467 -1.9953 0.9687
-2.3121 -2.8173 -0.9436 0.9851
-1.2690 -2.8515 -0.8081 0.9872
-0.7644 -3.1276 -0.8336 0.9868
-0.2274 -3.7433 -0.9710 0.9846
0.9097 -7.6525 -1.9953 0.9687
1.5901 -7.5406 -1.9953 0.9687
2.2578 -7.3683 -1.9953 0.9687
4.6966 -6.1099 -1.9953 0.9687
5.2239 -5.6657 -1.9953 0.9687
5.7094 -5.1760 -1.9953 0.9687
6.1492 -4.6450 -1.9953 0.9687
6.8780 -3.4759 -1.9953 0.9687
7.1612 -2.8471 -1.9953 0.9687
7.3870 -2.1957 -1.9953 0.9687
7.5537 -1.5266 -1.9953 0.9687
7.4704 1.8925 -1.9953 0.9687
7.0141 3.1924 -1.9953 0.9687
6.7006 3.8066 -1.9953 0.9687
5.4646 4.5622 -1.8431 0.9710
5.0349 5.0323 -1.8431 0.9710
3.5194 6.1877 -1.8431 0.9710
2.9522 6.4775 -1.8431 0.9710
2.3614 6.7155 -1.8431 0.9710
1.7517 6.8997 -1.8431 0.9710
0.4952 7.1013 -1.8431 0.9710
-0.7771 7.0760 -1.8431 0.9710
-2.0246 6.8246 -1.8431 0.9710
-3.7627 6.0429 -1.8431 0.9710
-4.2877 5.6824 -1.8431 0.9710
-4.7785 5.2764 -1.8431 0.9710
-5.2310 4.8282 -1.8431 0.9710
-6.2966 4.0037 -1.9320 0.9696
-6.8467 3.5372 -1.9953 0.9687
-7.1355 2.9110 -1.9953 0.9687
-7.5398 1.5940 -1.9953 0.9687
-7.6925 -0.4634 -1.9953 0.9687
-7.4871 -1.8257 -1.9953 0.9687
-7.2939 -2.4876 -1.9953 0.9687
-6.3726 -4.3335 -1.9953 0.9687
-3.4256 -2.8083 -1.1469 0.9819
-2.4089 -2.8305 -0.9623 0.9848
-0.8115 -3.0807 -0.8249 0.9869
0.0421 -3.8461 -0.9959 0.9842
0.4227 -4.1941 -1.0914 0.9827
1.4551 -7.5678 -1.9953 0.9687
2.1257 -7.4074 -1.9953 0.9687
3.4107 -6.9106 -1.9953 0.9687
4.0147 -6.5780 -1.9953 0.9687
5.1218 -5.7581 -1.9953 0.9687
5.6160 -5.2772 -1.9953 0.9687
6.8148 -3.5982 -1.9953 0.9687
7.1092 -2.9747 -1.9953 0.9687
7.3466 -2.3273 -1.9953 0.9687
7.5252 -1.6613 -1.9953 0.9687
7.5030 1.7587 -1.9953 0.9687
7.3158 2.4223 -1.9953 0.9687
6.3901 4.2625 -1.9888 0.9688
5.1240 4.9415 -1.8431 0.9710
4.1623 5.7749 -1.8431 0.9710
-6.8168 -1.7919 -1.9953 0.9711
-6.3888 -2.9770 -1.9953 0.9711
-5.7566 -4.0670 -1.9953 0.9711
-2.2907 -2.7913 -1.0222 0.9851
-1.5574 -2.7959 -0.9060 0.9868
-1.2522 -2.8137 -0.8719 0.9873
-0.9670 -2.8306 -0.8468 0.9876
-0.4991 -3.2981 -0.9443 0.9862
0.1015 -3.5200 -0.9969 0.9855
2.0649 -6.7391 -1.9953 0.9711
3.2319 -6.2637 -1.9953 0.9711
3.7788 -5.9497 -1.9953 0.9711
4.7778 -5.1818 -1.9953 0.9711
5.9813 -3.7286 -1.9953 0.9711
6.5496 -2.6040 -1.9953 0.9711
6.9086 -1.3962 -1.9953 0.9711
7.0468 -0.1438 -1.9953 0.9711
7.0315 0.4867 -1.9953 0.9711
6.9598 1.1132 -1.9953 0.9711
6.8325 1.7309 -1.9953 0.9711
6.4151 2.9198 -1.9953 0.9711
6.1284 3.4815 -1.9953 0.9711
4.6049 4.6026 -1.8431 0.9733
3.2189 5.6593 -1.8431 0.9733
2.7001 5.9244 -1.8431 0.9733
1.6021 6.3105 -1.8431 0.9733
1.0316 6.4284 -1.8431 0.9733
0.4529 6.4949 -1.8431 0.9733
-1.2864 6.3823 -1.8431 0.9733
-2.4023 6.0513 -1.8431 0.9733
-2.9335 5.8124 -1.8431 0.9733
-3.9216 5.1972 -1.8431 0.9733
-4.3704 4.8258 -1.8431 0.9733
-4.7843 4.4158 -1.8431 0.9733
-5.2157 4.0135 -1.8631 0.9730
-5.9359 3.7743 -1.9913 0.9712
-6.5261 2.6624 -1.9953 0.9711
-6.7380 2.0684 -1.9953 0.9711
-6.9986 0.8357 -1.9953 0.9711
-7.0356 -0.4238 -1.9953 0.9711
-6.6710 -2.2752 -1.9953 0.9711
-6.4410 -2.8624 -1.9953 0.9711
-6.1593 -3.4266 -1.9953 0.9711
-3.3749 -2.7668 -1.2354 0.9820
-2.3862 -2.8039 -1.0423 0.9848
-1.9572 -2.7673 -0.9595 0.9860
-1.0217 -2.8246 -0.8503 0.9876
-0.7849 -2.9796 -0.8723 0.9873
0.0383 -3.5007 -0.9911 0.9856
0.3674 -3.6448 -1.0370 0.9849
2.5420 -6.5740 -1.9953 0.9711
3.6719 -6.0163 -1.9953 0.9711
4.1950 -5.6640 -1.9953 0.9711
5.1364 -4.8266 -1.9953 0.9711
5.9137 -3.8349 -1.9953 0.9711
6.2329 -3.2909 -1.9953 0.9711
7.0391 0.3610 -1.9953 0.9711
6.6911 2.2155 -1.9953 0.9711
5.8602 3.9090 -1.9942 0.9711
5.3259 4.2872 -1.9355 0.9720
4.2637 4.9203 -1.8431 0.9733
-5.2984 -3.7432 -1.9953 0.9732
-2.2696 -2.7655 -1.1004 0.9851
-1.8600 -2.7321 -1.0166 0.9863
-1.5362 -2.7580 -0.9710 0.9869
-1.2356 -2.7765 -0.9347 0.9874
-0.9559 -2.7982 -0.9095 0.9877
-0.4696 -3.1030 -0.9653 0.9870
0.4036 -3.3950 -1.0516 0.9858
0.7950 -3.7700 -1.1851 0.9840
3.4780 -5.4761 -1.9953 0.9732
3.9535 -5.1433 -1.9953 0.9732
4.3975 -4.7693 -1.9953 0.9732
5.1764 -3.9101 -1.9953 0.9732
5.5052 -3.4318 -1.9953 0.9732
6.0282 -2.3967 -1.9953 0.9732
6.3587 -1.2851 -1.9953 0.9732
6.4481 -0.7116 -1.9953 0.9732
6.4859 -0.1323 -1.9953 0.9732
6.4717 0.4479 -1.9953 0.9732
6.4058 1.0246 -1.9953 0.9732
6.2886 1.5931 -1.9953 0.9732
5.9044 2.6873 -1.9953 0.9732
5.6406 3.2043 -1.9953 0.9732
2.4852 5.4528 -1.8431 0.9752
1.9878 5.6531 -1.8431 0.9752
1.4746 5.8081 -1.8431 0.9752
-0.0949 4.7719 -1.4680 0.9802
-0.6542 5.9566 -1.8431 0.9752
-2.2110 5.5696 -1.8431 0.9752
-3.1674 5.0869 -1.8431 0.9752
-4.4034 4.0643 -1.8431 0.9752
-5.4743 3.4808 -1.9953 0.9732
-6.0066 2.4505 -1.9953 0.9732
-6.3470 1.3418 -1.9953 0.9732
-6.4415 0.7691 -1.9953 0.9732
-6.4147 -0.9673 -1.9953 0.9732
-6.1400 -2.0941 -1.9953 0.9732
-5.3644 -3.6479 -1.9953 0.9732
-3.3771 -2.7686 -1.3432 0.9819
-2.8142 -2.7629 -1.2130 0.9836
-2.3637 -2.7775 -1.1218 0.9849
-1.9281 -2.7261 -1.0270 0.9861
-1.5988 -2.7533 -0.9793 0.9868
-0.7608 -2.8883 -0.9187 0.9876
-0.5235 -3.0856 -0.9626 0.9870
-0.2489 -3.1614 -0.9754 0.9868
0.0355 -3.2448 -0.9981 0.9865
0.3358 -3.3318 -1.0300 0.9861
0.7086 -3.6853 -1.1543 0.9844
1.7894 -6.2355 -1.9953 0.9732
2.3396 -6.0506 -1.9953 0.9732
2.8711 -5.8173 -1.9953 0.9732
3.3796 -5.5374 -1.9953 0.9732
3.8610 -5.2131 -1.9953 0.9732
4.3115 -4.8471 -1.9953 0.9732
5.7367 -3.0290 -1.9953 0.9732
5.9845 -2.5041 -1.9953 0.9732
6.3347 -1.3985 -1.9953 0.9732
6.4343 -0.8267 -1.9953 0.9732
6.4825 -0.2482 -1.9953 0.9732
6.4231 0.9100 -1.9953 0.9732
6.1584 2.0391 -1.9953 0.9732
5.9515 2.5814 -1.9953 0.9732
5.6969 3.1030 -1.9953 0.9732
5.0431 4.0596 -1.9913 0.9733
4.4284 4.2707 -1.8923 0.9746
3.5038 4.8613 -1.8431 0.9752
-5.8055 -1.5260 -1.9953 0.9750
-5.1926 -3.0116 -1.9953 0.9750
-2.7249 -2.7726 -1.2922 0.9837
-1.8546 -2.7242 -1.0955 0.9862
-1.5154 -2.7207 -1.0352 0.9870
-0.6915 -2.8293 -0.9681 0.9878
0.7206 -3.4173 -1.1609 0.9854
2.2646 -5.5591 -1.9953 0.9750
2.7524 -5.3345 -1.9953 0.9750
3.2182 -5.0671 -1.9953 0.9750
3.6583 -4.7592 -1.9953 0.9750
4.0690 -4.4131 -1.9953 0.9750
4.4472 -4.0317 -1.9953 0.9750
4.7898 -3.6181 -1.9953 0.9750
5.7539 -1.7102 -1.9953 0.9750
5.8837 -1.1891 -1.9953 0.9750
5.9665 -0.6584 -1.9953 0.9750
6.0014 -0.1225 -1.9953 0.9750
5.9884 0.4145 -1.9953 0.9750
5.4634 2.4866 -1.9953 0.9750
4.9334 3.4197 -1.9953 0.9750
2.7414 4.8197 -1.8431 0.9769
2.2996 5.0455 -1.8431 0.9769
1.8394 5.2308 -1.8431 0.9769
1.3644 5.3743 -1.8431 0.9769
0.8786 5.4748 -1.8431 0.9769
0.3857 5.5314 -1.8431 0.9769
-0.6053 5.5117 -1.8431 0.9769
-1.0956 5.4355 -1.8431 0.9769
-1.5770 5.3158 -1.8431 0.9769
-4.3526 4.0174 -1.9689 0.9753
-4.7530 3.6575 -1.9936 0.9750
-5.0654 3.2208 -1.9953 0.9750
-5.3331 2.7552 -1.9953 0.9750
-5.7384 1.7616 -1.9953 0.9750
-5.8729 1.2416 -1.9953 0.9750
-5.9604 0.7117 -1.9953 0.9750
-6.0001 0.1761 -1.9953 0.9750
-5.4854 -2.4377 -1.9953 0.9750
-2.7968 -2.7459 -1.3028 0.9836
-2.3414 -2.7512 -1.2009 0.9849
-1.9298 -2.7286 -1.1109 0.9860
-0.9984 -2.7603 -0.9757 0.9877
-0.2348 -2.9823 -0.9944 0.9875
0.0333 -3.0445 -1.0121 0.9872
0.3141 -3.1166 -1.0412 0.9869
2.1649 -5.5987 -1.9953 0.9750
2.6567 -5.3828 -1.9953 0.9750
3.1272 -5.1238 -1.9953 0.9750
3.5726 -4.8238 -1.9953 0.9750
3.9895 -4.4851 -1.9953 0.9750
4.3744 -4.1106 -1.9953 0.9750
4.7243 -3.7031 -1.9953 0.9750
5.0364 -3.2660 -1.9953 0.9750
5.3082 -2.8027 -1.9953 0.9750
5.5375 -2.3170 -1.9953 0.9750
5.8615 -1.2940 -1.9953 0.9750
5.9537 -0.7649 -1.9953 0.9750
5.9983 -0.2297 -1.9953 0.9750
5.9948 0.3074 -1.9953 0.9750
5.9433 0.8420 -1.9953 0.9750
5.6984 1.8868 -1.9953 0.9750
5.5070 2.3886 -1.9953 0.9750
5.2714 2.8713 -1.9953 0.9750
3.6867 4.2544 -1.8713 0.9765
3.2421 4.4982 -1.8431 0.9769
-5.2480 -1.8952 -1.9953 0.9766
-5.0576 -2.3567 -1.9953 0.9766
-3.1789 -2.7025 -1.4921 0.9824
-2.2367 -2.7255 -1.2608 0.9851
-1.8572 -2.7280 -1.1802 0.9861
-1.2047 -2.7072 -1.0596 0.9875
-0.9341 -2.7342 -1.0332 0.9878
-0.4168 -2.7540 -0.9961 0.9882
0.0832 -2.8863 -1.0326 0.9878
0.3543 -2.9807 -1.0734 0.9873
1.6347 -5.3348 -1.9953 0.9766
2.1050 -5.1674 -1.9953 0.9766
3.7823 -4.1021 -1.9953 0.9766
4.1338 -3.7476 -1.9953 0.9766
4.4522 -3.3631 -1.9953 0.9766
4.7350 -2.9517 -1.9953 0.9766
4.9799 -2.5166 -1.9953 0.9766
5.3484 -1.5897 -1.9953 0.9766
5.5663 0.3853 -1.9953 0.9766
5.5096 0.8813 -1.9953 0.9766
5.4088 1.3702 -1.9953 0.9766
4.2832 3.5758 -1.9953 0.9766
2.5482 4.4801 -1.8431 0.9783
2.1375 4.6899 -1.8431 0.9783
1.7097 4.8622 -1.8431 0.9783
1.2683 4.9956 -1.8431 0.9783
0.8167 5.0889 -1.8431 0.9783
0.3585 5.1416 -1.8431 0.9783
-0.0944 4.7462 -1.6976 0.9800
-4.0930 3.7778 -1.9918 0.9766
-5.1663 2.1077 -1.9953 0.9766
-5.3340 1.6374 -1.9953 0.9766
-5.4590 1.1541 -1.9953 0.9766
-5.5696 -0.3355 -1.9953 0.9766
-5.5173 -0.8320 -1.9953 0.9766
-5.4208 -1.3219 -1.9953 0.9766
-5.2810 -1.8011 -1.9953 0.9766
-5.0989 -2.2659 -1.9953 0.9766
-2.3191 -2.7250 -1.2796 0.9849
-1.9313 -2.7306 -1.1960 0.9859
-1.5712 -2.7058 -1.1189 0.9868
-1.2605 -2.7014 -1.0660 0.9874
-0.2224 -2.8256 -1.0136 0.9880
1.5391 -5.3632 -1.9953 0.9766
2.0123 -5.2042 -1.9953 0.9766
2.4694 -5.0035 -1.9953 0.9766
2.9068 -4.7627 -1.9953 0.9766
3.7084 -4.1690 -1.9953 0.9766
4.3914 -3.4421 -1.9953 0.9766
4.6815 -3.0358 -1.9953 0.9766
5.3192 -1.6850 -1.9953 0.9766
5.4485 -1.2028 -1.9953 0.9766
5.5756 -0.2135 -1.9953 0.9766
5.4324 1.2734 -1.9953 0.9766
4.6418 3.0962 -1.9953 0.9766
4.3464 3.4987 -1.9953 0.9766
3.6410 4.2017 -1.9882 0.9767
3.0544 4.2378 -1.8681 0.9781
-4.7196 -2.1992 -1.9953 0.9779
-4.5041 -2.6122 -1.9953 0.9779
-1.1921 -2.6787 -1.1236 0.9875
-0.9233 -2.7025 -1.0944 0.9878
-0.6721 -2.7499 -1.0848 0.9879
-0.1663 -2.7373 -1.0509 0.9883
0.3343 -2.8121 -1.0852 0.9879
1.5254 -4.9783 -1.9953 0.9779
1.9643 -4.8220 -1.9953 0.9779
2.3875 -4.6272 -1.9953 0.9779
3.8575 -3.4971 -1.9953 0.9779
4.4186 -2.7544 -1.9953 0.9779
4.9910 -1.4835 -1.9953 0.9779
5.1753 -0.5711 -1.9953 0.9779
5.2057 -0.1062 -1.9953 0.9779
5.1414 0.8224 -1.9953 0.9779
4.7390 2.1569 -1.9953 0.9779
4.5272 2.5719 -1.9953 0.9779
2.9257 4.2160 -1.9666 0.9783
2.4010 4.2213 -1.8610 0.9794
1.5955 4.5373 -1.8431 0.9796
1.1835 4.6617 -1.8431 0.9796
0.3346 4.7980 -1.8431 0.9796
-0.9503 4.7148 -1.8431 0.9796
-2.1671 4.2937 -1.8431 0.9796
-2.5479 4.0919 -1.8472 0.9796
-3.4873 3.8507 -1.9909 0.9780
-3.8261 3.5315 -1.9953 0.9779
-4.3938 2.7938 -1.9953 0.9779
-4.6259 2.3899 -1.9953 0.9779
-4.8210 1.9668 -1.9953 0.9779
-5.0942 1.0770 -1.9953 0.9779
-2.3010 0.2747 -0.8881 0.9901
-2.3028 -0.1387 -0.8841 0.9902
-4.9281 -1.6807 -1.9953 0.9779
-3.3009 -2.7061 -1.6357 0.9819
-2.7736 -2.7231 -1.4895 0.9835
-1.9327 -2.7326 -1.2826 0.9858
-1.5740 -2.7107 -1.2012 0.9867
-0.7214 -2.7386 -1.0853 0.9879
-0.4649 -2.7404 -1.0652 0.9882
1.4362 -5.0048 -1.9953 0.9779
2.7125 -4.4444 -1.9953 0.9779
3.0989 -4.1842 -1.9953 0.9779
3.7944 -3.5655 -1.9953 0.9779
4.0979 -3.2121 -1.9953 0.9779
4.3686 -2.8329 -1.9953 0.9779
4.6044 -2.4311 -1.9953 0.9779
5.1643 -0.6635 -1.9953 0.9779
5.1553 0.7304 -1.9953 0.9779
4.5725 2.4906 -1.9953 0.9779
-4.7151 -1.2394 -1.9953 0.9791
-4.5854 -1.6559 -1.9953 0.9791
-4.2173 -2.4459 -1.9953 0.9791
-3.9818 -2.8131 -1.9953 0.9791
-2.6749 -2.7218 -1.5619 0.9836
-1.1941 -2.6833 -1.2021 0.9874
-0.9125 -2.6711 -1.1553 0.9879
-0.4116 -2.7198 -1.1258 0.9882
0.0779 -2.7045 -1.1073 0.9884
0.3253 -2.7365 -1.1279 0.9882
0.6063 -2.8752 -1.2026 0.9874
2.2355 -4.3326 -1.9953 0.9791
2.6138 -4.1154 -1.9953 0.9791
3.3048 -3.5842 -1.9953 0.9791
3.6119 -3.2745 -1.9953 0.9791
4.1372 -2.5791 -1.9953 0.9791
4.6732 -1.3890 -1.9953 0.9791
4.8459 -0.5348 -1.9953 0.9791
4.8636 0.3366 -1.9953 0.9791
4.8141 0.7700 -1.9953 0.9791
4.7260 1.1972 -1.9953 0.9791
3.7425 3.1244 -1.9953 0.9791
3.4482 3.4464 -1.9953 0.9791
1.4939 4.2484 -1.8431 0.9807
1.1082 4.3649 -1.8431 0.9807
-0.0895 4.5025 -1.8431 0.9807
-0.4916 4.4765 -1.8431 0.9807
-0.8898 4.4146 -1.8431 0.9807
-1.2808 4.3174 -1.8431 0.9807
-1.6616 4.1856 -1.8431 0.9807
-2.0675 4.0965 -1.8780 0.9804
-3.5825 3.3066 -1.9953 0.9791
-4.1141 2.6159 -1.9953 0.9791
-4.6606 1.4307 -1.9953 0.9791
-2.0826 0.4403 -0.8712 0.9908
-2.0197 0.2412 -0.8325 0.9912
-1.9974 0.0586 -0.8179 0.9914
-2.1012 -0.5124 -0.8852 0.9907
-4.6143 -1.5737 -1.9953 0.9791
-4.2604 -2.3702 -1.9953 0.9791
-4.0315 -2.7415 -1.9953 0.9791
-2.7461 -2.6961 -1.5750 0.9835
-1.5769 -2.7157 -1.2853 0.9865
-0.7148 -2.7135 -1.1484 0.9879
-0.4625 -2.7260 -1.1316 0.9881
-0.2138 -2.7158 -1.1149 0.9883
0.0296 -2.7056 -1.1074 0.9884
0.5403 -2.8099 -1.1711 0.9877
3.8370 -3.0076 -1.9953 0.9791
4.4974 -1.8818 -1.9953 0.9791
4.6476 -1.4723 -1.9953 0.9791
4.8355 -0.6212 -1.9953 0.9791
4.8689 0.2497 -1.9953 0.9791
4.8271 0.6839 -1.9953 0.9791
4.4727 1.9400 -1.9953 0.9791
3.7977 3.0571 -1.9953 0.9791
3.1927 3.6844 -1.9953 0.9791
-1.4872 -0.5371 -0.6891 0.9931
-4.1500 -1.9338 -1.9953 0.9802
-3.7393 -2.6418 -1.9953 0.9802
-3.1789 -2.7025 -1.8184 0.9820
-2.2420 -2.7319 -1.5402 0.9847
-1.8614 -2.7341 -1.4415 0.9857
-1.1962 -2.6880 -1.2823 0.9872
-0.9096 -2.6625 -1.2262 0.9878
-0.6597 -2.6995 -1.2111 0.9879
0.0772 -2.6777 -1.1675 0.9884
1.7272 -4.2401 -1.9953 0.9802
2.4546 -3.8648 -1.9953 0.9802
2.7902 -3.6299 -1.9953 0.9802
3.1035 -3.3660 -1.9953 0.9802
3.3920 -3.0751 -1.9953 0.9802
4.4876 -0.9069 -1.9953 0.9802
4.5507 -0.5022 -1.9953 0.9802
4.4382 1.1243 -1.9953 0.9802
4.1671 1.8966 -1.9953 0.9802
3.7628 2.6083 -1.9953 0.9802
2.2592 3.9720 -1.9915 0.9803
1.8920 4.1513 -1.9883 0.9803
1.4708 4.1828 -1.9323 0.9808
0.6710 4.1813 -1.8456 0.9817
0.2942 4.2189 -1.8431 0.9817
-0.0841 4.2283 -1.8431 0.9817
-1.2224 4.1204 -1.8731 0.9814
-1.6277 4.1002 -1.9226 0.9809
-2.0551 4.0718 -1.9878 0.9803
-2.4146 3.8779 -1.9909 0.9803
-3.0733 3.3935 -1.9953 0.9802
-3.3644 3.1053 -1.9953 0.9802
-3.6284 2.7921 -1.9953 0.9802
-4.0676 2.1014 -1.9953 0.9802
-1.4784 0.3125 -0.6585 0.9934
-1.4723 0.1758 -0.6462 0.9936
-1.4416 0.0423 -0.6285 0.9937
-1.4913 -0.5086 -0.6867 0.9931
-4.0009 -2.2258 -1.9953 0.9802
-2.3234 -2.7301 -1.5624 0.9845
-1.2569 -2.6937 -1.2955 0.9871
-0.9645 -2.6666 -1.2358 0.9877
-0.7082 -2.6884 -1.2116 0.9879
0.5363 -2.7893 -1.2379 0.9877
3.8414 -2.4910 -1.9953 0.9802
4.0487 -2.1377 -1.9953 0.9802
4.2235 -1.7672 -1.9953 0.9802
4.5410 -0.5834 -1.9953 0.9802
4.5750 -0.1752 -1.9953 0.9802
4.5331 0.6422 -1.9953 0.9802
4.4575 1.0448 -1.9953 0.9802
4.3463 1.4391 -1.9953 0.9802
4.0206 2.1900 -1.9953 0.9802
-1.2706 -0.3340 -0.6081 0.9942
-1.8628 -2.7363 -1.5322 0.9855
-0.6536 -2.6742 -1.2743 0.9879
-0.4073 -2.6912 -1.2599 0.9881
0.0766 -2.6577 -1.2307 0.9883
0.3205 -2.6965 -1.2570 0.9881
0.6003 -2.8467 -1.3467 0.9873
1.2629 -4.1215 -1.9953 0.9812
1.6262 -3.9921 -1.9953 0.9812
1.9766 -3.8308 -1.9953 0.9812
2.3111 -3.6388 -1.9953 0.9812
2.6271 -3.4176 -1.9953 0.9812
2.9220 -3.1691 -1.9953 0.9812
3.1936 -2.8953 -1.9953 0.9812
3.4396 -2.5982 -1.9953 0.9812
3.6581 -2.2804 -1.9953 0.9812
3.8473 -1.9442 -1.9953 0.9812
4.0056 -1.5926 -1.9953 0.9812
4.1320 -1.2282 -1.9953 0.9812
4.3097 -0.0879 -1.9953 0.9812
4.3003 0.2976 -1.9953 0.9812
4.2565 0.6808 -1.9953 0.9812
4.0673 1.4278 -1.9953 0.9812
3.9234 1.7857 -1.9953 0.9812
3.5427 2.4557 -1.9953 0.9812
3.3090 2.7626 -1.9953 0.9812
3.0489 3.0473 -1.9953 0.9812
2.7643 3.3076 -1.9953 0.9812
2.4576 3.5415 -1.9953 0.9812
1.4259 4.0550 -1.9897 0.9812
0.6672 4.1578 -1.9492 0.9816
0.2895 4.1517 -1.9264 0.9818
-0.4538 4.1319 -1.9241 0.9818
-0.8300 4.1179 -1.9444 0.9817
-1.5857 3.9944 -1.9893 0.9812
-2.5964 3.4410 -1.9953 0.9812
-3.1676 2.9237 -1.9953 0.9812
-3.4163 2.6288 -1.9953 0.9812
-3.8298 1.9785 -1.9953 0.9812
-1.2694 0.3897 -0.6146 0.9942
-1.2751 0.1523 -0.5944 0.9944
-1.2647 0.0371 -0.5857 0.9944
-1.2698 -0.0765 -0.5888 0.9944
-1.2746 -0.1922 -0.5967 0.9943
-3.7669 -2.0957 -1.9953 0.9812
-3.5645 -2.4240 -1.9953 0.9812
-2.7668 -2.7164 -1.7948 0.9831
-1.9372 -2.7390 -1.5529 0.9853
-1.5829 -2.7260 -1.4591 0.9862
-1.2592 -2.6986 -1.3784 0.9870
-0.9665 -2.6721 -1.3153 0.9876
-0.7016 -2.6632 -1.2748 0.9879
-0.4575 -2.6967 -1.2661 0.9880
0.0291 -2.6535 -1.2284 0.9884
0.5323 -2.7686 -1.3050 0.9877
1.1890 -4.1434 -1.9953 0.9812
2.5656 -3.4640 -1.9953 0.9812
2.8649 -3.2208 -1.9953 0.9812
3.6167 -2.3454 -1.9953 0.9812
3.9766 -1.6639 -1.9953 0.9812
4.2755 -0.5493 -1.9953 0.9812
4.3075 -0.1649 -1.9953 0.9812
4.2680 0.6047 -1.9953 0.9812
4.1969 0.9837 -1.9953 0.9812
4.0921 1.3549 -1.9953 0.9812
3.5860 2.3920 -1.9953 0.9812
2.8229 3.2577 -1.9953 0.9812
2.5204 3.4970 -1.9953 0.9812
-1.1329 -0.2978 -0.5746 0.9948
-1.1222 -0.4053 -0.5853 0.9947
-1.0938 -0.5097 -0.5919 0.9946
-3.3223 -2.3471 -1.9953 0.9820
-3.0992 -2.6347 -1.9953 0.9820
-2.8513 -2.9012 -1.9953 0.9820
-1.2006 -2.6978 -1.4485 0.9869
-0.9144 -2.6767 -1.3875 0.9875
-0.4051 -2.6766 -1.3279 0.9880
0.0770 -2.6722 -1.3113 0.9882
1.1917 -3.8893 -1.9953 0.9820
1.8652 -3.6149 -1.9953 0.9820
2.7574 -2.9906 -1.9953 0.9820
3.2458 -2.4518 -1.9953 0.9820
3.7800 -1.5028 -1.9953 0.9820
3.9871 -0.8058 -1.9953 0.9820
3.9432 0.9989 -1.9953 0.9820
3.7023 1.6851 -1.9953 0.9820
3.1226 2.6069 -1.9953 0.9820
2.8771 2.8756 -1.9953 0.9820
2.3191 3.3419 -1.9953 0.9820
2.0111 3.5358 -1.9953 0.9820
1.6870 3.7014 -1.9953 0.9820
1.3481 3.8337 -1.9934 0.9821
0.9991 3.9351 -1.9915 0.9821
0.6429 4.0059 -1.9902 0.9821
0.2821 4.0457 -1.9893 0.9821
-0.4427 4.0311 -1.9892 0.9821
-2.1501 3.4531 -1.9953 0.9820
-2.4501 3.2471 -1.9953 0.9820
-2.7306 3.0151 -1.9953 0.9820
-3.2238 2.4807 -1.9953 0.9820
-1.0923 0.5643 -0.6031 0.9945
-1.1115 0.4534 -0.5888 0.9947
-1.1443 0.1366 -0.5653 0.9949
-1.1424 -0.0688 -0.5614 0.9949
-1.1434 -0.1724 -0.5672 0.9949
-1.1329 -0.2763 -0.5720 0.9948
-1.1258 -0.3840 -0.5834 0.9947
-3.3637 -2.2874 -1.9953 0.9820
-3.1458 -2.5789 -1.9953 0.9820
-2.9027 -2.8498 -1.9953 0.9820
-2.3424 -2.7524 -1.7729 0.9840
-0.9692 -2.6794 -1.3976 0.9874
0.0289 -2.6382 -1.2942 0.9883
0.2690 -2.6686 -1.3156 0.9881
0.5288 -2.7502 -1.3738 0.9876
1.4671 -3.7940 -1.9953 0.9820
2.1191 -3.4722 -1.9953 0.9820
2.7035 -3.0394 -1.9953 0.9820
2.9644 -2.7855 -1.9953 0.9820
3.2015 -2.5094 -1.9953 0.9820
3.4130 -2.2132 -1.9953 0.9820
3.7525 -1.5701 -1.9953 0.9820
3.8778 -1.2284 -1.9953 0.9820
4.0346 -0.5183 -1.9953 0.9820
3.9604 0.9283 -1.9953 0.9820
3.8616 1.2786 -1.9953 0.9820
3.5722 1.9457 -1.9953 0.9820
3.3840 2.2573 -1.9953 0.9820
3.1687 2.5507 -1.9953 0.9820
2.6639 3.0741 -1.9953 0.9820
-0.9555 -0.5542 -0.5730 0.9950
-2.6960 -2.7432 -1.9953 0.9828
-1.8658 -2.7407 -1.7200 0.9852
-1.5195 -2.7279 -1.6199 0.9860
-0.9169 -2.6840 -1.4714 0.9873
-0.6513 -2.6651 -1.4233 0.9877
-0.1596 -2.6266 -1.3652 0.9882
0.0755 -2.6196 -1.3596 0.9883
0.3181 -2.6758 -1.3979 0.9879
1.1268 -3.6774 -1.9953 0.9828
1.4510 -3.5620 -1.9953 0.9828
2.0621 -3.2467 -1.9953 0.9828
2.3440 -3.0494 -1.9953 0.9828
2.6072 -2.8277 -1.9953 0.9828
2.8495 -2.5833 -1.9953 0.9828
3.2639 -2.0347 -1.9953 0.9828
3.6868 -1.0958 -1.9953 0.9828
3.8230 -0.4219 -1.9953 0.9828
3.8454 -0.0785 -1.9953 0.9828
3.7979 0.6075 -1.9953 0.9828
3.6291 1.2740 -1.9953 0.9828
3.5007 1.5933 -1.9953 0.9828
3.3442 1.8998 -1.9953 0.9828
3.1610 2.1911 -1.9953 0.9828
2.9525 2.4649 -1.9953 0.9828
2.7204 2.7190 -1.9953 0.9828
2.4665 2.9512 -1.9953 0.9828
2.1928 3.1599 -1.9953 0.9828
1.9016 3.3432 -1.9953 0.9828
1.5951 3.4998 -1.9953 0.9828
1.2759 3.6284 -1.9953 0.9828
-0.0764 3.8402 -1.9926 0.9828
-0.4194 3.8184 -1.9928 0.9828
-0.7593 3.7670 -1.9936 0.9828
-1.4191 3.5748 -1.9953 0.9828
-1.7330 3.4337 -1.9953 0.9828
-3.0482 2.3456 -1.9953 0.9828
-0.9727 0.6185 -0.5980 0.9948
-0.9640 0.4980 -0.5629 0.9951
-0.9980 0.4072 -0.5592 0.9952
-1.0373 0.1238 -0.5419 0.9953
-1.0365 -0.0624 -0.5387 0.9953
-1.0353 -0.1561 -0.5431 0.9953
-1.0213 -0.2490 -0.5454 0.9953
-1.0119 -0.3451 -0.5547 0.9952
-0.9880 -0.4391 -0.5609 0.9951
-0.9493 -0.5281 -0.5635 0.9951
-2.9744 -2.4385 -1.9953 0.9828
-2.4927 -2.9291 -1.9953 0.9828
-1.2639 -2.7087 -1.5507 0.9866
0.0287 -2.6210 -1.3598 0.9883
0.5272 -2.7421 -1.4486 0.9875
1.0609 -3.6970 -1.9953 0.9828
1.3871 -3.5874 -1.9953 0.9828
1.7022 -3.4490 -1.9953 0.9828
2.0037 -3.2830 -1.9953 0.9828
2.2892 -3.0908 -1.9953 0.9828
2.5563 -2.8738 -1.9953 0.9828
2.8029 -2.6338 -1.9953 0.9828
3.0271 -2.3727 -1.9953 0.9828
3.5481 -1.4846 -1.9953 0.9828
3.8082 0.5395 -1.9953 0.9828
3.5286 1.5305 -1.9953 0.9828
3.1997 2.1343 -1.9953 0.9828
-0.9136 -0.3299 -0.5320 0.9956
-2.5536 -2.5983 -1.9953 0.9835
-2.3112 -2.8162 -1.9953 0.9835
-1.2052 -2.7081 -1.6235 0.9866
0.5912 -2.8036 -1.5693 0.9870
1.0673 -3.4832 -1.9953 0.9835
1.9532 -3.0753 -1.9953 0.9835
2.4695 -2.6783 -1.9953 0.9835
2.6990 -2.4469 -1.9953 0.9835
2.9069 -2.1958 -1.9953 0.9835
3.0916 -1.9272 -1.9953 0.9835
3.2515 -1.6432 -1.9953 0.9835
3.3853 -1.3460 -1.9953 0.9835
1.8801 -0.5588 -1.0743 0.9911
1.8855 -0.3810 -1.0536 0.9913
1.8868 0.1306 -1.0359 0.9914
1.8872 0.3019 -1.0468 0.9913
3.3158 1.5091 -1.9953 0.9835
3.1676 1.7995 -1.9953 0.9835
2.7966 2.3347 -1.9953 0.9835
2.5767 2.5754 -1.9953 0.9835
2.3362 2.7954 -1.9953 0.9835
2.0770 2.9930 -1.9953 0.9835
1.8011 3.1667 -1.9953 0.9835
1.5109 3.3150 -1.9953 0.9835
0.8965 3.5310 -1.9953 0.9835
0.5773 3.5971 -1.9953 0.9835
-0.0724 3.6424 -1.9953 0.9835
-0.7198 3.5713 -1.9953 0.9835
-1.0362 3.4926 -1.9953 0.9835
-1.3442 3.3860 -1.9953 0.9835
-1.9256 3.0926 -1.9953 0.9835
-2.1943 2.9081 -1.9953 0.9835
-2.4455 2.7003 -1.9953 0.9835
-2.6771 2.4709 -1.9953 0.9835
-0.8851 0.4572 -0.5456 0.9955
-0.9065 0.3698 -0.5362 0.9955
-0.9217 0.2829 -0.5281 0.9956
-0.9368 0.1981 -0.5244 0.9956
-0.9468 0.1130 -0.5223 0.9957
-0.9443 0.0277 -0.5174 0.9957
-0.9466 -0.0570 -0.5194 0.9957
-0.9170 -0.3127 -0.5307 0.9956
-0.8753 -0.5953 -0.5798 0.9952
-2.8174 -2.3097 -1.9953 0.9835
-2.5996 -2.5523 -1.9953 0.9835
-2.3611 -2.7744 -1.9953 0.9835
-1.2664 -2.7140 -1.6403 0.9864
0.2731 -2.7097 -1.4916 0.9877
1.0049 -3.5017 -1.9953 0.9835
2.1683 -2.9276 -1.9953 0.9835
2.8672 -2.2474 -1.9953 0.9835
3.3607 -1.4062 -1.9953 0.9835
1.8751 -0.5940 -1.0773 0.9911
1.8888 -0.2427 -1.0430 0.9914
1.8843 0.0966 -1.0334 0.9914
1.8709 0.6195 -1.0794 0.9911
3.1993 1.7426 -1.9953 0.9835
3.0307 2.0216 -1.9953 0.9835
2.6223 2.5289 -1.9953 0.9835
2.3858 2.7532 -1.9953 0.9835
2.1301 2.9554 -1.9953 0.9835
-0.8695 -0.2285 -0.5190 0.9959
-0.8591 -0.3103 -0.5274 0.9958
-0.8163 -0.4734 -0.5448 0.9957
-2.6331 -2.2385 -1.9953 0.9842
-1.9449 -2.8568 -1.9953 0.9842
-0.9222 -2.6993 -1.6469 0.9869
-0.3986 -2.6338 -1.5379 0.9878
-0.1596 -2.6266 -1.5193 0.9879
0.0755 -2.6196 -1.5130 0.9880
0.5941 -2.8174 -1.6624 0.9868
1.0125 -3.3044 -1.9953 0.9842
1.3038 -3.2006 -1.9953 0.9842
2.3427 -2.5408 -1.9953 0.9842
2.5604 -2.3212 -1.9953 0.9842
2.9328 -1.8283 -1.9953 0.9842
3.0845 -1.5588 -1.9953 0.9842
1.7417 -0.1922 -1.0117 0.9919
1.7385 0.1203 -1.0061 0.9920
1.7311 0.4385 -1.0310 0.9918
1.7079 0.5996 -1.0451 0.9917
2.8404 1.9689 -1.9953 0.9842
2.6530 2.2149 -1.9953 0.9842
2.4444 2.4431 -1.9953 0.9842
1.4333 3.1448 -1.9953 0.9842
1.1465 3.2603 -1.9953 0.9842
0.8504 3.3497 -1.9953 0.9842
-0.0687 3.4553 -1.9953 0.9842
-0.3773 3.4354 -1.9953 0.9842
-0.6829 3.3879 -1.9953 0.9842
-0.9829 3.3133 -1.9953 0.9842
-1.5572 3.0853 -1.9953 0.9842
-1.8267 2.9338 -1.9953 0.9842
-2.0817 2.7587 -1.9953 0.9842
-2.3199 2.5616 -1.9953 0.9842
-0.8060 0.6202 -0.5872 0.9953
-0.8314 0.4295 -0.5403 0.9957
-0.8524 0.3477 -0.5315 0.9958
-0.8648 0.2655 -0.5223 0.9958
-0.8760 0.1852 -0.5169 0.9959
-0.8808 -0.1328 -0.5143 0.9959
-0.8221 -0.4574 -0.5432 0.9957
-2.6727 -2.1911 -1.9953 0.9842
-2.4661 -2.4212 -1.9953 0.9842
-2.2399 -2.6319 -1.9953 0.9842
-1.9956 -2.8216 -1.9953 0.9842
-1.7354 -2.9887 -1.9953 0.9842
-0.9775 -2.7024 -1.6592 0.9868
-0.2069 -2.6281 -1.5220 0.9879
0.2635 -2.6140 -1.5168 0.9879
1.2464 -3.2234 -1.9953 0.9842
1.8004 -2.9500 -1.9953 0.9842
2.5185 -2.3666 -1.9953 0.9842
1.8285 -0.7651 -1.1444 0.9909
1.7187 -0.5445 -1.0409 0.9917
1.7418 -0.2238 -1.0139 0.9919
1.7364 0.0890 -1.0038 0.9920
1.7324 0.4061 -1.0273 0.9918
2.8751 1.9178 -1.9953 0.9842
2.6921 2.1671 -1.9953 0.9842
2.2633 2.6118 -1.9953 0.9842
2.0207 2.8037 -1.9953 0.9842
