ply
format ascii 1.0
element vertex 1328
property float32 x
property float32 y
property float32 z
property float32 I
end_header
5.8458 11.7731 2.3177 0.9480
4.7181 12.1023 2.2904 0.9486
2.3567 12.0314 2.1618 0.9514
0.1810 11.9660 2.1102 0.9526
3.5033 12.0658 1.9248 0.9504
0.1810 11.9660 1.8333 0.9527
-3.0600 11.8686 1.8777 0.9516
-5.4196 11.7977 1.9889 0.9488
13.1504 10.2941 2.1747 0.9349
7.4712 12.1851 1.8613 0.9440
6.0289 12.1417 1.7653 0.9468
3.5416 12.1980 1.6540 0.9501
2.3825 12.1632 1.6140 0.9512
0.1830 12.0971 1.5755 0.9524
-4.2519 11.9638 1.6534 0.9501
-5.4196 11.7977 1.6907 0.9490
-9.6330 11.4814 1.9516 0.9413
-3.3747 -19.4151 2.1161 0.9238
-1.6098 -19.3620 2.0863 0.9248
13.1493 10.2933 1.7932 0.9350
7.4712 12.1851 1.5348 0.9441
4.8183 12.3593 1.4245 0.9480
2.3825 12.1632 1.3309 0.9514
1.2694 12.1297 1.3096 0.9521
-0.8947 12.0647 1.2991 0.9525
-1.9809 12.0320 1.3094 0.9521
-3.0935 11.9986 1.3306 0.9514
-5.4790 11.9269 1.4094 0.9486
-9.7288 17.0005 2.1033 0.9242
-2.4480 -19.3872 2.0984 0.9244
4.8183 12.3593 1.1229 0.9481
3.5416 12.1980 1.0752 0.9503
1.2694 12.1297 1.0324 0.9522
0.1860 12.2973 1.0411 0.9518
-0.8947 12.0647 1.0241 0.9526
-3.0935 11.9986 1.0489 0.9515
-4.2519 11.9638 1.0748 0.9503
-5.4790 11.9269 1.1111 0.9487
-13.8025 13.7520 1.6494 0.9248
13.1486 10.2928 1.0355 0.9353
6.5129 13.1164 0.9081 0.9430
3.5416 12.1980 0.7876 0.9504
2.4219 12.3645 0.7813 0.9508
-0.8947 12.0647 0.7502 0.9527
-2.0137 12.2311 0.7687 0.9515
-3.0935 11.9986 0.7684 0.9516
-4.2519 11.9638 0.7873 0.9504
-5.4790 11.9269 0.8139 0.9488
1.8974 -19.8389 0.7858 0.9233
13.1485 10.2927 0.6584 0.9353
6.5381 13.1672 0.5797 0.9428
4.8183 12.3593 0.5231 0.9483
3.5416 12.1980 0.5008 0.9504
0.1860 12.2973 0.4849 0.9520
-2.0137 12.2311 0.4888 0.9516
-3.0935 11.9986 0.4886 0.9516
-5.4790 11.9269 0.5175 0.9488
-4.8774 -18.2426 0.3190 0.9272
3.5416 12.1980 0.2146 0.9505
2.4219 12.3645 0.2128 0.9508
1.2197 11.6548 0.1979 0.9542
0.1758 11.6225 0.1963 0.9546
-0.8947 12.0647 0.2044 0.9528
-4.8148 6.9046 0.1422 0.9669
-6.6219 -18.1182 -0.1086 0.9257
-3.1344 -18.0324 -0.1030 0.9294
-1.5130 -18.1986 -0.1028 0.9296
3.3102 -17.7370 -0.1016 0.9304
5.0581 -18.0200 -0.1054 0.9279
6.8977 -18.1707 -0.1094 0.9252
2.3825 12.1632 -0.0698 0.9516
1.2040 11.5040 -0.0651 0.9548
-0.8947 12.0647 -0.0681 0.9528
-1.9809 12.0320 -0.0687 0.9524
-4.2519 11.9638 -0.0715 0.9505
-4.7753 6.8480 -0.0470 0.9672
-13.8080 13.7575 -0.1097 0.9250
-7.5145 -18.1235 -0.1105 0.9245
-5.7640 -18.3790 -0.1084 0.9258
-0.6579 -18.0415 -0.1016 0.9303
-4.8051 -17.9725 -0.5238 0.9283
-3.1192 -17.9449 -0.5129 0.9297
-1.4904 -17.9267 -0.5065 0.9305
3.3056 -17.7124 -0.5074 0.9304
7.2713 -14.9780 -0.4688 0.9355
6.5381 13.1672 -0.4140 0.9429
4.2079 10.7936 -0.3262 0.9547
2.2168 11.3172 -0.3247 0.9549
0.1714 11.3279 -0.3190 0.9557
-0.8947 12.0647 -0.3406 0.9527
-3.0636 11.8827 -0.3455 0.9521
-5.3788 11.7089 -0.3628 0.9497
-4.7515 6.8139 -0.2339 0.9673
-7.4993 -18.0868 -0.5513 0.9246
-5.6674 -18.0710 -0.5333 0.9270
-2.2640 -17.9303 -0.5089 0.9302
-0.6561 -17.9911 -0.5069 0.9305
0.9403 -17.8256 -0.5026 0.9311
4.1750 -17.7510 -0.5135 0.9296
5.8713 -17.7085 -0.5253 0.9281
-6.5971 -18.0503 -0.9746 0.9259
-4.8116 -17.9965 -0.9447 0.9281
-3.1121 -17.9041 -0.9216 0.9298
-1.4835 -17.8440 -0.9081 0.9308
1.7130 -17.9102 -0.9124 0.9305
3.3057 -17.7127 -0.9138 0.9304
4.9474 -17.6255 -0.9284 0.9293
7.1444 -14.7166 -0.8296 0.9366
13.1482 10.2925 -0.8468 0.9353
9.5103 12.7952 -0.8085 0.9381
7.8579 12.8157 -0.7624 0.9416
6.5381 13.1672 -0.7456 0.9428
4.0923 10.4971 -0.5714 0.9559
3.0386 10.4655 -0.5527 0.9573
2.1324 10.8867 -0.5626 0.9565
0.1780 11.7673 -0.5968 0.9540
-3.0369 11.7793 -0.6169 0.9524
-4.7330 6.7874 -0.4196 0.9674
-3.9311 -18.0226 -0.9355 0.9288
-2.2575 -17.8788 -0.9139 0.9304
2.5407 -17.7907 -0.9114 0.9306
4.1600 -17.6874 -0.9215 0.9298
5.8818 -17.7401 -0.9478 0.9279
6.6694 -15.3745 -0.8499 0.9351
7.8337 -14.3924 -0.8310 0.9365
-8.3175 -17.6882 -1.4332 0.9246
-6.4465 -17.6383 -1.3769 0.9274
-4.7033 -17.5918 -1.3352 0.9296
1.7046 -17.8228 -1.3128 0.9307
9.4542 12.7197 -1.1620 0.9384
7.8316 12.7728 -1.0986 0.9417
3.0386 10.4655 -0.7990 0.9572
2.0798 10.6180 -0.7933 0.9575
1.2296 11.7489 -0.8662 0.9537
-1.9447 11.8121 -0.8777 0.9531
-4.1742 11.7451 -0.9139 0.9512
-5.3788 11.7089 -0.9448 0.9496
-4.7205 6.7695 -0.6051 0.9674
-7.3231 -17.6616 -1.4019 0.9262
-5.5240 -17.6136 -1.3535 0.9286
-3.8320 -17.5685 -1.3184 0.9304
0.9402 -17.8243 -1.3087 0.9309
5.8430 -17.6229 -1.3613 0.9282
7.7453 -14.2300 -1.1879 0.9371
-11.1213 -15.6491 -1.8431 0.9258
-9.6839 -16.5771 -1.8431 0.9258
-8.1695 -17.3734 -1.8431 0.9258
-6.4465 -17.6383 -1.8029 0.9273
-4.7034 -17.5918 -1.7482 0.9294
-3.0501 -17.5477 -1.7099 0.9309
-1.4554 -17.5051 -1.6864 0.9318
1.6663 -17.4218 -1.6802 0.9321
3.2435 -17.3798 -1.6974 0.9314
6.1285 -16.1442 -1.6578 0.9330
13.0150 10.1882 -1.5868 0.9357
12.7788 14.3274 -1.8431 0.9258
9.3985 12.6449 -1.5126 0.9387
7.8316 12.7728 -1.4384 0.9416
6.5129 13.1164 -1.4059 0.9429
1.1093 10.5995 -1.0232 0.9581
-0.8203 11.0618 -1.0649 0.9564
-3.0369 11.7793 -1.1678 0.9523
-4.1742 11.7451 -1.1967 0.9511
-5.3788 11.7089 -1.2370 0.9495
-7.1090 12.4225 -1.3741 0.9441
-12.3397 14.7075 -1.8431 0.9258
-13.4591 13.4099 -1.8240 0.9265
-8.9029 -17.0093 -1.8431 0.9258
-7.3231 -17.6616 -1.8356 0.9260
-0.6376 -17.4833 -1.6796 0.9321
0.9200 -17.4417 -1.6768 0.9322
2.4849 -17.4000 -1.6874 0.9318
5.8429 -17.6229 -1.7825 0.9281
7.7484 -14.2357 -1.5560 0.9369
10.6429 -15.9782 -1.8431 0.9258
-14.9500 7.6593 -1.9953 0.9346
-16.0714 4.8864 -1.9953 0.9346
-16.4426 3.4361 -1.9953 0.9346
-16.7661 -1.0314 -1.9953 0.9346
-16.6077 -2.5200 -1.9953 0.9346
-16.3174 -3.9887 -1.9953 0.9346
-15.8975 -5.4256 -1.9953 0.9346
-15.3513 -6.8194 -1.9953 0.9346
-13.8984 -9.4340 -1.9953 0.9346
-1.8122 -3.8537 -0.5059 0.9830
-5.4606 -14.9407 -1.8896 0.9379
-4.0077 -14.9899 -1.8431 0.9394
5.5597 -14.6459 -1.8609 0.9388
7.0967 -14.6183 -1.9303 0.9366
8.6497 -14.3938 -1.9947 0.9346
11.0686 -12.6352 -1.9953 0.9346
12.1496 -11.5995 -1.9953 0.9346
13.1341 -10.4717 -1.9953 0.9346
14.0142 -9.2608 -1.9953 0.9346
15.4345 -6.6284 -1.9953 0.9346
16.3654 -3.7860 -1.9953 0.9346
16.7774 -0.8234 -1.9953 0.9346
16.7841 0.6736 -1.9953 0.9346
16.6575 2.1653 -1.9953 0.9346
16.0094 5.0853 -1.9953 0.9346
14.0963 9.1354 -1.9953 0.9346
12.2181 9.5643 -1.8431 0.9394
6.5129 13.1164 -1.7396 0.9427
2.0819 10.6287 -1.2865 0.9573
0.1599 10.5709 -1.2558 0.9583
-0.8212 11.0727 -1.3189 0.9563
-2.8358 10.9989 -1.3492 0.9553
-4.1742 11.7451 -1.4806 0.9510
-6.8891 12.0384 -1.6476 0.9457
-4.7151 6.7616 -0.9792 0.9673
-9.9731 11.8868 -1.8431 0.9394
-15.8484 5.5672 -1.9953 0.9346
-16.2811 4.1341 -1.9953 0.9346
-16.5845 2.6681 -1.9953 0.9346
-16.7562 1.1810 -1.9953 0.9346
-16.7948 -0.3156 -1.9953 0.9346
-16.4726 -3.2892 -1.9953 0.9346
-15.0177 -7.5256 -1.9953 0.9346
-14.2880 -8.8327 -1.9953 0.9346
-13.4449 -10.0698 -1.9953 0.9346
-11.4458 -12.2947 -1.9953 0.9346
-2.4452 -3.8036 -0.5371 0.9820
-1.9088 -3.6468 -0.4889 0.9836
-6.2006 -14.9547 -1.9230 0.9369
-0.5655 -15.5061 -1.8431 0.9394
0.8173 -15.4949 -1.8431 0.9394
3.5525 -15.1043 -1.8431 0.9394
4.8831 -14.7280 -1.8431 0.9394
11.6439 -12.1070 -1.9953 0.9346
14.4295 -8.5994 -1.9953 0.9346
15.7259 -5.9039 -1.9953 0.9346
-13.0553 5.2798 -1.9953 0.9447
-13.7847 2.8807 -1.9953 0.9447
-14.0771 0.3902 -1.9953 0.9447
-14.0559 -0.8647 -1.9953 0.9447
-13.6797 -3.3439 -1.9953 0.9447
-13.3277 -4.5486 -1.9953 0.9447
-12.8698 -5.7171 -1.9953 0.9447
-12.3097 -6.8402 -1.9953 0.9447
-11.6518 -7.9090 -1.9953 0.9447
-10.9014 -8.9150 -1.9953 0.9447
-10.0643 -9.8502 -1.9953 0.9447
-9.1474 -10.7071 -1.9953 0.9447
-1.3427 -3.6739 -0.5542 0.9843
-3.6373 -13.6046 -1.9953 0.9447
-2.4116 -13.8744 -1.9953 0.9447
1.3408 -14.0185 -1.9953 0.9447
2.5835 -13.8434 -1.9953 0.9447
4.9978 -13.1657 -1.9953 0.9447
7.2536 -12.0706 -1.9953 0.9447
8.2995 -11.3769 -1.9953 0.9447
10.1857 -9.7245 -1.9953 0.9447
11.0110 -8.7790 -1.9953 0.9447
12.3935 -6.6870 -1.9953 0.9447
13.3830 -4.3829 -1.9953 0.9447
13.7200 -3.1740 -1.9953 0.9447
13.9481 -1.9398 -1.9953 0.9447
14.0654 -0.6903 -1.9953 0.9447
13.9649 1.8153 -1.9953 0.9447
12.9887 5.4413 -1.9953 0.9447
10.2431 8.0183 -1.8431 0.9488
9.4885 8.8984 -1.8431 0.9488
8.6586 9.7079 -1.8431 0.9488
7.7599 10.4402 -1.8431 0.9488
2.0819 10.6287 -1.5346 0.9572
1.1093 10.5995 -1.5100 0.9579
-0.8126 10.9571 -1.5568 0.9566
-1.9447 11.8121 -1.6962 0.9528
-2.8358 10.9989 -1.6094 0.9551
-5.3788 11.7089 -1.8257 0.9493
-4.7103 6.7548 -1.1668 0.9673
-11.3139 6.4197 -1.8431 0.9488
-12.8183 5.8317 -1.9953 0.9447
-13.2866 4.6673 -1.9953 0.9447
-13.6493 3.4658 -1.9953 0.9447
-14.0477 0.9901 -1.9953 0.9447
-14.0006 -1.5171 -1.9953 0.9447
-13.5095 -3.9761 -1.9953 0.9447
-13.1019 -5.1631 -1.9953 0.9447
-10.4752 -9.4121 -1.9953 0.9447
-9.5956 -10.3073 -1.9953 0.9447
-2.4571 -3.1627 -0.5675 0.9840
-1.2580 -4.0111 -0.5956 0.9832
-3.0011 -13.7590 -1.9953 0.9447
-1.7642 -13.9715 -1.9953 0.9447
3.2242 -13.7084 -1.9953 0.9447
5.6043 -12.9192 -1.9953 0.9447
6.7323 -12.3689 -1.9953 0.9447
10.6266 -9.2406 -1.9953 0.9447
11.4071 -8.2578 -1.9953 0.9447
12.0971 -7.2094 -1.9953 0.9447
12.6909 -6.1037 -1.9953 0.9447
-9.9575 5.1015 -1.8431 0.9557
-11.8560 2.4776 -1.9953 0.9521
-12.1075 0.3356 -1.9953 0.9521
-11.9750 -1.8171 -1.9953 0.9521
-11.7657 -2.8760 -1.9953 0.9521
-11.0691 -4.9172 -1.9953 0.9521
-10.0215 -6.8024 -1.9953 0.9521
-9.3761 -7.6676 -1.9953 0.9521
-3.6910 -3.6125 -0.8508 0.9793
-2.5435 -2.9772 -0.6451 0.9843
-1.4863 -3.1608 -0.5754 0.9859
-1.0308 -3.8556 -0.6575 0.9840
0.0751 -12.1118 -1.9953 0.9521
1.1532 -12.0570 -1.9953 0.9521
2.2221 -11.9065 -1.9953 0.9521
5.2896 -10.8960 -1.9953 0.9521
8.7605 -8.3639 -1.9953 0.9521
11.5105 -3.7697 -1.9953 0.9521
11.8004 -2.7299 -1.9953 0.9521
11.9966 -1.6684 -1.9953 0.9521
12.0110 1.5613 -1.9953 0.9521
11.1713 4.6800 -1.9953 0.9521
10.6912 5.6459 -1.9918 0.9522
8.1609 7.6534 -1.8431 0.9557
7.4471 8.3496 -1.8431 0.9557
4.9758 10.0208 -1.8431 0.9557
4.0638 10.4240 -1.8431 0.9557
3.0541 10.5187 -1.8044 0.9566
2.0917 10.6788 -1.7926 0.9568
1.1093 10.5995 -1.7557 0.9577
-0.8230 11.0974 -1.8332 0.9559
-1.8176 11.0396 -1.8431 0.9557
-2.7932 10.8339 -1.8431 0.9557
-4.6704 10.1668 -1.8431 0.9557
-4.7040 6.7457 -1.3548 0.9672
-7.9257 7.8968 -1.8431 0.9557
-8.5973 7.1598 -1.8431 0.9557
-9.2006 6.3659 -1.8431 0.9557
-11.4275 4.0143 -1.9953 0.9521
-11.7396 2.9809 -1.9953 0.9521
-12.0416 -1.3048 -1.9953 0.9521
-11.6193 -3.4198 -1.9953 0.9521
-11.2687 -4.4407 -1.9953 0.9521
-10.8286 -5.4263 -1.9953 0.9521
-10.3025 -6.3689 -1.9953 0.9521
-3.9705 -3.5675 -0.8793 0.9786
-2.7994 -3.0071 -0.6768 0.9835
-2.3185 -2.9842 -0.6226 0.9848
-1.9255 -2.9951 -0.5866 0.9857
-1.6161 -3.0876 -0.5741 0.9860
-1.5173 -12.0167 -1.9953 0.9521
0.6380 -12.0953 -1.9953 0.9521
2.7731 -11.7903 -1.9953 0.9521
7.5853 -9.4427 -1.9953 0.9521
8.3959 -8.7298 -1.9953 0.9521
9.1398 -7.9477 -1.9953 0.9521
10.4045 -6.2006 -1.9953 0.9521
-10.3912 2.1715 -1.9953 0.9577
-10.5433 1.2377 -1.9953 0.9577
-10.4956 -1.5926 -1.9953 0.9577
-10.3121 -2.5207 -1.9953 0.9577
-10.0467 -3.4288 -1.9953 0.9577
-9.7015 -4.3097 -1.9953 0.9577
-3.6728 -3.0035 -0.8918 0.9809
-2.9886 -2.9250 -0.7860 0.9831
-2.4962 -2.9218 -0.7223 0.9845
-2.0905 -2.9417 -0.6783 0.9854
-1.7271 -2.9564 -0.6436 0.9862
-1.1615 -3.1780 -0.6360 0.9863
-0.9452 -3.5354 -0.6879 0.9852
-1.8180 -10.4589 -1.9953 0.9577
0.0658 -10.6155 -1.9953 0.9577
2.8689 -10.2207 -1.9953 0.9577
4.6361 -9.5498 -1.9953 0.9577
7.6782 -7.3306 -1.9953 0.9577
9.3425 -5.0408 -1.9953 0.9577
9.7542 -4.1890 -1.9953 0.9577
10.0884 -3.3039 -1.9953 0.9577
10.3425 -2.3926 -1.9953 0.9577
10.6029 -0.5204 -1.9953 0.9577
10.5271 1.3684 -1.9953 0.9577
10.1175 3.2138 -1.9953 0.9577
9.3654 4.9457 -1.9907 0.9578
7.7215 6.0444 -1.8431 0.9609
7.1527 6.7078 -1.8431 0.9609
4.9836 6.7050 -1.5703 0.9666
4.2038 6.8562 -1.5116 0.9678
2.7342 9.4170 -1.8431 0.9609
1.0207 9.7527 -1.8431 0.9609
-1.5930 9.6757 -1.8431 0.9609
-3.2838 9.2398 -1.8431 0.9609
-4.0934 8.9107 -1.8431 0.9609
-4.4444 6.3734 -1.4605 0.9689
-5.3321 6.3552 -1.5593 0.9668
-7.5352 6.2752 -1.8431 0.9609
-8.5287 4.8393 -1.8431 0.9609
-10.4809 1.6862 -1.9953 0.9577
-10.4102 -2.0787 -1.9953 0.9577
-10.1838 -2.9973 -1.9953 0.9577
-9.8765 -3.8921 -1.9953 0.9577
-9.4907 -4.7559 -1.9953 0.9577
-3.3158 -2.9793 -0.8379 0.9820
-2.2786 -2.9328 -0.6981 0.9850
-1.8965 -2.9499 -0.6592 0.9858
-1.5506 -2.9626 -0.6285 0.9865
-1.0463 -3.3362 -0.6572 0.9859
-0.8494 -3.8941 -0.7492 0.9839
-1.3299 -10.5321 -1.9953 0.9577
0.5592 -10.6009 -1.9953 0.9577
3.3408 -10.0763 -1.9953 0.9577
4.2247 -9.7388 -1.9953 0.9577
5.0750 -9.3240 -1.9953 0.9577
5.8850 -8.8351 -1.9953 0.9577
6.6482 -8.2761 -1.9953 0.9577
8.5990 -6.2249 -1.9953 0.9577
9.1190 -5.4346 -1.9953 0.9577
9.9383 -3.7311 -1.9953 0.9577
10.2311 -2.8315 -1.9953 0.9577
-8.3734 4.2899 -1.9887 0.9623
-8.7510 3.5391 -1.9953 0.9621
-9.2400 1.9309 -1.9953 0.9621
-9.3752 1.1006 -1.9953 0.9621
-9.4218 -0.5796 -1.9953 0.9621
-9.3327 -1.4162 -1.9953 0.9621
-9.1696 -2.2414 -1.9953 0.9621
-8.6267 -3.8322 -1.9953 0.9621
-8.2513 -4.5850 -1.9953 0.9621
-2.9518 -2.8890 -0.8731 0.9833
-2.0585 -2.8965 -0.7511 0.9856
-1.7019 -2.9134 -0.7132 0.9863
-1.3758 -2.9257 -0.6834 0.9869
-0.8917 -3.3353 -0.7298 0.9860
-0.7821 -9.4071 -1.9953 0.9621
4.8621 -8.0910 -1.9953 0.9621
5.5632 -7.6260 -1.9953 0.9621
7.3808 -5.8847 -1.9953 0.9621
8.3074 -4.4823 -1.9953 0.9621
8.9707 -2.9379 -1.9953 0.9621
9.1966 -2.1275 -1.9953 0.9621
9.3495 -1.3003 -1.9953 0.9621
9.4282 -0.4627 -1.9953 0.9621
9.2153 2.0454 -1.9953 0.9621
8.7064 3.6473 -1.9953 0.9621
7.3173 4.7421 -1.8431 0.9650
6.3602 5.9647 -1.8431 0.9650
5.8039 6.5072 -1.8431 0.9650
4.9446 6.6525 -1.7521 0.9667
4.2038 6.8562 -1.7000 0.9677
1.6761 8.5569 -1.8431 0.9650
0.9076 8.6722 -1.8431 0.9650
0.1319 8.7185 -1.8431 0.9650
-0.6449 8.6956 -1.8431 0.9650
-1.4165 8.6037 -1.8431 0.9650
-2.9200 8.2161 -1.8431 0.9650
-4.1380 7.2308 -1.7610 0.9665
-4.4444 6.3734 -1.6424 0.9687
-6.7003 5.5800 -1.8431 0.9650
-7.5837 4.3031 -1.8431 0.9650
-8.5922 3.9090 -1.9953 0.9621
-9.4162 0.6637 -1.9953 0.9621
-9.4379 -0.1773 -1.9953 0.9621
-9.3847 -1.0169 -1.9953 0.9621
-8.4393 -4.2290 -1.9953 0.9621
-8.0292 -4.9636 -1.9953 0.9621
-2.6976 -2.8977 -0.8369 0.9839
-2.2426 -2.8866 -0.7727 0.9852
-1.8682 -2.9059 -0.7302 0.9860
-1.2261 -2.9571 -0.6767 0.9870
-0.9959 -3.1756 -0.7035 0.9865
-0.7775 -3.5644 -0.7712 0.9852
2.1612 -9.1888 -1.9953 0.9621
3.7566 -8.6598 -1.9953 0.9621
5.9116 -7.3592 -1.9953 0.9621
7.1231 -6.1940 -1.9953 0.9621
7.6463 -5.5352 -1.9953 0.9621
8.5068 -4.0914 -1.9953 0.9621
8.8373 -3.3177 -1.9953 0.9621
9.0976 -2.5177 -1.9953 0.9621
-7.5453 3.8657 -1.9925 0.9658
-7.8707 3.1831 -1.9953 0.9657
-8.4321 0.9899 -1.9953 0.9657
-7.0246 -4.7681 -1.9953 0.9657
-2.0271 -2.8524 -0.8224 0.9857
-1.6773 -2.8712 -0.7815 0.9864
-1.0763 -2.9449 -0.7369 0.9872
-0.8493 -3.1767 -0.7728 0.9866
-0.6216 -3.5759 -0.8530 0.9852
-0.3451 -4.1504 -0.9788 0.9830
0.8083 -8.4514 -1.9953 0.9657
1.5575 -8.3458 -1.9953 0.9657
3.0130 -7.9373 -1.9953 0.9657
5.0035 -6.8588 -1.9953 0.9657
5.5943 -6.3861 -1.9953 0.9657
6.6383 -5.2927 -1.9953 0.9657
7.8010 -3.3502 -1.9953 0.9657
8.0683 -2.6423 -1.9953 0.9657
8.4090 -1.1695 -1.9953 0.9657
8.4797 -0.4162 -1.9953 0.9657
8.4831 0.3405 -1.9953 0.9657
8.4191 1.0944 -1.9953 0.9657
8.2882 1.8396 -1.9953 0.9657
7.5074 3.9646 -1.9953 0.9657
6.7531 4.3765 -1.8913 0.9675
6.1753 4.8340 -1.8431 0.9683
3.4877 7.0241 -1.8431 0.9683
1.5075 7.6961 -1.8431 0.9683
0.8163 7.7997 -1.8431 0.9683
-1.2740 7.7382 -1.8431 0.9683
-2.6262 7.3895 -1.8431 0.9683
-3.2737 7.1264 -1.8431 0.9683
-3.8952 6.8066 -1.8431 0.9683
-5.0407 6.0079 -1.8431 0.9683
-5.5555 5.5352 -1.8431 0.9683
-7.2196 4.0965 -1.9509 0.9665
-7.7278 3.5158 -1.9953 0.9657
-8.2288 2.0895 -1.9953 0.9657
-8.4690 0.5969 -1.9953 0.9657
-8.4885 -0.1595 -1.9953 0.9657
-8.4406 -0.9146 -1.9953 0.9657
-8.3256 -1.6625 -1.9953 0.9657
-8.1445 -2.3971 -1.9953 0.9657
-7.2215 -4.4643 -1.9953 0.9657
-1.8405 -2.8629 -0.7999 0.9861
-1.5069 -2.8790 -0.7637 0.9867
-1.1985 -2.8904 -0.7354 0.9872
-0.9585 -3.0563 -0.7528 0.9869
-0.5018 -3.9738 -0.9414 0.9837
-0.1579 -4.3283 -1.0179 0.9824
1.2002 -8.4047 -1.9953 0.9657
1.9438 -8.2644 -1.9953 0.9657
3.3787 -7.7887 -1.9953 0.9657
4.7065 -7.0659 -1.9953 0.9657
5.3169 -6.6188 -1.9953 0.9657
5.8851 -6.1192 -1.9953 0.9657
6.4065 -5.5709 -1.9953 0.9657
7.2930 -4.3463 -1.9953 0.9657
7.6510 -3.6798 -1.9953 0.9657
7.9482 -2.9840 -1.9953 0.9657
-7.1443 2.8893 -1.9953 0.9687
-7.7035 0.2135 -1.9953 0.9687
-7.6192 -1.1561 -1.9953 0.9687
-7.0428 -3.1286 -1.9953 0.9687
-3.4377 -2.8113 -1.1498 0.9818
-2.8798 -2.8185 -1.0433 0.9835
-2.4195 -2.8320 -0.9644 0.9847
-1.3395 -2.8485 -0.8150 0.9871
2.0827 -7.4197 -1.9953 0.9687
2.7350 -7.2048 -1.9953 0.9687
3.3656 -6.9327 -1.9953 0.9687
4.5300 -6.2097 -1.9902 0.9687
5.0780 -5.7968 -1.9953 0.9687
6.0256 -4.8042 -1.9953 0.9687
6.4294 -4.2487 -1.9953 0.9687
7.0810 -3.0410 -1.9953 0.9687
7.3237 -2.3985 -1.9953 0.9687
7.6329 -1.0616 -1.9953 0.9687
7.6971 -0.3778 -1.9953 0.9687
7.7002 0.3090 -1.9953 0.9687
7.5233 1.6698 -1.9953 0.9687
7.3448 2.3330 -1.9953 0.9687
7.1079 2.9777 -1.9953 0.9687
5.1925 4.8696 -1.8431 0.9710
3.1659 6.3758 -1.8431 0.9710
1.9849 6.8363 -1.8431 0.9710
1.3684 6.9858 -1.8431 0.9710
0.1077 7.1178 -1.8431 0.9710
-0.3586 4.8357 -1.2555 0.9802
-4.5755 5.4534 -1.8431 0.9710
-5.8540 4.0503 -1.8431 0.9710
-6.6902 3.7961 -1.9916 0.9687
-7.6086 1.2241 -1.9953 0.9687
-7.5573 -1.5090 -1.9953 0.9687
-6.5550 -4.0523 -1.9953 0.9687
-3.7570 -2.8139 -1.2154 0.9808
-3.1140 -2.7979 -1.0839 0.9829
-2.1740 -2.7982 -0.9175 0.9855
-1.8133 -2.8206 -0.8682 0.9862
-1.4865 -2.8401 -0.8300 0.9868
-1.1827 -2.8525 -0.7995 0.9873
-0.9277 -2.9580 -0.8027 0.9873
-0.6984 -3.2018 -0.8485 0.9866
-0.1378 -3.7793 -0.9792 0.9845
3.0669 -7.0699 -1.9953 0.9687
3.6842 -6.7687 -1.9953 0.9687
4.2722 -6.4139 -1.9953 0.9687
4.8263 -6.0080 -1.9953 0.9687
5.3420 -5.5545 -1.9953 0.9687
5.8153 -5.0568 -1.9953 0.9687
6.2424 -4.5190 -1.9953 0.9687
6.9449 -3.3402 -1.9953 0.9687
7.4272 -2.0555 -1.9953 0.9687
-6.2730 3.2138 -1.9953 0.9711
-6.5342 2.6426 -1.9953 0.9711
-7.0003 0.8218 -1.9953 0.9711
-6.9686 -1.0574 -1.9953 0.9711
-6.6706 -2.2766 -1.9953 0.9711
-6.1610 -3.4236 -1.9953 0.9711
-5.8318 -3.9585 -1.9953 0.9711
-3.3868 -2.7697 -1.2385 0.9820
-2.3967 -2.8053 -1.0445 0.9848
-1.6303 -2.7908 -0.9150 0.9867
-1.3219 -2.8110 -0.8794 0.9872
-0.7942 -2.9706 -0.8705 0.9873
-0.2831 -3.4051 -0.9673 0.9859
0.3465 -3.6228 -1.0303 0.9850
1.2931 -6.9287 -1.9953 0.9711
4.1539 -5.6942 -1.9953 0.9711
5.0980 -4.8672 -1.9953 0.9711
5.8804 -3.8858 -1.9953 0.9711
6.2030 -3.3469 -1.9953 0.9711
6.4763 -2.7813 -1.9953 0.9711
6.8670 -1.5886 -1.9953 0.9711
6.9811 -0.9709 -1.9953 0.9711
7.0426 0.2827 -1.9953 0.9711
6.5009 2.7234 -1.9953 0.9711
6.2326 3.2914 -1.9953 0.9711
5.9148 3.8332 -1.9953 0.9711
5.4742 4.2852 -1.9680 0.9715
4.7490 4.4537 -1.8431 0.9733
3.4032 5.5504 -1.8431 0.9733
2.3648 6.0660 -1.8431 0.9733
0.6777 6.4753 -1.8431 0.9733
0.0985 6.5099 -1.8431 0.9733
-0.3555 4.7939 -1.3608 0.9802
-1.0577 6.4242 -1.8431 0.9733
-1.6254 6.3045 -1.8431 0.9733
-2.1803 6.1348 -1.8431 0.9733
-3.2338 5.6508 -1.8431 0.9733
-3.7240 5.3405 -1.8431 0.9733
-4.6122 4.5953 -1.8431 0.9733
-6.6500 2.3360 -1.9953 0.9711
-6.9589 1.1195 -1.9953 0.9711
-7.0471 -0.1324 -1.9953 0.9711
-7.0073 -0.7593 -1.9953 0.9711
-6.7616 -1.9901 -1.9953 0.9711
-6.5575 -2.5842 -1.9953 0.9711
-3.0718 -2.7600 -1.1691 0.9830
-2.6414 -2.8373 -1.0974 0.9840
-2.1545 -2.7731 -0.9941 0.9855
-1.7867 -2.7792 -0.9353 0.9864
-1.4666 -2.8020 -0.8953 0.9869
-0.4238 -3.3564 -0.9577 0.9860
0.1874 -3.5520 -1.0070 0.9853
2.8050 -6.4661 -1.9953 0.9711
3.3696 -6.1907 -1.9953 0.9711
3.9073 -5.8661 -1.9953 0.9711
4.8858 -5.0801 -1.9953 0.9711
5.7093 -4.1331 -1.9953 0.9711
6.3518 -3.0549 -1.9953 0.9711
6.5986 -2.4773 -1.9953 0.9711
6.7930 -1.8800 -1.9953 0.9711
-6.0140 2.4322 -1.9953 0.9732
-6.2067 1.8871 -1.9953 0.9732
-6.3501 1.3270 -1.9953 0.9732
-6.4430 0.7564 -1.9953 0.9732
-6.4138 -0.9732 -1.9953 0.9732
-6.3017 -1.5404 -1.9953 0.9732
-5.6706 -3.1510 -1.9953 0.9732
-2.3740 -2.7788 -1.1242 0.9848
-1.9374 -2.7262 -1.0287 0.9861
-1.6080 -2.7526 -0.9805 0.9867
-1.3045 -2.7741 -0.9429 0.9873
-1.0202 -2.7913 -0.9141 0.9876
-0.5356 -3.0816 -0.9620 0.9870
1.7532 -6.2458 -1.9953 0.9732
5.4123 -3.5765 -1.9953 0.9732
6.1650 -2.0190 -1.9953 0.9732
6.3203 -1.4621 -1.9953 0.9732
6.4331 0.8362 -1.9953 0.9732
6.3331 1.4057 -1.9953 0.9732
6.1828 1.9639 -1.9953 0.9732
5.9834 2.5066 -1.9953 0.9732
5.7365 3.0294 -1.9953 0.9732
5.4440 3.5281 -1.9953 0.9732
5.1008 3.9929 -1.9924 0.9733
3.9887 4.4720 -1.8431 0.9752
3.1323 5.1086 -1.8431 0.9752
2.6650 5.3672 -1.8431 0.9752
2.1766 5.5831 -1.8431 0.9752
1.6709 5.7547 -1.8431 0.9752
-0.3539 4.7725 -1.4720 0.9802
-0.9735 5.9128 -1.8431 0.9752
-1.4960 5.8026 -1.8431 0.9752
-2.0067 5.6464 -1.8431 0.9752
-2.5015 5.4453 -1.8431 0.9752
-3.8516 4.5906 -1.8431 0.9752
-4.8178 4.0122 -1.9284 0.9741
-5.3280 3.6864 -1.9928 0.9732
-5.6422 3.2015 -1.9953 0.9732
-5.9049 2.6864 -1.9953 0.9732
-6.2877 1.5966 -1.9953 0.9732
-6.4712 0.4561 -1.9953 0.9732
-6.4495 -0.6989 -1.9953 0.9732
-6.0355 -2.3784 -1.9953 0.9732
-5.7998 -2.9064 -1.9953 0.9732
-5.5180 -3.4112 -1.9953 0.9732
-3.7195 -2.7858 -1.4293 0.9807
-3.1107 -2.7950 -1.2863 0.9827
-1.7617 -2.7404 -1.0020 0.9865
-1.1524 -2.7792 -0.9254 0.9875
-0.8802 -2.8065 -0.9047 0.9878
-0.6520 -2.9894 -0.9411 0.9873
-0.3945 -3.1246 -0.9687 0.9869
-0.1170 -3.2072 -0.9871 0.9867
0.1726 -3.2727 -1.0080 0.9864
1.4852 -6.3149 -1.9953 0.9732
2.0416 -6.1576 -1.9953 0.9732
2.5817 -5.9514 -1.9953 0.9732
4.0627 -5.0575 -1.9953 0.9732
4.8953 -4.2568 -1.9953 0.9732
5.5726 -3.3211 -1.9953 0.9732
-5.7431 1.7461 -1.9953 0.9750
-5.8758 1.2279 -1.9953 0.9750
-5.9618 0.6999 -1.9953 0.9750
-6.0004 0.1663 -1.9953 0.9750
-5.9914 -0.3686 -1.9953 0.9750
-5.9348 -0.9005 -1.9953 0.9750
-5.6810 -1.9388 -1.9953 0.9750
-5.2471 -2.9157 -1.9953 0.9750
-4.9666 -3.3712 -1.9953 0.9750
-2.3515 -2.7525 -1.2034 0.9849
-1.9394 -2.7289 -1.1129 0.9860
-1.2873 -2.7376 -1.0056 0.9873
-1.0085 -2.7594 -0.9766 0.9877
-0.5036 -2.8973 -0.9775 0.9877
-0.2476 -2.9779 -0.9933 0.9875
0.0189 -3.0423 -1.0113 0.9873
1.6222 -5.7793 -1.9953 0.9750
2.6215 -5.4000 -1.9953 0.9750
3.5377 -4.8494 -1.9953 0.9750
4.3417 -4.1451 -1.9953 0.9750
5.9455 -0.8269 -1.9953 0.9750
5.9955 -0.2942 -1.9953 0.9750
5.9979 0.2407 -1.9953 0.9750
5.8601 1.3007 -1.9953 0.9750
5.3080 2.8031 -1.9953 0.9750
4.7267 3.7001 -1.9953 0.9750
4.3676 4.0959 -1.9903 0.9751
3.3077 4.4502 -1.8431 0.9769
2.8983 4.7270 -1.8431 0.9769
2.4660 4.9663 -1.8431 0.9769
2.0140 5.1661 -1.8431 0.9769
1.5461 5.3249 -1.8431 0.9769
0.5771 5.5147 -1.8431 0.9769
-0.3525 4.7536 -1.5845 0.9801
-0.9008 5.4712 -1.8431 0.9769
-2.3146 5.0386 -1.8431 0.9769
-4.9363 3.4154 -1.9953 0.9750
-5.4638 2.4858 -1.9953 0.9750
-5.6635 1.9895 -1.9953 0.9750
-5.8181 1.4773 -1.9953 0.9750
-5.9265 0.9535 -1.9953 0.9750
-6.0017 -0.1128 -1.9953 0.9750
-5.9678 -0.6467 -1.9953 0.9750
-5.8865 -1.1754 -1.9953 0.9750
-5.5847 -2.2008 -1.9953 0.9750
-3.7269 -2.7913 -1.5478 0.9806
-3.0018 -2.6971 -1.3414 0.9831
-2.5892 -2.7812 -1.2631 0.9841
-2.1179 -2.7261 -1.1475 0.9856
-1.7457 -2.7154 -1.0730 0.9865
-1.4276 -2.7275 -1.0233 0.9871
-1.1390 -2.7471 -0.9885 0.9875
-0.3708 -2.9364 -0.9838 0.9876
-0.1101 -3.0200 -1.0045 0.9873
0.4598 -3.2196 -1.0811 0.9864
1.8891 -5.6977 -1.9953 0.9750
2.3889 -5.5069 -1.9953 0.9750
2.8697 -5.2723 -1.9953 0.9750
3.3277 -4.9959 -1.9953 0.9750
4.1610 -4.3265 -1.9953 0.9750
4.8624 -3.5199 -1.9953 0.9750
5.1564 -3.0730 -1.9953 0.9750
5.4096 -2.6017 -1.9953 0.9750
5.6197 -2.1098 -1.9953 0.9750
5.7852 -1.6011 -1.9953 0.9750
-5.1727 2.0919 -1.9953 0.9766
-5.5165 -0.8371 -1.9953 0.9766
-5.4201 -1.3249 -1.9953 0.9766
-5.2806 -1.8022 -1.9953 0.9766
-4.6166 -3.1337 -1.9953 0.9766
-3.3094 -2.7064 -1.5288 0.9820
-2.7857 -2.7264 -1.3939 0.9836
-2.3291 -2.7262 -1.2822 0.9849
-1.9408 -2.7309 -1.1981 0.9859
-0.7383 -2.7614 -1.0222 0.9879
-0.2346 -2.8216 -1.0125 0.9880
0.0178 -2.8772 -1.0289 0.9879
0.2809 -2.9373 -1.0552 0.9875
0.5805 -3.1106 -1.1316 0.9866
1.9802 -5.2165 -1.9953 0.9766
4.0357 -3.8530 -1.9953 0.9766
4.6551 -3.0762 -1.9953 0.9766
5.1269 -2.2018 -1.9953 0.9766
5.3025 -1.7366 -1.9953 0.9766
5.4361 -1.2576 -1.9953 0.9766
5.5265 -0.7686 -1.9953 0.9766
5.5730 -0.2735 -1.9953 0.9766
5.5331 0.7192 -1.9953 0.9766
5.4471 1.2090 -1.9953 0.9766
5.1463 2.1559 -1.9953 0.9766
4.9339 2.6056 -1.9953 0.9766
3.7024 4.1510 -1.9891 0.9766
3.1490 4.2367 -1.8878 0.9778
2.6941 4.3939 -1.8431 0.9783
1.4371 4.9497 -1.8431 0.9783
0.5365 5.1261 -1.8431 0.9783
-1.2868 4.9909 -1.8431 0.9783
-1.7260 4.8565 -1.8431 0.9783
-2.1515 4.6835 -1.8431 0.9783
-2.5600 4.4734 -1.8431 0.9783
-3.4040 4.0571 -1.8939 0.9778
-4.2874 3.5705 -1.9953 0.9766
-4.8529 2.7536 -1.9953 0.9766
-5.0788 2.3106 -1.9953 0.9766
-5.4081 1.3732 -1.9953 0.9766
-5.5088 0.8863 -1.9953 0.9766
-5.5787 -0.1048 -1.9953 0.9766
-5.4717 -1.0926 -1.9953 0.9766
-5.3527 -1.5754 -1.9953 0.9766
-5.1911 -2.0457 -1.9953 0.9766
-4.9884 -2.4998 -1.9953 0.9766
-4.7460 -2.9340 -1.9953 0.9766
-3.7624 -2.8179 -1.6810 0.9802
-3.0018 -2.6971 -1.4431 0.9830
-2.5632 -2.7534 -1.3453 0.9841
-2.1195 -2.7281 -1.2354 0.9854
-1.4094 -2.6928 -1.0869 0.9872
-1.1258 -2.7152 -1.0511 0.9876
-0.6027 -2.7631 -1.0113 0.9881
-0.3510 -2.7796 -1.0019 0.9882
0.4321 -3.0255 -1.0929 0.9871
1.7560 -5.2962 -1.9953 0.9766
2.6674 -4.9008 -1.9953 0.9766
3.8677 -4.0216 -1.9953 0.9766
4.2104 -3.6613 -1.9953 0.9766
5.0283 -2.4184 -1.9953 0.9766
-4.6340 2.3741 -1.9953 0.9779
-4.8270 1.9521 -1.9953 0.9779
-4.9816 1.5146 -1.9953 0.9779
-5.0967 1.0651 -1.9953 0.9779
-2.3014 0.2702 -0.8880 0.9901
-2.2962 0.0636 -0.8803 0.9902
-4.9277 -1.6818 -1.9953 0.9779
-4.5513 -2.5291 -1.9953 0.9779
-2.7748 -2.7157 -1.4879 0.9835
-1.9422 -2.7330 -1.2849 0.9857
-1.5840 -2.7115 -1.2034 0.9866
-0.7316 -2.7363 -1.0854 0.9879
-0.2278 -2.7398 -1.0536 0.9883
0.0169 -2.7343 -1.0479 0.9884
0.5475 -2.9339 -1.1438 0.9873
1.4071 -5.0130 -1.9953 0.9779
1.8479 -4.8679 -1.9953 0.9779
2.6819 -4.4629 -1.9953 0.9779
3.4309 -3.9165 -1.9953 0.9779
4.5823 -2.4724 -1.9953 0.9779
4.9482 -1.6205 -1.9953 0.9779
5.1571 -0.7172 -1.9953 0.9779
4.6042 2.4314 -1.9953 0.9779
4.1000 3.2095 -1.9953 0.9779
3.7979 3.5617 -1.9953 0.9779
3.4627 3.8823 -1.9935 0.9780
3.0955 4.1648 -1.9886 0.9780
0.9245 4.7199 -1.8431 0.9796
0.5006 4.7835 -1.8431 0.9796
-0.3503 4.7229 -1.8149 0.9799
-1.6106 4.5319 -1.8431 0.9796
-2.3889 4.1744 -1.8431 0.9796
-2.8388 4.0710 -1.9019 0.9790
-3.3357 3.9758 -1.9888 0.9780
-4.5286 2.5696 -1.9953 0.9779
-4.7394 2.1562 -1.9953 0.9779
-5.1407 0.8270 -1.9953 0.9779
-2.2935 -0.0431 -0.8791 0.9902
-2.3027 -0.2495 -0.8876 0.9901
-4.8442 -1.9090 -1.9953 0.9779
-4.6550 -2.3327 -1.9953 0.9779
-4.4288 -2.7379 -1.9953 0.9779
-3.0018 -2.6971 -1.5465 0.9829
-2.5375 -2.7256 -1.4271 0.9842
-2.1211 -2.7301 -1.3249 0.9853
-1.7521 -2.7254 -1.2416 0.9862
-0.8502 -2.7111 -1.0888 0.9879
0.4067 -2.8480 -1.1025 0.9878
2.0721 -4.7767 -1.9953 0.9779
2.4892 -4.5732 -1.9953 0.9779
2.8864 -4.3335 -1.9953 0.9779
3.2608 -4.0593 -1.9953 0.9779
3.6093 -3.7528 -1.9953 0.9779
3.9291 -3.4166 -1.9953 0.9779
-4.3390 2.2230 -1.9953 0.9791
-4.6645 1.4182 -1.9953 0.9791
-2.0810 0.4349 -0.8701 0.9909
-2.0195 0.2371 -0.8322 0.9913
-1.9971 0.0553 -0.8177 0.9914
-2.0084 -0.1235 -0.8235 0.9913
-2.0268 -0.3075 -0.8390 0.9912
-4.6140 -1.5747 -1.9953 0.9791
-4.2615 -2.3681 -1.9953 0.9791
-2.7480 -2.6895 -1.5737 0.9835
-1.9437 -2.7351 -1.3733 0.9856
-1.2649 -2.6899 -1.2165 0.9872
-0.7249 -2.7112 -1.1486 0.9879
-0.4740 -2.7267 -1.1327 0.9881
0.2603 -2.7218 -1.1190 0.9883
0.5208 -2.7907 -1.1619 0.9878
1.3175 -4.6939 -1.9953 0.9791
2.1292 -4.3858 -1.9953 0.9791
2.5112 -4.1788 -1.9953 0.9791
2.8732 -3.9386 -1.9953 0.9791
3.8120 -3.0393 -1.9953 0.9791
4.4796 -1.9238 -1.9953 0.9791
4.7498 -1.0988 -1.9953 0.9791
4.8288 -0.6716 -1.9953 0.9791
4.8713 0.1955 -1.9953 0.9791
4.8346 0.6284 -1.9953 0.9791
4.6465 1.4759 -1.9953 0.9791
4.4966 1.8838 -1.9953 0.9791
4.3111 2.2766 -1.9953 0.9791
4.0912 2.6514 -1.9953 0.9791
3.8389 3.0051 -1.9953 0.9791
3.2451 3.6383 -1.9953 0.9791
1.2557 4.3248 -1.8431 0.9807
0.8656 4.4194 -1.8431 0.9807
0.4688 4.4789 -1.8431 0.9807
0.0681 4.5029 -1.8431 0.9807
-0.3331 4.4911 -1.8431 0.9807
-1.1243 4.3608 -1.8431 0.9807
-1.8868 4.1073 -1.8499 0.9807
-3.1300 3.7306 -1.9931 0.9792
-3.7463 3.1199 -1.9953 0.9791
-4.0092 2.7739 -1.9953 0.9791
-4.4376 2.0189 -1.9953 0.9791
-4.5997 1.6158 -1.9953 0.9791
-2.0369 0.3277 -0.8444 0.9911
-2.0109 0.1417 -0.8251 0.9913
-2.0185 -0.2187 -0.8310 0.9913
-4.6769 -1.3765 -1.9953 0.9791
-4.5358 -1.7875 -1.9953 0.9791
-4.3586 -2.1842 -1.9953 0.9791
-3.9022 -2.9226 -1.9953 0.9791
-2.5353 -2.7233 -1.5228 0.9840
-2.1227 -2.7322 -1.4161 0.9852
-1.7540 -2.7283 -1.3275 0.9861
-1.4144 -2.7023 -1.2483 0.9869
-1.1093 -2.6755 -1.1854 0.9876
-0.3424 -2.7120 -1.1188 0.9883
-0.0987 -2.7079 -1.1090 0.9884
0.7150 -3.0401 -1.2782 0.9866
1.5343 -4.6276 -1.9953 0.9791
1.9402 -4.4726 -1.9953 0.9791
2.3307 -4.2821 -1.9953 0.9791
2.7027 -4.0576 -1.9953 0.9791
3.0532 -3.8008 -1.9953 0.9791
3.3795 -3.5139 -1.9953 0.9791
3.6789 -3.1991 -1.9953 0.9791
3.9491 -2.8588 -1.9953 0.9791
4.3935 -2.1131 -1.9953 0.9791
4.6987 -1.3004 -1.9953 0.9791
-4.2444 1.7165 -1.9953 0.9802
-1.4939 0.4542 -0.6805 0.9932
-1.4721 0.1728 -0.6460 0.9936
-1.4406 0.0399 -0.6281 0.9937
-1.4890 -0.3640 -0.6680 0.9933
-1.4913 -0.5090 -0.6867 0.9931
-4.0020 -2.2238 -1.9953 0.9802
-2.7480 -2.6895 -1.6758 0.9834
-2.3323 -2.7299 -1.5648 0.9845
-1.5899 -2.7216 -1.3737 0.9863
-0.9749 -2.6675 -1.2378 0.9877
1.2373 -4.4080 -1.9953 0.9802
2.3582 -3.9243 -1.9953 0.9802
2.6983 -3.6988 -1.9953 0.9802
3.0169 -3.4438 -1.9953 0.9802
3.5798 -2.8542 -1.9953 0.9802
4.0293 -2.1740 -1.9953 0.9802
4.2068 -1.8066 -1.9953 0.9802
4.3510 -1.4249 -1.9953 0.9802
4.5347 -0.6307 -1.9953 0.9802
4.5729 -0.2244 -1.9953 0.9802
4.5747 0.1836 -1.9953 0.9802
4.4696 0.9921 -1.9953 0.9802
3.6051 2.8221 -1.9953 0.9802
3.3396 3.1319 -1.9953 0.9802
3.0475 3.4168 -1.9953 0.9802
2.7312 3.6745 -1.9953 0.9802
2.0301 4.0885 -1.9894 0.9803
1.2143 4.1822 -1.8979 0.9812
0.4402 4.2062 -1.8431 0.9817
-0.3128 4.2176 -1.8431 0.9817
-0.6870 4.1730 -1.8431 0.9817
-2.2674 3.9622 -1.9896 0.9803
-2.6157 3.7510 -1.9930 0.9802
-3.2433 3.2315 -1.9953 0.9802
-3.5181 2.9299 -1.9953 0.9802
-1.4730 0.2370 -0.6502 0.9935
-1.4608 0.1030 -0.6382 0.9936
-1.4353 -0.0270 -0.6256 0.9938
-1.4935 -0.4396 -0.6785 0.9932
-4.2596 -1.6786 -1.9953 0.9802
-3.8943 -2.4074 -1.9953 0.9802
-2.5415 -2.7299 -1.6255 0.9839
-2.1244 -2.7344 -1.5091 0.9850
-1.7553 -2.7303 -1.4146 0.9859
-1.1113 -2.6801 -1.2645 0.9874
-0.8339 -2.6590 -1.2145 0.9879
-0.5921 -2.7147 -1.2109 0.9879
-0.3398 -2.6914 -1.1823 0.9882
0.7117 -3.0260 -1.3548 0.9865
1.4408 -4.3457 -1.9953 0.9802
1.8220 -4.2002 -1.9953 0.9802
2.1888 -4.0213 -1.9953 0.9802
2.5381 -3.8105 -1.9953 0.9802
2.8673 -3.5694 -1.9953 0.9802
3.4548 -3.0042 -1.9953 0.9802
3.7086 -2.6847 -1.9953 0.9802
3.9329 -2.3439 -1.9953 0.9802
4.1260 -1.9844 -1.9953 0.9802
4.2863 -1.6092 -1.9953 0.9802
4.4125 -1.2212 -1.9953 0.9802
-1.2521 0.5064 -0.6252 0.9941
-1.2696 0.3860 -0.6142 0.9942
-1.2751 0.1497 -0.5943 0.9944
-1.2644 0.0350 -0.5855 0.9944
-1.2700 -0.0781 -0.5890 0.9944
-1.2699 -0.3104 -0.6051 0.9943
-1.2655 -0.4319 -0.6190 0.9941
-1.2520 -0.5562 -0.6341 0.9940
-3.5666 -2.4210 -1.9953 0.9812
-2.7648 -2.7060 -1.7907 0.9831
-2.3342 -2.7322 -1.6634 0.9843
-1.9468 -2.7393 -1.5556 0.9853
-0.9768 -2.6726 -1.3172 0.9875
-0.4689 -2.6974 -1.2673 0.9880
-0.2218 -2.6674 -1.2389 0.9883
0.0164 -2.6524 -1.2278 0.9884
0.5147 -2.7578 -1.2986 0.9877
1.5298 -4.0300 -1.9953 0.9812
1.8826 -3.8778 -1.9953 0.9812
2.2203 -3.6948 -1.9953 0.9812
3.3705 -2.6873 -1.9953 0.9812
3.5963 -2.3765 -1.9953 0.9812
3.7937 -2.0469 -1.9953 0.9812
4.1997 -0.9716 -1.9953 0.9812
4.3072 0.1729 -1.9953 0.9812
3.9758 1.6656 -1.9953 0.9812
3.3943 2.6571 -1.9953 0.9812
1.9151 3.8569 -1.9933 0.9812
0.8147 4.1594 -1.9619 0.9815
0.4348 4.1543 -1.9335 0.9818
-0.3068 4.1366 -1.9200 0.9819
-0.6789 4.1238 -1.9345 0.9817
-1.0591 4.1080 -1.9637 0.9815
-1.4386 4.0478 -1.9885 0.9812
-2.1390 3.7377 -1.9934 0.9812
-2.7706 3.3023 -1.9953 0.9812
-3.5449 2.4527 -1.9953 0.9812
-1.2639 0.4440 -0.6201 0.9941
-1.2704 0.3226 -0.6067 0.9942
-1.2739 0.2049 -0.5973 0.9943
-1.2713 0.0896 -0.5899 0.9944
-1.2626 -0.0237 -0.5845 0.9944
-1.2702 -0.3738 -0.6129 0.9942
-1.2548 -0.4945 -0.6243 0.9941
-3.8538 -1.9312 -1.9953 0.9812
-3.4502 -2.5841 -1.9953 0.9812
-2.5632 -2.7533 -1.7412 0.9836
-1.7566 -2.7324 -1.5036 0.9858
-1.1132 -2.6849 -1.3454 0.9873
-0.5866 -2.6893 -1.2741 0.9879
-0.0969 -2.6568 -1.2306 0.9884
0.3881 -2.7179 -1.2709 0.9880
1.7155 -3.9546 -1.9953 0.9812
2.0608 -3.7861 -1.9953 0.9812
2.6996 -3.3606 -1.9953 0.9812
4.1545 -1.1498 -1.9953 0.9812
-1.0913 0.5591 -0.6015 0.9946
-1.1124 0.4499 -0.5886 0.9947
-1.1305 0.3437 -0.5796 0.9947
-1.1443 0.1343 -0.5651 0.9949
-1.1329 -0.2769 -0.5721 0.9948
-1.1257 -0.3842 -0.5835 0.9947
-1.1010 -0.4891 -0.5909 0.9946
-3.1489 -2.5751 -1.9953 0.9820
-2.9071 -2.8452 -1.9953 0.9820
-2.3523 -2.7534 -1.7764 0.9840
-1.5940 -2.7286 -1.5501 0.9860
-0.9795 -2.6799 -1.3996 0.9874
-0.2237 -2.6906 -1.3244 0.9880
0.0163 -2.6292 -1.2897 0.9884
0.2548 -2.6641 -1.3128 0.9881
2.0952 -3.4866 -1.9953 0.9820
2.3973 -3.2862 -1.9953 0.9820
2.6804 -3.0598 -1.9953 0.9820
3.1806 -2.5359 -1.9953 0.9820
3.5799 -1.9316 -1.9953 0.9820
3.7377 -1.6052 -1.9953 0.9820
4.0290 -0.5603 -1.9953 0.9820
4.0629 -0.1994 -1.9953 0.9820
4.0338 0.5243 -1.9953 0.9820
3.9711 0.8814 -1.9953 0.9820
3.8769 1.2315 -1.9953 0.9820
3.7518 1.5717 -1.9953 0.9820
3.5970 1.8995 -1.9953 0.9820
2.9671 2.7826 -1.9953 0.9820
2.1263 3.4678 -1.9953 0.9820
1.4767 3.7878 -1.9942 0.9820
0.0613 4.0545 -1.9891 0.9821
-1.0132 3.9298 -1.9907 0.9821
-1.3601 3.8270 -1.9923 0.9821
-1.6972 3.6946 -1.9943 0.9820
-2.0204 3.5305 -1.9953 0.9820
-2.8816 2.8711 -1.9953 0.9820
-3.1258 2.6031 -1.9953 0.9820
-1.0975 0.4993 -0.5915 0.9946
-1.1330 0.2877 -0.5734 0.9948
-1.1432 0.0806 -0.5622 0.9949
-1.1371 -0.0214 -0.5579 0.9949
-1.1443 -0.1240 -0.5646 0.9949
-1.1381 -0.2273 -0.5693 0.9948
-1.0884 -0.5454 -0.5972 0.9946
-3.4600 -2.1390 -1.9953 0.9820
-3.2558 -2.4385 -1.9953 0.9820
-3.0018 -2.6971 -1.9795 0.9822
-2.7717 -2.9773 -1.9953 0.9820
-2.1278 -2.7388 -1.7012 0.9847
-1.7580 -2.7345 -1.5946 0.9856
-1.4223 -2.7174 -1.5045 0.9864
-1.1152 -2.6897 -1.4283 0.9871
-0.5810 -2.6639 -1.3374 0.9879
-0.3362 -2.6628 -1.3165 0.9881
-0.0957 -2.6247 -1.2883 0.9884
0.3864 -2.7057 -1.3407 0.9879
0.6924 -2.9440 -1.4835 0.9866
1.6188 -3.7318 -1.9953 0.9820
1.9446 -3.5728 -1.9953 0.9820
2.2550 -3.3855 -1.9953 0.9820
2.8197 -2.9319 -1.9953 0.9820
3.2950 -2.3853 -1.9953 0.9820
3.4943 -2.0825 -1.9953 0.9820
3.6658 -1.7631 -1.9953 0.9820
3.8082 -1.4297 -1.9953 0.9820
3.9204 -1.0850 -1.9953 0.9820
-1.0169 0.3092 -0.5514 0.9952
-1.0279 0.2148 -0.5448 0.9953
-1.0373 0.1218 -0.5419 0.9953
-1.0334 0.0286 -0.5363 0.9954
-1.0352 -0.1571 -0.5432 0.9953
-1.0119 -0.3454 -0.5547 0.9952
-0.9881 -0.4389 -0.5609 0.9951
-3.1823 -2.1601 -1.9953 0.9828
-2.4983 -2.9243 -1.9953 0.9828
-1.5952 -2.7307 -1.6406 0.9859
-1.2742 -2.7097 -1.5534 0.9866
-0.7137 -2.6695 -1.4335 0.9876
-0.4629 -2.6631 -1.4023 0.9879
-0.2185 -2.6284 -1.3683 0.9882
0.0163 -2.6214 -1.3599 0.9883
0.2540 -2.6559 -1.3841 0.9880
1.0394 -3.7031 -1.9953 0.9828
1.6797 -3.4600 -1.9953 0.9828
2.2668 -3.1073 -1.9953 0.9828
2.7819 -2.6560 -1.9953 0.9828
3.5341 -1.5177 -1.9953 0.9828
3.7472 -0.8669 -1.9953 0.9828
3.8416 -0.1885 -1.9953 0.9828
3.8431 0.1542 -1.9953 0.9828
3.8141 0.4958 -1.9953 0.9828
3.7548 0.8334 -1.9953 0.9828
3.5475 1.4861 -1.9953 0.9828
3.4011 1.7961 -1.9953 0.9828
3.2277 2.0917 -1.9953 0.9828
2.8055 2.6310 -1.9953 0.9828
2.2944 3.0869 -1.9953 0.9828
2.0105 3.2789 -1.9953 0.9828
1.3970 3.5835 -1.9953 0.9828
0.3999 3.8212 -1.9932 0.9828
0.0581 3.8406 -1.9927 0.9828
-0.6242 3.7911 -1.9932 0.9828
-0.9597 3.7223 -1.9942 0.9828
-1.9104 3.3382 -1.9953 0.9828
-2.4721 2.9465 -1.9953 0.9828
-2.7247 2.7147 -1.9953 0.9828
-2.9555 2.4613 -1.9953 0.9828
-3.1629 2.1884 -1.9953 0.9828
-0.9511 0.5397 -0.5673 0.9951
-1.0202 0.2590 -0.5461 0.9953
-1.0370 0.0731 -0.5393 0.9953
-1.0322 -0.0194 -0.5356 0.9954
-1.0376 -0.1124 -0.5414 0.9953
-1.0293 -0.2055 -0.5445 0.9953
-1.0178 -0.2996 -0.5504 0.9952
-1.0014 -0.3946 -0.5584 0.9952
-0.9677 -0.5982 -0.5902 0.9949
-3.0785 -2.3057 -1.9953 0.9828
-2.8610 -2.5706 -1.9953 0.9828
-2.6208 -2.8151 -1.9953 0.9828
-1.4251 -2.7227 -1.5943 0.9862
-1.1173 -2.6947 -1.5134 0.9869
-0.5802 -2.6603 -1.4125 0.9878
-0.3448 -2.7310 -1.4280 0.9877
0.1381 -2.6177 -1.3599 0.9883
0.3851 -2.6967 -1.4132 0.9878
1.2104 -3.6508 -1.9953 0.9828
1.8387 -3.3782 -1.9953 0.9828
2.1322 -3.2011 -1.9953 0.9828
2.6661 -2.7722 -1.9953 0.9828
3.1155 -2.2554 -1.9953 0.9828
3.3040 -1.9690 -1.9953 0.9828
3.6008 -1.3518 -1.9953 0.9828
3.7069 -1.0259 -1.9953 0.9828
-0.8861 0.4540 -0.5453 0.9955
-0.9071 0.3668 -0.5359 0.9955
-0.9220 0.2803 -0.5278 0.9956
-0.9447 -0.1434 -0.5233 0.9957
-0.9170 -0.3130 -0.5307 0.9956
-0.9002 -0.3999 -0.5395 0.9955
-0.8751 -0.5940 -0.5793 0.9952
-2.8201 -2.3063 -1.9953 0.9835
-2.6036 -2.5482 -1.9953 0.9835
-2.1104 -2.9696 -1.9953 0.9835
-1.5965 -2.7328 -1.7335 0.9857
-0.9850 -2.6951 -1.5716 0.9870
-0.4623 -2.6593 -1.4784 0.9878
0.0163 -2.6214 -1.4358 0.9881
0.2540 -2.6561 -1.4614 0.9879
0.5098 -2.7315 -1.5219 0.9874
1.2929 -3.4060 -1.9953 0.9835
1.8765 -3.1226 -1.9953 0.9835
3.3474 -1.4376 -1.9953 0.9835
1.8720 -0.6131 -1.0789 0.9911
1.8865 -0.4364 -1.0605 0.9912
1.8886 -0.2627 -1.0443 0.9913
1.8839 -0.0925 -1.0331 0.9914
1.8822 0.0755 -1.0317 0.9914
1.8888 0.2455 -1.0432 0.9914
1.8864 0.4187 -1.0583 0.9912
3.0572 1.9813 -1.9953 0.9835
2.8687 2.2456 -1.9953 0.9835
2.6573 2.4921 -1.9953 0.9835
2.4249 2.7188 -1.9953 0.9835
1.9043 3.1058 -1.9953 0.9835
1.3233 3.3943 -1.9953 0.9835
-0.2694 3.6331 -1.9953 0.9835
-0.5918 3.5947 -1.9953 0.9835
-1.2200 3.4327 -1.9953 0.9835
-2.0838 2.9883 -1.9953 0.9835
-2.3416 2.7909 -1.9953 0.9835
-2.7995 2.3313 -1.9953 0.9835
-0.8774 0.6071 -0.5844 0.9951
-0.8982 0.4086 -0.5404 0.9955
-0.9153 0.3215 -0.5314 0.9956
-0.9282 0.2357 -0.5245 0.9956
-0.9472 -0.1026 -0.5218 0.9957
-0.9230 -0.2717 -0.5270 0.9956
-0.9087 -0.3581 -0.5349 0.9956
-2.9159 -2.1839 -1.9953 0.9835
-2.7099 -2.4349 -1.9953 0.9835
-2.4824 -2.6665 -1.9953 0.9835
-2.2351 -2.8769 -1.9953 0.9835
-1.4272 -2.7266 -1.6856 0.9861
-0.8423 -2.6859 -1.5417 0.9872
-0.3323 -2.6318 -1.4529 0.9880
-0.0957 -2.6247 -1.4385 0.9881
0.1381 -2.6177 -1.4357 0.9881
1.4498 -3.3422 -1.9953 0.9835
1.7416 -3.1998 -1.9953 0.9835
2.0196 -3.0320 -1.9953 0.9835
2.2815 -2.8402 -1.9953 0.9835
3.1295 -1.8650 -1.9953 0.9835
3.2831 -1.5790 -1.9953 0.9835
-0.8323 0.4264 -0.5399 0.9957
-0.8529 0.3449 -0.5312 0.9958
-0.8650 0.2630 -0.5220 0.9958
-0.8820 0.1035 -0.5127 0.9959
-0.8800 0.0244 -0.5083 0.9959
-0.8808 -0.1337 -0.5143 0.9959
-0.8615 -0.2940 -0.5256 0.9958
-0.8223 -0.4569 -0.5431 0.9957
-2.6753 -2.1879 -1.9953 0.9842
-2.4699 -2.4174 -1.9953 0.9842
-2.2449 -2.6277 -1.9953 0.9842
-2.0020 -2.8171 -1.9953 0.9842
-0.9879 -2.7030 -1.6615 0.9868
-0.7177 -2.6843 -1.6042 0.9872
-0.4644 -2.6720 -1.5658 0.9876
-0.2185 -2.6284 -1.5228 0.9879
0.0163 -2.6214 -1.5135 0.9880
1.7801 -2.9623 -1.9953 0.9842
2.0368 -2.7920 -1.9953 0.9842
2.4997 -2.3865 -1.9953 0.9842
3.1756 -1.3638 -1.9953 0.9842
1.7325 -0.4008 -1.0267 0.9918
1.7414 -0.2422 -1.0151 0.9919
1.7347 0.0696 -1.0024 0.9920
1.7184 0.5458 -1.0410 0.9917
1.8301 0.7667 -1.1456 0.9909
2.7214 2.1303 -1.9953 0.9842
2.3004 2.5792 -1.9953 0.9842
1.5370 3.0954 -1.9953 0.9842
1.2553 3.2200 -1.9953 0.9842
0.3597 3.4372 -1.9953 0.9842
0.0523 3.4556 -1.9953 0.9842
-0.2556 3.4465 -1.9953 0.9842
-0.8628 3.3466 -1.9953 0.9842
-1.1574 3.2565 -1.9953 0.9842
-1.4427 3.1405 -1.9953 0.9842
-2.2213 2.6476 -1.9953 0.9842
-2.4482 2.4393 -1.9953 0.9842
-2.6557 2.2116 -1.9953 0.9842
-0.7984 0.5524 -0.5605 0.9955
-0.8194 0.4649 -0.5439 0.9957
-0.8441 0.3840 -0.5354 0.9957
-0.8794 -0.0165 -0.5078 0.9959
-0.8822 -0.0956 -0.5123 0.9959
-0.8772 -0.1752 -0.5165 0.9959
-0.8656 -0.2548 -0.5210 0.9958
-0.8546 -0.3368 -0.5303 0.9958
-0.8348 -0.4183 -0.5391 0.9957
-0.8064 -0.4985 -0.5474 0.9956
-0.8035 -0.6018 -0.5796 0.9954
-2.5707 -2.3098 -1.9953 0.9842
-2.3549 -2.5296 -1.9953 0.9842
-1.8689 -2.9071 -1.9953 0.9842
-1.4283 -2.7288 -1.7782 0.9859
-0.5837 -2.6761 -1.5814 0.9874
-0.3323 -2.6318 -1.5316 0.9878
-0.0957 -2.6247 -1.5164 0.9879
0.1381 -2.6177 -1.5134 0.9880
0.3840 -2.6888 -1.5681 0.9875
1.3754 -3.1706 -1.9953 0.9842
1.6522 -3.0355 -1.9953 0.9842
2.1644 -2.6944 -1.9953 0.9842
2.7995 -2.0266 -1.9953 0.9842
1.6988 -0.6378 -1.0476 0.9917
