ply
format ascii 1.0
element vertex 1585
property float32 x
property float32 y
property float32 z
property float32 I
end_header
12.7781 14.3277 -1.8431 0.9258
7.8251 12.7779 -1.4385 0.9416
6.4996 13.1160 -1.4053 0.9429
2.0645 10.6282 -1.0394 0.9574
-0.8459 11.0574 -1.0647 0.9564
-1.9759 11.8112 -1.1497 0.9530
-7.1674 12.4208 -1.3767 0.9440
-4.7484 6.7539 -0.7926 0.9674
-12.3998 14.6565 -1.8431 0.9258
-13.5739 13.4069 -1.8316 0.9262
-14.1893 11.7063 -1.7660 0.9287
-10.2289 -16.2462 -1.8431 0.9258
-8.7375 -17.0946 -1.8431 0.9258
-7.1157 -17.6561 -1.8276 0.9264
-5.3256 -17.6084 -1.7661 0.9287
-3.6389 -17.5634 -1.7220 0.9305
-2.0218 -17.5202 -1.6932 0.9316
-0.4456 -17.4782 -1.6785 0.9322
4.2964 -17.3517 -1.7162 0.9307
5.7277 -16.6063 -1.6864 0.9318
9.7291 12.4395 -1.5143 0.9385
4.5606 7.0475 -0.8059 0.9668
4.3867 10.5060 -1.0930 0.9553
3.3104 10.4736 -1.0546 0.9568
2.3420 10.6365 -1.0456 0.9572
0.4013 10.5782 -1.0163 0.9584
-0.2515 4.8801 -0.4691 0.9806
-1.6765 11.8202 -1.1462 0.9532
-2.7636 11.7875 -1.1623 0.9525
-3.8911 11.7536 -1.1886 0.9515
-6.7713 12.4388 -1.3597 0.9447
-4.5301 6.7965 -0.7842 0.9677
-9.3443 11.6189 -1.4315 0.9418
-12.5143 10.8585 -1.5906 0.9356
-5.7783 11.6969 -1.5497 0.9488
-7.5765 12.4066 -1.7268 0.9431
-9.2369 12.4673 -1.8431 0.9394
-11.3071 10.6257 -1.8431 0.9394
-12.2106 9.5737 -1.8431 0.9394
-14.8516 7.8480 -1.9953 0.9346
-15.4930 6.4906 -1.9953 0.9346
-16.0106 5.0814 -1.9953 0.9346
-16.4004 3.6316 -1.9953 0.9346
-16.6591 2.1527 -1.9953 0.9346
-16.7848 0.6567 -1.9953 0.9346
-16.3587 -3.8149 -1.9953 0.9346
-15.9527 -5.2602 -1.9953 0.9346
-15.4194 -6.6636 -1.9953 0.9346
-14.7628 -8.0137 -1.9953 0.9346
-13.1021 -10.5116 -1.9953 0.9346
-12.1113 -11.6394 -1.9953 0.9346
-11.0237 -12.6743 -1.9953 0.9346
-9.8480 -13.6079 -1.9953 0.9346
-2.2294 -3.7442 -0.5176 0.9826
-4.1212 -14.9589 -1.8431 0.9394
-2.7692 -15.2671 -1.8431 0.9394
-1.3950 -15.4534 -1.8431 0.9394
2.7502 -15.2705 -1.8431 0.9394
4.1027 -14.9640 -1.8431 0.9394
5.4638 -14.6491 -1.8572 0.9390
6.9944 -14.6135 -1.9245 0.9368
9.8310 -13.6201 -1.9953 0.9346
11.0078 -12.6879 -1.9953 0.9346
13.9767 -9.3171 -1.9953 0.9346
14.7527 -8.0319 -1.9953 0.9346
15.4109 -6.6826 -1.9953 0.9346
15.9460 -5.2800 -1.9953 0.9346
16.3538 -3.8352 -1.9953 0.9346
16.6309 -2.3597 -1.9953 0.9346
16.7854 0.6359 -1.9953 0.9346
16.0167 5.0614 -1.9953 0.9346
15.5009 6.4713 -1.9953 0.9346
14.1027 9.1251 -1.9953 0.9346
12.2224 9.5585 -1.8431 0.9394
11.3201 10.6116 -1.8431 0.9394
10.3275 11.5799 -1.8431 0.9394
9.2523 12.4558 -1.8431 0.9394
6.4996 13.1160 -1.7388 0.9427
3.0236 10.4650 -1.2939 0.9571
1.0898 10.5989 -1.2656 0.9580
0.1380 10.5703 -1.2557 0.9583
-0.8469 11.0711 -1.3189 0.9563
-1.9759 11.8112 -1.4225 0.9529
-4.2147 11.7439 -1.4821 0.9510
-5.4256 11.7075 -1.5328 0.9494
-6.9457 12.0367 -1.6508 0.9456
-4.7504 6.7566 -0.9811 0.9673
-11.0394 10.9035 -1.8431 0.9394
-11.9688 9.8743 -1.8431 0.9394
-12.8027 8.7663 -1.8431 0.9394
-15.8793 5.4779 -1.9953 0.9346
-16.3050 4.0382 -1.9953 0.9346
-16.7633 1.0738 -1.9953 0.9346
-16.7922 -0.4272 -1.9953 0.9346
-16.4485 -3.4070 -1.9953 0.9346
-14.9575 -7.6442 -1.9953 0.9346
-14.2152 -8.9491 -1.9953 0.9346
-13.3594 -10.1826 -1.9953 0.9346
-12.3969 -11.3347 -1.9953 0.9346
-11.3354 -12.3963 -1.9953 0.9346
-2.3848 -3.7877 -0.5317 0.9821
-1.8774 -3.6730 -0.4900 0.9835
-3.1479 -15.1936 -1.8431 0.9394
-1.7788 -15.4139 -1.8431 0.9394
-0.3954 -15.5112 -1.8431 0.9394
2.3697 -15.3342 -1.8431 0.9394
9.4894 -13.8603 -1.9953 0.9346
10.6890 -12.9577 -1.9953 0.9346
14.5484 -8.3962 -1.9953 0.9346
15.2400 -7.0638 -1.9953 0.9346
15.8098 -5.6748 -1.9953 0.9346
16.2534 -4.2406 -1.9953 0.9346
16.7484 -1.2822 -1.9953 0.9346
16.7960 0.2183 -1.9953 0.9346
16.4894 3.2022 -1.9953 0.9346
11.5805 10.3268 -1.8431 0.9394
9.5591 12.2219 -1.8431 0.9394
2.3420 10.6365 -1.2937 0.9571
-1.6765 11.8202 -1.4181 0.9530
-2.5805 11.0066 -1.3429 0.9555
-5.0804 11.7179 -1.5171 0.9499
-6.5587 12.0483 -1.6295 0.9462
-4.5514 6.8284 -0.9748 0.9675
-11.7196 10.1689 -1.8431 0.9394
-12.5807 9.0819 -1.8431 0.9394
-14.4431 8.5766 -1.9953 0.9346
-15.1512 7.2527 -1.9953 0.9346
-16.1995 4.4424 -1.9953 0.9346
-16.5315 2.9783 -1.9953 0.9346
-5.7614 11.6627 -1.8431 0.9488
-6.7797 11.1017 -1.8431 0.9488
-5.0507 6.8171 -1.2021 0.9663
-8.6461 9.7189 -1.8431 0.9488
-10.9126 7.0801 -1.8431 0.9488
-13.4225 4.2600 -1.9953 0.9447
-13.9662 1.8048 -1.9953 0.9447
-14.0716 0.5506 -1.9953 0.9447
-13.9451 -1.9610 -1.9953 0.9447
-12.9269 -5.5864 -1.9953 0.9447
-12.3765 -6.7183 -1.9953 0.9447
-10.1535 -9.7580 -1.9953 0.9447
-3.7404 -13.5765 -1.9953 0.9447
-0.0087 -14.0823 -1.9953 0.9447
2.4960 -13.8593 -1.9953 0.9447
3.7235 -13.5811 -1.9953 0.9447
4.9212 -13.1944 -1.9953 0.9447
7.1894 -12.1087 -1.9953 0.9447
11.7174 -7.8110 -1.9953 0.9447
13.3685 -4.4265 -1.9953 0.9447
13.7103 -3.2152 -1.9953 0.9447
13.9426 -1.9782 -1.9953 0.9447
14.0635 -0.7255 -1.9953 0.9447
13.9683 1.7874 -1.9953 0.9447
12.9952 5.4252 -1.9953 0.9447
12.4589 6.5639 -1.9953 0.9447
10.9213 7.0665 -1.8431 0.9488
10.2467 8.0134 -1.8431 0.9488
6.7934 11.0932 -1.8431 0.9488
5.7758 11.6555 -1.8431 0.9488
1.0898 10.5989 -1.5097 0.9579
-1.9759 11.8112 -1.6968 0.9528
-2.8688 10.9979 -1.6104 0.9551
-5.4256 11.7075 -1.8283 0.9492
-9.2549 9.1410 -1.8431 0.9488
-10.0341 8.2782 -1.8431 0.9488
-10.7331 7.3492 -1.8431 0.9488
-12.8493 5.7627 -1.9953 0.9447
-13.3125 4.5924 -1.9953 0.9447
-13.9170 2.1514 -1.9953 0.9447
-14.0535 0.9003 -1.9953 0.9447
-13.0618 -5.2633 -1.9953 0.9447
-12.5397 -6.4085 -1.9953 0.9447
-11.9174 -7.5025 -1.9953 0.9447
-11.1999 -8.5366 -1.9953 0.9447
-1.9852 -3.1531 -0.5279 0.9851
-1.6984 -3.3229 -0.5287 0.9850
-1.4333 -3.5564 -0.5433 0.9846
-4.0768 -13.4793 -1.9953 0.9447
-2.8570 -13.7894 -1.9953 0.9447
-1.6144 -13.9895 -1.9953 0.9447
0.8995 -14.0535 -1.9953 0.9447
3.3847 -13.6695 -1.9953 0.9447
4.5917 -13.3127 -1.9953 0.9447
6.8862 -12.2837 -1.9953 0.9447
8.9612 -10.8631 -1.9953 0.9447
9.8953 -10.0196 -1.9953 0.9447
11.5196 -8.0999 -1.9953 0.9447
12.7765 -5.9219 -1.9953 0.9447
13.2543 -4.7575 -1.9953 0.9447
13.6261 -3.5551 -1.9953 0.9447
14.0411 -1.0749 -1.9953 0.9447
14.0810 0.1830 -1.9953 0.9447
13.8240 2.6845 -1.9953 0.9447
13.5291 3.9081 -1.9953 0.9447
13.1261 5.1004 -1.9953 0.9447
11.0936 6.7928 -1.8431 0.9488
10.4428 7.7561 -1.8431 0.9488
9.7086 8.6576 -1.8431 0.9488
4.5526 7.0352 -1.1873 0.9667
2.3420 10.6365 -1.5432 0.9570
1.3579 10.6069 -1.5152 0.9577
-0.2514 4.8788 -0.6922 0.9805
-2.5805 11.0066 -1.6018 0.9554
-3.8911 11.7536 -1.7542 0.9512
-5.0804 11.7179 -1.8096 0.9497
-6.2194 11.4250 -1.8431 0.9488
-4.5544 6.8330 -1.1635 0.9674
-8.1523 10.1367 -1.8431 0.9488
-9.0248 9.3683 -1.8431 0.9488
-9.8252 8.5251 -1.8431 0.9488
-12.7020 6.0803 -1.9953 0.9447
-13.1942 4.9220 -1.9953 0.9447
-13.5809 3.7243 -1.9953 0.9447
-14.0268 1.2494 -1.9953 0.9447
-4.9552 10.0309 -1.8431 0.9557
-7.4363 8.3591 -1.8431 0.9557
-8.1530 7.6617 -1.8431 0.9557
-9.3857 6.0895 -1.8431 0.9557
-11.1712 4.6800 -1.9953 0.9521
-11.5445 3.6639 -1.9953 0.9521
-12.0121 1.5522 -1.9953 0.9521
-12.1027 0.4735 -1.9953 0.9521
-12.0967 -0.6090 -1.9953 0.9521
-11.9940 -1.6866 -1.9953 0.9521
-10.6448 -5.7783 -1.9953 0.9521
-10.0863 -6.7057 -1.9953 0.9521
-9.4473 -7.5794 -1.9953 0.9521
-2.1625 -2.9882 -0.6077 0.9852
-1.5110 -3.1470 -0.5751 0.9859
-1.0412 -3.7795 -0.6458 0.9842
-1.0889 -12.0629 -1.9953 0.9521
2.1468 -11.9201 -1.9953 0.9521
3.2025 -11.6809 -1.9953 0.9521
4.2327 -11.3483 -1.9953 0.9521
6.1836 -10.4145 -1.9953 0.9521
8.7224 -8.4035 -1.9953 0.9521
9.4379 -7.5911 -1.9953 0.9521
10.0780 -6.7181 -1.9953 0.9521
10.6375 -5.7915 -1.9953 0.9521
11.9918 -1.7015 -1.9953 0.9521
11.1770 4.6662 -1.9953 0.9521
10.6977 5.6360 -1.9920 0.9522
9.3932 6.0778 -1.8431 0.9557
8.8130 6.8922 -1.8431 0.9557
8.1625 7.6515 -1.8431 0.9557
4.5309 7.3986 -1.4292 0.9654
4.9677 10.0247 -1.8431 0.9557
2.0742 10.6780 -1.7920 0.9569
1.0898 10.5989 -1.7553 0.9577
0.1380 10.5703 -1.7415 0.9581
-0.8488 11.0960 -1.8333 0.9559
-1.8460 11.0347 -1.8431 0.9557
-5.5919 9.6904 -1.8431 0.9557
-8.6302 7.1199 -1.8431 0.9557
-9.2314 6.3209 -1.8431 0.9557
-9.7589 5.4715 -1.8431 0.9557
-11.0514 4.9564 -1.9953 0.9521
-11.4498 3.9498 -1.9953 0.9521
-12.1081 -0.3080 -1.9953 0.9521
-11.5935 -3.5057 -1.9953 0.9521
-10.7852 -5.5118 -1.9953 0.9521
-10.2499 -6.4528 -1.9953 0.9521
-9.6329 -7.3422 -1.9953 0.9521
-3.9129 -3.5776 -0.8734 0.9787
-2.2757 -2.9854 -0.6184 0.9849
-1.0873 -3.5949 -0.6187 0.9849
-1.3885 -12.0321 -1.9953 0.9521
0.7736 -12.0872 -1.9953 0.9521
4.9557 -11.0517 -1.9953 0.9521
6.8423 -9.9940 -1.9953 0.9521
7.7073 -9.3432 -1.9953 0.9521
8.5108 -8.6177 -1.9953 0.9521
9.9078 -6.9666 -1.9953 0.9521
10.4902 -6.0542 -1.9953 0.9521
11.7196 -3.0577 -1.9953 0.9521
12.0766 -0.9245 -1.9953 0.9521
12.1109 0.1574 -1.9953 0.9521
12.0484 1.2381 -1.9953 0.9521
11.6361 3.3613 -1.9953 0.9521
11.2896 4.3868 -1.9953 0.9521
10.8528 5.3773 -1.9953 0.9521
8.3502 7.4462 -1.8431 0.9557
7.6520 8.1620 -1.8431 0.9557
6.8927 8.8126 -1.8431 0.9557
4.3108 10.3242 -1.8431 0.9557
3.3718 10.6679 -1.8431 0.9557
1.3585 10.6118 -1.7624 0.9576
-0.2514 4.8782 -0.8047 0.9804
-2.5538 10.8927 -1.8431 0.9557
-4.4505 10.2648 -1.8431 0.9557
-4.2026 7.7201 -1.4480 0.9650
-4.5634 6.8465 -1.3555 0.9672
-7.7620 8.0575 -1.8431 0.9557
-9.0714 6.5485 -1.8431 0.9557
-9.6198 5.7124 -1.8431 0.9557
-11.6807 3.2032 -1.9953 0.9521
-11.9201 2.1475 -1.9953 0.9521
-12.0642 1.0746 -1.9953 0.9521
-4.1958 6.8706 -1.5132 0.9678
-4.7179 6.3678 -1.4896 0.9683
-6.5176 7.3263 -1.8431 0.9609
-7.7168 6.0503 -1.8431 0.9609
-8.2261 5.3372 -1.8431 0.9609
-9.7911 4.1018 -1.9953 0.9577
-10.5281 1.3605 -1.9953 0.9577
-10.6075 0.4150 -1.9953 0.9577
-10.6022 -0.5337 -1.9953 0.9577
-10.0817 -3.3243 -1.9953 0.9577
-9.7446 -4.2112 -1.9953 0.9577
-9.3297 -5.0644 -1.9953 0.9577
-8.8402 -5.8772 -1.9953 0.9577
-3.7382 -2.9991 -0.9008 0.9807
-3.0425 -2.9240 -0.7931 0.9830
-2.1276 -2.9400 -0.6821 0.9853
-1.4330 -2.9845 -0.6223 0.9866
-1.1812 -3.1551 -0.6332 0.9864
-0.9635 -3.4973 -0.6818 0.9853
-0.9544 -10.5726 -1.9953 0.9577
-0.0066 -10.6156 -1.9953 0.9577
1.8816 -10.4475 -1.9953 0.9577
2.8069 -10.2377 -1.9953 0.9577
3.7098 -9.9462 -1.9953 0.9577
6.9567 -8.0184 -1.9953 0.9577
8.2719 -6.6533 -1.9953 0.9577
8.8329 -5.8881 -1.9953 0.9577
9.3233 -5.0759 -1.9953 0.9577
10.3351 -2.4237 -1.9953 0.9577
10.5103 -1.4913 -1.9953 0.9577
10.6014 -0.5469 -1.9953 0.9577
10.6079 0.4019 -1.9953 0.9577
10.5297 1.3474 -1.9953 0.9577
10.3673 2.2822 -1.9953 0.9577
9.7961 4.0897 -1.9953 0.9577
7.7242 6.0407 -1.8431 0.9609
6.5267 7.3182 -1.8431 0.9609
4.9805 6.7049 -1.5699 0.9666
2.7218 9.4205 -1.8431 0.9609
1.0029 9.7544 -1.8431 0.9609
0.1280 9.8050 -1.8431 0.9609
-0.7480 9.7773 -1.8431 0.9609
-3.3123 9.2295 -1.8431 0.9609
-4.1231 8.8969 -1.8431 0.9609
-4.2043 7.2858 -1.5811 0.9663
-5.3760 6.3543 -1.5645 0.9667
-6.9766 6.8907 -1.8431 0.9609
-8.0909 5.5400 -1.8431 0.9609
-9.6861 4.3440 -1.9953 0.9577
-10.0353 3.4618 -1.9953 0.9577
-10.4910 1.6218 -1.9953 0.9577
-10.6122 -0.2700 -1.9953 0.9577
-10.1612 -3.0726 -1.9953 0.9577
-9.8463 -3.9676 -1.9953 0.9577
-8.9836 -5.6556 -1.9953 0.9577
-3.9174 -2.9859 -0.9258 0.9802
-2.6776 -2.9282 -0.7458 0.9840
-1.8583 -2.9515 -0.6556 0.9859
-1.2450 -3.0892 -0.6260 0.9865
-1.0218 -3.3784 -0.6634 0.9857
-0.8638 -4.1691 -0.8003 0.9828
-1.2170 -10.5456 -1.9953 0.9577
0.6781 -10.5939 -1.9953 0.9577
1.6212 -10.4910 -1.9953 0.9577
2.5515 -10.3044 -1.9953 0.9577
3.4613 -10.0354 -1.9953 0.9577
4.3435 -9.6863 -1.9953 0.9577
5.1910 -9.2598 -1.9953 0.9577
5.9970 -8.7593 -1.9953 0.9577
7.4593 -7.5530 -1.9953 0.9577
8.1039 -6.8569 -1.9953 0.9577
9.1942 -5.3062 -1.9953 0.9577
9.6313 -4.4641 -1.9953 0.9577
10.2717 -2.6799 -1.9953 0.9577
10.5846 -0.8103 -1.9953 0.9577
10.6146 0.1380 -1.9953 0.9577
10.5599 1.0852 -1.9953 0.9577
10.4208 2.0237 -1.9953 0.9577
10.1985 2.9460 -1.9953 0.9577
7.3185 6.5263 -1.8431 0.9609
6.7066 7.1537 -1.8431 0.9609
5.2510 6.7137 -1.6021 0.9659
4.3170 6.6710 -1.4935 0.9682
2.9552 9.3499 -1.8431 0.9609
2.1086 9.5764 -1.8431 0.9609
0.3717 9.7988 -1.8431 0.9609
-0.2513 4.8775 -0.9180 0.9803
-1.3770 9.7087 -1.8431 0.9609
-2.2383 9.5469 -1.8431 0.9609
-3.0818 9.3090 -1.8431 0.9609
-4.2415 6.3635 -1.4374 0.9694
-5.1147 6.3597 -1.5340 0.9673
-6.8031 7.0620 -1.8431 0.9609
-7.4064 6.4264 -1.8431 0.9609
-7.9507 5.7395 -1.8431 0.9609
-8.4314 5.0067 -1.8431 0.9609
-9.5538 4.5733 -1.9909 0.9578
-10.5737 0.9418 -1.9953 0.9577
-4.1958 6.8706 -1.7017 0.9676
-6.3540 5.9711 -1.8431 0.9650
-6.8618 5.3800 -1.8431 0.9650
-7.3148 4.7458 -1.8431 0.9650
-8.1137 4.2875 -1.9398 0.9632
-9.3475 -1.3144 -1.9953 0.9621
-8.6650 -3.7446 -1.9953 0.9621
-7.8608 -5.2261 -1.9953 0.9621
-3.5795 -2.8718 -0.9700 0.9814
-3.0051 -2.8880 -0.8810 0.9831
-2.0948 -2.8946 -0.7553 0.9855
-0.9102 -3.3036 -0.7243 0.9861
-0.6972 -3.8436 -0.8257 0.9842
-0.8486 -9.4012 -1.9953 0.9621
0.8370 -9.4023 -1.9953 0.9621
3.2987 -8.8443 -1.9953 0.9621
4.0752 -8.5144 -1.9953 0.9621
4.8192 -8.1166 -1.9953 0.9621
5.5246 -7.6539 -1.9953 0.9621
7.3554 -5.9161 -1.9953 0.9621
7.8542 -5.2358 -1.9953 0.9621
8.9610 -2.9671 -1.9953 0.9621
9.1901 -2.1552 -1.9953 0.9621
9.3458 -1.3260 -1.9953 0.9621
8.7108 3.6366 -1.9953 0.9621
8.3412 4.3945 -1.9929 0.9622
6.8684 5.3714 -1.8431 0.9650
3.8716 7.8127 -1.8431 0.9650
1.6627 8.5594 -1.8431 0.9650
0.8918 8.6737 -1.8431 0.9650
-0.6651 8.6940 -1.8431 0.9650
-1.4387 8.5999 -1.8431 0.9650
-2.2008 8.4371 -1.8431 0.9650
-2.9453 8.2069 -1.8431 0.9650
-3.6663 7.9112 -1.8431 0.9650
-4.1367 7.1687 -1.7495 0.9667
-6.7259 5.5489 -1.8431 0.9650
-9.1626 2.2693 -1.9953 0.9621
-9.3287 1.4421 -1.9953 0.9621
-9.3773 -1.0816 -1.9953 0.9621
-8.7554 -3.5280 -1.9953 0.9621
-8.4054 -4.2957 -1.9953 0.9621
-2.2021 -2.8888 -0.7678 0.9853
-1.1997 -2.9768 -0.6784 0.9870
-0.9700 -3.2072 -0.7083 0.9864
-0.7535 -3.6369 -0.7851 0.9849
1.4416 -9.3287 -1.9953 0.9621
2.2688 -9.1627 -1.9953 0.9621
3.0778 -8.9236 -1.9953 0.9621
4.6159 -8.2339 -1.9953 0.9621
5.3326 -7.7889 -1.9953 0.9621
6.0067 -7.2816 -1.9953 0.9621
7.2060 -6.0972 -1.9953 0.9621
7.7217 -5.4294 -1.9953 0.9621
8.1756 -4.7183 -1.9953 0.9621
8.8844 -3.1890 -1.9953 0.9621
9.3100 -1.5580 -1.9953 0.9621
9.4119 -0.7205 -1.9953 0.9621
9.3900 0.9649 -1.9953 0.9621
9.0686 2.6196 -1.9953 0.9621
8.7985 3.4189 -1.9953 0.9621
7.4361 4.5532 -1.8431 0.9650
6.5077 5.8032 -1.8431 0.9650
4.3251 6.6836 -1.6828 0.9680
4.0646 7.7141 -1.8431 0.9650
2.6278 8.3140 -1.8431 0.9650
1.8750 8.5154 -1.8431 0.9650
-0.2513 4.8768 -1.0322 0.9802
-1.9903 8.4892 -1.8431 0.9650
-3.4685 7.9999 -1.8431 0.9650
-7.4972 4.4520 -1.8431 0.9650
-9.1034 2.4964 -1.9953 0.9621
-9.2899 1.6736 -1.9953 0.9621
-3.4734 7.0311 -1.8431 0.9683
-4.0873 6.6929 -1.8431 0.9683
-5.2125 5.8593 -1.8431 0.9683
-5.7148 5.3705 -1.8431 0.9683
-7.8305 3.2805 -1.9953 0.9657
-8.4199 1.0880 -1.9953 0.9657
-8.4834 0.3319 -1.9953 0.9657
-8.4072 -1.1822 -1.9953 0.9657
-7.7933 -3.3679 -1.9953 0.9657
-7.4614 -4.0503 -1.9953 0.9657
-7.0700 -4.7003 -1.9953 0.9657
-2.9679 -2.8522 -0.9674 0.9832
-2.4927 -2.8660 -0.8927 0.9845
-2.0627 -2.8503 -0.8269 0.9856
-1.0965 -2.9288 -0.7350 0.9872
-0.8691 -3.1547 -0.7690 0.9866
-0.6421 -3.5399 -0.8455 0.9853
-0.3732 -4.1347 -0.9757 0.9831
-0.0053 -8.4899 -1.9953 0.9657
2.2448 -8.1877 -1.9953 0.9657
2.9669 -7.9546 -1.9953 0.9657
4.9688 -6.8839 -1.9953 0.9657
5.5636 -6.4128 -1.9953 0.9657
6.1140 -5.8904 -1.9953 0.9657
7.0641 -4.7091 -1.9953 0.9657
7.4564 -4.0595 -1.9953 0.9657
8.0595 -2.6686 -1.9953 0.9657
8.2656 -1.9384 -1.9953 0.9657
8.4056 -1.1926 -1.9953 0.9657
8.4785 -0.4374 -1.9953 0.9657
8.2913 1.8252 -1.9953 0.9657
7.8345 3.2707 -1.9953 0.9657
6.7665 4.3782 -1.8942 0.9674
5.7215 5.3633 -1.8431 0.9683
4.6763 6.2954 -1.8431 0.9683
4.0956 6.6878 -1.8431 0.9683
3.4821 7.0268 -1.8431 0.9683
2.1768 7.5341 -1.8431 0.9683
-0.5982 7.8194 -1.8431 0.9683
-1.9794 7.5883 -1.8431 0.9683
-2.6490 7.3813 -1.8431 0.9683
-4.4428 6.3191 -1.8155 0.9688
-7.7465 3.4742 -1.9953 0.9657
-8.0258 2.7686 -1.9953 0.9657
-8.3902 1.2971 -1.9953 0.9657
-8.4871 -0.2159 -1.9953 0.9657
-8.4340 -0.9728 -1.9953 0.9657
-8.1265 -2.4573 -1.9953 0.9657
-7.8746 -3.1731 -1.9953 0.9657
-7.1847 -4.5231 -1.9953 0.9657
-3.1060 -2.8399 -0.9891 0.9829
-2.6395 -2.8866 -0.9193 0.9841
-2.1678 -2.8438 -0.8404 0.9854
-1.8037 -2.8648 -0.7956 0.9862
-0.9330 -3.0849 -0.7574 0.9868
-0.7079 -3.4165 -0.8200 0.9858
-0.4706 -4.0781 -0.9648 0.9833
1.2966 -8.3902 -1.9953 0.9657
2.0405 -8.2410 -1.9953 0.9657
2.7682 -8.0259 -1.9953 0.9657
3.4737 -7.7467 -1.9953 0.9657
4.1515 -7.4056 -1.9953 0.9657
5.4025 -6.5491 -1.9953 0.9657
5.9656 -6.0406 -1.9953 0.9657
6.9449 -4.8832 -1.9953 0.9657
7.3531 -4.2437 -1.9953 0.9657
7.9907 -2.8682 -1.9953 0.9657
8.3734 -1.4013 -1.9953 0.9657
8.4651 -0.6480 -1.9953 0.9657
8.4891 0.1103 -1.9953 0.9657
8.3341 1.6184 -1.9953 0.9657
8.1563 2.3561 -1.9953 0.9657
7.9134 3.0749 -1.9953 0.9657
6.2957 4.6760 -1.8431 0.9683
5.8530 5.2194 -1.8431 0.9683
3.6557 6.9380 -1.8431 0.9683
2.3635 7.4776 -1.8431 0.9683
0.9958 7.7788 -1.8431 0.9683
-0.2502 4.8561 -1.1428 0.9802
-1.1012 7.7645 -1.8431 0.9683
-3.1195 7.1951 -1.8431 0.9683
-3.7495 6.8878 -1.8431 0.9683
-4.2150 6.3238 -1.7861 0.9693
-4.9148 6.1111 -1.8431 0.9683
-5.4408 5.6479 -1.8431 0.9683
-6.8490 4.0670 -1.8721 0.9678
-7.6577 3.6657 -1.9953 0.9657
-8.1876 2.2453 -1.9953 0.9657
-8.3554 1.5053 -1.9953 0.9657
-4.2377 5.7197 -1.8431 0.9710
-5.1874 4.8748 -1.8431 0.9710
-5.6020 4.3922 -1.8431 0.9710
-6.8130 3.6002 -1.9951 0.9687
-7.3453 2.3312 -1.9953 0.9687
-7.6428 0.9876 -1.9953 0.9687
-7.6966 -0.3875 -1.9953 0.9687
-7.6313 -1.0731 -1.9953 0.9687
-7.0741 -3.0571 -1.9953 0.9687
-6.7728 -3.6765 -1.9953 0.9687
-2.9312 -2.8170 -1.0526 0.9833
-2.4691 -2.8388 -0.9741 0.9846
-2.0313 -2.8068 -0.8971 0.9858
-1.6839 -2.8280 -0.8522 0.9865
-1.3670 -2.8470 -0.8177 0.9870
-0.8403 -3.0500 -0.8191 0.9870
-0.6072 -3.3475 -0.8809 0.9860
-0.3338 -3.6983 -0.9615 0.9848
0.3624 -4.0715 -1.0584 0.9833
1.3659 -7.5843 -1.9953 0.9687
2.0376 -7.4321 -1.9953 0.9687
3.9344 -6.6264 -1.9953 0.9687
4.5103 -6.2486 -1.9953 0.9687
5.0502 -5.8209 -1.9953 0.9687
6.0049 -4.8299 -1.9953 0.9687
6.7682 -3.6849 -1.9953 0.9687
7.6440 0.9781 -1.9953 0.9687
6.4539 4.1760 -1.9903 0.9687
5.6074 4.3852 -1.8431 0.9710
3.7176 6.0706 -1.8431 0.9710
3.1607 6.3783 -1.8431 0.9710
2.5786 6.6350 -1.8431 0.9710
1.9759 6.8388 -1.8431 0.9710
0.7281 7.0812 -1.8431 0.9710
-1.7967 6.8880 -1.8431 0.9710
-2.4045 6.7001 -1.8431 0.9710
-3.5579 6.1656 -1.8431 0.9710
-4.0942 5.8233 -1.8431 0.9710
-5.0646 5.0023 -1.8431 0.9710
-5.4910 4.5301 -1.8431 0.9710
-5.8736 4.0218 -1.8431 0.9710
-7.0316 3.1535 -1.9953 0.9687
-7.2851 2.5131 -1.9953 0.9687
-7.4804 1.8526 -1.9953 0.9687
-7.6906 0.4927 -1.9953 0.9687
-7.7039 -0.1960 -1.9953 0.9687
-7.5462 -1.5630 -1.9953 0.9687
-6.8622 -3.5070 -1.9953 0.9687
-6.5216 -4.1056 -1.9953 0.9687
-3.0637 -2.8012 -1.0748 0.9830
-2.6137 -2.8584 -1.0029 0.9841
-1.7772 -2.8227 -0.8636 0.9863
-1.4527 -2.8421 -0.8264 0.9869
-1.1497 -2.8528 -0.7964 0.9874
-0.9024 -2.9836 -0.8071 0.9872
-0.6717 -3.2418 -0.8572 0.9864
-0.4222 -3.6582 -0.9535 0.9849
-0.0968 -3.7952 -0.9830 0.9844
3.1531 -7.0317 -1.9953 0.9687
3.7684 -6.7221 -1.9953 0.9687
4.9039 -5.9447 -1.9953 0.9687
6.3039 -4.4326 -1.9953 0.9687
6.6745 -3.8520 -1.9953 0.9687
6.9918 -3.2407 -1.9953 0.9687
7.2532 -2.6035 -1.9953 0.9687
7.4567 -1.9455 -1.9953 0.9687
7.6006 -1.2719 -1.9953 0.9687
7.7057 0.1002 -1.9953 0.9687
6.9052 3.4214 -1.9953 0.9687
5.8056 4.3120 -1.8724 0.9706
5.3129 4.7377 -1.8431 0.9710
4.3855 5.6071 -1.8431 0.9710
3.8674 5.9763 -1.8431 0.9710
3.3183 6.2977 -1.8431 0.9710
2.7428 6.5689 -1.8431 0.9710
0.2699 7.1134 -1.8431 0.9710
-0.2477 4.8067 -1.2462 0.9803
-0.9996 7.0480 -1.8431 0.9710
-1.6249 6.9306 -1.8431 0.9710
-2.8316 6.5311 -1.8431 0.9710
-4.4612 5.5472 -1.8431 0.9710
-4.9387 5.1267 -1.8431 0.9710
-5.3767 4.6653 -1.8431 0.9710
-5.7718 4.1666 -1.8431 0.9710
-6.9510 3.3274 -1.9953 0.9687
-7.2203 2.6935 -1.9953 0.9687
-3.8758 5.2313 -1.8431 0.9733
-5.8983 3.8268 -1.9904 0.9712
-6.7180 2.1321 -1.9953 0.9711
-6.8816 1.5238 -1.9953 0.9711
-6.8641 -1.6007 -1.9953 0.9711
-5.8695 -3.9022 -1.9953 0.9711
-2.8949 -2.7821 -1.1366 0.9834
-2.4456 -2.8118 -1.0549 0.9846
-2.0004 -2.7642 -0.9659 0.9859
-1.6604 -2.7887 -0.9188 0.9866
-1.3490 -2.8094 -0.8823 0.9871
-0.8133 -2.9522 -0.8669 0.9874
-0.3067 -3.3976 -0.9657 0.9859
-0.0022 -3.4901 -0.9880 0.9856
0.3200 -3.5946 -1.0216 0.9851
2.4631 -6.6039 -1.9953 0.9711
3.0429 -6.3576 -1.9953 0.9711
3.5984 -6.0605 -1.9953 0.9711
5.0758 -4.8902 -1.9953 0.9711
5.4921 -4.4175 -1.9953 0.9711
5.8646 -3.9094 -1.9953 0.9711
6.1903 -3.3702 -1.9953 0.9711
6.6910 -2.2155 -1.9953 0.9711
6.8621 -1.6092 -1.9953 0.9711
7.0432 0.2668 -1.9953 0.9711
6.8834 1.5153 -1.9953 0.9711
6.7207 2.1238 -1.9953 0.9711
6.5042 2.7154 -1.9953 0.9711
5.9175 3.8289 -1.9953 0.9711
5.4794 4.2851 -1.9692 0.9715
4.7499 4.4526 -1.8431 0.9733
4.3334 4.8590 -1.8431 0.9733
3.8823 5.2265 -1.8431 0.9733
3.4001 5.5522 -1.8431 0.9733
2.3584 6.0684 -1.8431 0.9733
1.8072 6.2548 -1.8431 0.9733
1.2415 6.3911 -1.8431 0.9733
0.6659 6.4765 -1.8431 0.9733
0.0850 6.5100 -1.8431 0.9733
-1.6433 6.2998 -1.8431 0.9733
-2.7376 5.9071 -1.8431 0.9733
-4.6321 4.5751 -1.8431 0.9733
-5.7942 3.9675 -1.9880 0.9712
-6.1479 3.4469 -1.9953 0.9711
-6.4311 2.8842 -1.9953 0.9711
-6.6629 2.2985 -1.9953 0.9711
-7.0338 0.4506 -1.9953 0.9711
-7.0460 -0.1792 -1.9953 0.9711
-6.9018 -1.4296 -1.9953 0.9711
-6.7466 -2.0401 -1.9953 0.9711
-6.2762 -3.2075 -1.9953 0.9711
-5.9647 -3.7550 -1.9953 0.9711
-3.0258 -2.7665 -1.1606 0.9831
-2.5882 -2.8304 -1.0858 0.9842
-2.1093 -2.7671 -0.9850 0.9856
-1.1347 -2.8155 -0.8593 0.9875
-0.6454 -3.1151 -0.9006 0.9869
-0.3888 -3.3693 -0.9601 0.9860
0.6092 -3.9423 -1.1293 0.9836
2.8839 -6.4313 -1.9953 0.9711
4.9526 -5.0149 -1.9953 0.9711
6.9516 -1.1633 -1.9953 0.9711
7.0113 0.7205 -1.9953 0.9711
6.7714 1.9560 -1.9953 0.9711
6.5697 2.5528 -1.9953 0.9711
6.3155 3.1292 -1.9953 0.9711
6.0109 3.6806 -1.9953 0.9711
5.6413 4.1899 -1.9893 0.9712
4.8592 4.3332 -1.8431 0.9733
4.4529 4.7497 -1.8431 0.9733
1.4000 6.3583 -1.8431 0.9733
-0.2471 4.7953 -1.3593 0.9802
-1.4861 6.3387 -1.8431 0.9733
-3.1128 5.7183 -1.8431 0.9733
-4.5169 4.6889 -1.8431 0.9733
-5.5305 3.9924 -1.9310 0.9720
-6.0574 3.5970 -1.9943 0.9711
-6.3574 3.0432 -1.9953 0.9711
-6.6037 2.4635 -1.9953 0.9711
-6.7973 1.8640 -1.9953 0.9711
-6.9366 1.2497 -1.9953 0.9711
-7.0205 0.6253 -1.9953 0.9711
-2.6540 5.3725 -1.8431 0.9752
-3.1231 5.1141 -1.8431 0.9752
-3.5673 4.8148 -1.8431 0.9752
-5.0859 3.9876 -1.9878 0.9733
-5.4421 3.5308 -1.9953 0.9732
-5.9833 2.5066 -1.9953 0.9732
-6.4822 0.2536 -1.9953 0.9732
-6.4790 -0.3262 -1.9953 0.9732
-6.1609 -2.0315 -1.9953 0.9732
-5.9549 -2.5735 -1.9953 0.9732
-5.7013 -3.0949 -1.9953 0.9732
-3.4282 -2.7504 -1.3518 0.9818
-1.6376 -2.7503 -0.9845 0.9867
-1.3311 -2.7723 -0.9459 0.9872
-1.0442 -2.7891 -0.9160 0.9876
-0.2846 -3.1526 -0.9736 0.9868
-0.0020 -3.2364 -0.9955 0.9865
0.6547 -3.6350 -1.1360 0.9847
2.8006 -5.8515 -1.9953 0.9732
3.3119 -5.5780 -1.9953 0.9732
3.7967 -5.2600 -1.9953 0.9732
4.2512 -4.9000 -1.9953 0.9732
4.6717 -4.5009 -1.9953 0.9732
5.0549 -4.0658 -1.9953 0.9732
6.1583 -2.0391 -1.9953 0.9732
6.3158 -1.4811 -1.9953 0.9732
6.4825 0.2456 -1.9953 0.9732
6.4347 0.8234 -1.9953 0.9732
6.1856 1.9547 -1.9953 0.9732
5.9864 2.4992 -1.9953 0.9732
5.4465 3.5241 -1.9953 0.9732
5.1027 3.9906 -1.9924 0.9733
4.5541 4.2690 -1.9200 0.9742
3.5732 4.8104 -1.8431 0.9752
3.1295 5.1102 -1.8431 0.9752
2.6607 5.3692 -1.8431 0.9752
1.6633 5.7568 -1.8431 0.9752
1.1427 5.8824 -1.8431 0.9752
-0.9887 5.9102 -1.8431 0.9752
-1.5125 5.7983 -1.8431 0.9752
-2.5196 5.4369 -1.8431 0.9752
-2.9950 5.1902 -1.8431 0.9752
-3.8704 4.5747 -1.8431 0.9752
-4.2634 4.2109 -1.8431 0.9752
-5.3470 3.6612 -1.9932 0.9732
-6.2969 1.5595 -1.9953 0.9732
-6.4110 0.9911 -1.9953 0.9732
-6.4444 -0.7433 -1.9953 0.9732
-6.0170 -2.4246 -1.9953 0.9732
-5.4899 -3.4561 -1.9953 0.9732
-3.6347 -2.7704 -1.4057 0.9811
-2.0905 -2.7424 -1.0606 0.9857
-1.7272 -2.7432 -0.9971 0.9865
-1.4142 -2.7668 -0.9557 0.9871
-1.1213 -2.7821 -0.9226 0.9875
-0.8498 -2.8098 -0.9029 0.9878
-0.6246 -3.0148 -0.9470 0.9872
0.2099 -3.2798 -1.0109 0.9863
1.5592 -6.2970 -1.9953 0.9732
2.1152 -6.1326 -1.9953 0.9732
2.6543 -5.9193 -1.9953 0.9732
3.1722 -5.6587 -1.9953 0.9732
4.1281 -5.0042 -1.9953 0.9732
4.5584 -4.6157 -1.9953 0.9732
4.9523 -4.1902 -1.9953 0.9732
5.6186 -3.2426 -1.9953 0.9732
6.1057 -2.1916 -1.9953 0.9732
6.3982 -1.0707 -1.9953 0.9732
6.4866 0.0843 -1.9953 0.9732
6.4532 0.6631 -1.9953 0.9732
6.3682 1.2367 -1.9953 0.9732
5.8128 2.8801 -1.9953 0.9732
5.2060 3.8666 -1.9946 0.9732
4.7836 4.2658 -1.9714 0.9735
3.6917 4.7201 -1.8431 0.9752
0.7609 5.9438 -1.8431 0.9752
0.2272 5.9880 -1.8431 0.9752
-0.2465 4.7838 -1.4733 0.9802
-1.3678 5.8341 -1.8431 0.9752
-2.3837 5.4978 -1.8431 0.9752
-2.8650 5.2630 -1.8431 0.9752
-3.3235 4.9862 -1.8431 0.9752
-4.6382 4.0244 -1.8888 0.9746
-5.2487 3.7890 -1.9911 0.9733
-5.5779 3.3122 -1.9953 0.9732
-6.2562 1.7156 -1.9953 0.9732
-6.3844 1.1502 -1.9953 0.9732
-2.4558 4.9713 -1.8431 0.9769
-2.8899 4.7321 -1.8431 0.9769
-3.6854 4.1427 -1.8431 0.9769
-4.7180 3.6991 -1.9929 0.9750
-5.5364 2.3194 -1.9953 0.9750
-5.7214 1.8158 -1.9953 0.9750
-5.8607 1.2977 -1.9953 0.9750
-5.9442 -0.8359 -1.9953 0.9750
-5.7007 -1.8798 -1.9953 0.9750
-5.5101 -2.3812 -1.9953 0.9750
-5.2755 -2.8637 -1.9953 0.9750
-3.3758 -2.7084 -1.4386 0.9819
-2.8403 -2.7296 -1.3094 0.9835
-1.9752 -2.7294 -1.1199 0.9859
-1.6151 -2.7126 -1.0494 0.9868
-0.7674 -2.7855 -0.9604 0.9879
-0.5243 -2.8907 -0.9766 0.9877
-0.2682 -2.9706 -0.9914 0.9875
0.5978 -3.3193 -1.1211 0.9859
2.0977 -5.6242 -1.9953 0.9750
2.5915 -5.4144 -1.9953 0.9750
3.0645 -5.1614 -1.9953 0.9750
3.9337 -4.5341 -1.9953 0.9750
4.3228 -4.1647 -1.9953 0.9750
4.6774 -3.7621 -1.9953 0.9750
4.9946 -3.3295 -1.9953 0.9750
5.6984 -1.8868 -1.9953 0.9750
5.9947 -0.3092 -1.9953 0.9750
5.9983 0.2272 -1.9953 0.9750
5.9541 0.7619 -1.9953 0.9750
5.8623 1.2905 -1.9953 0.9750
4.7284 3.6978 -1.9953 0.9750
4.3684 4.0950 -1.9903 0.9751
3.7931 4.2531 -1.8943 0.9763
3.3063 4.4511 -1.8431 0.9769
2.8957 4.7285 -1.8431 0.9769
2.0085 5.1682 -1.8431 0.9769
-0.3641 4.7592 -1.5866 0.9801
-1.3995 5.3652 -1.8431 0.9769
-2.3314 5.0308 -1.8431 0.9769
-2.7713 4.8025 -1.8431 0.9769
-3.1890 4.5359 -1.8431 0.9769
-4.0860 4.0357 -1.9090 0.9761
-4.6202 3.8117 -1.9910 0.9751
-4.9528 3.3913 -1.9953 0.9750
-5.2359 2.9356 -1.9953 0.9750
-5.6745 1.9575 -1.9953 0.9750
-5.9322 0.9171 -1.9953 0.9750
-5.9904 0.3837 -1.9953 0.9750
-5.9631 -0.6878 -1.9953 0.9750
-5.7457 -1.7374 -1.9953 0.9750
-5.5676 -2.2435 -1.9953 0.9750
-5.3451 -2.7317 -1.9953 0.9750
-3.6333 -2.7693 -1.5186 0.9809
-2.5375 -2.7750 -1.2499 0.9843
-2.0787 -2.7270 -1.1398 0.9857
-1.7077 -2.7123 -1.0654 0.9866
-1.3953 -2.7299 -1.0191 0.9872
-1.1083 -2.7501 -0.9856 0.9876
-0.5939 -2.8665 -0.9731 0.9877
-0.0771 -3.0261 -1.0062 0.9873
0.5021 -3.2490 -1.0928 0.9862
1.4427 -5.8267 -1.9953 0.9750
2.4561 -5.4772 -1.9953 0.9750
3.8197 -4.6305 -1.9953 0.9750
4.2179 -4.2709 -1.9953 0.9750
4.5824 -3.8773 -1.9953 0.9750
4.9103 -3.4526 -1.9953 0.9750
5.8082 -1.5154 -1.9953 0.9750
6.0021 0.0780 -1.9953 0.9750
5.9712 0.6136 -1.9953 0.9750
5.7668 1.6659 -1.9953 0.9750
5.3786 2.6650 -1.9953 0.9750
5.1192 3.1346 -1.9953 0.9750
4.4730 3.9888 -1.9922 0.9751
2.1364 5.1166 -1.8431 0.9769
1.6710 5.2870 -1.8431 0.9769
1.1923 5.4150 -1.8431 0.9769
0.7041 5.4999 -1.8431 0.9769
-0.7786 5.4898 -1.8431 0.9769
-1.2657 5.3984 -1.8431 0.9769
-3.4749 4.3208 -1.8431 0.9769
-3.8999 4.0483 -1.8685 0.9766
-5.1613 3.0648 -1.9953 0.9750
-5.7889 1.5875 -1.9953 0.9750
-5.9790 0.5326 -1.9953 0.9750
-2.2827 4.6209 -1.8431 0.9783
-2.6862 4.3986 -1.8431 0.9783
-4.0577 3.8132 -1.9912 0.9766
-4.3909 3.4427 -1.9953 0.9766
-4.6808 3.0369 -1.9953 0.9766
-4.9332 2.6068 -1.9953 0.9766
-5.4477 1.2063 -1.9953 0.9766
-5.5336 0.7151 -1.9953 0.9766
-5.5754 0.2181 -1.9953 0.9766
-5.5726 -0.2805 -1.9953 0.9766
-5.4338 -1.2672 -1.9953 0.9766
-5.1218 -2.2134 -1.9953 0.9766
-4.6465 -3.0891 -1.9953 0.9766
-1.9767 -2.7313 -1.2057 0.9858
-1.2962 -2.6996 -1.0709 0.9874
-0.7594 -2.7565 -1.0225 0.9879
-0.2541 -2.8149 -1.0107 0.9881
-0.0018 -2.8742 -1.0278 0.9879
0.2603 -2.9237 -1.0497 0.9876
0.5579 -3.0978 -1.1256 0.9867
1.9499 -5.2278 -1.9953 0.9766
2.4088 -5.0328 -1.9953 0.9766
3.2656 -4.5242 -1.9953 0.9766
4.3478 -3.4970 -1.9953 0.9766
4.6426 -3.0949 -1.9953 0.9766
4.9004 -2.6680 -1.9953 0.9766
5.1191 -2.2198 -1.9953 0.9766
5.4322 -1.2739 -1.9953 0.9766
5.5756 0.2112 -1.9953 0.9766
5.5345 0.7082 -1.9953 0.9766
5.3203 1.6813 -1.9953 0.9766
5.1489 2.1496 -1.9953 0.9766
4.9364 2.6007 -1.9953 0.9766
4.6845 3.0311 -1.9953 0.9766
4.0700 3.8152 -1.9949 0.9766
3.1471 4.2368 -1.8874 0.9778
2.6916 4.3953 -1.8431 0.9783
1.8670 4.8040 -1.8431 0.9783
0.9828 5.0594 -1.8431 0.9783
0.5271 5.1270 -1.8431 0.9783
-0.8504 5.0834 -1.8431 0.9783
-2.1671 4.6763 -1.8431 0.9783
-2.9643 4.2162 -1.8431 0.9783
-3.4309 4.0553 -1.8996 0.9777
-3.9584 3.9097 -1.9896 0.9766
-4.3040 3.5508 -1.9953 0.9766
-4.8669 2.7287 -1.9953 0.9766
-5.0911 2.2832 -1.9953 0.9766
-5.2746 1.8196 -1.9953 0.9766
-5.4160 1.3414 -1.9953 0.9766
-5.5141 0.8524 -1.9953 0.9766
-5.5778 -0.1419 -1.9953 0.9766
-5.5429 -0.6393 -1.9953 0.9766
-5.4636 -1.1317 -1.9953 0.9766
-5.3408 -1.6150 -1.9953 0.9766
-5.1753 -2.0854 -1.9953 0.9766
-4.9684 -2.5392 -1.9953 0.9766
-4.7218 -2.9726 -1.9953 0.9766
-3.6665 -2.7947 -1.6486 0.9806
-2.9481 -2.6955 -1.4285 0.9832
-1.3767 -2.6934 -1.0817 0.9872
0.1855 -2.8985 -1.0386 0.9877
0.4710 -3.0479 -1.1029 0.9870
1.3411 -5.4161 -1.9953 0.9766
2.7284 -4.8670 -1.9953 0.9766
3.5505 -4.3041 -1.9953 0.9766
3.9207 -3.9699 -1.9953 0.9766
4.5642 -3.2093 -1.9953 0.9766
5.2515 -1.8850 -1.9953 0.9766
5.3989 -1.4086 -1.9953 0.9766
5.5031 -0.9209 -1.9953 0.9766
5.5791 0.0725 -1.9953 0.9766
5.5504 0.5704 -1.9953 0.9766
5.3604 1.5485 -1.9953 0.9766
5.2008 2.0209 -1.9953 0.9766
4.9996 2.4772 -1.9953 0.9766
4.7584 2.9137 -1.9953 0.9766
3.3121 4.2347 -1.9226 0.9774
2.8001 4.3270 -1.8431 0.9783
2.4026 4.5597 -1.8431 0.9783
1.9859 4.7560 -1.8431 0.9783
1.1083 5.0334 -1.8431 0.9783
0.1954 5.1503 -1.8431 0.9783
-0.2453 4.7605 -1.7046 0.9800
-1.1765 5.0179 -1.8431 0.9783
-1.6198 4.8928 -1.8431 0.9783
-2.8585 4.2887 -1.8431 0.9783
-4.7975 2.8489 -1.9953 0.9766
-5.0327 2.4091 -1.9953 0.9766
-5.2277 1.9502 -1.9953 0.9766
-5.5576 0.4950 -1.9953 0.9766
-2.1302 4.3121 -1.8431 0.9796
-2.5067 4.1047 -1.8431 0.9796
-3.4522 3.8805 -1.9904 0.9780
-3.7942 3.5656 -1.9953 0.9779
-4.0975 3.2126 -1.9953 0.9779
-4.6035 2.4326 -1.9953 0.9779
-4.9628 1.5751 -1.9953 0.9779
-2.2991 0.0899 -0.8817 0.9902
-2.3013 -0.1159 -0.8830 0.9902
-5.0707 -1.1825 -1.9953 0.9779
-4.7795 -2.0655 -1.9953 0.9779
-4.3360 -2.8826 -1.9953 0.9779
-3.3758 -2.7084 -1.6586 0.9816
-2.3698 -2.7247 -1.3838 0.9847
-1.9781 -2.7333 -1.2930 0.9857
-1.2905 -2.6876 -1.1425 0.9873
-0.4974 -2.7424 -1.0681 0.9881
-0.0017 -2.7347 -1.0480 0.9884
0.2465 -2.7692 -1.0654 0.9882
1.8196 -4.8784 -1.9953 0.9779
2.2479 -4.6965 -1.9953 0.9779
4.0572 -3.2633 -1.9953 0.9779
4.3324 -2.8880 -1.9953 0.9779
4.5729 -2.4897 -1.9953 0.9779
4.7769 -2.0714 -1.9953 0.9779
5.1646 0.6609 -1.9953 0.9779
5.0850 1.1194 -1.9953 0.9779
4.8048 2.0059 -1.9953 0.9779
4.1014 3.2075 -1.9953 0.9779
3.7987 3.5609 -1.9953 0.9779
3.4625 3.8824 -1.9935 0.9780
3.0943 4.1656 -1.9886 0.9780
1.3350 4.6206 -1.8431 0.9796
0.4919 4.7843 -1.8431 0.9796
0.0628 4.8091 -1.8431 0.9796
-0.3615 4.7249 -1.8159 0.9799
-1.2139 4.6538 -1.8431 0.9796
-1.6246 4.5269 -1.8431 0.9796
-2.0223 4.3637 -1.8431 0.9796
-3.3524 3.9625 -1.9890 0.9780
-4.0163 3.3135 -1.9953 0.9779
-4.7508 2.1306 -1.9953 0.9779
-5.0540 1.2517 -1.9953 0.9779
-4.9839 -1.5071 -1.9953 0.9779
-4.6364 -2.3695 -1.9953 0.9779
-4.4063 -2.7739 -1.9953 0.9779
-2.9481 -2.6955 -1.5308 0.9830
-2.0818 -2.7310 -1.3160 0.9854
-1.7140 -2.7223 -1.2328 0.9863
-1.0828 -2.6867 -1.1100 0.9877
-0.5691 -2.7467 -1.0750 0.9881
-0.3157 -2.7359 -1.0554 0.9883
0.1757 -2.7451 -1.0541 0.9883
0.4437 -2.8710 -1.1133 0.9876
1.2514 -5.0541 -1.9953 0.9779
1.6977 -4.9222 -1.9953 0.9779
2.5461 -4.5417 -1.9953 0.9779
2.9414 -4.2963 -1.9953 0.9779
3.3133 -4.0165 -1.9953 0.9779
4.2592 -2.9948 -1.9953 0.9779
4.7239 -2.1896 -1.9953 0.9779
4.9006 -1.7590 -1.9953 0.9779
5.0381 -1.3145 -1.9953 0.9779
5.1353 -0.8594 -1.9953 0.9779
5.1915 -0.3974 -1.9953 0.9779
5.2063 0.0677 -1.9953 0.9779
5.1794 0.5323 -1.9953 0.9779
5.1112 0.9926 -1.9953 0.9779
5.0022 1.4450 -1.9953 0.9779
4.6654 2.3116 -1.9953 0.9779
3.8860 3.4653 -1.9953 0.9779
2.7298 4.2183 -1.9255 0.9787
1.8531 4.4382 -1.8431 0.9796
0.6107 4.7706 -1.8431 0.9796
0.1823 4.8061 -1.8431 0.9796
-0.2447 4.7486 -1.8222 0.9798
-1.5115 4.5659 -1.8431 0.9796
-2.7186 4.0786 -1.8784 0.9792
-3.2507 4.0419 -1.9877 0.9780
-3.6074 3.7447 -1.9926 0.9780
-3.9327 3.4123 -1.9953 0.9779
-4.2217 3.0476 -1.9953 0.9779
-4.6964 2.2481 -1.9953 0.9779
-5.0213 1.3770 -1.9953 0.9779
-5.1242 0.9232 -1.9953 0.9779
-2.0248 4.0989 -1.8711 0.9804
-2.8948 3.9072 -1.9902 0.9792
-3.5527 3.3386 -1.9953 0.9791
-4.0898 2.6535 -1.9953 0.9791
-4.4966 1.8838 -1.9953 0.9791
-2.0204 0.2611 -0.8338 0.9912
-2.0006 0.0783 -0.8194 0.9914
-2.0047 -0.1009 -0.8215 0.9914
-2.0956 -0.4887 -0.8807 0.9907
-4.6300 -1.5267 -1.9953 0.9791
-4.4752 -1.9340 -1.9953 0.9791
-4.2847 -2.3258 -1.9953 0.9791
-3.3758 -2.7084 -1.7713 0.9815
-2.8002 -2.6911 -1.5895 0.9834
-1.2927 -2.6923 -1.2223 0.9872
-0.4948 -2.7279 -1.1347 0.9881
-0.0017 -2.7063 -1.1076 0.9884
0.5001 -2.7766 -1.1547 0.9879
1.2891 -4.7017 -1.9953 0.9791
1.7037 -4.5679 -1.9953 0.9791
2.1047 -4.3975 -1.9953 0.9791
2.8533 -3.9530 -1.9953 0.9791
3.5109 -3.3825 -1.9953 0.9791
3.7989 -3.0555 -1.9953 0.9791
4.0565 -2.7042 -1.9953 0.9791
4.4728 -1.9395 -1.9953 0.9791
4.6281 -1.5324 -1.9953 0.9791
4.8688 -0.2512 -1.9953 0.9791
4.8717 0.1846 -1.9953 0.9791
4.8358 0.6188 -1.9953 0.9791
4.7612 1.0481 -1.9953 0.9791
4.6486 1.4690 -1.9953 0.9791
4.0931 2.6484 -1.9953 0.9791
3.8403 3.0033 -1.9953 0.9791
3.2449 3.6384 -1.9953 0.9791
2.5376 4.1437 -1.9887 0.9792
2.0822 4.2018 -1.9193 0.9799
1.2500 4.3264 -1.8431 0.9807
0.0588 4.5030 -1.8431 0.9807
-0.3435 4.4902 -1.8431 0.9807
-0.7431 4.4416 -1.8431 0.9807
-1.1367 4.3575 -1.8431 0.9807
-1.5212 4.2387 -1.8431 0.9807
-2.3541 4.0795 -1.9277 0.9798
-3.1456 3.7181 -1.9933 0.9792
-3.4686 3.4259 -1.9953 0.9791
-4.0226 2.7544 -1.9953 0.9791
-4.2525 2.3842 -1.9953 0.9791
-4.4484 1.9950 -1.9953 0.9791
-4.6087 1.5899 -1.9953 0.9791
-2.1031 0.5209 -0.8867 0.9907
-2.0300 0.3138 -0.8407 0.9912
-2.0091 0.1287 -0.8240 0.9913
-1.9966 -0.0508 -0.8174 0.9914
-2.0193 -0.2329 -0.8319 0.9913
-4.6665 -1.4111 -1.9953 0.9791
-4.1258 -2.5973 -1.9953 0.9791
-3.8774 -2.9553 -1.9953 0.9791
-2.9481 -2.6955 -1.6349 0.9829
-1.7170 -2.7270 -1.3189 0.9862
-1.3798 -2.6995 -1.2408 0.9870
-1.0771 -2.6725 -1.1793 0.9876
-0.5661 -2.7321 -1.1419 0.9880
-0.3131 -2.7134 -1.1179 0.9883
0.4264 -2.7590 -1.1426 0.9880
0.7993 -3.2279 -1.3610 0.9857
1.5896 -4.6088 -1.9953 0.9791
1.9948 -4.4485 -1.9953 0.9791
2.3840 -4.2526 -1.9953 0.9791
3.1023 -3.7608 -1.9953 0.9791
3.4257 -3.4688 -1.9953 0.9791
4.2225 -2.4369 -1.9953 0.9791
4.8083 -0.8047 -1.9953 0.9791
4.8610 -0.3721 -1.9953 0.9791
4.8748 0.0634 -1.9953 0.9791
4.8497 0.4984 -1.9953 0.9791
4.6837 1.3530 -1.9953 0.9791
4.5442 1.7658 -1.9953 0.9791
4.3684 2.1644 -1.9953 0.9791
4.1577 2.5458 -1.9953 0.9791
3.3344 3.5566 -1.9953 0.9791
3.0016 3.8378 -1.9941 0.9792
2.6413 4.0816 -1.9898 0.9792
1.7550 4.2031 -1.8642 0.9805
1.3572 4.2940 -1.8431 0.9807
0.5718 4.4669 -1.8431 0.9807
0.1707 4.5001 -1.8431 0.9807
-0.2318 4.4974 -1.8431 0.9807
-0.6324 4.4587 -1.8431 0.9807
-1.4163 4.2781 -1.8444 0.9807
-2.6940 4.0418 -1.9880 0.9792
-3.6823 3.1951 -1.9953 0.9791
-3.9529 2.8535 -1.9953 0.9791
-4.3974 2.1050 -1.9953 0.9791
-4.5678 1.7040 -1.9953 0.9791
-4.7017 1.2893 -1.9953 0.9791
-2.0575 0.3707 -0.8556 0.9910
-2.0153 0.1795 -0.8281 0.9913
-2.0148 4.0785 -1.9825 0.9803
-2.3805 3.8980 -1.9906 0.9803
-2.7239 3.6766 -1.9942 0.9802
-3.8408 2.4919 -1.9953 0.9802
-4.0479 2.1390 -1.9953 0.9802
-4.2227 1.7690 -1.9953 0.9802
-1.4938 0.4741 -0.6830 0.9932
-1.4731 0.1904 -0.6473 0.9935
-1.4525 -0.0731 -0.6338 0.9937
-1.4861 -0.3466 -0.6650 0.9934
-1.4928 -0.4923 -0.6851 0.9932
-4.2027 -1.8162 -1.9953 0.9802
-4.0237 -2.1842 -1.9953 0.9802
-2.8002 -2.6911 -1.6926 0.9832
-2.3736 -2.7291 -1.5763 0.9843
0.4978 -2.7643 -1.2241 0.9878
1.2106 -4.4154 -1.9953 0.9802
1.5999 -4.2897 -1.9953 0.9802
1.9766 -4.1297 -1.9953 0.9802
3.0003 -3.4582 -1.9953 0.9802
3.2971 -3.1765 -1.9953 0.9802
3.5675 -2.8694 -1.9953 0.9802
4.4574 -1.0453 -1.9953 0.9802
4.5329 -0.6432 -1.9953 0.9802
4.5722 -0.2360 -1.9953 0.9802
4.4713 0.9843 -1.9953 0.9802
4.3655 1.3795 -1.9953 0.9802
4.2249 1.7638 -1.9953 0.9802
4.0506 2.1340 -1.9953 0.9802
3.6064 2.8204 -1.9953 0.9802
3.0473 3.4169 -1.9953 0.9802
2.3879 3.8993 -1.9927 0.9802
2.0268 4.0900 -1.9893 0.9803
1.2083 4.1821 -1.8972 0.9812
0.8118 4.1791 -1.8554 0.9816
0.0552 4.2287 -1.8431 0.9817
-1.0765 4.1270 -1.8588 0.9816
-1.4743 4.1081 -1.9022 0.9811
-2.2818 3.9542 -1.9897 0.9803
-2.9571 3.4952 -1.9953 0.9802
-3.2573 3.2173 -1.9953 0.9802
-3.7776 2.5866 -1.9953 0.9802
-3.9935 2.2390 -1.9953 0.9802
-1.4907 0.5142 -0.6872 0.9931
-1.4897 0.3690 -0.6689 0.9933
-1.4765 -0.3058 -0.6572 0.9934
-3.6412 -2.7753 -1.9953 0.9802
-2.9481 -2.6955 -1.7409 0.9827
-2.4932 -2.7266 -1.6102 0.9840
-1.3823 -2.7043 -1.3236 0.9868
-0.8062 -2.6655 -1.2137 0.9879
-0.3105 -2.6909 -1.1805 0.9883
-0.0683 -2.6791 -1.1680 0.9884
0.1719 -2.6858 -1.1729 0.9883
0.4235 -2.7407 -1.2086 0.9880
1.4928 -4.3281 -1.9953 0.9802
2.9134 -3.5317 -1.9953 0.9802
3.4951 -2.9573 -1.9953 0.9802
3.7452 -2.6334 -1.9953 0.9802
3.9653 -2.2885 -1.9953 0.9802
4.4300 -1.1558 -1.9953 0.9802
4.5155 -0.7557 -1.9953 0.9802
4.5779 0.0595 -1.9953 0.9802
4.3985 1.2706 -1.9953 0.9802
4.2675 1.6582 -1.9953 0.9802
3.9045 2.3908 -1.9953 0.9802
3.4170 3.0471 -1.9953 0.9802
2.8206 3.6063 -1.9953 0.9802
2.4854 3.8408 -1.9938 0.9802
1.3220 4.1825 -1.9117 0.9810
0.5370 4.1949 -1.8431 0.9817
0.1603 4.2261 -1.8431 0.9817
-0.5939 4.1872 -1.8431 0.9817
-0.9688 4.1324 -1.8498 0.9817
-3.1763 3.2972 -1.9953 0.9802
-4.1296 1.9768 -1.9953 0.9802
-1.4933 0.4095 -0.6748 0.9933
-1.4703 0.2649 -0.6511 0.9935
-1.9055 3.8573 -1.9915 0.9812
-2.8651 3.2206 -1.9953 0.9812
-3.1412 2.9519 -1.9953 0.9812
-3.3923 2.6597 -1.9953 0.9812
-3.6162 2.3462 -1.9953 0.9812
-1.2685 0.4026 -0.6160 0.9942
-1.2680 0.2808 -0.6012 0.9943
-1.2681 -0.0638 -0.5877 0.9944
-1.2671 -0.4178 -0.6176 0.9941
-1.2449 -0.5380 -0.6277 0.9940
-3.7884 -2.0565 -1.9953 0.9812
-3.5897 -2.3865 -1.9953 0.9812
-2.8002 -2.6911 -1.7977 0.9830
-2.3788 -2.7350 -1.6778 0.9841
-1.9826 -2.7396 -1.5654 0.9852
-1.6241 -2.7276 -1.4694 0.9861
-1.2974 -2.7021 -1.3874 0.9869
-1.0013 -2.6745 -1.3219 0.9875
-0.4895 -2.6986 -1.2695 0.9880
-0.2409 -2.6689 -1.2404 0.9883
-0.0016 -2.6508 -1.2270 0.9884
0.4956 -2.7518 -1.2943 0.9878
1.1398 -4.1572 -1.9953 0.9812
3.1043 -2.9908 -1.9953 0.9812
3.7859 -2.0612 -1.9953 0.9812
3.9548 -1.7149 -1.9953 0.9812
4.0921 -1.3550 -1.9953 0.9812
4.3075 0.1632 -1.9953 0.9812
3.6191 2.3417 -1.9953 0.9812
2.8691 3.2171 -1.9953 0.9812
2.2512 3.6761 -1.9953 0.9812
0.8080 4.1593 -1.9613 0.9815
0.4271 4.1542 -1.9331 0.9818
0.0541 4.1466 -1.9195 0.9819
-0.3164 4.1363 -1.9202 0.9819
-1.0714 4.1075 -1.9649 0.9815
-2.4792 3.5263 -1.9953 0.9812
-2.7842 3.2909 -1.9953 0.9812
-3.5567 2.4354 -1.9953 0.9812
-1.2649 0.4364 -0.6194 0.9941
-1.2701 0.3146 -0.6057 0.9942
-1.2744 0.1970 -0.5969 0.9943
-1.2704 0.0814 -0.5892 0.9944
-1.2639 -0.0322 -0.5852 0.9944
-1.2697 -0.3839 -0.6140 0.9942
-1.2525 -0.5047 -0.6251 0.9941
-3.8384 -1.9616 -1.9953 0.9812
-3.6479 -2.2965 -1.9953 0.9812
-3.4283 -2.6131 -1.9953 0.9812
-2.9481 -2.6955 -1.8491 0.9825
-2.0867 -2.7374 -1.5933 0.9849
-1.7195 -2.7311 -1.4939 0.9859
-0.8051 -2.6621 -1.2873 0.9878
-0.3083 -2.6711 -1.2446 0.9882
-0.0677 -2.6542 -1.2290 0.9884
0.4216 -2.7285 -1.2780 0.9879
0.7603 -3.0707 -1.4643 0.9862
1.4055 -4.0750 -1.9953 0.9812
2.1079 -3.7601 -1.9953 0.9812
2.4352 -3.5569 -1.9953 0.9812
2.7430 -3.3252 -1.9953 0.9812
3.0290 -3.0670 -1.9953 0.9812
3.2907 -2.7843 -1.9953 0.9812
3.9109 -1.8127 -1.9953 0.9812
4.1710 -1.0882 -1.9953 0.9812
4.2515 -0.7115 -1.9953 0.9812
4.2880 0.4406 -1.9953 0.9812
3.8625 1.9138 -1.9953 0.9812
3.2172 2.8689 -1.9953 0.9812
2.9482 3.1447 -1.9953 0.9812
2.6557 3.3954 -1.9953 0.9812
2.3419 3.6189 -1.9953 0.9812
2.0082 3.8112 -1.9941 0.9812
1.6575 3.9696 -1.9912 0.9812
0.9160 4.1603 -1.9719 0.9814
0.5320 4.1559 -1.9394 0.9817
-0.2133 4.1394 -1.9186 0.9819
-0.9641 4.1122 -1.9551 0.9816
-1.3498 4.0772 -1.9880 0.9812
-3.2558 2.8250 -1.9953 0.9812
-1.2597 0.4699 -0.6224 0.9941
-1.2707 0.3484 -0.6099 0.9942
-1.2720 0.2292 -0.5983 0.9943
-1.2734 0.1134 -0.5918 0.9944
-1.8014 3.6466 -1.9951 0.9820
-2.7037 3.0392 -1.9953 0.9820
-2.9642 2.7856 -1.9953 0.9820
-3.2011 2.5098 -1.9953 0.9820
-3.4124 2.2140 -1.9953 0.9820
-1.1402 0.0446 -0.5597 0.9949
-1.1415 -0.0575 -0.5606 0.9949
-1.1275 -0.3718 -0.5823 0.9947
-1.1047 -0.4774 -0.5903 0.9947
-3.3874 -2.2520 -1.9953 0.9820
-2.9329 -2.8186 -1.9953 0.9820
-2.3990 -2.7582 -1.7931 0.9838
-1.6253 -2.7297 -1.5584 0.9859
-1.2998 -2.7071 -1.4730 0.9867
-0.4868 -2.6837 -1.3379 0.9879
0.4933 -2.7392 -1.3653 0.9877
1.0755 -3.9229 -1.9953 0.9820
1.4215 -3.8112 -1.9953 0.9820
2.0767 -3.4977 -1.9953 0.9820
2.3807 -3.2983 -1.9953 0.9820
2.6657 -3.0725 -1.9953 0.9820
2.9294 -2.8222 -1.9953 0.9820
3.3846 -2.2562 -1.9953 0.9820
3.5725 -1.9450 -1.9953 0.9820
3.8615 -1.2786 -1.9953 0.9820
4.0623 -0.2096 -1.9953 0.9820
4.0648 0.1540 -1.9953 0.9820
3.9726 0.8745 -1.9953 0.9820
3.7537 1.5671 -1.9953 0.9820
2.9677 2.7819 -1.9953 0.9820
2.1243 3.4689 -1.9953 0.9820
1.4727 3.7893 -1.9942 0.9821
1.1273 3.9016 -1.9921 0.9821
0.7738 3.9836 -1.9906 0.9821
0.0529 4.0546 -1.9890 0.9821
-0.3093 4.0432 -1.9891 0.9821
-0.6692 4.0005 -1.9896 0.9821
-1.0243 3.9269 -1.9907 0.9821
-1.3720 3.8228 -1.9923 0.9821
-1.7096 3.6890 -1.9944 0.9820
-2.0331 3.5232 -1.9953 0.9820
-2.8941 2.8584 -1.9953 0.9820
-3.3563 2.2981 -1.9953 0.9820
-1.1330 0.2806 -0.5725 0.9948
-1.1431 0.1767 -0.5674 0.9949
-1.1382 -0.0290 -0.5585 0.9949
-1.1307 -0.3419 -0.5794 0.9948
-1.1128 -0.4484 -0.5885 0.9947
-1.0910 -0.5576 -0.6010 0.9946
-3.4424 -2.1671 -1.9953 0.9820
-2.9481 -2.6955 -1.9595 0.9824
-2.7450 -3.0019 -1.9953 0.9820
-1.7209 -2.7332 -1.5843 0.9857
-1.3874 -2.7145 -1.4954 0.9865
-0.5532 -2.6701 -1.3376 0.9879
-0.3066 -2.6568 -1.3119 0.9882
-0.0669 -2.6239 -1.2875 0.9884
0.7481 -3.0212 -1.5267 0.9862
2.2980 -3.3564 -1.9953 0.9820
2.8583 -2.8942 -1.9953 0.9820
3.6905 -1.7106 -1.9953 0.9820
3.8285 -1.3742 -1.9953 0.9820
3.9359 -1.0269 -1.9953 0.9820
4.0119 -0.6714 -1.9953 0.9820
4.0464 0.4158 -1.9953 0.9820
3.4690 2.1241 -1.9953 0.9820
3.2655 2.4254 -1.9953 0.9820
2.5060 3.2041 -1.9953 0.9820
2.2099 3.4150 -1.9953 0.9820
1.8962 3.5987 -1.9953 0.9820
-0.2087 4.0495 -1.9890 0.9821
-0.5695 4.0155 -1.9894 0.9821
-0.9262 3.9505 -1.9903 0.9821
-1.6168 3.7292 -1.9938 0.9821
-2.5493 3.1698 -1.9953 0.9820
-2.8221 2.9295 -1.9953 0.9820
-3.0724 2.6658 -1.9953 0.9820
-3.2981 2.3809 -1.9953 0.9820
-3.4975 2.0769 -1.9953 0.9820
-1.0893 0.5215 -0.5924 0.9946
-1.1198 0.4177 -0.5862 0.9947
-1.1326 0.3106 -0.5761 0.9948
-1.1407 0.2055 -0.5686 0.9948
-2.8028 2.6339 -1.9953 0.9828
-0.9597 0.5071 -0.5631 0.9951
-1.0368 0.1340 -0.5424 0.9953
-1.0357 -0.0521 -0.5380 0.9953
-1.0361 -0.1457 -0.5428 0.9953
-0.9916 -0.4285 -0.5604 0.9951
-3.2029 -2.1294 -1.9953 0.9828
-1.9858 -2.7440 -1.7572 0.9849
-1.6266 -2.7318 -1.6494 0.9858
-1.0066 -2.6886 -1.4893 0.9871
-0.2373 -2.6290 -1.3694 0.9882
0.2466 -2.7697 -1.4425 0.9875
0.4917 -2.7302 -1.4391 0.9876
1.0170 -3.7093 -1.9953 0.9828
1.3441 -3.6037 -1.9953 0.9828
2.2510 -3.1186 -1.9953 0.9828
3.2003 -2.1333 -1.9953 0.9828
3.5287 -1.5302 -1.9953 0.9828
3.7446 -0.8781 -1.9953 0.9828
3.8080 -0.5403 -1.9953 0.9828
3.8434 0.1456 -1.9953 0.9828
3.6674 1.1589 -1.9953 0.9828
3.5493 1.4817 -1.9953 0.9828
3.2291 2.0894 -1.9953 0.9828
2.8060 2.6304 -1.9953 0.9828
2.5600 2.8704 -1.9953 0.9828
1.3932 3.5849 -1.9953 0.9828
1.0676 3.6950 -1.9953 0.9828
0.7330 3.7733 -1.9941 0.9828
0.0501 3.8407 -1.9927 0.9828
-0.6339 3.7895 -1.9932 0.9828
-0.9703 3.7196 -1.9942 0.9828
-2.2121 3.1464 -1.9953 0.9828
-2.9668 2.4476 -1.9953 0.9828
-0.9496 0.5324 -0.5648 0.9951
-0.9868 0.4426 -0.5611 0.9951
-1.0205 0.2527 -0.5454 0.9953
-1.0349 0.1600 -0.5433 0.9953
-1.0367 0.0664 -0.5389 0.9953
-1.0374 -0.1197 -0.5418 0.9953
-1.0282 -0.2130 -0.5447 0.9953
-1.0171 -0.3075 -0.5512 0.9952
-0.9661 -0.4937 -0.5628 0.9951
-0.9709 -0.6112 -0.5952 0.9948
-3.0589 -2.3315 -1.9953 0.9828
-2.8385 -2.5953 -1.9953 0.9828
-2.5955 -2.8384 -1.9953 0.9828
-1.7222 -2.7353 -1.6769 0.9855
-1.3901 -2.7197 -1.5846 0.9863
-0.8094 -2.6762 -1.4505 0.9875
-0.5508 -2.6583 -1.4083 0.9878
-0.0669 -2.6239 -1.3616 0.9882
2.4475 -2.9670 -1.9953 0.9828
2.9361 -2.4843 -1.9953 0.9828
3.3312 -1.9225 -1.9953 0.9828
3.4895 -1.6174 -1.9953 0.9828
3.6200 -1.2994 -1.9953 0.9828
3.7934 -0.6348 -1.9953 0.9828
3.8349 -0.2936 -1.9953 0.9828
3.8458 0.0500 -1.9953 0.9828
3.8260 0.3932 -1.9953 0.9828
3.6951 1.0674 -1.9953 0.9828
3.5850 1.3930 -1.9953 0.9828
3.4463 1.7076 -1.9953 0.9828
2.8706 2.5598 -1.9953 0.9828
2.3695 3.0296 -1.9953 0.9828
1.7929 3.4027 -1.9953 0.9828
1.4819 3.5492 -1.9953 0.9828
1.1591 3.6673 -1.9953 0.9828
0.8267 3.7546 -1.9945 0.9828
0.1456 3.8384 -1.9927 0.9828
-0.8773 3.7420 -1.9939 0.9828
-1.5300 3.5288 -1.9953 0.9828
-2.4104 2.9971 -1.9953 0.9828
-2.6684 2.7700 -1.9953 0.9828
-2.9050 2.5207 -1.9953 0.9828
-3.1185 2.2512 -1.9953 0.9828
-0.9601 0.5701 -0.5793 0.9950
-1.0193 0.2795 -0.5483 0.9952
-1.0319 0.1859 -0.5439 0.9953
-2.6548 2.4948 -1.9953 0.9835
-2.8669 2.2478 -1.9953 0.9835
-0.8695 0.5641 -0.5677 0.9953
-0.9047 0.3790 -0.5372 0.9955
-0.9452 0.0370 -0.5181 0.9957
-0.9460 -0.0476 -0.5188 0.9957
-0.9456 -0.1330 -0.5230 0.9957
-0.9327 -0.2175 -0.5246 0.9956
-0.8789 -0.4771 -0.5477 0.9954
-1.6279 -2.7340 -1.7428 0.9856
-1.3048 -2.7176 -1.6511 0.9863
-0.4826 -2.6607 -1.4811 0.9877
-0.2373 -2.6290 -1.4458 0.9880
0.4908 -2.7252 -1.5166 0.9875
1.5728 -3.2860 -1.9953 0.9835
2.6235 -2.5276 -1.9953 0.9835
3.3423 -1.4493 -1.9953 0.9835
1.8709 -0.6195 -1.0794 0.9911
1.8885 -0.2679 -1.0447 0.9913
1.8818 0.0713 -1.0314 0.9914
1.8888 0.2417 -1.0429 0.9914
1.8864 0.4152 -1.0579 0.9912
3.2231 1.6981 -1.9953 0.9835
3.0586 1.9790 -1.9953 0.9835
2.8697 2.2442 -1.9953 0.9835
2.6579 2.4915 -1.9953 0.9835
1.6176 3.2642 -1.9953 0.9835
0.0475 3.6427 -1.9953 0.9835
-0.6011 3.5931 -1.9953 0.9835
-0.9195 3.5251 -1.9953 0.9835
-1.8208 3.1554 -1.9953 0.9835
-2.3530 2.7812 -1.9953 0.9835
-2.8101 2.3184 -1.9953 0.9835
-0.9164 0.3161 -0.5309 0.9956
-0.9296 0.2302 -0.5245 0.9956
-0.9468 0.0606 -0.5196 0.9957
-0.9470 -0.1092 -0.5221 0.9957
-0.9376 -0.1942 -0.5244 0.9956
-0.9073 -0.3656 -0.5358 0.9955
-0.8655 -0.5449 -0.5602 0.9953
-2.2086 -2.8973 -1.9953 0.9835
-1.0883 -2.7005 -1.5947 0.9868
-0.8117 -2.6836 -1.5356 0.9873
-0.5522 -2.6654 -1.4909 0.9877
-0.0669 -2.6239 -1.4376 0.9881
0.1675 -2.6168 -1.4362 0.9881
0.4173 -2.7004 -1.4966 0.9876
0.8756 -3.5363 -1.9953 0.9835
1.1878 -3.4440 -1.9953 0.9835
1.4906 -3.3241 -1.9953 0.9835
1.7814 -3.1778 -1.9953 0.9835
2.3182 -2.8103 -1.9953 0.9835
2.7811 -2.3531 -1.9953 0.9835
2.9801 -2.0954 -1.9953 0.9835
3.1553 -1.8210 -1.9953 0.9835
3.3053 -1.5320 -1.9953 0.9835
3.4288 -1.2308 -1.9953 0.9835
1.8865 -0.3157 -1.0476 0.9913
1.8757 0.0244 -1.0274 0.9915
1.8891 0.1941 -1.0401 0.9914
3.3957 1.3195 -1.9953 0.9835
3.1069 1.9024 -1.9953 0.9835
2.9246 2.1722 -1.9953 0.9835
2.4916 2.6577 -1.9953 0.9835
2.2444 2.8696 -1.9953 0.9835
1.9792 3.0585 -1.9953 0.9835
1.6982 3.2230 -1.9953 0.9835
0.7834 3.5578 -1.9953 0.9835
-0.1875 3.6382 -1.9953 0.9835
-0.5116 3.6069 -1.9953 0.9835
-1.4492 3.3424 -1.9953 0.9835
-2.0205 3.0314 -1.9953 0.9835
-2.2831 2.8389 -1.9953 0.9835
-2.7516 2.3875 -1.9953 0.9835
-0.8934 0.4277 -0.5425 0.9955
-0.9117 0.3401 -0.5330 0.9956
-0.9247 0.2536 -0.5252 0.9956
-0.9416 0.1696 -0.5240 0.9956
-0.9474 0.0844 -0.5209 0.9957
-1.5307 3.0985 -1.9953 0.9842
-1.8012 2.9495 -1.9953 0.9842
-2.2971 2.5821 -1.9953 0.9842
-0.7981 0.5178 -0.5493 0.9956
-0.8287 0.4379 -0.5411 0.9957
-0.8640 0.2742 -0.5233 0.9958
-0.8749 0.1937 -0.5174 0.9959
-0.8813 -0.1239 -0.5138 0.9959
